# .PCD v0.7 - Point Cloud Data file format
VERSION 0.7
FIELDS x y z intensity
SIZE 4 4 4 4
TYPE F F F F
COUNT 1 1 1 1
WIDTH 1323
HEIGHT 1
VIEWPOINT 0 0 0 1 0 0 0
POINTS 1323
DATA ascii
6.3030005 1.7534918 1.1280558 0
6.3030005 1.7428439 1.1280558 0
6.3050003 1.7327983 1.1283011 0
6.3070002 1.7227458 1.1285465 0
6.3100004 1.7129836 1.1289145 0
6.3140006 1.7035064 1.1294051 0
6.3190002 1.6943086 1.1300184 0
6.3000002 1.7738621 1.1170454 0
6.2980003 1.7626064 1.1168036 0
6.2970004 1.7516627 1.1166829 0
6.2970004 1.7410256 1.1166829 0
6.2980003 1.7306898 1.1168036 0
6.3000002 1.7206497 1.1170454 0
6.3030005 1.7109002 1.117408 0
6.3070002 1.7014354 1.1178914 0
6.3120003 1.6922506 1.1184957 0
6.3180003 1.6833398 1.1192207 0
6.3260002 1.6749882 1.1201876 0
6.2970004 1.7835739 1.1060458 0
6.2940001 1.7720114 1.1056886 0
6.2920003 1.7607664 1.1054505 0
6.2910004 1.7498336 1.1053315 0
6.2910004 1.7392074 1.1053315 0
6.2930002 1.7291836 1.1055696 0
6.2950006 1.7191527 1.1058077 0
6.2980003 1.7094121 1.1061648 0
6.3020005 1.6999565 1.1066411 0
6.3070002 1.6907804 1.1072363 0
6.3130002 1.6818787 1.1079506 0
6.3200002 1.6732455 1.108784 0
6.3290005 1.6651647 1.1098554 0
6.2930002 1.7823328 1.0949397 0
6.2900004 1.7707776 1.094588 0
6.2880006 1.75954 1.0943536 0
6.2880006 1.7489191 1.0943536 0
6.2880006 1.7382983 1.0943536 0
6.2890005 1.7279787 1.0944707 0
6.2910004 1.7179549 1.0947052 0
6.2940001 1.7082214 1.095057 0
6.2980003 1.6987731 1.095526 0
6.3030005 1.6896045 1.0961123 0
6.3090005 1.6807098 1.0968157 0
6.3150005 1.6717937 1.0975192 0
6.3240004 1.6637216 1.0985744 0
6.3330002 1.655617 1.0996296 0
6.2930002 1.7929626 1.0843099 0
6.2890005 1.7810918 1.0838481 0
6.2860003 1.7695438 1.0835018 0
6.2850003 1.7586199 1.0833863 0
6.2840004 1.7476997 1.0832709 0
6.2850003 1.7373891 1.0833863 0
6.2860003 1.727075 1.0835018 0
6.2890005 1.7173561 1.0838481 0
6.2920003 1.7076263 1.0841944 0
6.2960005 1.6981816 1.0846562 0
6.3000002 1.6887224 1.0851179 0
6.3060002 1.6798332 1.0858107 0
6.3120003 1.6709224 1.0865033 0
6.3200002 1.6625671 1.0874269 0
6.3290005 1.6544698 1.0884659 0
6.2920003 1.7926506 1.0735664 0
6.2880006 1.7807816 1.0731119 0
6.2850003 1.7692353 1.072771 0
6.2840004 1.7583133 1.0726573 0
6.2830005 1.7473948 1.0725436 0
6.2840004 1.7370861 1.0726573 0
6.2850003 1.7267737 1.072771 0
6.2870002 1.7167571 1.0729982 0
6.2900004 1.707031 1.0733391 0
6.2940001 1.6975899 1.0737936 0
6.2980003 1.6881343 1.0742482 0
6.3040004 1.6792488 1.0749301 0
6.3100004 1.6703416 1.0756119 0
6.3180003 1.6619898 1.076521 0
6.3270001 1.6538962 1.0775437 0
6.3370004 1.6460551 1.0786802 0
6.2960005 1.8045341 1.0633857 0
6.2900004 1.7920264 1.0627147 0
6.2870002 1.7804712 1.0623792 0
6.2840004 1.768927 1.0620437 0
6.2830005 1.7580067 1.0619318 0
6.2820005 1.7470901 1.06182 0
6.2830005 1.736783 1.0619318 0
6.2840004 1.7264725 1.0620437 0
6.2860003 1.7164577 1.0622673 0
6.2890005 1.7067335 1.0626029 0
6.2930002 1.697294 1.0630502 0
6.2980003 1.6881343 1.0636094 0
6.3030005 1.6789566 1.0641686 0
6.3090005 1.6700512 1.0648396 0
6.3170004 1.6617013 1.0657343 0
6.3260002 1.6536094 1.0667408 0
6.3360004 1.6457701 1.0678592 0
6.2960005 1.8045341 1.0527505 0
6.2910004 1.7923386 1.0522003 0
6.2870002 1.7804712 1.0517601 0
6.2850003 1.7692353 1.0515401 0
6.2830005 1.7580067 1.0513201 0
6.2830005 1.7473948 1.0513201 0
6.2830005 1.736783 1.0513201 0
6.2850003 1.7267737 1.0515401 0
6.2870002 1.7167571 1.0517601 0
6.2890005 1.7067335 1.0519803 0
6.2930002 1.697294 1.0524204 0
6.2980003 1.6881343 1.0529705 0
6.3030005 1.6789566 1.0535207 0
6.3090005 1.6700512 1.054181 0
6.3170004 1.6617013 1.0550611 0
6.3250003 1.6533226 1.0559415 0
6.3350005 1.645485 1.0570418 0
6.2980003 1.8051618 1.0423317 0
6.2920003 1.7926506 1.0416824 0
6.2880006 1.7807816 1.0412494 0
6.2860003 1.7695438 1.0410329 0
6.2840004 1.7583133 1.0408164 0
6.2840004 1.7476997 1.0408164 0
6.2840004 1.7370861 1.0408164 0
6.2850003 1.7267737 1.0409247 0
6.2870002 1.7167571 1.0411412 0
6.2900004 1.707031 1.0414659 0
6.2940001 1.6975899 1.0418987 0
6.2980003 1.6881343 1.0423317 0
6.3040004 1.6792488 1.042981 0
6.3100004 1.6703416 1.0436304 0
6.3180003 1.6619898 1.0444963 0
6.3260002 1.6536094 1.045362 0
6.3360004 1.6457701 1.0464444 0
6.3000002 1.8057894 1.0319057 0
6.2940001 1.7932746 1.031267 0
6.2900004 1.7814021 1.0308414 0
6.2880006 1.7701608 1.0306286 0
6.2860003 1.7589266 1.0304158 0
6.2860003 1.7483093 1.0304158 0
6.2860003 1.7376921 1.0304158 0
6.2880006 1.7276775 1.0306286 0
6.2900004 1.7176554 1.0308414 0
6.2920003 1.7076263 1.0310543 0
6.2960005 1.6981816 1.03148 0
6.3010006 1.6890165 1.0320121 0
6.3060002 1.6798332 1.0325443 0
6.3120003 1.6709224 1.0331827 0
6.3200002 1.6625671 1.0340341 0
6.3280005 1.654183 1.0348855 0
6.3380003 1.6463401 1.0359498 0
6.2980003 1.794523 1.0210539 0
6.2940001 1.782643 1.0206354 0
6.2910004 1.771086 1.0203216 0
6.2890005 1.7598466 1.0201124 0
6.2890005 1.7492239 1.0201124 0
6.2890005 1.7386013 1.0201124 0
6.2900004 1.7282799 1.0202169 0
6.2920003 1.7182543 1.0204263 0
6.2950006 1.7085192 1.0207402 0
6.2990003 1.699069 1.0211586 0
6.3030005 1.6896045 1.0215771 0
6.3090005 1.6807098 1.0222048 0
6.3150005 1.6717937 1.0228325 0
6.3220005 1.6631445 1.0235648 0
6.3310003 1.6550435 1.0245064 0
6.3410006 1.6471952 1.0255526 0
6.3020005 1.7957712 1.0108263 0
6.2980003 1.783884 1.0104151 0
6.2950006 1.7723199 1.0101067 0
6.2930002 1.761073 1.0099009 0
6.2930002 1.7504432 1.0099009 0
6.2930002 1.7398134 1.0099009 0
6.2940001 1.7294848 1.0100038 0
6.2960005 1.7194521 1.0102094 0
6.2990003 1.7097096 1.010518 0
6.3020005 1.6999565 1.0108263 0
6.3070002 1.6907804 1.0113404 0
6.3120003 1.6815865 1.0118545 0
6.3190002 1.6729553 1.0125742 0
6.3260002 1.6642988 1.013294 0
6.3350005 1.6561906 1.0142193 0
6.3450003 1.648335 1.0152475 0
6.3040004 1.7857456 1.0003823 0
6.3010006 1.7741706 1.0000793 0
6.2990003 1.762913 0.99987721 0
6.2980003 1.7519674 0.99977624 0
6.2980003 1.7413286 0.99977624 0
6.2990003 1.730991 0.99987721 0
6.3000002 1.7206497 0.99997818 0
6.3030005 1.7109002 1.0002813 0
6.3070002 1.7014354 1.0006853 0
6.3120003 1.6922506 1.0011904 0
6.3170004 1.6830477 1.0016955 0
6.3240004 1.6744074 1.0024025 0
6.3310003 1.6657418 1.0031097 0
6.3410006 1.6579115 1.0041198 0
6.3110003 1.7879174 0.99042714 0
6.3070002 1.7760211 0.99003029 0
6.3050003 1.7647529 0.98983181 0
6.3040004 1.7537966 0.98973262 0
6.3040004 1.7431469 0.98973262 0
6.3050003 1.7327983 0.98983181 0
6.3070002 1.7227458 0.99003029 0
6.3090005 1.7126859 0.99022865 0
6.3130002 1.7032105 0.9906255 0
6.3180003 1.6940147 0.99112153 0
6.3230004 1.684801 0.99161756 0
6.3300004 1.6761498 0.99231207 0
6.3380003 1.667762 0.99310577 0
6.3160005 1.7787974 0.98025179 0
6.3130002 1.7672061 0.97995961 0
6.3120003 1.7562354 0.97986221 0
6.3110003 1.7452681 0.9797647 0
6.3120003 1.734907 0.97986221 0
6.3130002 1.7245424 0.97995961 0
6.3160005 1.7147694 0.98025179 0
6.3200002 1.7052813 0.98064137 0
6.3250003 1.6960728 0.98112845 0
6.3310003 1.6871386 0.98171294 0
6.3380003 1.6784731 0.9823947 0
6.3210006 1.758979 0.97005844 0
6.3200002 1.7479954 0.96996284 0
6.3210006 1.7376182 0.97005844 0
6.3220005 1.7272373 0.97015417 0
6.3250003 1.717448 0.97044086 0
6.3290005 1.7079438 0.97082329 0
6.3340006 1.6987191 0.97130132 0
6.3400002 1.6897686 0.97187495 0
6.3310003 1.7513289 0.96031618 0
6.3310003 1.7406306 0.96031618 0
6.3330002 1.730531 0.9605037 0
6.3360004 1.720722 0.96078515 0
6.3400002 1.7111979 0.9611603 0
6.3440003 1.7016593 0.96153545 0
6.3510003 1.6929829 0.96219206 0
6.3050003 1.7541013 0.94722581 0
6.3230004 1.7489047 0.94888175 0
6.3490005 1.7245911 0.95127368 0
6.3540006 1.7153394 0.95173359 0
6.3050003 1.7434499 0.93657434 0
6.3220005 1.7379194 0.93810761 0
6.3390002 1.7323276 0.93964088 0
6.2430005 1.7878994 0.92044294 0
6.2450004 1.7779838 0.92061973 0
6.2500005 1.7689918 0.92106164 0
6.2560005 1.7602904 0.921592 0
6.3290005 1.7293333 0.9280442 0
6.3450003 1.7234006 0.92945838 0
6.2430005 1.8089787 0.90990329 0
6.2410002 1.7978076 0.90973008 0
6.2410002 1.7872715 0.90973008 0
6.2440004 1.7776718 0.90998983 0
6.2480001 1.7683712 0.91033614 0
6.2550006 1.7599819 0.91094232 0
6.2640004 1.7521803 0.91172159 0
6.2430005 1.8089787 0.89936364 0
6.2410002 1.7978076 0.89919406 0
6.2410002 1.7872715 0.89919406 0
6.2440004 1.7776718 0.89944845 0
6.2480001 1.7683712 0.89978749 0
6.2550006 1.7599819 0.90038097 0
6.2640004 1.7521803 0.90114397 0
6.2770004 1.7455658 0.90224612 0
6.2480001 1.8211148 0.88923883 0
6.2430005 1.8089787 0.88882399 0
6.2410002 1.7978076 0.88865805 0
6.2410002 1.7872715 0.88865805 0
6.2440004 1.7776718 0.88890696 0
6.2480001 1.7683712 0.88923883 0
6.2550006 1.7599819 0.88981968 0
6.2640004 1.7521803 0.89056647 0
6.2770004 1.7455658 0.89164513 0
6.2490005 1.821434 0.87877136 0
6.2430005 1.8089787 0.87828434 0
6.2410002 1.7978076 0.87812197 0
6.2410002 1.7872715 0.87812197 0
6.2440004 1.7776718 0.87836552 0
6.2480001 1.7683712 0.87869018 0
6.2550006 1.7599819 0.87925839 0
6.2640004 1.7521803 0.87998891 0
6.2770004 1.7455658 0.88104415 0
6.2530003 1.8332686 0.86853838 0
6.2490005 1.821434 0.86822093 0
6.2430005 1.8089787 0.86774468 0
6.2410002 1.7978076 0.8675859 0
6.2410002 1.7872715 0.8675859 0
6.2440004 1.7776718 0.86782408 0
6.2480001 1.7683712 0.86814153 0
6.2550006 1.7599819 0.86869711 0
6.2640004 1.7521803 0.86941141 0
6.2770004 1.7455658 0.87044317 0
6.2530003 1.8332686 0.85798061 0
6.2490005 1.821434 0.85767043 0
6.2430005 1.8089787 0.85720503 0
6.2410002 1.7978076 0.85704988 0
6.2410002 1.7872715 0.85704988 0
6.2440004 1.7776718 0.85728258 0
6.2480001 1.7683712 0.85759282 0
6.2550006 1.7599819 0.85813582 0
6.2640004 1.7521803 0.85883385 0
6.2770004 1.7455658 0.85984218 0
6.2550006 1.8339109 0.84757447 0
6.2490005 1.821434 0.84711993 0
6.2430005 1.8089787 0.84666538 0
6.2410002 1.7978076 0.84651387 0
6.2410002 1.7872715 0.84651387 0
6.2440004 1.7776718 0.84674114 0
6.2480001 1.7683712 0.84704411 0
6.2550006 1.7599819 0.84757447 0
6.2640004 1.7521803 0.84825635 0
6.2770004 1.7455658 0.84924126 0
6.2580004 1.8454409 0.83723509 0
6.2560005 1.834232 0.83708715 0
6.2490005 1.821434 0.83656949 0
6.2430005 1.8089787 0.83612573 0
6.2410002 1.7978076 0.83597779 0
6.2410002 1.7872715 0.83597779 0
6.2440004 1.7776718 0.8361997 0
6.2480001 1.7683712 0.83649552 0
6.2550006 1.7599819 0.83701324 0
6.2640004 1.7521803 0.83767879 0
6.2770004 1.7455658 0.83864021 0
6.2590003 1.8457636 0.8267405 0
6.2580004 1.834874 0.82666838 0
6.2490005 1.821434 0.82601905 0
6.2430005 1.8089787 0.82558608 0
6.2410002 1.7978076 0.82544172 0
6.2410002 1.7872715 0.82544172 0
6.2440004 1.7776718 0.8256582 0
6.2480001 1.7683712 0.82594681 0
6.2550006 1.7599819 0.8264519 0
6.2640004 1.7521803 0.82710129 0
6.2770004 1.7455658 0.82803929 0
6.2610002 1.8464094 0.81631267 0
6.2600002 1.8355163 0.81624234 0
6.2490005 1.821434 0.81546855 0
6.2430005 1.8089787 0.81504643 0
6.2410002 1.7978076 0.8149057 0
6.2410002 1.7872715 0.8149057 0
6.2440004 1.7776718 0.81511676 0
6.2480001 1.7683712 0.81539816 0
6.2550006 1.7599819 0.81589061 0
6.2640004 1.7521803 0.81652379 0
6.2770004 1.7455658 0.81743824 0
6.1660004 1.628522 0.80962956 0
6.1810002 1.6224505 0.8106848 0
6.2640004 1.8579556 0.80594623 0
6.2620006 1.8467325 0.80580914 0
6.2630005 1.8364794 0.80587769 0
6.2490005 1.821434 0.80491805 0
6.2430005 1.8089787 0.80450678 0
6.2410002 1.7978076 0.80436969 0
6.2410002 1.7872715 0.80436969 0
6.2440004 1.7776718 0.80457532 0
6.2480001 1.7683712 0.80484951 0
6.2550006 1.7599819 0.80532932 0
6.2640004 1.7521803 0.80594623 0
6.2770004 1.7455658 0.80683732 0
6.1510005 1.6345396 0.79820067 0
6.1660004 1.628522 0.79922885 0
6.1810002 1.6224505 0.80025697 0
6.1960006 1.6163248 0.80128515 0
6.2680006 1.8698391 0.79563564 0
6.2650003 1.8582804 0.79543543 0
6.2650003 1.8477011 0.79543543 0
6.2660003 1.8374428 0.79550219 0
6.2490005 1.821434 0.79436755 0
6.2430005 1.8089787 0.79396713 0
6.2410002 1.7978076 0.79383361 0
6.2410002 1.7872715 0.79383361 0
6.2440004 1.7776718 0.79403389 0
6.2480001 1.7683712 0.79430079 0
6.2550006 1.7599819 0.79476804 0
6.2640004 1.7521803 0.79536867 0
6.2770004 1.7455658 0.79623628 0
6.1500006 1.6446193 0.78776026 0
6.1510005 1.6345396 0.78782701 0
6.1660004 1.628522 0.78882807 0
6.1810002 1.6224505 0.78982913 0
6.1960006 1.6163248 0.79083025 0
6.2680006 1.8698391 0.78505087 0
6.2670002 1.8589298 0.78498596 0
6.2670002 1.8483467 0.78498596 0
6.2670002 1.8377638 0.78498596 0
6.2490005 1.821434 0.78381705 0
6.2430005 1.8089787 0.78342748 0
6.2410002 1.7978076 0.78329754 0
6.2410002 1.7872715 0.78329754 0
6.2440004 1.7776718 0.78349245 0
6.2480001 1.7683712 0.78375214 0
6.2550006 1.7599819 0.78420675 0
6.2640004 1.7521803 0.78479111 0
6.2770004 1.7455658 0.78563535 0
6.1500006 1.6446193 0.77738833 0
6.1510005 1.6345396 0.77745324 0
6.1660004 1.628522 0.7784273 0
6.1810002 1.6224505 0.7794013 0
6.1960006 1.6163248 0.78037548 0
6.2720003 1.881737 0.77471864 0
6.2700005 1.8704922 0.7745924 0
6.2690005 1.8595791 0.77452928 0
6.2710004 1.8496383 0.77465558 0
6.2670002 1.8377638 0.77440298 0
6.2490005 1.821434 0.77326661 0
6.2430005 1.8089787 0.77288783 0
6.2410002 1.7978076 0.77276152 0
6.2410002 1.7872715 0.77276152 0
6.2440004 1.7776718 0.77295095 0
6.2480001 1.7683712 0.77320349 0
6.2550006 1.7599819 0.7736454 0
6.2640004 1.7521803 0.77421361 0
6.2770004 1.7455658 0.77503431 0
6.1500006 1.6446193 0.76701641 0
6.1510005 1.6345396 0.76707959 0
6.1660004 1.628522 0.76802659 0
6.1810002 1.6224505 0.76897359 0
6.1960006 1.6163248 0.76992059 0
6.2730002 1.8820653 0.76418805 0
6.2710004 1.8708185 0.76406538 0
6.2720003 1.8605533 0.76412672 0
6.2740002 1.8506069 0.76424932 0
6.2670002 1.8377638 0.76382005 0
6.2490005 1.821434 0.76271617 0
6.2430005 1.8089787 0.76234818 0
6.2410002 1.7978076 0.76222551 0
6.2410002 1.7872715 0.76222551 0
6.2440004 1.7776718 0.76240951 0
6.2480001 1.7683712 0.76265478 0
6.2550006 1.7599819 0.76308417 0
6.2640004 1.7521803 0.76363611 0
6.2770004 1.7455658 0.76443338 0
6.1500006 1.6446193 0.75664455 0
6.1510005 1.6345396 0.75670588 0
6.1660004 1.628522 0.75762582 0
6.1810002 1.6224505 0.75854576 0
6.1960006 1.6163248 0.75946569 0
6.2770004 1.8939795 0.7538324 0
6.2740002 1.8823936 0.75365376 0
6.2740002 1.8717979 0.75365376 0
6.2750006 1.8615273 0.75371337 0
6.2780004 1.8518983 0.75389194 0
6.2670002 1.8377638 0.75323713 0
6.2490005 1.821434 0.75216568 0
6.2430005 1.8089787 0.75180852 0
6.2410002 1.7978076 0.75168943 0
6.2410002 1.7872715 0.75168943 0
6.2440004 1.7776718 0.75186801 0
6.2480001 1.7683712 0.75210613 0
6.2550006 1.7599819 0.75252283 0
6.2640004 1.7521803 0.75305855 0
6.2770004 1.7455658 0.7538324 0
6.1500006 1.6446193 0.74627262 0
6.1510005 1.6345396 0.74633217 0
6.1660004 1.628522 0.74722505 0
6.1810002 1.6224505 0.74811792 0
6.1960006 1.6163248 0.7490108 0
6.2780004 1.8943096 0.74328911 0
6.2760005 1.8830504 0.74317372 0
6.2760005 1.8724511 0.74317372 0
6.2780004 1.8625013 0.74328911 0
6.2820005 1.8531899 0.74352002 0
6.2670002 1.8377638 0.7426542 0
6.2490005 1.821434 0.74161518 0
6.2430005 1.8089787 0.74126887 0
6.2410002 1.7978076 0.74115342 0
6.2410002 1.7872715 0.74115342 0
6.2440004 1.7776718 0.74132657 0
6.2480001 1.7683712 0.74155748 0
6.2550006 1.7599819 0.74196154 0
6.2640004 1.7521803 0.74248099 0
6.2770004 1.7455658 0.74323142 0
6.1500006 1.6446193 0.73590076 0
6.1510005 1.6345396 0.73595846 0
6.1660004 1.628522 0.73682427 0
6.1810002 1.6224505 0.73769009 0
6.1960006 1.6163248 0.73855591 0
6.2820005 1.9062401 0.73291004 0
6.2790003 1.8946397 0.73274225 0
6.2780004 1.8837068 0.73268634 0
6.2790003 1.8734305 0.73274225 0
6.2820005 1.8638002 0.73291004 0
6.2860003 1.8544815 0.73313367 0
6.2670002 1.8377638 0.73207122 0
6.2490005 1.821434 0.73106474 0
6.2430005 1.8089787 0.73072922 0
6.2410002 1.7978076 0.73061734 0
6.2410002 1.7872715 0.73061734 0
6.2440004 1.7776718 0.73078513 0
6.2480001 1.7683712 0.73100877 0
6.2550006 1.7599819 0.73140025 0
6.2640004 1.7521803 0.73190349 0
6.2770004 1.7455658 0.73263043 0
6.1500006 1.6446193 0.72552884 0
6.1510005 1.6345396 0.72558475 0
6.1660004 1.628522 0.7264235 0
6.1810002 1.6224505 0.72726226 0
6.1960006 1.6163248 0.72810107 0
6.2820005 1.9062401 0.72230005 0
6.2810001 1.8952999 0.72224593 0
6.2810001 1.8846917 0.72224593 0
6.2820005 1.87441 0.72230005 0
6.2860003 1.8650986 0.72251642 0
6.2490005 1.821434 0.7205143 0
6.2430005 1.8089787 0.72018957 0
6.2410002 1.7978076 0.72008133 0
6.2410002 1.7872715 0.72008133 0
6.2440004 1.7776718 0.72024369 0
6.2480001 1.7683712 0.72046012 0
6.2550006 1.7599819 0.7208389 0
6.2640004 1.7521803 0.72132599 0
6.2770004 1.7455658 0.72202945 0
6.1500006 1.6446193 0.71515691 0
6.1510005 1.6345396 0.71521103 0
6.1660004 1.628522 0.71602273 0
6.1810002 1.6224505 0.71683449 0
6.1960006 1.6163248 0.71764624 0
6.2870002 1.9185184 0.71195155 0
6.2840004 1.9069037 0.71179461 0
6.2830005 1.8959602 0.71174234 0
6.2830005 1.8853483 0.71174234 0
6.2860003 1.875716 0.71189928 0
6.2900004 1.8663975 0.71210849 0
6.2490005 1.821434 0.7099638 0
6.2430005 1.8089787 0.70964992 0
6.2410002 1.7978076 0.70954525 0
6.2410002 1.7872715 0.70954525 0
6.2440004 1.7776718 0.70970225 0
6.2480001 1.7683712 0.70991147 0
6.2550006 1.7599819 0.71027768 0
6.2640004 1.7521803 0.71074843 0
6.2770004 1.7455658 0.71142846 0
6.1500006 1.6446193 0.70478505 0
6.1510005 1.6345396 0.70483732 0
6.1660004 1.628522 0.70562196 0
6.1810002 1.6224505 0.70640665 0
6.1960006 1.6163248 0.70719135 0
6.2920003 1.930815 0.70158505 0
6.2870002 1.9185184 0.70133257 0
6.2850003 1.9072357 0.70123148 0
6.2850003 1.8966204 0.70123148 0
6.2870002 1.8866613 0.70133257 0
6.2900004 1.877022 0.70148408 0
6.2950006 1.868021 0.70173657 0
6.2430005 1.8089787 0.69911027 0
6.2410002 1.7978076 0.69900924 0
6.2410002 1.7872715 0.69900924 0
6.2440004 1.7776718 0.69916075 0
6.2480001 1.7683712 0.69936275 0
6.2550006 1.7599819 0.69971633 0
6.2640004 1.7521803 0.70017087 0
6.2770004 1.7455658 0.70082748 0
6.1500006 1.6446193 0.69441319 0
6.1510005 1.6345396 0.69446367 0
6.1660004 1.628522 0.69522125 0
6.1810002 1.6224505 0.69597888 0
6.1960006 1.6163248 0.69673645 0
6.2910004 1.9304796 0.69090831 0
6.2880006 1.9188522 0.69076228 0
6.2870002 1.9078994 0.69071352 0
6.2880006 1.8976108 0.69076228 0
6.2900004 1.8876464 0.69085968 0
6.2940001 1.8783277 0.69105446 0
6.2430005 1.8089787 0.68857062 0
6.2410002 1.7978076 0.68847322 0
6.2410002 1.7872715 0.68847322 0
6.2440004 1.7776718 0.68861932 0
6.2480001 1.7683712 0.6888141 0
6.2550006 1.7599819 0.68915504 0
6.2640004 1.7521803 0.68959332 0
6.2770004 1.7455658 0.69022655 0
6.1500006 1.6446193 0.68404126 0
6.1510005 1.6345396 0.68408996 0
6.1660004 1.628522 0.68482047 0
6.1810002 1.6224505 0.68555105 0
6.1960006 1.6163248 0.68628156 0
6.3010006 1.944479 0.68075109 0
6.2930002 1.9311506 0.68037593 0
6.2900004 1.9195195 0.68023521 0
6.2890005 1.9085633 0.6801883 0
6.2910004 1.8986009 0.68028212 0
6.2940001 1.8889594 0.68042278 0
6.2990003 1.8799602 0.68065727 0
6.2430005 1.8089787 0.67803097 0
6.2410002 1.7978076 0.67793715 0
6.2410002 1.7872715 0.67793715 0
6.2440004 1.7776718 0.67807788 0
6.2480001 1.7683712 0.67826545 0
6.2550006 1.7599819 0.67859375 0
6.2640004 1.7521803 0.67901582 0
6.2770004 1.7455658 0.67962551 0
6.1500006 1.6446193 0.67366934 0
6.1510005 1.6345396 0.67371625 0
6.1660004 1.628522 0.67441976 0
6.1810002 1.6224505 0.67512321 0
6.1960006 1.6163248 0.67582667 0
6.3020005 1.9554622 0.67015195 0
6.3070002 1.9465027 0.67037737 0
6.2970004 1.9324926 0.6699264 0
6.2940001 1.9208543 0.66979116 0
6.2930002 1.9098909 0.66974604 0
6.2950006 1.8999212 0.66983628 0
6.2990003 1.8906009 0.67001665 0
6.2430005 1.8089787 0.66749132 0
6.2410002 1.7978076 0.66740108 0
6.2410002 1.7872715 0.66740108 0
6.2440004 1.7776718 0.66753638 0
6.2480001 1.7683712 0.66771674 0
6.2550006 1.7599819 0.66803247 0
6.2640004 1.7521803 0.66843832 0
6.2770004 1.7455658 0.66902453 0
6.1500006 1.6446193 0.66329747 0
6.1510005 1.6345396 0.66334254 0
6.1660004 1.628522 0.66401899 0
6.1810002 1.6224505 0.66469538 0
6.1960006 1.6163248 0.66537184 0
6.3110003 1.9798391 0.65989548 0
6.3070002 1.9678128 0.65972233 0
6.3040004 1.9561405 0.65959245 0
6.3020005 1.9448162 0.65950584 0
6.3070002 1.9358476 0.65972233 0
6.3010006 1.9231904 0.65946257 0
6.2990003 1.9118823 0.65937597 0
6.2430005 1.8089787 0.65695167 0
6.2410002 1.7978076 0.65686506 0
6.2410002 1.7872715 0.65686506 0
6.2440004 1.7776718 0.65699494 0
6.2480001 1.7683712 0.65716809 0
6.2550006 1.7599819 0.65747118 0
6.2640004 1.7521803 0.65786076 0
6.2770004 1.7455658 0.65842354 0
6.1500006 1.6446193 0.65292555 0
6.1510005 1.6345396 0.65296888 0
6.1660004 1.628522 0.65361822 0
6.1810002 1.6224505 0.65426755 0
6.1960006 1.6163248 0.65491694 0
6.3160005 1.992224 0.64944059 0
6.3130002 1.9805243 0.64931613 0
6.3100004 1.9688358 0.64919168 0
6.3080006 1.9574971 0.64910871 0
6.3070002 1.9465027 0.64906722 0
6.3070002 1.9358476 0.64906722 0
6.3150005 1.9278622 0.6493991 0
6.2430005 1.8089787 0.64641201 0
6.2410002 1.7978076 0.64632905 0
6.2410002 1.7872715 0.64632905 0
6.2440004 1.7776718 0.6464535 0
6.2480001 1.7683712 0.64661944 0
6.2550006 1.7599819 0.64690983 0
6.2640004 1.7521803 0.64728326 0
6.2770004 1.7455658 0.64782256 0
6.1500006 1.6446193 0.64255369 0
6.1510005 1.6345396 0.64259517 0
6.1660004 1.628522 0.64321744 0
6.1810002 1.6224505 0.64383972 0
6.1960006 1.6163248 0.64446211 0
6.3220005 2.0049732 0.63900739 0
6.3180003 1.992913 0.6388486 0
6.3160005 1.9815526 0.63876927 0
6.3140006 1.9701996 0.63868994 0
6.3130002 1.9591925 0.63865018 0
6.3140006 1.9488641 0.63868994 0
6.3150005 1.9385318 0.63872957 0
6.2430005 1.8089787 0.63587236 0
6.2410002 1.7978076 0.63579297 0
6.2410002 1.7872715 0.63579297 0
6.2440004 1.7776718 0.63591206 0
6.2480001 1.7683712 0.63607079 0
6.2550006 1.7599819 0.63634855 0
6.2640004 1.7521803 0.6367057 0
6.2770004 1.7455658 0.63722157 0
6.1500006 1.6446193 0.63218176 0
6.1510005 1.6345396 0.63222146 0
6.1660004 1.628522 0.63281667 0
6.1810002 1.6224505 0.63341194 0
6.1960006 1.6163248 0.63400722 0
6.3310003 2.0294869 0.62866616 0
6.3270001 2.017396 0.62851459 0
6.3240004 2.005666 0.62840098 0
6.3220005 1.9942911 0.62832522 0
6.3200002 1.9829235 0.62824941 0
6.3200002 1.972245 0.62824941 0
6.3210006 1.9619055 0.62828732 0
6.2430005 1.8089787 0.62533271 0
6.2410002 1.7978076 0.6252569 0
6.2410002 1.7872715 0.6252569 0
6.2440004 1.7776718 0.62537056 0
6.2480001 1.7683712 0.62552208 0
6.2550006 1.7599819 0.62578726 0
6.2640004 1.7521803 0.6261282 0
6.2770004 1.7455658 0.62662065 0
6.1500006 1.6446193 0.62180984 0
6.1510005 1.6345396 0.62184775 0
6.1660004 1.628522 0.62241596 0
6.1810002 1.6224505 0.62298411 0
6.1960006 1.6163248 0.62355232 0
6.3410006 2.0544193 0.61832851 0
6.3360004 2.041944 0.61814815 0
6.3320003 2.0298369 0.61800385 0
6.3300004 2.0184405 0.61793166 0
6.3280005 2.0070512 0.61785954 0
6.3270001 1.9960136 0.61782342 0
6.3270001 1.9853225 0.61782342 0
6.3280005 1.9749725 0.61785954 0
6.2430005 1.8089787 0.61479306 0
6.2410002 1.7978076 0.61472088 0
6.2410002 1.7872715 0.61472088 0
6.2440004 1.7776718 0.61482912 0
6.2480001 1.7683712 0.61497343 0
6.2550006 1.7599819 0.61522597 0
6.2640004 1.7521803 0.61555064 0
6.2770004 1.7455658 0.61601961 0
6.1500006 1.6446193 0.61143798 0
6.1510005 1.6345396 0.61147404 0
6.1660004 1.628522 0.61201519 0
6.1810002 1.6224505 0.61255634 0
6.1960006 1.6163248 0.61309749 0
6.3540006 2.0912349 0.60805762 0
6.3520002 2.0797806 0.60798907 0
6.3460002 2.0669124 0.60778344 0
6.3420005 2.0547729 0.60764635 0
6.3380003 2.0426476 0.60750926 0
6.3360004 2.0312369 0.60744071 0
6.3340006 2.0198331 0.60737216 0
6.3340006 2.0091293 0.60737216 0
6.3340006 1.9984255 0.60737216 0
6.2430005 1.8089787 0.60425341 0
6.2410002 1.7978076 0.60418487 0
6.2410002 1.7872715 0.60418487 0
6.2440004 1.7776718 0.60428762 0
6.2480001 1.7683712 0.60442472 0
6.2550006 1.7599819 0.60466468 0
6.2640004 1.7521803 0.60497314 0
6.2770004 1.7455658 0.60541868 0
6.1500006 1.6446193 0.60106605 0
6.1510005 1.6345396 0.60110033 0
6.1660004 1.628522 0.60161442 0
6.1810002 1.6224505 0.60212851 0
6.1960006 1.6163248 0.6026426 0
6.3490005 2.1001711 0.59715539 0
6.3500004 2.0897992 0.59718788 0
6.3510003 2.0794237 0.59722036 0
6.3470006 2.0672679 0.59709048 0
6.3440003 2.0554798 0.59699309 0
6.3420005 2.0440545 0.59692812 0
6.3410006 2.0329864 0.59689569 0
6.3400002 2.0219219 0.59686315 0
6.3410006 2.0115538 0.59689569 0
6.2430005 1.8089787 0.59371376 0
6.2410002 1.7978076 0.59364879 0
6.2410002 1.7872715 0.59364879 0
6.2440004 1.7776718 0.59374619 0
6.2480001 1.7683712 0.59387606 0
6.2550006 1.7599819 0.59410334 0
6.2640004 1.7521803 0.59439558 0
6.2770004 1.7455658 0.59481764 0
6.1500006 1.6446193 0.59069419 0
6.1510005 1.6345396 0.59072661 0
6.1660004 1.628522 0.59121364 0
6.1810002 1.6224505 0.59170067 0
6.1960006 1.6163248 0.59218776 0
6.3470006 2.0994496 0.5863632 0
6.3470006 2.0887225 0.5863632 0
6.3490005 2.0787094 0.58642453 0
6.3500004 2.0683339 0.58645523 0
6.3480005 2.0568941 0.58639389 0
6.3470006 2.0458133 0.5863632 0
6.3470006 2.0350862 0.5863632 0
6.3480005 2.0247071 0.58639389 0
6.2430005 1.8089787 0.58317411 0
6.2410002 1.7978076 0.58311278 0
6.2410002 1.7872715 0.58311278 0
6.2440004 1.7776718 0.58320475 0
6.2480001 1.7683712 0.58332741 0
6.2550006 1.7599819 0.58354211 0
6.2640004 1.7521803 0.58381808 0
6.2770004 1.7455658 0.58421671 0
6.1500006 1.6446193 0.58032227 0
6.1510005 1.6345396 0.5803529 0
6.1660004 1.628522 0.58081293 0
6.1810002 1.6224505 0.58127284 0
6.1960006 1.6163248 0.58173287 0
6.3480005 2.1105394 0.57566482 0
6.3470006 2.0994496 0.57563597 0
6.3470006 2.0887225 0.57563597 0
6.3490005 2.0787094 0.57569373 0
6.3530002 2.0693996 0.57580912 0
6.3540006 2.0590155 0.57583803 0
6.3540006 2.0482757 0.57583803 0
6.3560004 2.0382357 0.57589573 0
6.3580003 2.0281882 0.57595342 0
6.2430005 1.8089787 0.57263446 0
6.2410002 1.7978076 0.5725767 0
6.2410002 1.7872715 0.5725767 0
6.2440004 1.7776718 0.57266331 0
6.2480001 1.7683712 0.5727787 0
6.2550006 1.7599819 0.57298076 0
6.2640004 1.7521803 0.57324052 0
6.2770004 1.7455658 0.57361573 0
6.1500006 1.6446193 0.56995034 0
6.1510005 1.6345396 0.56997925 0
6.1660004 1.628522 0.57041216 0
6.1810002 1.6224505 0.57084507 0
6.1960006 1.6163248 0.57127798 0
6.3500004 2.1112645 0.56498992 0
6.3480005 2.0998104 0.5649358 0
6.3480005 2.0890813 0.5649358 0
6.3500004 2.0790665 0.56498992 0
6.3540006 2.0697553 0.56509811 0
6.3590002 2.0607829 0.56523341 0
6.3630004 2.0514412 0.56534165 0
6.3660002 2.0417349 0.56542277 0
6.2430005 1.8089787 0.56209481 0
6.2410002 1.7978076 0.56204069 0
6.2410002 1.7872715 0.56204069 0
6.2440004 1.7776718 0.56212187 0
6.2480001 1.7683712 0.56223005 0
6.2550006 1.7599819 0.56241947 0
6.2640004 1.7521803 0.56266296 0
6.2770004 1.7455658 0.56301475 0
6.1500006 1.6446193 0.55957848 0
6.1510005 1.6345396 0.55960554 0
6.1660004 1.628522 0.56001139 0
6.1810002 1.6224505 0.56041723 0
6.1960006 1.6163248 0.56082308 0
6.3530002 2.1123519 0.55433297 0
6.3510003 2.1008925 0.55428249 0
6.3510003 2.090158 0.55428249 0
6.3530002 2.0801377 0.55433297 0
6.3570004 2.0708213 0.554434 0
6.3620005 2.0618439 0.5545603 0
6.3690004 2.0535517 0.55473703 0
6.2430005 1.8089787 0.55155516 0
6.2410002 1.7978076 0.55150461 0
6.2410002 1.7872715 0.55150461 0
6.2440004 1.7776718 0.55158037 0
6.2480001 1.7683712 0.5516814 0
6.2550006 1.7599819 0.55185819 0
6.2640004 1.7521803 0.55208546 0
6.2770004 1.7455658 0.55241376 0
6.1500006 1.6446193 0.54920661 0
6.1510005 1.6345396 0.54923183 0
6.1660004 1.628522 0.54961061 0
6.1810002 1.6224505 0.54998946 0
6.1960006 1.6163248 0.55036825 0
6.3570004 2.1030571 0.54368871 0
6.3570004 2.0923116 0.54368871 0
6.3580003 2.0819237 0.54371214 0
6.3620005 2.072598 0.54380596 0
6.3670006 2.0636115 0.54392326 0
6.3750005 2.0556622 0.54411083 0
6.2430005 1.8089787 0.54101551 0
6.2410002 1.7978076 0.5409686 0
6.2410002 1.7872715 0.5409686 0
6.2440004 1.7776718 0.54103893 0
6.2480001 1.7683712 0.54113275 0
6.2550006 1.7599819 0.5412969 0
6.2640004 1.7521803 0.5415079 0
6.2770004 1.7455658 0.54181278 0
6.1500006 1.6446193 0.53883469 0
6.1510005 1.6345396 0.53885812 0
6.1660004 1.628522 0.53920984 0
6.1810002 1.6224505 0.53956163 0
6.1960006 1.6163248 0.53991336 0
6.3660002 2.1063039 0.53313828 0
6.3650002 2.0951834 0.53311658 0
6.3660002 2.0847809 0.53313828 0
6.3700004 2.0754409 0.53322482 0
6.3750005 2.0664399 0.53333306 0
6.2430005 1.8089787 0.53047585 0
6.2410002 1.7978076 0.53043252 0
6.2410002 1.7872715 0.53043252 0
6.2440004 1.7776718 0.53049749 0
6.2480001 1.7683712 0.53058404 0
6.2550006 1.7599819 0.53073561 0
6.2640004 1.7521803 0.5309304 0
6.2770004 1.7455658 0.53121179 0
6.1500006 1.6446193 0.52846277 0
6.1510005 1.6345396 0.52848446 0
6.1660004 1.628522 0.52880913 0
6.1810002 1.6224505 0.5291338 0
6.1960006 1.6163248 0.52945846 0
6.3730001 2.087281 0.52251565 0
6.3680005 2.0747302 0.52241641 0
6.3630004 2.0621972 0.52231723 0
6.3580003 2.0496824 0.52221799 0
6.3530002 2.0371854 0.52211881 0
6.2430005 1.8089787 0.5199362 0
6.2410002 1.7978076 0.51989651 0
6.2410002 1.7872715 0.51989651 0
6.2440004 1.7776718 0.51995599 0
6.2480001 1.7683712 0.52003539 0
6.2550006 1.7599819 0.52017426 0
6.2640004 1.7521803 0.52035284 0
6.2770004 1.7455658 0.52061081 0
6.1500006 1.6446193 0.5180909 0
6.1510005 1.6345396 0.51811075 0
6.1660004 1.628522 0.51840836 0
6.1810002 1.6224505 0.51870596 0
6.1960006 1.6163248 0.51900363 0
6.3660002 2.0955424 0.51161522 0
6.3610005 2.0829952 0.51152503 0
6.3560004 2.0704658 0.51143485 0
6.3510003 2.0579545 0.51134467 0
6.3460002 2.0454614 0.51125443 0
6.2430005 1.8089787 0.50939655 0
6.2410002 1.7978076 0.50936043 0
6.2410002 1.7872715 0.50936043 0
6.2440004 1.7776718 0.50941455 0
6.2480001 1.7683712 0.50948673 0
6.2550006 1.7599819 0.50961298 0
6.2640004 1.7521803 0.50977534 0
6.2770004 1.7455658 0.51000983 0
6.1500006 1.6446193 0.50771898 0
6.1510005 1.6345396 0.50773704 0
6.1660004 1.628522 0.50800759 0
6.1810002 1.6224505 0.50827819 0
6.1960006 1.6163248 0.50854874 0
6.3590002 2.0930297 0.50074005 0
6.3540006 2.0804951 0.50065887 0
6.3490005 2.0679786 0.50057769 0
6.3440003 2.0554798 0.50049651 0
6.3390002 2.0429993 0.50041538 0
6.2950006 1.9318217 0.49970105 0
6.2900004 1.9195195 0.4996199 0
6.2850003 1.9072357 0.49953872 0
6.2430005 1.8089787 0.49885687 0
6.2410002 1.7978076 0.49882442 0
6.2410002 1.7872715 0.49882442 0
6.2440004 1.7776718 0.49887311 0
6.2480001 1.7683712 0.49893805 0
6.2550006 1.7599819 0.49905169 0
6.2640004 1.7521803 0.49919778 0
6.2770004 1.7455658 0.49940884 0
6.1500006 1.6446193 0.49734709 0
6.1510005 1.6345396 0.49736333 0
6.1660004 1.628522 0.49760684 0
6.1810002 1.6224505 0.49785036 0
6.1960006 1.6163248 0.49809387 0
6.3560004 2.0919528 0.48994786 0
6.3510003 2.0794237 0.48987573 0
6.3460002 2.0669124 0.48980355 0
6.3410006 2.0544193 0.48973143 0
6.3360004 2.041944 0.48965925 0
6.3070002 1.9678128 0.48924077 0
6.3020005 1.9554622 0.48916864 0
6.2970004 1.9431297 0.48909646 0
6.2920003 1.930815 0.48902431 0
6.2870002 1.9185184 0.48895216 0
6.2820005 1.9062401 0.48888001 0
6.2770004 1.8939795 0.48880786 0
6.2880006 1.8763689 0.48896658 0
6.2430005 1.8089787 0.48831722 0
6.2410002 1.7978076 0.48828837 0
6.2410002 1.7872715 0.48828837 0
6.2440004 1.7776718 0.48833168 0
6.2480001 1.7683712 0.48838937 0
6.2550006 1.7599819 0.4884904 0
6.2640004 1.7521803 0.48862028 0
6.2770004 1.7455658 0.48880786 0
6.1500006 1.6446193 0.48697519 0
6.1510005 1.6345396 0.48698962 0
6.1660004 1.628522 0.48720607 0
6.1810002 1.6224505 0.48742253 0
6.1960006 1.6163248 0.48763901 0
6.3560004 2.0919528 0.47920439 0
6.3510003 2.0794237 0.47914124 0
6.3460002 2.0669124 0.47907811 0
6.3410006 2.0544193 0.47901499 0
6.3360004 2.041944 0.47895187 0
6.3220005 2.0049732 0.47877508 0
6.3170004 1.9925685 0.47871196 0
6.3120003 1.9801817 0.47864881 0
6.3070002 1.9678128 0.47858566 0
6.3020005 1.9554622 0.47852254 0
6.2970004 1.9431297 0.47845942 0
6.2920003 1.930815 0.4783963 0
6.2870002 1.9185184 0.47833315 0
6.2820005 1.9062401 0.47827002 0
6.2770004 1.8939795 0.47820687 0
6.2880006 1.8763689 0.47834578 0
6.2430005 1.8089787 0.47777757 0
6.2410002 1.7978076 0.47775233 0
6.2410002 1.7872715 0.47775233 0
6.2440004 1.7776718 0.47779021 0
6.2480001 1.7683712 0.47784072 0
6.2550006 1.7599819 0.47792912 0
6.2640004 1.7521803 0.47804272 0
6.2770004 1.7455658 0.47820687 0
6.1550002 1.6564702 0.47666642 0
6.1500006 1.6446193 0.4766033 0
6.1510005 1.6345396 0.47661594 0
6.1660004 1.628522 0.47680533 0
6.1810002 1.6224505 0.47699472 0
6.1960006 1.6163248 0.47718412 0
6.3620005 2.1048608 0.46852583 0
6.3590002 2.0930297 0.46849337 0
6.3540006 2.0804951 0.46843925 0
6.3490005 2.0679786 0.46838516 0
6.3440003 2.0554798 0.46833104 0
6.3390002 2.0429993 0.46827692 0
6.3200002 1.9936018 0.46807128 0
6.3150005 1.98121 0.46801716 0
6.3100004 1.9688358 0.46796304 0
6.3050003 1.9564795 0.46790892 0
6.3000002 1.9441416 0.46785483 0
6.2950006 1.9318217 0.46780071 0
6.2900004 1.9195195 0.46774662 0
6.2850003 1.9072357 0.46769249 0
6.2810001 1.8952999 0.46764919 0
6.2760005 1.8830504 0.4675951 0
6.2880006 1.8763689 0.46772495 0
6.2430005 1.8089787 0.46723792 0
6.2410002 1.7978076 0.46721628 0
6.2410002 1.7872715 0.46721628 0
6.2440004 1.7776718 0.46724874 0
6.2480001 1.7683712 0.46729204 0
6.2550006 1.7599819 0.4673678 0
6.2640004 1.7521803 0.46746522 0
6.2770004 1.7455658 0.46760589 0
6.1550002 1.6564702 0.4662855 0
6.1500006 1.6446193 0.46623141 0
6.1510005 1.6345396 0.46624222 0
6.1660004 1.628522 0.46640456 0
6.1810002 1.6224505 0.46656692 0
6.1960006 1.6163248 0.46672925 0
6.3620005 2.1048608 0.45777154 0
6.3610005 2.0937479 0.45776251 0
6.3600006 2.082638 0.45775351 0
6.3550005 2.0701108 0.45770842 0
6.3510003 2.0579545 0.45767233 0
6.3460002 2.0454614 0.45762724 0
6.3010006 1.9338347 0.45722139 0
6.2970004 1.9218556 0.4571853 0
6.2920003 1.909559 0.45714021 0
6.2870002 1.8972805 0.45709512 0
6.2820005 1.88502 0.45705003 0
6.2430005 1.8089787 0.45669827 0
6.2410002 1.7978076 0.45668024 0
6.2410002 1.7872715 0.45668024 0
6.2440004 1.7776718 0.4567073 0
6.2480001 1.7683712 0.45674336 0
6.2550006 1.7599819 0.45680651 0
6.1550002 1.6564702 0.4559046 0
6.1500006 1.6446193 0.45585951 0
6.1510005 1.6345396 0.45586851 0
6.1660004 1.628522 0.45600381 0
6.1810002 1.6224505 0.45613909 0
6.1960006 1.6163248 0.45627439 0
6.3620005 2.1048608 0.44701722 0
6.3610005 2.0937479 0.44701001 0
6.3630004 2.0837095 0.44702446 0
6.3660002 2.0740194 0.4470461 0
6.3620005 2.0618439 0.44701722 0
6.3570004 2.0493305 0.44698116 0
6.2430005 1.8089787 0.44615862 0
6.2410002 1.7978076 0.44614419 0
6.2410002 1.7872715 0.44614419 0
6.2440004 1.7776718 0.44616583 0
6.2480001 1.7683712 0.44619471 0
6.1550002 1.6564702 0.44552368 0
6.1500006 1.6446193 0.44548762 0
6.1510005 1.6345396 0.44549483 0
6.1660004 1.628522 0.44560304 0
6.1810002 1.6224505 0.44571128 0
6.1960006 1.6163248 0.4458195 0
6.3620005 2.1048608 0.43626294 0
6.3610005 2.0937479 0.43625751 0
6.3630004 2.0837095 0.43626833 0
6.3660002 2.0740194 0.43628457 0
6.3720002 2.0653789 0.43631703 0
6.2410002 1.7978076 0.43560815 0
6.2410002 1.7872715 0.43560815 0
6.1600003 1.6683393 0.43516982 0
6.1550002 1.6564702 0.43514276 0
6.1500006 1.6446193 0.43511569 0
6.1510005 1.6345396 0.43512112 0
6.1660004 1.628522 0.4352023 0
6.1810002 1.6224505 0.43528345 0
6.1960006 1.6163248 0.43536463 0
6.3620005 2.1048608 0.42550862 0
6.3610005 2.0937479 0.42550501 0
6.3630004 2.0837095 0.42551222 0
6.3660002 2.0740194 0.42552304 0
6.3720002 2.0653789 0.42554471 0
6.1600003 1.6683393 0.42477989 0
6.1550002 1.6564702 0.42476183 0
6.1500006 1.6446193 0.4247438 0
6.1510005 1.6345396 0.42474741 0
6.1660004 1.628522 0.42480153 0
6.1810002 1.6224505 0.42485565 0
6.1960006 1.6163248 0.42490977 0
6.3620005 2.1048608 0.41475433 0
6.3610005 2.0937479 0.41475251 0
6.3630004 2.0837095 0.41475612 0
6.3660002 2.0740194 0.41476154 0
6.3720002 2.0653789 0.41477236 0
6.3800006 2.057421 0.41478679 0
6.1600003 1.6683393 0.41438994 0
6.1550002 1.6564702 0.41438094 0
6.1500006 1.6446193 0.41437191 0
6.1510005 1.6345396 0.41437373 0
6.1660004 1.628522 0.41440079 0
6.1810002 1.6224505 0.41442782 0
6.1960006 1.6163248 0.41445488 0
6.3620005 2.1048608 0.40400001 0
6.3610005 2.0937479 0.40400001 0
6.3630004 2.0837095 0.40400001 0
6.3660002 2.0740194 0.40400001 0
6.3720002 2.0653789 0.40400001 0
6.3800006 2.057421 0.40400001 0
6.1600003 1.6683393 0.40400001 0
6.1550002 1.6564702 0.40400001 0
6.1500006 1.6446193 0.40400001 0
6.1510005 1.6345396 0.40400001 0
6.1660004 1.628522 0.40400001 0
6.1810002 1.6224505 0.40400001 0
6.1960006 1.6163248 0.40400001 0
6.3620005 2.1048608 0.3932457 0
6.3610005 2.0937479 0.39324751 0
6.3630004 2.0837095 0.39324391 0
6.3660002 2.0740194 0.39323848 0
6.3720002 2.0653789 0.39322767 0
6.3800006 2.057421 0.39321324 0
6.1600003 1.6683393 0.39361009 0
6.1550002 1.6564702 0.39361909 0
6.1500006 1.6446193 0.39362812 0
6.1510005 1.6345396 0.3936263 0
6.1660004 1.628522 0.39359924 0
6.1810002 1.6224505 0.39357221 0
6.3620005 2.1048608 0.38249141 0
6.3610005 2.0937479 0.38249502 0
6.3630004 2.0837095 0.3824878 0
6.3660002 2.0740194 0.38247699 0
6.3720002 2.0653789 0.38245532 0
6.3800006 2.057421 0.38242647 0
6.1600003 1.6683393 0.38322014 0
6.1550002 1.6564702 0.3832382 0
6.1660004 1.628522 0.3831985 0
6.1810002 1.6224505 0.38314438 0
6.3620005 2.1048608 0.37173709 0
6.3610005 2.0937479 0.37174252 0
6.3630004 2.0837095 0.3717317 0
6.3660002 2.0740194 0.37171546 0
6.3720002 2.0653789 0.371683 0
6.3800006 2.057421 0.3716397 0
6.3620005 2.1048608 0.36098281 0
6.3610005 2.0937479 0.36099002 0
6.3630004 2.0837095 0.36097556 0
6.3660002 2.0740194 0.36095393 0
6.3720002 2.0653789 0.36091065 0
6.3800006 2.057421 0.36085293 0
6.3620005 2.1048608 0.35022849 0
6.3610005 2.0937479 0.35023752 0
6.3630004 2.0837095 0.35021946 0
6.3660002 2.0740194 0.35019243 0
6.3720002 2.0653789 0.35013831 0
6.3800006 2.057421 0.35006616 0
6.1840005 1.654616 0.35183388 0
6.1890006 1.6456438 0.35178879 0
6.3620005 2.1048608 0.3394742 0
6.3610005 2.0937479 0.33948499 0
6.3630004 2.0837095 0.33946335 0
6.3660002 2.0740194 0.3394309 0
6.3720002 2.0653789 0.33936596 0
6.3800006 2.057421 0.33927935 0
6.1840005 1.654616 0.34140065 0
6.3620005 2.1048608 0.32871988 0
6.3610005 2.0937479 0.32873249 0
6.3630004 2.0837095 0.32870725 0
6.3660002 2.0740194 0.32866937 0
6.3720002 2.0653789 0.32859361 0
6.3800006 2.057421 0.32849258 0
6.3620005 2.1048608 0.31796557 0
6.3610005 2.0937479 0.31797999 0
6.3630004 2.0837095 0.31795114 0
6.3660002 2.0740194 0.31790787 0
6.3720002 2.0653789 0.31782126 0
6.3800006 2.057421 0.31770581 0
6.3620005 2.1048608 0.30721128 0
6.3610005 2.0937479 0.30722749 0
6.3630004 2.0837095 0.30719504 0
6.3660002 2.0740194 0.30714634 0
6.3720002 2.0653789 0.30704892 0
6.3800006 2.057421 0.30691904 0
6.3620005 2.1048608 0.29645696 0
6.3610005 2.0937479 0.29647499 0
6.3630004 2.0837095 0.29643893 0
6.3660002 2.0740194 0.29638481 0
6.3720002 2.0653789 0.2962766 0
6.3800006 2.057421 0.29613227 0
6.3620005 2.1048608 0.28570268 0
6.3610005 2.0937479 0.28572249 0
6.3630004 2.0837095 0.28568283 0
6.3660002 2.0740194 0.28562331 0
6.3720002 2.0653789 0.28550425 0
6.3800006 2.057421 0.28534549 0
6.3620005 2.1048608 0.27494836 0
6.3610005 2.0937479 0.27497 0
6.3630004 2.0837095 0.27492672 0
6.3660002 2.0740194 0.27486178 0
6.3720002 2.0653789 0.2747319 0
6.3800006 2.057421 0.27455872 0
6.3620005 2.1048608 0.26419407 0
6.3610005 2.0937479 0.2642175 0
6.3630004 2.0837095 0.26417059 0
6.3660002 2.0740194 0.26410025 0
6.3720002 2.0653789 0.26395956 0
6.3800006 2.057421 0.26377195 0
6.3620005 2.1048608 0.25343975 0
6.3610005 2.0937479 0.253465 0
6.3630004 2.0837095 0.25341451 0
6.3660002 2.0740194 0.25333875 0
6.3720002 2.0653789 0.25318724 0
6.3800006 2.057421 0.25298518 0
6.3620005 2.1048608 0.24268544 0
6.3610005 2.0937479 0.2427125 0
6.3630004 2.0837095 0.24265838 0
6.3660002 2.0740194 0.24257722 0
6.3720002 2.0653789 0.24241488 0
6.3800006 2.057421 0.24219841 0
6.3620005 2.1048608 0.23193114 0
6.3610005 2.0937479 0.23196 0
6.3630004 2.0837095 0.23190227 0
6.3660002 2.0740194 0.2318157 0
6.3720002 2.0653789 0.23164253 0
6.3800006 2.057421 0.23141164 0
6.3620005 2.1048608 0.22117683 0
6.3610005 2.0937479 0.2212075 0
6.3630004 2.0837095 0.22114618 0
6.3660002 2.0740194 0.22105418 0
6.3720002 2.0653789 0.2208702 0
6.3800006 2.057421 0.22062486 0
6.3620005 2.1048608 0.21042252 0
6.3610005 2.0937479 0.210455 0
6.3630004 2.0837095 0.21039006 0
6.3660002 2.0740194 0.21029267 0
6.3720002 2.0653789 0.21009785 0
6.3800006 2.057421 0.20983809 0
6.3620005 2.1048608 0.19966823 0
6.3610005 2.0937479 0.19970249 0
6.3630004 2.0837095 0.19963396 0
6.3660002 2.0740194 0.19953114 0
6.3720002 2.0653789 0.1993255 0
6.3800006 2.057421 0.19905132 0
6.3620005 2.1048608 0.18891393 0
6.3610005 2.0937479 0.18894999 0
6.3630004 2.0837095 0.18887784 0
6.3660002 2.0740194 0.18876962 0
6.3720002 2.0653789 0.18855317 0
6.3800006 2.057421 0.18826455 0
6.3620005 2.1048608 0.17815961 0
6.3610005 2.0937479 0.17819749 0
6.3630004 2.0837095 0.17812173 0
6.3660002 2.0740194 0.17800809 0
6.3720002 2.0653789 0.17778082 0
6.3800006 2.057421 0.17747778 0
6.3620005 2.1048608 0.16740532 0
6.3610005 2.0937479 0.16744497 0
6.3630004 2.0837095 0.16736563 0
6.3660002 2.0740194 0.1672466 0
6.3720002 2.0653789 0.16700847 0
6.3800006 2.057421 0.16669099 0
6.3620005 2.1048608 0.15665101 0
6.3610005 2.0937479 0.15669249 0
6.3630004 2.0837095 0.15660952 0
6.3660002 2.0740194 0.15648507 0
6.3720002 2.0653789 0.15623614 0
6.3800006 2.057421 0.15590423 0
6.3620005 2.1048608 0.1458967 0
6.3610005 2.0937479 0.14593998 0
6.3630004 2.0837095 0.14585343 0
6.3660002 2.0740194 0.14572355 0
6.3720002 2.0653789 0.14546379 0
6.3800006 2.057421 0.14511743 0
6.3620005 2.1048608 0.13514242 0
6.3610005 2.0937479 0.13518748 0
6.3630004 2.0837095 0.1350973 0
6.3660002 2.0740194 0.13496202 0
6.3720002 2.0653789 0.13469145 0
6.3800006 2.057421 0.13433066 0
6.3620005 2.1048608 0.1243881 0
6.3610005 2.0937479 0.12443498 0
6.3630004 2.0837095 0.12434119 0
6.3660002 2.0740194 0.12420052 0
6.3720002 2.0653789 0.1239191 0
6.3800006 2.057421 0.12354392 0
6.3620005 2.1048608 0.11363378 0
6.3610005 2.0937479 0.11368248 0
6.3630004 2.0837095 0.11358508 0
6.3660002 2.0740194 0.11343899 0
6.3720002 2.0653789 0.11314678 0
6.3800006 2.057421 0.11275715 0
6.3660002 2.1170654 0.10267746 0
6.3620005 2.1048608 0.10287949 0
6.3610005 2.0937479 0.10292998 0
6.3630004 2.0837095 0.10282898 0
6.3660002 2.0740194 0.10267746 0
6.3720002 2.0653789 0.10237443 0
6.3800006 2.057421 0.10197034 0
6.3660002 2.1170654 0.091915935 0
6.3620005 2.1048608 0.092125177 0
6.3610005 2.0937479 0.09217748 0
6.3630004 2.0837095 0.092072874 0
6.3660002 2.0740194 0.091915935 0
6.3720002 2.0653789 0.091602087 0
6.3800006 2.057421 0.091183573 0
6.3660002 2.1170654 0.081154436 0
6.3620005 2.1048608 0.08137086 0
6.3610005 2.0937479 0.081424981 0
6.3630004 2.0837095 0.081316739 0
6.3660002 2.0740194 0.081154436 0
6.3720002 2.0653789 0.08082974 0
6.3800006 2.057421 0.080396801 0
6.3910003 2.0504832 0.079801559 0
6.3660002 2.1170654 0.070392907 0
6.3610005 2.1045003 0.070672482 0
6.3560004 2.0919528 0.070952058 0
6.3510003 2.0794237 0.071231693 0
6.3480005 2.0676231 0.07139942 0
6.3620005 2.0618439 0.070616573 0
6.3760004 2.0560138 0.069833696 0
6.3910003 2.0504832 0.068994939 0
6.3660002 2.1170654 0.059631377 0
6.3610005 2.1045003 0.059919983 0
6.3560004 2.0919528 0.060208589 0
6.3510003 2.0794237 0.060497195 0
6.3480005 2.0676231 0.060670376 0
6.3620005 2.0618439 0.059862256 0
6.3760004 2.0560138 0.059054166 0
