# .PCD v0.7 - Point Cloud Data file format
VERSION 0.7
FIELDS x y z intensity
SIZE 4 4 4 4
TYPE F F F F
COUNT 1 1 1 1
WIDTH 1468
HEIGHT 1
VIEWPOINT 0 0 0 1 0 0 0
POINTS 1468
DATA ascii
3.4650002 1.7010604 1.1282561 0
3.4670002 1.6966681 1.1287286 0
3.4690003 1.6922687 1.1292013 0
3.4700003 1.6872973 1.1294376 0
3.4630003 1.6446698 1.1277835 0
3.4670002 1.6413454 1.1287286 0
3.4710002 1.6380064 1.1296738 0
3.4760003 1.6351998 1.1308553 0
3.4800003 1.6318302 1.1318005 0
3.4840002 1.6284463 1.1327457 0
3.4880002 1.6250479 1.133691 0
3.4920003 1.6216352 1.1346362 0
3.4960003 1.6182079 1.1355814 0
3.4990003 1.6142305 1.1362902 0
3.5010002 1.6097083 1.1367629 0
3.5030003 1.6051791 1.1372354 0
3.5050004 1.6006424 1.1377081 0
3.5070002 1.5960985 1.1381806 0
3.5090003 1.5915476 1.1386533 0
3.5100002 1.5864644 1.1388896 0
3.5120003 1.5819008 1.1393621 0
3.4650002 1.7010604 1.1227274 0
3.4670002 1.6966681 1.1231964 0
3.4690003 1.6922687 1.1236655 0
3.4700003 1.6872973 1.1238999 0
3.4630003 1.6446698 1.1222584 0
3.4670002 1.6413454 1.1231964 0
3.4710002 1.6380064 1.1241343 0
3.4760003 1.6351998 1.1253068 0
3.4800003 1.6318302 1.1262448 0
3.4840002 1.6284463 1.1271828 0
3.4880002 1.6250479 1.1281208 0
3.4920003 1.6216352 1.1290587 0
3.4960003 1.6182079 1.1299968 0
3.4990003 1.6142305 1.1307002 0
3.5010002 1.6097083 1.1311692 0
3.5030003 1.6051791 1.1316382 0
3.5050004 1.6006424 1.1321073 0
3.5070002 1.5960985 1.1325762 0
3.5090003 1.5915476 1.1330452 0
3.5100002 1.5864644 1.1332797 0
3.5120003 1.5819008 1.1337487 0
3.4650002 1.7010604 1.1171987 0
3.4670002 1.6966681 1.1176641 0
3.4690003 1.6922687 1.1181295 0
3.4700003 1.6872973 1.1183622 0
3.4630003 1.6446698 1.1167333 0
3.4670002 1.6413454 1.1176641 0
3.4710002 1.6380064 1.1185949 0
3.4760003 1.6351998 1.1197584 0
3.4800003 1.6318302 1.120689 0
3.4840002 1.6284463 1.1216199 0
3.4880002 1.6250479 1.1225506 0
3.4920003 1.6216352 1.1234814 0
3.4960003 1.6182079 1.1244122 0
3.4990003 1.6142305 1.1251103 0
3.5010002 1.6097083 1.1255757 0
3.5030003 1.6051791 1.1260411 0
3.5050004 1.6006424 1.1265064 0
3.5070002 1.5960985 1.1269717 0
3.5090003 1.5915476 1.1274372 0
3.5100002 1.5864644 1.1276698 0
3.5120003 1.5819008 1.1281352 0
3.4650002 1.7010604 1.11167 0
3.4670002 1.6966681 1.1121318 0
3.4690003 1.6922687 1.1125937 0
3.4700003 1.6872973 1.1128246 0
3.4630003 1.6446698 1.1112083 0
3.4670002 1.6413454 1.1121318 0
3.4710002 1.6380064 1.1130553 0
3.4760003 1.6351998 1.1142099 0
3.4800003 1.6318302 1.1151334 0
3.4840002 1.6284463 1.1160569 0
3.4880002 1.6250479 1.1169804 0
3.4920003 1.6216352 1.1179041 0
3.4960003 1.6182079 1.1188276 0
3.4990003 1.6142305 1.1195203 0
3.5010002 1.6097083 1.119982 0
3.5030003 1.6051791 1.1204438 0
3.5050004 1.6006424 1.1209056 0
3.5070002 1.5960985 1.1213673 0
3.5090003 1.5915476 1.1218292 0
3.5100002 1.5864644 1.1220599 0
3.5120003 1.5819008 1.1225218 0
3.4650002 1.7010604 1.1061413 0
3.4670002 1.6966681 1.1065996 0
3.4690003 1.6922687 1.1070577 0
3.4700003 1.6872973 1.1072868 0
3.4630003 1.6446698 1.1056832 0
3.4670002 1.6413454 1.1065996 0
3.4710002 1.6380064 1.1075158 0
3.4760003 1.6351998 1.1086613 0
3.4800003 1.6318302 1.1095777 0
3.4840002 1.6284463 1.1104939 0
3.4880002 1.6250479 1.1114103 0
3.4920003 1.6216352 1.1123266 0
3.4960003 1.6182079 1.113243 0
3.4990003 1.6142305 1.1139302 0
3.5010002 1.6097083 1.1143883 0
3.5030003 1.6051791 1.1148466 0
3.5050004 1.6006424 1.1153047 0
3.5070002 1.5960985 1.1157629 0
3.5090003 1.5915476 1.1162211 0
3.5100002 1.5864644 1.1164502 0
3.5120003 1.5819008 1.1169083 0
3.4650002 1.7010604 1.1006126 0
3.4670002 1.6966681 1.1010673 0
3.4690003 1.6922687 1.1015218 0
3.4700003 1.6872973 1.1017491 0
3.4630003 1.6446698 1.1001582 0
3.4670002 1.6413454 1.1010673 0
3.4710002 1.6380064 1.1019764 0
3.4760003 1.6351998 1.1031128 0
3.4800003 1.6318302 1.1040219 0
3.4840002 1.6284463 1.104931 0
3.4880002 1.6250479 1.1058401 0
3.4920003 1.6216352 1.1067493 0
3.4960003 1.6182079 1.1076584 0
3.4990003 1.6142305 1.1083403 0
3.5010002 1.6097083 1.1087948 0
3.5030003 1.6051791 1.1092494 0
3.5050004 1.6006424 1.1097039 0
3.5070002 1.5960985 1.1101584 0
3.5090003 1.5915476 1.1106131 0
3.5100002 1.5864644 1.1108403 0
3.5120003 1.5819008 1.1112949 0
3.4650002 1.7010604 1.095084 0
3.4670002 1.6966681 1.095535 0
3.4690003 1.6922687 1.095986 0
3.4700003 1.6872973 1.0962114 0
3.4630003 1.6446698 1.0946331 0
3.4670002 1.6413454 1.095535 0
3.4710002 1.6380064 1.0964369 0
3.4760003 1.6351998 1.0975643 0
3.4800003 1.6318302 1.0984662 0
3.4840002 1.6284463 1.0993681 0
3.4880002 1.6250479 1.1002699 0
3.4920003 1.6216352 1.101172 0
3.4960003 1.6182079 1.1020738 0
3.4990003 1.6142305 1.1027503 0
3.5010002 1.6097083 1.1032012 0
3.5030003 1.6051791 1.1036521 0
3.5050004 1.6006424 1.1041031 0
3.5070002 1.5960985 1.1045541 0
3.5090003 1.5915476 1.105005 0
3.5100002 1.5864644 1.1052305 0
3.5120003 1.5819008 1.1056814 0
3.4650002 1.7010604 1.0895554 0
3.4670002 1.6966681 1.0900027 0
3.4690003 1.6922687 1.09045 0
3.4700003 1.6872973 1.0906737 0
3.4630003 1.6446698 1.089108 0
3.4670002 1.6413454 1.0900027 0
3.4710002 1.6380064 1.0908974 0
3.4760003 1.6351998 1.0920157 0
3.4800003 1.6318302 1.0929104 0
3.4840002 1.6284463 1.0938052 0
3.4880002 1.6250479 1.0946999 0
3.4920003 1.6216352 1.0955945 0
3.4960003 1.6182079 1.0964892 0
3.4990003 1.6142305 1.0971602 0
3.5010002 1.6097083 1.0976076 0
3.5030003 1.6051791 1.0980549 0
3.5050004 1.6006424 1.0985023 0
3.5070002 1.5960985 1.0989496 0
3.5090003 1.5915476 1.0993969 0
3.5100002 1.5864644 1.0996206 0
3.5120003 1.5819008 1.100068 0
3.4650002 1.7010604 1.0840267 0
3.4670002 1.6966681 1.0844705 0
3.4690003 1.6922687 1.0849142 0
3.4700003 1.6872973 1.0851361 0
3.4630003 1.6446698 1.083583 0
3.4670002 1.6413454 1.0844705 0
3.4710002 1.6380064 1.0853579 0
3.4760003 1.6351998 1.0864673 0
3.4800003 1.6318302 1.0873548 0
3.4840002 1.6284463 1.0882422 0
3.4880002 1.6250479 1.0891297 0
3.4920003 1.6216352 1.0900172 0
3.4960003 1.6182079 1.0909046 0
3.4990003 1.6142305 1.0915703 0
3.5010002 1.6097083 1.092014 0
3.5030003 1.6051791 1.0924577 0
3.5050004 1.6006424 1.0929015 0
3.5070002 1.5960985 1.0933452 0
3.5090003 1.5915476 1.0937889 0
3.5100002 1.5864644 1.0940108 0
3.5120003 1.5819008 1.0944545 0
3.4650002 1.7010604 1.078498 0
3.4670002 1.6966681 1.0789381 0
3.4690003 1.6922687 1.0793782 0
3.4700003 1.6872973 1.0795983 0
3.4630003 1.6446698 1.0780579 0
3.4670002 1.6413454 1.0789381 0
3.4710002 1.6380064 1.0798184 0
3.4760003 1.6351998 1.0809188 0
3.4800003 1.6318302 1.081799 0
3.4840002 1.6284463 1.0826793 0
3.4880002 1.6250479 1.0835595 0
3.4920003 1.6216352 1.0844398 0
3.4960003 1.6182079 1.0853201 0
3.4990003 1.6142305 1.0859803 0
3.5010002 1.6097083 1.0864204 0
3.5030003 1.6051791 1.0868604 0
3.5050004 1.6006424 1.0873007 0
3.5070002 1.5960985 1.0877408 0
3.5090003 1.5915476 1.0881809 0
3.5100002 1.5864644 1.088401 0
3.5120003 1.5819008 1.0888411 0
3.4650002 1.7010604 1.0729693 0
3.4670002 1.6966681 1.0734059 0
3.4690003 1.6922687 1.0738424 0
3.4700003 1.6872973 1.0740607 0
3.4630003 1.6446698 1.0725328 0
3.4670002 1.6413454 1.0734059 0
3.4710002 1.6380064 1.074279 0
3.4760003 1.6351998 1.0753702 0
3.4800003 1.6318302 1.0762433 0
3.4840002 1.6284463 1.0771163 0
3.4880002 1.6250479 1.0779893 0
3.4920003 1.6216352 1.0788624 0
3.4960003 1.6182079 1.0797354 0
3.4990003 1.6142305 1.0803902 0
3.5010002 1.6097083 1.0808268 0
3.5030003 1.6051791 1.0812633 0
3.5050004 1.6006424 1.0816997 0
3.5070002 1.5960985 1.0821363 0
3.5090003 1.5915476 1.0825728 0
3.5100002 1.5864644 1.0827911 0
3.5120003 1.5819008 1.0832276 0
3.4650002 1.7010604 1.0674406 0
3.4670002 1.6966681 1.0678736 0
3.4690003 1.6922687 1.0683066 0
3.4700003 1.6872973 1.0685229 0
3.4630003 1.6446698 1.0670078 0
3.4670002 1.6413454 1.0678736 0
3.4710002 1.6380064 1.0687394 0
3.4760003 1.6351998 1.0698217 0
3.4800003 1.6318302 1.0706875 0
3.4840002 1.6284463 1.0715533 0
3.4880002 1.6250479 1.0724192 0
3.4920003 1.6216352 1.0732851 0
3.4960003 1.6182079 1.0741508 0
3.4990003 1.6142305 1.0748003 0
3.5010002 1.6097083 1.0752331 0
3.5030003 1.6051791 1.0756661 0
3.5050004 1.6006424 1.076099 0
3.5070002 1.5960985 1.0765319 0
3.5090003 1.5915476 1.0769647 0
3.5100002 1.5864644 1.0771812 0
3.5120003 1.5819008 1.0776142 0
3.4650002 1.7010604 1.0619121 0
3.4670002 1.6966681 1.0623413 0
3.4690003 1.6922687 1.0627706 0
3.4700003 1.6872973 1.0629853 0
3.4630003 1.6446698 1.0614827 0
3.4670002 1.6413454 1.0623413 0
3.4710002 1.6380064 1.0631999 0
3.4760003 1.6351998 1.0642732 0
3.4800003 1.6318302 1.0651318 0
3.4840002 1.6284463 1.0659904 0
3.4880002 1.6250479 1.066849 0
3.4920003 1.6216352 1.0677077 0
3.4960003 1.6182079 1.0685662 0
3.4990003 1.6142305 1.0692103 0
3.5010002 1.6097083 1.0696396 0
3.5030003 1.6051791 1.0700688 0
3.5050004 1.6006424 1.0704981 0
3.5070002 1.5960985 1.0709274 0
3.5090003 1.5915476 1.0713568 0
3.5100002 1.5864644 1.0715715 0
3.5120003 1.5819008 1.0720007 0
3.4650002 1.7010604 1.0563834 0
3.4670002 1.6966681 1.0568091 0
3.4690003 1.6922687 1.0572348 0
3.4700003 1.6872973 1.0574476 0
3.4630003 1.6446698 1.0559577 0
3.4670002 1.6413454 1.0568091 0
3.4710002 1.6380064 1.0576605 0
3.4760003 1.6351998 1.0587246 0
3.4800003 1.6318302 1.0595762 0
3.4840002 1.6284463 1.0604274 0
3.4880002 1.6250479 1.0612788 0
3.4920003 1.6216352 1.0621302 0
3.4960003 1.6182079 1.0629817 0
3.4990003 1.6142305 1.0636202 0
3.5010002 1.6097083 1.0640459 0
3.5030003 1.6051791 1.0644716 0
3.5050004 1.6006424 1.0648974 0
3.5070002 1.5960985 1.065323 0
3.5090003 1.5915476 1.0657487 0
3.5100002 1.5864644 1.0659616 0
3.5120003 1.5819008 1.0663873 0
3.4650002 1.7010604 1.0508547 0
3.4670002 1.6966681 1.0512768 0
3.4690003 1.6922687 1.0516989 0
3.4700003 1.6872973 1.0519099 0
3.4630003 1.6446698 1.0504326 0
3.4670002 1.6413454 1.0512768 0
3.4710002 1.6380064 1.0521209 0
3.4760003 1.6351998 1.0531762 0
3.4800003 1.6318302 1.0540204 0
3.4840002 1.6284463 1.0548645 0
3.4880002 1.6250479 1.0557088 0
3.4920003 1.6216352 1.0565529 0
3.4960003 1.6182079 1.0573971 0
3.4990003 1.6142305 1.0580302 0
3.5010002 1.6097083 1.0584522 0
3.5030003 1.6051791 1.0588744 0
3.5050004 1.6006424 1.0592965 0
3.5070002 1.5960985 1.0597186 0
3.5090003 1.5915476 1.0601407 0
3.5100002 1.5864644 1.0603517 0
3.5120003 1.5819008 1.0607738 0
3.4650002 1.7010604 1.045326 0
3.4670002 1.6966681 1.0457444 0
3.4690003 1.6922687 1.046163 0
3.4700003 1.6872973 1.0463722 0
3.4630003 1.6446698 1.0449075 0
3.4670002 1.6413454 1.0457444 0
3.4710002 1.6380064 1.0465815 0
3.4760003 1.6351998 1.0476277 0
3.4800003 1.6318302 1.0484647 0
3.4840002 1.6284463 1.0493016 0
3.4880002 1.6250479 1.0501386 0
3.4920003 1.6216352 1.0509756 0
3.4960003 1.6182079 1.0518125 0
3.4990003 1.6142305 1.0524403 0
3.5010002 1.6097083 1.0528587 0
3.5030003 1.6051791 1.0532773 0
3.5050004 1.6006424 1.0536957 0
3.5070002 1.5960985 1.0541141 0
3.5090003 1.5915476 1.0545326 0
3.5100002 1.5864644 1.0547419 0
3.5120003 1.5819008 1.0551604 0
3.4650002 1.7010604 1.0397973 0
3.4670002 1.6966681 1.0402122 0
3.4690003 1.6922687 1.0406271 0
3.4700003 1.6872973 1.0408345 0
3.4630003 1.6446698 1.0393825 0
3.4670002 1.6413454 1.0402122 0
3.4710002 1.6380064 1.041042 0
3.4760003 1.6351998 1.0420791 0
3.4800003 1.6318302 1.0429089 0
3.4840002 1.6284463 1.0437386 0
3.4880002 1.6250479 1.0445683 0
3.4920003 1.6216352 1.0453981 0
3.4960003 1.6182079 1.0462279 0
3.4990003 1.6142305 1.0468502 0
3.5010002 1.6097083 1.0472651 0
3.5030003 1.6051791 1.04768 0
3.5050004 1.6006424 1.0480949 0
3.5070002 1.5960985 1.0485097 0
3.5090003 1.5915476 1.0489246 0
3.5100002 1.5864644 1.049132 0
3.5120003 1.5819008 1.049547 0
3.4650002 1.7010604 1.0342686 0
3.4670002 1.6966681 1.0346799 0
3.4690003 1.6922687 1.0350912 0
3.4700003 1.6872973 1.0352968 0
3.4630003 1.6446698 1.0338575 0
3.4670002 1.6413454 1.0346799 0
3.4710002 1.6380064 1.0355024 0
3.4760003 1.6351998 1.0365306 0
3.4800003 1.6318302 1.0373532 0
3.4840002 1.6284463 1.0381757 0
3.4880002 1.6250479 1.0389982 0
3.4920003 1.6216352 1.0398208 0
3.4960003 1.6182079 1.0406433 0
3.4990003 1.6142305 1.0412602 0
3.5010002 1.6097083 1.0416715 0
3.5030003 1.6051791 1.0420827 0
3.5050004 1.6006424 1.0424941 0
3.5070002 1.5960985 1.0429052 0
3.5090003 1.5915476 1.0433166 0
3.5100002 1.5864644 1.0435221 0
3.5120003 1.5819008 1.0439335 0
3.4650002 1.7010604 1.0287399 0
3.4670002 1.6966681 1.0291476 0
3.4690003 1.6922687 1.0295553 0
3.4700003 1.6872973 1.0297592 0
3.4630003 1.6446698 1.0283324 0
3.4670002 1.6413454 1.0291476 0
3.4710002 1.6380064 1.0299629 0
3.4760003 1.6351998 1.0309821 0
3.4800003 1.6318302 1.0317974 0
3.4840002 1.6284463 1.0326127 0
3.4880002 1.6250479 1.0334281 0
3.4920003 1.6216352 1.0342435 0
3.4960003 1.6182079 1.0350587 0
3.4990003 1.6142305 1.0356702 0
3.5010002 1.6097083 1.0360779 0
3.5030003 1.6051791 1.0364856 0
3.5050004 1.6006424 1.0368932 0
3.5070002 1.5960985 1.0373008 0
3.5090003 1.5915476 1.0377085 0
3.5100002 1.5864644 1.0379124 0
3.5120003 1.5819008 1.0383201 0
3.4650002 1.7010604 1.0232112 0
3.4670002 1.6966681 1.0236154 0
3.4690003 1.6922687 1.0240195 0
3.4700003 1.6872973 1.0242214 0
3.4630003 1.6446698 1.0228072 0
3.4670002 1.6413454 1.0236154 0
3.4710002 1.6380064 1.0244235 0
3.4760003 1.6351998 1.0254337 0
3.4800003 1.6318302 1.0262417 0
3.4840002 1.6284463 1.0270498 0
3.4880002 1.6250479 1.0278579 0
3.4920003 1.6216352 1.028666 0
3.4960003 1.6182079 1.0294741 0
3.4990003 1.6142305 1.0300802 0
3.5010002 1.6097083 1.0304842 0
3.5030003 1.6051791 1.0308883 0
3.5050004 1.6006424 1.0312924 0
3.5070002 1.5960985 1.0316964 0
3.5090003 1.5915476 1.0321004 0
3.5100002 1.5864644 1.0323025 0
3.5120003 1.5819008 1.0327066 0
3.4650002 1.7010604 1.0176826 0
3.4670002 1.6966681 1.0180831 0
3.4690003 1.6922687 1.0184835 0
3.4700003 1.6872973 1.0186838 0
3.4630003 1.6446698 1.0172821 0
3.4670002 1.6413454 1.0180831 0
3.4710002 1.6380064 1.0188839 0
3.4760003 1.6351998 1.0198851 0
3.4800003 1.6318302 1.0206859 0
3.4840002 1.6284463 1.0214869 0
3.4880002 1.6250479 1.0222877 0
3.4920003 1.6216352 1.0230887 0
3.4960003 1.6182079 1.0238895 0
3.4990003 1.6142305 1.0244902 0
3.5010002 1.6097083 1.0248907 0
3.5030003 1.6051791 1.0252911 0
3.5050004 1.6006424 1.0256915 0
3.5070002 1.5960985 1.0260919 0
3.5090003 1.5915476 1.0264925 0
3.5100002 1.5864644 1.0266926 0
3.5120003 1.5819008 1.0270932 0
3.4650002 1.7010604 1.0121539 0
3.4670002 1.6966681 1.0125508 0
3.4690003 1.6922687 1.0129477 0
3.4700003 1.6872973 1.013146 0
3.4630003 1.6446698 1.0117571 0
3.4670002 1.6413454 1.0125508 0
3.4710002 1.6380064 1.0133444 0
3.4760003 1.6351998 1.0143366 0
3.4800003 1.6318302 1.0151303 0
3.4840002 1.6284463 1.015924 0
3.4880002 1.6250479 1.0167176 0
3.4920003 1.6216352 1.0175112 0
3.4960003 1.6182079 1.0183049 0
3.4990003 1.6142305 1.0189002 0
3.5010002 1.6097083 1.019297 0
3.5030003 1.6051791 1.0196939 0
3.5050004 1.6006424 1.0200907 0
3.5070002 1.5960985 1.0204875 0
3.5090003 1.5915476 1.0208844 0
3.5100002 1.5864644 1.0210828 0
3.5120003 1.5819008 1.0214797 0
3.4650002 1.7010604 1.0066253 0
3.4670002 1.6966681 1.0070184 0
3.4690003 1.6922687 1.0074117 0
3.4700003 1.6872973 1.0076083 0
3.4630003 1.6446698 1.0062321 0
3.4670002 1.6413454 1.0070184 0
3.4710002 1.6380064 1.007805 0
3.4760003 1.6351998 1.0087881 0
3.4800003 1.6318302 1.0095745 0
3.4840002 1.6284463 1.010361 0
3.4880002 1.6250479 1.0111474 0
3.4920003 1.6216352 1.0119339 0
3.4960003 1.6182079 1.0127203 0
3.4990003 1.6142305 1.0133102 0
3.5010002 1.6097083 1.0137035 0
3.5030003 1.6051791 1.0140966 0
3.5050004 1.6006424 1.0144899 0
3.5070002 1.5960985 1.0148832 0
3.5090003 1.5915476 1.0152763 0
3.5100002 1.5864644 1.015473 0
3.5120003 1.5819008 1.0158663 0
3.4650002 1.7010604 1.0010966 0
3.4670002 1.6966681 1.0014863 0
3.4690003 1.6922687 1.0018759 0
3.4700003 1.6872973 1.0020707 0
3.4630003 1.6446698 1.000707 0
3.4670002 1.6413454 1.0014863 0
3.4710002 1.6380064 1.0022655 0
3.4760003 1.6351998 1.0032395 0
3.4800003 1.6318302 1.0040188 0
3.4840002 1.6284463 1.0047981 0
3.4880002 1.6250479 1.0055772 0
3.4920003 1.6216352 1.0063566 0
3.4960003 1.6182079 1.0071357 0
3.4990003 1.6142305 1.0077202 0
3.5010002 1.6097083 1.0081098 0
3.5030003 1.6051791 1.0084995 0
3.5050004 1.6006424 1.0088891 0
3.5070002 1.5960985 1.0092787 0
3.5090003 1.5915476 1.0096684 0
3.5100002 1.5864644 1.0098631 0
3.5120003 1.5819008 1.0102528 0
3.4650002 1.7010604 0.99556792 0
3.4670002 1.6966681 0.99595392 0
3.4690003 1.6922687 0.99634004 0
3.4700003 1.6872973 0.99653304 0
3.4630003 1.6446698 0.99518192 0
3.4670002 1.6413454 0.99595392 0
3.4710002 1.6380064 0.99672604 0
3.4760003 1.6351998 0.99769104 0
3.4800003 1.6318302 0.99846303 0
3.4840002 1.6284463 0.99923503 0
3.4880002 1.6250479 1.0000072 0
3.4920003 1.6216352 1.0007792 0
3.4960003 1.6182079 1.0015512 0
3.4990003 1.6142305 1.0021302 0
3.5010002 1.6097083 1.0025162 0
3.5030003 1.6051791 1.0029023 0
3.5050004 1.6006424 1.0032883 0
3.5070002 1.5960985 1.0036743 0
3.5090003 1.5915476 1.0040603 0
3.5100002 1.5864644 1.0042533 0
3.5120003 1.5819008 1.0046394 0
3.4650002 1.7010604 0.99003923 0
3.4670002 1.6966681 0.99042165 0
3.4690003 1.6922687 0.99080408 0
3.4700003 1.6872973 0.99099529 0
3.4630003 1.6446698 0.98965681 0
3.4670002 1.6413454 0.99042165 0
3.4710002 1.6380064 0.9911865 0
3.4760003 1.6351998 0.99214256 0
3.4800003 1.6318302 0.99290729 0
3.4840002 1.6284463 0.99367213 0
3.4880002 1.6250479 0.99443698 0
3.4920003 1.6216352 0.99520183 0
3.4960003 1.6182079 0.99596655 0
3.4990003 1.6142305 0.99654019 0
3.5010002 1.6097083 0.99692261 0
3.5030003 1.6051791 0.99730504 0
3.5050004 1.6006424 0.99768746 0
3.5070002 1.5960985 0.99806976 0
3.5090003 1.5915476 0.99845219 0
3.5100002 1.5864644 0.9986434 0
3.5120003 1.5819008 0.99902582 0
3.4650002 1.7010604 0.98451054 0
3.4670002 1.6966681 0.98488939 0
3.4690003 1.6922687 0.98526824 0
3.4700003 1.6872973 0.98545754 0
3.4630003 1.6446698 0.98413181 0
3.4670002 1.6413454 0.98488939 0
3.4710002 1.6380064 0.98564696 0
3.4760003 1.6351998 0.98659396 0
3.4800003 1.6318302 0.98735166 0
3.4840002 1.6284463 0.98810923 0
3.4880002 1.6250479 0.98886681 0
3.4920003 1.6216352 0.98962438 0
3.4960003 1.6182079 0.99038196 0
3.4990003 1.6142305 0.99095023 0
3.5010002 1.6097083 0.99132895 0
3.5030003 1.6051791 0.9917078 0
3.5050004 1.6006424 0.99208665 0
3.5070002 1.5960985 0.99246538 0
3.5090003 1.5915476 0.99284422 0
3.5100002 1.5864644 0.99303365 0
3.5120003 1.5819008 0.99341238 0
3.4650002 1.7010604 0.97898197 0
3.4670002 1.6966681 0.97935712 0
3.4690003 1.6922687 0.97973228 0
3.4700003 1.6872973 0.97991991 0
3.4630003 1.6446698 0.97860682 0
3.4670002 1.6413454 0.97935712 0
3.4710002 1.6380064 0.98010743 0
3.4760003 1.6351998 0.98104548 0
3.4800003 1.6318302 0.98179591 0
3.4840002 1.6284463 0.98254621 0
3.4880002 1.6250479 0.98329663 0
3.4920003 1.6216352 0.98404706 0
3.4960003 1.6182079 0.98479736 0
3.4990003 1.6142305 0.98536015 0
3.5010002 1.6097083 0.9857353 0
3.5030003 1.6051791 0.98611057 0
3.5050004 1.6006424 0.98648572 0
3.5070002 1.5960985 0.98686099 0
3.5090003 1.5915476 0.98723614 0
3.5100002 1.5864644 0.98742378 0
3.5120003 1.5819008 0.98779893 0
3.4650002 1.7010604 0.97345328 0
3.4670002 1.6966681 0.97382486 0
3.4690003 1.6922687 0.97419643 0
3.4700003 1.6872973 0.97438228 0
3.4630003 1.6446698 0.97308171 0
3.4670002 1.6413454 0.97382486 0
3.4710002 1.6380064 0.97456801 0
3.4760003 1.6351998 0.97549701 0
3.4800003 1.6318302 0.97624016 0
3.4840002 1.6284463 0.97698331 0
3.4880002 1.6250479 0.97772646 0
3.4920003 1.6216352 0.97846961 0
3.4960003 1.6182079 0.97921288 0
3.4990003 1.6142305 0.97977018 0
3.5010002 1.6097083 0.98014176 0
3.5030003 1.6051791 0.98051333 0
3.5050004 1.6006424 0.98088503 0
3.5070002 1.5960985 0.9812566 0
3.5090003 1.5915476 0.98162818 0
3.5100002 1.5864644 0.98181391 0
3.5120003 1.5819008 0.98218548 0
3.4650002 1.7010604 0.96792459 0
3.4670002 1.6966681 0.96829259 0
3.4690003 1.6922687 0.96866059 0
3.4700003 1.6872973 0.96884453 0
3.4630003 1.6446698 0.9675566 0
3.4670002 1.6413454 0.96829259 0
3.4710002 1.6380064 0.96902847 0
3.4760003 1.6351998 0.96994841 0
3.4800003 1.6318302 0.97068441 0
3.4840002 1.6284463 0.97142041 0
3.4880002 1.6250479 0.97215629 0
3.4920003 1.6216352 0.97289228 0
3.4960003 1.6182079 0.97362828 0
3.4990003 1.6142305 0.97418022 0
3.5010002 1.6097083 0.9745481 0
3.5030003 1.6051791 0.9749161 0
3.5050004 1.6006424 0.9752841 0
3.5070002 1.5960985 0.9756521 0
3.5090003 1.5915476 0.9760201 0
3.5100002 1.5864644 0.97620404 0
3.5120003 1.5819008 0.97657204 0
3.4650002 1.7010604 0.96239591 0
3.4670002 1.6966681 0.96276033 0
3.4690003 1.6922687 0.96312463 0
3.4700003 1.6872973 0.96330678 0
3.4630003 1.6446698 0.96203148 0
3.4670002 1.6413454 0.96276033 0
3.4710002 1.6380064 0.96348906 0
3.4760003 1.6351998 0.96439993 0
3.4800003 1.6318302 0.96512866 0
3.4840002 1.6284463 0.96585739 0
3.4880002 1.6250479 0.96658611 0
3.4920003 1.6216352 0.96731496 0
3.4960003 1.6182079 0.96804368 0
3.4990003 1.6142305 0.96859026 0
3.5010002 1.6097083 0.96895456 0
3.5030003 1.6051791 0.96931887 0
3.5050004 1.6006424 0.96968329 0
3.5070002 1.5960985 0.97004759 0
3.5090003 1.5915476 0.97041202 0
3.5100002 1.5864644 0.97059417 0
3.5120003 1.5819008 0.97095859 0
3.4650002 1.7010604 0.95686722 0
3.4670002 1.6966681 0.95722795 0
3.4690003 1.6922687 0.95758879 0
3.4700003 1.6872973 0.95776916 0
3.4630003 1.6446698 0.95650649 0
3.4670002 1.6413454 0.95722795 0
3.4710002 1.6380064 0.95794952 0
3.4760003 1.6351998 0.95885146 0
3.4800003 1.6318302 0.95957303 0
3.4840002 1.6284463 0.96029449 0
3.4880002 1.6250479 0.96101606 0
3.4920003 1.6216352 0.96173751 0
3.4960003 1.6182079 0.96245897 0
3.4990003 1.6142305 0.96300018 0
3.5010002 1.6097083 0.96336091 0
3.5030003 1.6051791 0.96372175 0
3.5050004 1.6006424 0.96408248 0
3.5070002 1.5960985 0.96444321 0
3.5090003 1.5915476 0.96480405 0
3.5100002 1.5864644 0.9649843 0
3.5120003 1.5819008 0.96534514 0
3.4650002 1.7010604 0.95133853 0
3.4670002 1.6966681 0.9516958 0
3.4690003 1.6922687 0.95205283 0
3.4700003 1.6872973 0.95223141 0
3.4630003 1.6446698 0.9509815 0
3.4670002 1.6413454 0.9516958 0
3.4710002 1.6380064 0.95240998 0
3.4760003 1.6351998 0.95330286 0
3.4800003 1.6318302 0.95401716 0
3.4840002 1.6284463 0.95473146 0
3.4880002 1.6250479 0.95544577 0
3.4920003 1.6216352 0.95616019 0
3.4960003 1.6182079 0.95687449 0
3.4990003 1.6142305 0.95741022 0
3.5010002 1.6097083 0.95776725 0
3.5030003 1.6051791 0.95812452 0
3.5050004 1.6006424 0.95848167 0
3.5070002 1.5960985 0.95883882 0
3.5090003 1.5915476 0.95919597 0
3.5100002 1.5864644 0.95937455 0
3.5120003 1.5819008 0.9597317 0
3.4650002 1.7010604 0.94580984 0
3.4670002 1.6966681 0.94616342 0
3.4690003 1.6922687 0.94651699 0
3.4700003 1.6872973 0.94669378 0
3.4630003 1.6446698 0.94545639 0
3.4670002 1.6413454 0.94616342 0
3.4710002 1.6380064 0.94687057 0
3.4760003 1.6351998 0.94775438 0
3.4800003 1.6318302 0.94846153 0
3.4840002 1.6284463 0.94916856 0
3.4880002 1.6250479 0.94987559 0
3.4920003 1.6216352 0.95058274 0
3.4960003 1.6182079 0.95128989 0
3.4990003 1.6142305 0.95182025 0
3.5010002 1.6097083 0.95217371 0
3.5030003 1.6051791 0.95252728 0
3.5050004 1.6006424 0.95288086 0
3.5070002 1.5960985 0.95323443 0
3.5090003 1.5915476 0.95358789 0
3.5100002 1.5864644 0.95376468 0
3.5120003 1.5819008 0.95411825 0
3.4650002 1.7010604 0.94028115 0
3.4670002 1.6966681 0.94063115 0
3.4690003 1.6922687 0.94098115 0
3.4700003 1.6872973 0.94115603 0
3.4630003 1.6446698 0.93993127 0
3.4670002 1.6413454 0.94063115 0
3.4710002 1.6380064 0.94133103 0
3.4760003 1.6351998 0.94220591 0
3.4800003 1.6318302 0.94290578 0
3.4840002 1.6284463 0.94360566 0
3.4880002 1.6250479 0.94430554 0
3.4920003 1.6216352 0.94500542 0
3.4960003 1.6182079 0.94570529 0
3.4990003 1.6142305 0.94623017 0
3.5010002 1.6097083 0.94658005 0
3.5030003 1.6051791 0.94693005 0
3.5050004 1.6006424 0.94728005 0
3.5070002 1.5960985 0.94762993 0
3.5090003 1.5915476 0.94797993 0
3.5100002 1.5864644 0.94815481 0
3.5120003 1.5819008 0.94850481 0
3.4650002 1.7010604 0.93475246 0
3.4670002 1.6966681 0.93509889 0
3.4690003 1.6922687 0.93544519 0
3.4700003 1.6872973 0.9356184 0
3.4630003 1.6446698 0.93440628 0
3.4670002 1.6413454 0.93509889 0
3.4710002 1.6380064 0.93579149 0
3.4760003 1.6351998 0.93665743 0
3.4800003 1.6318302 0.93735003 0
3.4840002 1.6284463 0.93804276 0
3.4880002 1.6250479 0.93873537 0
3.4920003 1.6216352 0.93942809 0
3.4960003 1.6182079 0.9401207 0
3.4990003 1.6142305 0.94064021 0
3.5010002 1.6097083 0.94098651 0
3.5030003 1.6051791 0.94133282 0
3.5050004 1.6006424 0.94167912 0
3.5070002 1.5960985 0.94202554 0
3.5090003 1.5915476 0.94237185 0
3.5100002 1.5864644 0.94254494 0
3.5120003 1.5819008 0.94289136 0
3.4650002 1.7010604 0.9292239 0
3.4670002 1.6966681 0.92956662 0
3.4690003 1.6922687 0.92990935 0
3.4700003 1.6872973 0.93008065 0
3.4630003 1.6446698 0.92888117 0
3.4670002 1.6413454 0.92956662 0
3.4710002 1.6380064 0.93025196 0
3.4760003 1.6351998 0.93110883 0
3.4800003 1.6318302 0.93179429 0
3.4840002 1.6284463 0.93247974 0
3.4880002 1.6250479 0.93316519 0
3.4920003 1.6216352 0.93385065 0
3.4960003 1.6182079 0.9345361 0
3.4990003 1.6142305 0.93505025 0
3.5010002 1.6097083 0.93539286 0
3.5030003 1.6051791 0.93573558 0
3.5050004 1.6006424 0.93607843 0
3.5070002 1.5960985 0.93642104 0
3.5090003 1.5915476 0.93676376 0
3.5100002 1.5864644 0.93693519 0
3.5120003 1.5819008 0.93727791 0
3.4650002 1.7010604 0.92369521 0
3.4670002 1.6966681 0.92403436 0
3.4690003 1.6922687 0.92437351 0
3.4700003 1.6872973 0.92454302 0
3.4630003 1.6446698 0.92335606 0
3.4670002 1.6413454 0.92403436 0
3.4710002 1.6380064 0.92471254 0
3.4760003 1.6351998 0.92556036 0
3.4800003 1.6318302 0.92623854 0
3.4840002 1.6284463 0.92691672 0
3.4880002 1.6250479 0.92759502 0
3.4920003 1.6216352 0.92827332 0
3.4960003 1.6182079 0.9289515 0
3.4990003 1.6142305 0.92946017 0
3.5010002 1.6097083 0.92979932 0
3.5030003 1.6051791 0.93013835 0
3.5050004 1.6006424 0.9304775 0
3.5070002 1.5960985 0.93081665 0
3.5090003 1.5915476 0.9311558 0
3.5100002 1.5864644 0.93132532 0
3.5120003 1.5819008 0.93166447 0
3.4650002 1.7010604 0.91816652 0
3.4670002 1.6966681 0.91850209 0
3.4690003 1.6922687 0.91883755 0
3.4700003 1.6872973 0.91900527 0
3.4630003 1.6446698 0.91783106 0
3.4670002 1.6413454 0.91850209 0
3.4710002 1.6380064 0.919173 0
3.4760003 1.6351998 0.92001188 0
3.4800003 1.6318302 0.92068279 0
3.4840002 1.6284463 0.92135382 0
3.4880002 1.6250479 0.92202485 0
3.4920003 1.6216352 0.92269588 0
3.4960003 1.6182079 0.9233669 0
3.4990003 1.6142305 0.92387021 0
3.5010002 1.6097083 0.92420566 0
3.5030003 1.6051791 0.92454123 0
3.5050004 1.6006424 0.92487669 0
3.5070002 1.5960985 0.92521226 0
3.5090003 1.5915476 0.92554772 0
3.5100002 1.5864644 0.92571545 0
3.5120003 1.5819008 0.92605102 0
3.4650002 1.7010604 0.91263783 0
3.4670002 1.6966681 0.91296971 0
3.4690003 1.6922687 0.91330171 0
3.4700003 1.6872973 0.91346765 0
3.4630003 1.6446698 0.91230595 0
3.4670002 1.6413454 0.91296971 0
3.4710002 1.6380064 0.91363358 0
3.4760003 1.6351998 0.91446328 0
3.4800003 1.6318302 0.91512716 0
3.4840002 1.6284463 0.91579092 0
3.4880002 1.6250479 0.91645467 0
3.4920003 1.6216352 0.91711855 0
3.4960003 1.6182079 0.91778231 0
3.4990003 1.6142305 0.91828024 0
3.5010002 1.6097083 0.918612 0
3.5030003 1.6051791 0.918944 0
3.5050004 1.6006424 0.91927588 0
3.5070002 1.5960985 0.91960776 0
3.5090003 1.5915476 0.91993964 0
3.5100002 1.5864644 0.9201057 0
3.5120003 1.5819008 0.92043757 0
3.4650002 1.7010604 0.90710914 0
3.4670002 1.6966681 0.90743744 0
3.4690003 1.6922687 0.90776575 0
3.4700003 1.6872973 0.9079299 0
3.4630003 1.6446698 0.90678096 0
3.4670002 1.6413454 0.90743744 0
3.4710002 1.6380064 0.90809405 0
3.4760003 1.6351998 0.9089148 0
3.4800003 1.6318302 0.90957141 0
3.4840002 1.6284463 0.91022801 0
3.4880002 1.6250479 0.9108845 0
3.4920003 1.6216352 0.9115411 0
3.4960003 1.6182079 0.91219771 0
3.4990003 1.6142305 0.91269016 0
3.5010002 1.6097083 0.91301847 0
3.5030003 1.6051791 0.91334677 0
3.5050004 1.6006424 0.91367507 0
3.5070002 1.5960985 0.91400337 0
3.5090003 1.5915476 0.91433167 0
3.5100002 1.5864644 0.91449583 0
3.5120003 1.5819008 0.91482413 0
3.4650002 1.7010604 0.90158051 0
3.4670002 1.6966681 0.90190518 0
3.4690003 1.6922687 0.90222991 0
3.4700003 1.6872973 0.90239227 0
3.4630003 1.6446698 0.90125585 0
3.4670002 1.6413454 0.90190518 0
3.4710002 1.6380064 0.90255457 0
3.4760003 1.6351998 0.90336633 0
3.4800003 1.6318302 0.90401566 0
3.4840002 1.6284463 0.90466499 0
3.4880002 1.6250479 0.90531445 0
3.4920003 1.6216352 0.90596378 0
3.4960003 1.6182079 0.90661311 0
3.4990003 1.6142305 0.9071002 0
3.5010002 1.6097083 0.90742481 0
3.5030003 1.6051791 0.90774953 0
3.5050004 1.6006424 0.90807426 0
3.5070002 1.5960985 0.90839887 0
3.5090003 1.5915476 0.90872359 0
3.5100002 1.5864644 0.90888596 0
3.5120003 1.5819008 0.90921068 0
3.4650002 1.7010604 0.89605182 0
3.4670002 1.6966681 0.89637291 0
3.4690003 1.6922687 0.896694 0
3.4700003 1.6872973 0.89685452 0
3.4630003 1.6446698 0.89573079 0
3.4670002 1.6413454 0.89637291 0
3.4710002 1.6380064 0.89701509 0
3.4760003 1.6351998 0.89781773 0
3.4800003 1.6318302 0.89845991 0
3.4840002 1.6284463 0.89910209 0
3.4880002 1.6250479 0.89974421 0
3.4920003 1.6216352 0.90038639 0
3.4960003 1.6182079 0.90102851 0
3.4990003 1.6142305 0.90151012 0
3.5010002 1.6097083 0.90183127 0
3.5030003 1.6051791 0.9021523 0
3.5050004 1.6006424 0.90247345 0
3.5070002 1.5960985 0.90279448 0
3.5090003 1.5915476 0.90311557 0
3.5100002 1.5864644 0.90327609 0
3.5120003 1.5819008 0.90359718 0
3.4650002 1.7010604 0.89052314 0
3.4670002 1.6966681 0.89084065 0
3.4690003 1.6922687 0.8911581 0
3.4700003 1.6872973 0.89131683 0
3.4630003 1.6446698 0.89020568 0
3.4670002 1.6413454 0.89084065 0
3.4710002 1.6380064 0.89147556 0
3.4760003 1.6351998 0.89226925 0
3.4800003 1.6318302 0.89290416 0
3.4840002 1.6284463 0.89353907 0
3.4880002 1.6250479 0.8941741 0
3.4920003 1.6216352 0.89480901 0
3.4960003 1.6182079 0.89544398 0
3.4990003 1.6142305 0.89592016 0
3.5010002 1.6097083 0.89623761 0
3.5030003 1.6051791 0.89655513 0
3.5050004 1.6006424 0.89687258 0
3.5070002 1.5960985 0.89719009 0
3.5090003 1.5915476 0.89750755 0
3.5100002 1.5864644 0.89766628 0
3.5120003 1.5819008 0.89798373 0
3.4650002 1.7010604 0.88499451 0
3.4670002 1.6966681 0.88530838 0
3.4690003 1.6922687 0.88562226 0
3.4700003 1.6872973 0.88577914 0
3.4630003 1.6446698 0.88468063 0
3.4670002 1.6413454 0.88530838 0
3.4710002 1.6380064 0.88593608 0
3.4760003 1.6351998 0.88672078 0
3.4800003 1.6318302 0.88734847 0
3.4840002 1.6284463 0.88797617 0
3.4880002 1.6250479 0.88860393 0
3.4920003 1.6216352 0.88923168 0
3.4960003 1.6182079 0.88985938 0
3.4990003 1.6142305 0.8903302 0
3.5010002 1.6097083 0.89064407 0
3.5030003 1.6051791 0.89095795 0
3.5050004 1.6006424 0.89127171 0
3.5070002 1.5960985 0.89158559 0
3.5090003 1.5915476 0.89189953 0
3.5100002 1.5864644 0.89205641 0
3.5120003 1.5819008 0.89237028 0
3.4650002 1.7010604 0.87946582 0
3.4670002 1.6966681 0.87977612 0
3.4690003 1.6922687 0.88008636 0
3.4700003 1.6872973 0.88024151 0
3.4630003 1.6446698 0.87915564 0
3.4670002 1.6413454 0.87977612 0
3.4710002 1.6380064 0.8803966 0
3.4760003 1.6351998 0.88117224 0
3.4800003 1.6318302 0.88179272 0
3.4840002 1.6284463 0.88241327 0
3.4880002 1.6250479 0.88303375 0
3.4920003 1.6216352 0.88365424 0
3.4960003 1.6182079 0.88427478 0
3.4990003 1.6142305 0.88474011 0
3.5010002 1.6097083 0.88505042 0
3.5030003 1.6051791 0.88536066 0
3.5050004 1.6006424 0.88567096 0
3.5070002 1.5960985 0.88598114 0
3.5090003 1.5915476 0.88629144 0
3.5100002 1.5864644 0.8864466 0
3.5120003 1.5819008 0.88675684 0
3.4650002 1.7010604 0.87393713 0
3.4670002 1.6966681 0.8742438 0
3.4690003 1.6922687 0.87455046 0
3.4700003 1.6872973 0.87470376 0
3.4630003 1.6446698 0.87363052 0
3.4670002 1.6413454 0.8742438 0
3.4710002 1.6380064 0.87485707 0
3.4760003 1.6351998 0.8756237 0
3.4800003 1.6318302 0.87623703 0
3.4840002 1.6284463 0.87685031 0
3.4880002 1.6250479 0.87746358 0
3.4920003 1.6216352 0.87807691 0
3.4960003 1.6182079 0.87869018 0
3.4990003 1.6142305 0.87915015 0
3.5010002 1.6097083 0.87945676 0
3.5030003 1.6051791 0.87976348 0
3.5050004 1.6006424 0.88007009 0
3.5070002 1.5960985 0.8803767 0
3.5090003 1.5915476 0.88068342 0
3.5100002 1.5864644 0.88083673 0
3.5120003 1.5819008 0.88114339 0
3.4650002 1.7010604 0.86840844 0
3.4670002 1.6966681 0.86871153 0
3.4690003 1.6922687 0.86901462 0
3.4700003 1.6872973 0.86916608 0
3.4630003 1.6446698 0.86810547 0
3.4670002 1.6413454 0.86871153 0
3.4710002 1.6380064 0.86931765 0
3.4760003 1.6351998 0.87007523 0
3.4800003 1.6318302 0.87068129 0
3.4840002 1.6284463 0.87128735 0
3.4880002 1.6250479 0.87189341 0
3.4920003 1.6216352 0.87249959 0
3.4960003 1.6182079 0.87310565 0
3.4990003 1.6142305 0.87356019 0
3.5010002 1.6097083 0.87386322 0
3.5030003 1.6051791 0.87416625 0
3.5050004 1.6006424 0.87446928 0
3.5070002 1.5960985 0.87477231 0
3.5090003 1.5915476 0.87507534 0
3.5100002 1.5864644 0.87522686 0
3.5120003 1.5819008 0.87552994 0
3.4650002 1.7010604 0.86287975 0
3.4670002 1.6966681 0.86317927 0
3.4690003 1.6922687 0.86347866 0
3.4700003 1.6872973 0.86362839 0
3.4630003 1.6446698 0.86258042 0
3.4670002 1.6413454 0.86317927 0
3.4710002 1.6380064 0.86377811 0
3.4760003 1.6351998 0.86452669 0
3.4800003 1.6318302 0.86512554 0
3.4840002 1.6284463 0.86572444 0
3.4880002 1.6250479 0.86632329 0
3.4920003 1.6216352 0.86692214 0
3.4960003 1.6182079 0.86752105 0
3.4990003 1.6142305 0.86797011 0
3.5010002 1.6097083 0.86826956 0
3.5030003 1.6051791 0.86856902 0
3.5050004 1.6006424 0.86886847 0
3.5070002 1.5960985 0.86916792 0
3.5090003 1.5915476 0.86946738 0
3.5100002 1.5864644 0.86961699 0
3.5120003 1.5819008 0.86991644 0
3.4650002 1.7010604 0.85735112 0
3.4670002 1.6966681 0.85764694 0
3.4690003 1.6922687 0.85794282 0
3.4700003 1.6872973 0.85809076 0
3.4630003 1.6446698 0.85705531 0
3.4670002 1.6413454 0.85764694 0
3.4710002 1.6380064 0.85823858 0
3.4760003 1.6351998 0.85897815 0
3.4800003 1.6318302 0.85956979 0
3.4840002 1.6284463 0.86016148 0
3.4880002 1.6250479 0.86075306 0
3.4920003 1.6216352 0.86134481 0
3.4960003 1.6182079 0.86193645 0
3.4990003 1.6142305 0.86238015 0
3.5010002 1.6097083 0.86267602 0
3.5030003 1.6051791 0.86297178 0
3.5050004 1.6006424 0.86326766 0
3.5070002 1.5960985 0.86356342 0
3.5090003 1.5915476 0.8638593 0
3.5100002 1.5864644 0.86400717 0
3.5120003 1.5819008 0.86430299 0
3.4650002 1.7010604 0.85182244 0
3.4670002 1.6966681 0.85211468 0
3.4690003 1.6922687 0.85240692 0
3.4700003 1.6872973 0.85255301 0
3.4630003 1.6446698 0.85153025 0
3.4670002 1.6413454 0.85211468 0
3.4710002 1.6380064 0.8526991 0
3.4760003 1.6351998 0.85342968 0
3.4800003 1.6318302 0.8540141 0
3.4840002 1.6284463 0.85459852 0
3.4880002 1.6250479 0.85518295 0
3.4920003 1.6216352 0.85576743 0
3.4960003 1.6182079 0.85635185 0
3.4990003 1.6142305 0.85679018 0
3.5010002 1.6097083 0.85708237 0
3.5030003 1.6051791 0.85737461 0
3.5050004 1.6006424 0.85766685 0
3.5070002 1.5960985 0.85795903 0
3.5090003 1.5915476 0.85825121 0
3.5100002 1.5864644 0.85839736 0
3.5120003 1.5819008 0.85868955 0
3.4650002 1.7010604 0.84629381 0
3.4670002 1.6966681 0.84658241 0
3.4690003 1.6922687 0.84687102 0
3.4700003 1.6872973 0.84701526 0
3.4630003 1.6446698 0.8460052 0
3.4670002 1.6413454 0.84658241 0
3.4710002 1.6380064 0.84715962 0
3.4760003 1.6351998 0.8478812 0
3.4800003 1.6318302 0.84845835 0
3.4840002 1.6284463 0.84903556 0
3.4880002 1.6250479 0.84961283 0
3.4920003 1.6216352 0.85019004 0
3.4960003 1.6182079 0.85076725 0
3.4990003 1.6142305 0.85120016 0
3.5010002 1.6097083 0.85148871 0
3.5030003 1.6051791 0.85177737 0
3.5050004 1.6006424 0.85206604 0
3.5070002 1.5960985 0.85235459 0
3.5090003 1.5915476 0.85264319 0
3.5100002 1.5864644 0.85278749 0
3.5120003 1.5819008 0.8530761 0
3.4650002 1.7010604 0.84076512 0
3.4670002 1.6966681 0.84105015 0
3.4690003 1.6922687 0.84133518 0
3.4700003 1.6872973 0.84147763 0
3.4630003 1.6446698 0.84048015 0
3.4670002 1.6413454 0.84105015 0
3.4710002 1.6380064 0.84162009 0
3.4760003 1.6351998 0.8423326 0
3.4800003 1.6318302 0.84290266 0
3.4840002 1.6284463 0.8434726 0
3.4880002 1.6250479 0.84404266 0
3.4920003 1.6216352 0.84461266 0
3.4960003 1.6182079 0.84518266 0
3.4990003 1.6142305 0.84561014 0
3.5010002 1.6097083 0.84589517 0
3.5030003 1.6051791 0.84618014 0
3.5050004 1.6006424 0.84646517 0
3.5070002 1.5960985 0.84675014 0
3.5090003 1.5915476 0.84703517 0
3.5100002 1.5864644 0.84717768 0
3.5120003 1.5819008 0.84746265 0
3.4650002 1.7010604 0.83523643 0
3.4670002 1.6966681 0.83551788 0
3.4690003 1.6922687 0.83579922 0
3.4700003 1.6872973 0.83593988 0
3.4630003 1.6446698 0.8349551 0
3.4670002 1.6413454 0.83551788 0
3.4710002 1.6380064 0.83608067 0
3.4760003 1.6351998 0.83678412 0
3.4800003 1.6318302 0.83734691 0
3.4840002 1.6284463 0.8379097 0
3.4880002 1.6250479 0.83847249 0
3.4920003 1.6216352 0.83903527 0
3.4960003 1.6182079 0.83959806 0
3.4990003 1.6142305 0.84002018 0
3.5010002 1.6097083 0.84030151 0
3.5030003 1.6051791 0.84058297 0
3.5050004 1.6006424 0.8408643 0
3.5070002 1.5960985 0.84114575 0
3.5090003 1.5915476 0.84142709 0
3.5100002 1.5864644 0.84156781 0
3.5120003 1.5819008 0.84184921 0
3.4650002 1.7010604 0.82970774 0
3.4670002 1.6966681 0.82998556 0
3.4690003 1.6922687 0.83026338 0
3.4700003 1.6872973 0.83040226 0
3.4630003 1.6446698 0.82942998 0
3.4670002 1.6413454 0.82998556 0
3.4710002 1.6380064 0.83054113 0
3.4760003 1.6351998 0.83123565 0
3.4800003 1.6318302 0.83179116 0
3.4840002 1.6284463 0.83234674 0
3.4880002 1.6250479 0.83290231 0
3.4920003 1.6216352 0.83345789 0
3.4960003 1.6182079 0.83401346 0
3.4990003 1.6142305 0.83443016 0
3.5010002 1.6097083 0.83470792 0
3.5030003 1.6051791 0.83498573 0
3.5050004 1.6006424 0.83526349 0
3.5070002 1.5960985 0.83554131 0
3.5090003 1.5915476 0.83581913 0
3.5100002 1.5864644 0.835958 0
3.5120003 1.5819008 0.83623576 0
3.4650002 1.7010604 0.82417905 0
3.4670002 1.6966681 0.82445329 0
3.4690003 1.6922687 0.82472748 0
3.4700003 1.6872973 0.82486451 0
3.4630003 1.6446698 0.82390493 0
3.4670002 1.6413454 0.82445329 0
3.4710002 1.6380064 0.8250016 0
3.4760003 1.6351998 0.82568711 0
3.4800003 1.6318302 0.82623541 0
3.4840002 1.6284463 0.82678378 0
3.4880002 1.6250479 0.82733214 0
3.4920003 1.6216352 0.8278805 0
3.4960003 1.6182079 0.82842886 0
3.4990003 1.6142305 0.82884014 0
3.5010002 1.6097083 0.82911432 0
3.5030003 1.6051791 0.8293885 0
3.5050004 1.6006424 0.82966268 0
3.5070002 1.5960985 0.82993686 0
3.5090003 1.5915476 0.83021104 0
3.5100002 1.5864644 0.83034813 0
3.5120003 1.5819008 0.83062232 0
3.4650002 1.7010604 0.81865042 0
3.4670002 1.6966681 0.81892097 0
3.4690003 1.6922687 0.81919158 0
3.4700003 1.6872973 0.81932688 0
3.4630003 1.6446698 0.81837988 0
3.4670002 1.6413454 0.81892097 0
3.4710002 1.6380064 0.81946218 0
3.4760003 1.6351998 0.82013857 0
3.4800003 1.6318302 0.82067972 0
3.4840002 1.6284463 0.82122087 0
3.4880002 1.6250479 0.82176197 0
3.4920003 1.6216352 0.82230318 0
3.4960003 1.6182079 0.82284427 0
3.4990003 1.6142305 0.82325017 0
3.5010002 1.6097083 0.82352072 0
3.5030003 1.6051791 0.82379127 0
3.5050004 1.6006424 0.82406187 0
3.5070002 1.5960985 0.82433242 0
3.5090003 1.5915476 0.82460302 0
3.5100002 1.5864644 0.82473826 0
3.5120003 1.5819008 0.82500887 0
3.4650002 1.7010604 0.81312174 0
3.4670002 1.6966681 0.81338871 0
3.4690003 1.6922687 0.81365573 0
3.4700003 1.6872973 0.81378913 0
3.4630003 1.6446698 0.81285477 0
3.4670002 1.6413454 0.81338871 0
3.4710002 1.6380064 0.81392264 0
3.4760003 1.6351998 0.8145901 0
3.4800003 1.6318302 0.81512403 0
3.4840002 1.6284463 0.81565791 0
3.4880002 1.6250479 0.81619179 0
3.4920003 1.6216352 0.81672573 0
3.4960003 1.6182079 0.81725967 0
3.4990003 1.6142305 0.81766015 0
3.5010002 1.6097083 0.81792712 0
3.5030003 1.6051791 0.81819403 0
3.5050004 1.6006424 0.81846106 0
3.5070002 1.5960985 0.81872797 0
3.5090003 1.5915476 0.818995 0
3.5100002 1.5864644 0.81912845 0
3.5120003 1.5819008 0.81939542 0
3.4650002 1.7010604 0.80759311 0
3.4670002 1.6966681 0.80785644 0
3.4690003 1.6922687 0.80811977 0
3.4700003 1.6872973 0.8082515 0
3.4630003 1.6446698 0.80732977 0
3.4670002 1.6413454 0.80785644 0
3.4710002 1.6380064 0.80838317 0
3.4760003 1.6351998 0.80904156 0
3.4800003 1.6318302 0.80956829 0
3.4840002 1.6284463 0.81009495 0
3.4880002 1.6250479 0.81062168 0
3.4920003 1.6216352 0.81114841 0
3.4960003 1.6182079 0.81167507 0
3.4990003 1.6142305 0.81207013 0
3.5010002 1.6097083 0.81233346 0
3.5030003 1.6051791 0.81259686 0
3.5050004 1.6006424 0.81286025 0
3.5070002 1.5960985 0.81312358 0
3.5090003 1.5915476 0.81338692 0
3.5100002 1.5864644 0.81351864 0
3.5120003 1.5819008 0.81378198 0
3.4650002 1.7010604 0.80206442 0
3.4670002 1.6966681 0.80232418 0
3.4690003 1.6922687 0.80258393 0
3.4700003 1.6872973 0.80271375 0
3.4630003 1.6446698 0.80180466 0
3.4670002 1.6413454 0.80232418 0
3.4710002 1.6380064 0.80284363 0
3.4760003 1.6351998 0.80349302 0
3.4800003 1.6318302 0.80401254 0
3.4840002 1.6284463 0.80453205 0
3.4880002 1.6250479 0.80505151 0
3.4920003 1.6216352 0.80557108 0
3.4960003 1.6182079 0.80609053 0
3.4990003 1.6142305 0.80648017 0
3.5010002 1.6097083 0.80673987 0
3.5030003 1.6051791 0.80699968 0
3.5050004 1.6006424 0.80725938 0
3.5070002 1.5960985 0.80751914 0
3.5090003 1.5915476 0.80777889 0
3.5100002 1.5864644 0.80790877 0
3.5120003 1.5819008 0.80816853 0
3.4650002 1.7010604 0.79653573 0
3.4670002 1.6966681 0.79679191 0
3.4690003 1.6922687 0.79704803 0
3.4700003 1.6872973 0.79717612 0
3.4630003 1.6446698 0.79627961 0
3.4670002 1.6413454 0.79679191 0
3.4710002 1.6380064 0.79730415 0
3.4760003 1.6351998 0.79794455 0
3.4800003 1.6318302 0.79845679 0
3.4840002 1.6284463 0.79896903 0
3.4880002 1.6250479 0.79948133 0
3.4920003 1.6216352 0.79999363 0
3.4960003 1.6182079 0.80050594 0
3.4990003 1.6142305 0.80089015 0
3.5010002 1.6097083 0.80114627 0
3.5030003 1.6051791 0.80140245 0
3.5050004 1.6006424 0.80165857 0
3.5070002 1.5960985 0.80191469 0
3.5090003 1.5915476 0.80217087 0
3.5100002 1.5864644 0.8022989 0
3.5120003 1.5819008 0.80255508 0
3.4650002 1.7010604 0.79100704 0
3.4670002 1.6966681 0.79125965 0
3.4690003 1.6922687 0.79151213 0
3.4700003 1.6872973 0.79163837 0
3.4630003 1.6446698 0.79075456 0
3.4670002 1.6413454 0.79125965 0
3.4710002 1.6380064 0.79176462 0
3.4760003 1.6351998 0.79239601 0
3.4800003 1.6318302 0.79290104 0
3.4840002 1.6284463 0.79340613 0
3.4880002 1.6250479 0.79391122 0
3.4920003 1.6216352 0.79441631 0
3.4960003 1.6182079 0.79492134 0
3.4990003 1.6142305 0.79530013 0
3.5010002 1.6097083 0.79555267 0
3.5030003 1.6051791 0.79580522 0
3.5050004 1.6006424 0.79605776 0
3.5070002 1.5960985 0.79631025 0
3.5090003 1.5915476 0.79656279 0
3.5100002 1.5864644 0.79668903 0
3.5120003 1.5819008 0.79694164 0
3.4650002 1.7010604 0.78547835 0
3.4670002 1.6966681 0.78572732 0
3.4690003 1.6922687 0.78597629 0
3.4700003 1.6872973 0.78610075 0
3.4630003 1.6446698 0.78522944 0
3.4670002 1.6413454 0.78572732 0
3.4710002 1.6380064 0.7862252 0
3.4760003 1.6351998 0.78684747 0
3.4800003 1.6318302 0.78734529 0
3.4840002 1.6284463 0.78784317 0
3.4880002 1.6250479 0.78834105 0
3.4920003 1.6216352 0.78883892 0
3.4960003 1.6182079 0.78933674 0
3.4990003 1.6142305 0.78971016 0
3.5010002 1.6097083 0.78995907 0
3.5030003 1.6051791 0.79020798 0
3.5050004 1.6006424 0.79045689 0
3.5070002 1.5960985 0.7907058 0
3.5090003 1.5915476 0.79095477 0
3.5100002 1.5864644 0.79107922 0
3.5120003 1.5819008 0.79132819 0
3.4650002 1.7010604 0.77994967 0
3.4670002 1.6966681 0.78019506 0
3.4690003 1.6922687 0.78044033 0
3.4700003 1.6872973 0.780563 0
3.4630003 1.6446698 0.77970445 0
3.4670002 1.6413454 0.78019506 0
3.4710002 1.6380064 0.78068566 0
3.4760003 1.6351998 0.781299 0
3.4800003 1.6318302 0.78178966 0
3.4840002 1.6284463 0.78228021 0
3.4880002 1.6250479 0.78277087 0
3.4920003 1.6216352 0.78326154 0
3.4960003 1.6182079 0.7837522 0
3.4990003 1.6142305 0.78412014 0
3.5010002 1.6097083 0.78436542 0
3.5030003 1.6051791 0.78461075 0
3.5050004 1.6006424 0.78485608 0
3.5070002 1.5960985 0.78510141 0
3.5090003 1.5915476 0.78534675 0
3.5100002 1.5864644 0.78546941 0
3.5120003 1.5819008 0.78571475 0
3.4650002 1.7010604 0.7744211 0
3.4670002 1.6966681 0.77466273 0
3.4690003 1.6922687 0.77490449 0
3.4700003 1.6872973 0.77502537 0
3.4630003 1.6446698 0.77417934 0
3.4670002 1.6413454 0.77466273 0
3.4710002 1.6380064 0.77514619 0
3.4760003 1.6351998 0.77575046 0
3.4800003 1.6318302 0.77623391 0
3.4840002 1.6284463 0.77671731 0
3.4880002 1.6250479 0.7772007 0
3.4920003 1.6216352 0.77768415 0
3.4960003 1.6182079 0.77816755 0
3.4990003 1.6142305 0.77853012 0
3.5010002 1.6097083 0.77877182 0
3.5030003 1.6051791 0.77901357 0
3.5050004 1.6006424 0.77925527 0
3.5070002 1.5960985 0.77949697 0
3.5090003 1.5915476 0.77973866 0
3.5100002 1.5864644 0.77985954 0
3.5120003 1.5819008 0.78010124 0
3.4650002 1.7010604 0.76889241 0
3.4670002 1.6966681 0.76913047 0
3.4690003 1.6922687 0.76936859 0
3.4700003 1.6872973 0.76948762 0
3.4630003 1.6446698 0.76865429 0
3.4670002 1.6413454 0.76913047 0
3.4710002 1.6380064 0.76960671 0
3.4760003 1.6351998 0.77020198 0
3.4800003 1.6318302 0.77067816 0
3.4840002 1.6284463 0.77115434 0
3.4880002 1.6250479 0.77163053 0
3.4920003 1.6216352 0.77210677 0
3.4960003 1.6182079 0.77258301 0
3.4990003 1.6142305 0.77294016 0
3.5010002 1.6097083 0.77317822 0
3.5030003 1.6051791 0.77341628 0
3.5050004 1.6006424 0.77365446 0
3.5070002 1.5960985 0.77389252 0
3.5090003 1.5915476 0.77413064 0
3.5100002 1.5864644 0.77424967 0
3.5120003 1.5819008 0.77448779 0
3.4650002 1.7010604 0.76336372 0
3.4670002 1.6966681 0.7635982 0
3.4690003 1.6922687 0.76383269 0
3.4700003 1.6872973 0.76394999 0
3.4630003 1.6446698 0.76312923 0
3.4670002 1.6413454 0.7635982 0
3.4710002 1.6380064 0.76406717 0
3.4760003 1.6351998 0.76465344 0
3.4800003 1.6318302 0.76512241 0
3.4840002 1.6284463 0.76559138 0
3.4880002 1.6250479 0.76606035 0
3.4920003 1.6216352 0.76652938 0
3.4960003 1.6182079 0.76699841 0
3.4990003 1.6142305 0.76735014 0
3.5010002 1.6097083 0.76758462 0
3.5030003 1.6051791 0.76781911 0
3.5050004 1.6006424 0.76805365 0
3.5070002 1.5960985 0.76828814 0
3.5090003 1.5915476 0.76852262 0
3.5100002 1.5864644 0.7686398 0
3.5120003 1.5819008 0.76887435 0
3.4650002 1.7010604 0.75783503 0
3.4670002 1.6966681 0.75806594 0
3.4690003 1.6922687 0.75829685 0
3.4700003 1.6872973 0.75841224 0
3.4630003 1.6446698 0.75760412 0
3.4670002 1.6413454 0.75806594 0
3.4710002 1.6380064 0.7585277 0
3.4760003 1.6351998 0.75910497 0
3.4800003 1.6318302 0.75956666 0
3.4840002 1.6284463 0.76002848 0
3.4880002 1.6250479 0.76049024 0
3.4920003 1.6216352 0.760952 0
3.4960003 1.6182079 0.76141381 0
3.4990003 1.6142305 0.76176012 0
3.5010002 1.6097083 0.76199102 0
3.5030003 1.6051791 0.76222193 0
3.5050004 1.6006424 0.76245284 0
3.5070002 1.5960985 0.76268363 0
3.5090003 1.5915476 0.76291454 0
3.5100002 1.5864644 0.76302999 0
3.5120003 1.5819008 0.7632609 0
3.4650002 1.7010604 0.75230634 0
3.4670002 1.6966681 0.75253367 0
3.4690003 1.6922687 0.75276095 0
3.4700003 1.6872973 0.75287455 0
3.4630003 1.6446698 0.75207913 0
3.4670002 1.6413454 0.75253367 0
3.4710002 1.6380064 0.75298822 0
3.4760003 1.6351998 0.75355637 0
3.4800003 1.6318302 0.75401098 0
3.4840002 1.6284463 0.75446552 0
3.4880002 1.6250479 0.75492007 0
3.4920003 1.6216352 0.75537467 0
3.4960003 1.6182079 0.75582922 0
3.4990003 1.6142305 0.75617015 0
3.5010002 1.6097083 0.75639737 0
3.5030003 1.6051791 0.7566247 0
3.5050004 1.6006424 0.75685197 0
3.5070002 1.5960985 0.75707924 0
3.5090003 1.5915476 0.75730658 0
3.5100002 1.5864644 0.75742018 0
3.5120003 1.5819008 0.75764745 0
3.4650002 1.7010604 0.74677765 0
3.4670002 1.6966681 0.74700135 0
3.4690003 1.6922687 0.74722505 0
3.4700003 1.6872973 0.74733686 0
3.4630003 1.6446698 0.74655402 0
3.4670002 1.6413454 0.74700135 0
3.4710002 1.6380064 0.74744868 0
3.4760003 1.6351998 0.74800789 0
3.4800003 1.6318302 0.74845523 0
3.4840002 1.6284463 0.74890256 0
3.4880002 1.6250479 0.74934995 0
3.4920003 1.6216352 0.74979722 0
3.4960003 1.6182079 0.75024462 0
3.4990003 1.6142305 0.75058013 0
3.5010002 1.6097083 0.75080383 0
3.5030003 1.6051791 0.75102746 0
3.5050004 1.6006424 0.7512511 0
3.5070002 1.5960985 0.7514748 0
3.5090003 1.5915476 0.75169849 0
