# .PCD v0.7 - Point Cloud Data file format
VERSION 0.7
FIELDS x y z intensity
SIZE 4 4 4 4
TYPE F F F F
COUNT 1 1 1 1
WIDTH 1462
HEIGHT 1
VIEWPOINT 0 0 0 1 0 0 0
POINTS 1462
DATA ascii
5.8430004 2.8994386 1.0716327 0
5.8520002 2.8944743 1.0727366 0
5.8600001 2.8889401 1.073718 0
5.8700004 2.8844488 1.0749445 0
5.8810005 2.8804553 1.0762938 0
5.7980003 3.0308783 1.0563761 0
5.7960005 3.020005 1.0561345 0
5.7950006 3.0097053 1.0560136 0
5.7940001 2.999409 1.0558927 0
5.7950006 2.9902422 1.0560136 0
5.7950006 2.9805107 1.0560136 0
5.7970004 2.9718974 1.0562553 0
5.7990003 2.9632769 1.056497 0
5.8020005 2.9552052 1.0568595 0
5.8050003 2.9471221 1.0572221 0
5.8090005 2.9395807 1.0577055 0
5.8130002 2.9320242 1.0581889 0
5.8180003 2.9250019 1.0587932 0
5.8230004 2.9179618 1.0593976 0
5.8290005 2.9114482 1.0601226 0
5.8360004 2.9054561 1.0609686 0
5.8430004 2.8994386 1.0618147 0
5.8510003 2.8939352 1.0627815 0
5.8600001 2.8889401 1.0638691 0
5.8690004 2.883913 1.0649569 0
5.8800006 2.8799214 1.0662863 0
5.8000002 3.0320182 1.0468773 0
5.7970004 3.0205731 1.0465201 0
5.7960005 3.0102718 1.046401 0
5.7950006 2.9999738 1.0462821 0
5.7950006 2.9902422 1.0462821 0
5.7960005 2.9810717 1.046401 0
5.7980003 2.9724567 1.0466392 0
5.8000002 2.9638343 1.0468773 0
5.8030005 2.9557607 1.0472344 0
5.8060002 2.9476759 1.0475916 0
5.8100004 2.9401324 1.0480678 0
5.8140001 2.9325743 1.0485439 0
5.8180003 2.9250019 1.0490202 0
5.8240004 2.9185083 1.0497345 0
5.8300004 2.911993 1.0504488 0
5.8360004 2.9054561 1.0511632 0
5.8430004 2.8994386 1.0519965 0
5.8510003 2.8939352 1.052949 0
5.8600001 2.8889401 1.0540204 0
5.8690004 2.883913 1.0550917 0
5.8800006 2.8799214 1.0564014 0
5.8010001 3.0325882 1.037254 0
5.7980003 3.0211415 1.0369022 0
5.7970004 3.010838 1.036785 0
5.7960005 3.0005383 1.0366677 0
5.7960005 2.9908051 1.0366677 0
5.7970004 2.9816325 1.036785 0
5.7990003 2.9730158 1.0370194 0
5.8010001 2.9643917 1.037254 0
5.8030005 2.9557607 1.0374885 0
5.8070002 2.9482296 1.0379574 0
5.8100004 2.9401324 1.0383092 0
5.8150005 2.9331245 1.0388955 0
5.8190002 2.9255505 1.0393645 0
5.8250003 2.9190547 1.0400679 0
5.8310003 2.9125378 1.0407714 0
5.8370004 2.9059989 1.0414749 0
5.8440003 2.8999796 1.0422956 0
5.8520002 2.8944743 1.0432335 0
5.8600001 2.8889401 1.0441716 0
5.8700004 2.8844488 1.045344 0
5.8810005 2.8804553 1.0466337 0
5.8040004 3.0342984 1.0278579 0
5.8010001 3.022846 1.0275116 0
5.7990003 3.0119708 1.0272807 0
5.7990003 3.0022321 1.0272807 0
5.7990003 2.9924932 1.0272807 0
5.7990003 2.9827547 1.0272807 0
5.8010001 2.9741342 1.0275116 0
5.8030005 2.9655066 1.0277425 0
5.8060002 2.9574273 1.0280888 0
5.8090005 2.9493372 1.0284351 0
5.8120003 2.9412363 1.0287814 0
5.8170004 2.9342248 1.0293587 0
5.8210006 2.9266472 1.0298204 0
5.8260002 2.9196012 1.0303977 0
5.8320003 2.9130824 1.0310904 0
5.8390002 2.9070847 1.0318984 0
5.8460002 2.9010618 1.0327065 0
5.8540006 2.8955531 1.0336301 0
5.8620005 2.8900156 1.0345536 0
5.8720002 2.8855202 1.0357081 0
5.8820004 2.8809891 1.0368625 0
5.8070002 3.0360084 1.018451 0
5.8040004 3.0245507 1.0181102 0
5.8020005 3.0136702 1.0178828 0
5.8020005 3.003926 1.0178828 0
5.8010001 2.993619 1.0177692 0
5.8020005 2.9844375 1.0178828 0
5.8030005 2.9752524 1.0179964 0
5.8050003 2.9666212 1.0182238 0
5.8080006 2.9585385 1.0185647 0
5.8110003 2.9504449 1.0189056 0
5.8150005 2.9428923 1.0193602 0
5.8190002 2.9353251 1.0198147 0
5.8240004 2.9282923 1.0203829 0
5.8290005 2.921241 1.0209512 0
5.8350005 2.9147167 1.021633 0
5.8410006 2.9081707 1.0223148 0
5.8480005 2.9021442 1.0231103 0
5.8560004 2.8966317 1.0240195 0
5.8640003 2.8910904 1.0249286 0
5.8740005 2.8865917 1.026065 0
5.8850002 2.8825908 1.027315 0
5.8080006 3.0268235 1.0088097 0
5.8060002 3.0159354 1.008586 0
5.8050003 3.0056195 1.0084742 0
5.8050003 2.9958701 1.0084742 0
5.8060002 2.9866812 1.008586 0
5.8070002 2.9774892 1.0086979 0
5.8090005 2.9688509 1.0089216 0
5.8110003 2.9602053 1.0091453 0
5.8140001 2.952106 1.0094807 0
5.8180003 2.9445481 1.0099281 0
5.8220005 2.9369757 1.0103754 0
5.8270001 2.9299371 1.0109346 0
5.8320003 2.9228806 1.0114937 0
5.8380003 2.9163508 1.0121647 0
5.8440003 2.9097996 1.0128357 0
5.8510003 2.9037676 1.0136186 0
5.8590002 2.8982499 1.0145134 0
5.8680005 2.8932407 1.0155199 0
5.8780003 2.8887346 1.0166383 0
5.8890004 2.8847268 1.0178684 0
5.8140001 3.0302324 0.99971485 0
5.8120003 3.0193338 0.99949479 0
5.8100004 3.0084426 0.99927473 0
5.8100004 2.9986839 0.99927473 0
5.8100004 2.9889255 0.99927473 0
5.8110003 2.9797258 0.99938476 0
5.8130002 2.9710803 0.99960482 0
5.8150005 2.9624276 0.999825 0
5.8180003 2.9543211 1.000155 0
5.8210006 2.9462042 1.0004852 0
5.8260002 2.9391763 1.0010352 0
5.8310003 2.9321306 1.0015855 0
5.8360004 2.9250672 1.0021356 0
5.8420005 2.91853 1.0027958 0
5.8480005 2.9119713 1.003456 0
5.8550005 2.9059322 1.0042262 0
5.8630004 2.9004073 1.0051064 0
5.8720002 2.8953905 1.0060967 0
5.8820004 2.8908775 1.007197 0
5.8170004 3.022166 0.99027371 0
5.8160005 3.0118303 0.99016559 0
5.8150005 3.001498 0.99005735 0
5.8150005 2.9917305 0.99005735 0
5.8160005 2.9825218 0.99016559 0
5.8180003 2.9738672 0.99038196 0
5.8200002 2.9652052 0.99059844 0
5.8230004 2.9570899 0.99092317 0
5.8270001 2.9495156 0.99135602 0
5.8310003 2.9419272 0.99178898 0
5.8350005 2.9343243 0.99222195 0
5.8400002 2.9272532 0.99276292 0
5.8460002 2.9207089 0.99341238 0
5.8530002 2.914686 0.99416995 0
5.8600001 2.9086378 0.99492753 0
5.8690004 2.9036431 0.9959017 0
5.8780003 2.8986158 0.99687576 0
5.8230004 3.0157821 0.98114109 0
5.8220005 3.0054376 0.98103464 0
5.8220005 2.9956574 0.98103464 0
5.8230004 2.9864361 0.98114109 0
5.8240004 2.9772115 0.98124754 0
5.8260002 2.9685385 0.98146033 0
5.8290005 2.9604127 0.98177969 0
5.8320003 2.9522755 0.98209894 0
5.8360004 2.9446781 0.98252463 0
5.8410006 2.9376142 0.98305678 0
5.8460002 2.9305325 0.98358881 0
5.8520002 2.9239774 0.98422742 0
5.8590002 2.9179437 0.98497236 0
5.8670006 2.912426 0.98582387 0
5.8750005 2.9068792 0.98667514 0
5.8290005 2.999584 0.97198677 0
5.8290005 2.9897912 0.97198677 0
5.8310003 2.9811132 0.97219598 0
5.8330002 2.9724276 0.9724052 0
5.8360004 2.9642889 0.97271907 0
5.8390002 2.9561391 0.97303295 0
5.8430004 2.9485292 0.9734515 0
5.8480005 2.941453 0.97397459 0
5.8530002 2.9343584 0.97449768 0
5.8590002 2.9277906 0.97512543 0
5.8660002 2.9217441 0.97585773 0
5.8740005 2.916214 0.9766947 0
5.8400002 2.9959421 0.9633249 0
5.8400002 2.9861293 0.9633249 0
5.8420005 2.977428 0.96353054 0
5.8440003 2.9687192 0.96373618 0
5.8470001 2.9605548 0.96404457 0
5.8510003 2.9529305 0.96445584 0
5.8560004 2.9458396 0.96496987 0
5.8620005 2.9392774 0.9655869 0
5.8680005 2.9326937 0.96620381 0
5.8750005 2.926631 0.96692348 0
5.8290005 2.9897912 0.95240104 0
5.8530002 2.9835391 0.95482528 0
5.8550005 2.9748108 0.95502734 0
5.8580003 2.9666266 0.95533037 0
5.8620005 2.9589822 0.95573449 0
5.8660002 2.9513233 0.95613849 0
5.8720002 2.9447427 0.95674455 0
5.8790002 2.9386857 0.9574517 0
5.8250003 2.9777689 0.94221127 0
5.8400002 2.9763167 0.94369948 0
5.8550005 2.9748108 0.94518757 0
5.8750005 2.9661343 0.94717181 0
5.8800006 2.9590003 0.94766784 0
5.8860002 2.9523947 0.94826305 0
5.7490005 3.0125968 0.92502284 0
5.7510004 3.0040884 0.92521763 0
5.7550001 2.9967086 0.9256072 0
5.7600002 2.9898813 0.92609429 0
5.7670002 2.984165 0.92677605 0
5.7750006 2.9789865 0.92755544 0
5.8290005 2.9702055 0.93281531 0
5.8430004 2.9681654 0.93417895 0
5.8580003 2.9666266 0.93563998 0
5.8730001 2.9650338 0.93710113 0
5.7460003 3.0205245 0.91508746 0
5.7470002 3.0114532 0.91518295 0
5.7490005 3.0029483 0.91537428 0
5.7530003 2.9955723 0.9157567 0
5.7580004 2.9887486 0.91623473 0
5.7640004 2.9824715 0.91680825 0
5.7720003 2.977298 0.91757309 0
5.7820005 2.973218 0.91852915 0
5.7950006 2.9707792 0.91977191 0
5.8370004 2.9648428 0.92378724 0
5.8510003 2.9627631 0.9251256 0
5.8650002 2.9606326 0.92646408 0
5.8790002 2.9584517 0.92780244 0
5.7460003 3.0205245 0.90544426 0
5.7470002 3.0114532 0.90553808 0
5.7490005 3.0029483 0.90572572 0
5.7530003 2.9955723 0.90610087 0
5.7580004 2.9887486 0.90656984 0
5.7640004 2.9824715 0.90713263 0
5.7710004 2.9767354 0.90778923 0
5.7810001 2.9726567 0.90872717 0
5.7940001 2.9702199 0.90994656 0
5.8070002 2.967736 0.91116595 0
5.8480005 2.9611073 0.91501164 0
5.8620005 2.9589822 0.91632485 0
5.7470002 3.0307429 0.8958931 0
5.7460003 3.0205245 0.89580107 0
5.7470002 3.0114532 0.8958931 0
5.7490005 3.0029483 0.8960771 0
5.7530003 2.9955723 0.8964451 0
5.7580004 2.9887486 0.89690506 0
5.7640004 2.9824715 0.897457 0
5.7710004 2.9767354 0.89810097 0
5.7810001 2.9726567 0.89902091 0
5.7940001 2.9702199 0.90021682 0
5.8070002 2.967736 0.90141273 0
5.7470002 3.0307429 0.88624811 0
5.7460003 3.0205245 0.88615799 0
5.7470002 3.0114532 0.88624811 0
5.7490005 3.0029483 0.88642853 0
5.7530003 2.9955723 0.88678926 0
5.7580004 2.9887486 0.88724029 0
5.7640004 2.9824715 0.88778138 0
5.7710004 2.9767354 0.88841271 0
5.7810001 2.9726567 0.88931453 0
5.7940001 2.9702199 0.89048707 0
5.8070002 2.967736 0.89165956 0
5.7470002 3.0307429 0.87660313 0
5.7460003 3.0205245 0.87651479 0
5.7470002 3.0114532 0.87660313 0
5.7490005 3.0029483 0.87677991 0
5.7530003 2.9955723 0.87713349 0
5.7580004 2.9887486 0.87757546 0
5.7640004 2.9824715 0.87810576 0
5.7710004 2.9767354 0.87872446 0
5.7810001 2.9726567 0.87960827 0
5.7940001 2.9702199 0.88075733 0
5.8070002 2.967736 0.88190633 0
5.7470002 3.0307429 0.8669582 0
5.7460003 3.0205245 0.8668716 0
5.7470002 3.0114532 0.8669582 0
5.7490005 3.0029483 0.86713135 0
5.7530003 2.9955723 0.86747766 0
5.7580004 2.9887486 0.86791062 0
5.7640004 2.9824715 0.86843014 0
5.7710004 2.9767354 0.8690362 0
5.7810001 2.9726567 0.86990201 0
5.7940001 2.9702199 0.87102759 0
5.8070002 2.967736 0.87215316 0
5.7470002 3.0307429 0.85731328 0
5.7460003 3.0205245 0.85722846 0
5.7470002 3.0114532 0.85731328 0
5.7490005 3.0029483 0.85748279 0
5.7530003 2.9955723 0.85782194 0
5.7580004 2.9887486 0.85824585 0
5.7640004 2.9824715 0.85875452 0
5.7710004 2.9767354 0.85934794 0
5.7810001 2.9726567 0.86019576 0
5.7940001 2.9702199 0.86129785 0
5.8070002 2.967736 0.86239994 0
5.7470002 3.0307429 0.84766829 0
5.7460003 3.0205245 0.84758532 0
5.7470002 3.0114532 0.84766829 0
5.7490005 3.0029483 0.84783423 0
5.7530003 2.9955723 0.84816611 0
5.7580004 2.9887486 0.84858108 0
5.7640004 2.9824715 0.84907889 0
5.7710004 2.9767354 0.84965968 0
5.7810001 2.9726567 0.85048944 0
5.7940001 2.9702199 0.8515681 0
5.8070002 2.967736 0.85264683 0
5.7470002 3.0307429 0.8380233 0
5.7460003 3.0205245 0.83794212 0
5.7470002 3.0114532 0.8380233 0
5.7490005 3.0029483 0.83818567 0
5.7530003 2.9955723 0.83851039 0
5.7580004 2.9887486 0.83891618 0
5.7640004 2.9824715 0.83940327 0
5.7710004 2.9767354 0.83997142 0
5.7810001 2.9726567 0.84078312 0
5.7940001 2.9702199 0.84183836 0
5.8070002 2.967736 0.8428936 0
5.7040005 2.8337872 0.83453298 0
5.7170005 2.8312545 0.83558822 0
5.7470002 3.0307429 0.82837832 0
5.7460003 3.0205245 0.82829905 0
5.7470002 3.0114532 0.82837832 0
5.7490005 3.0029483 0.82853711 0
5.7530003 2.9955723 0.82885456 0
5.7580004 2.9887486 0.82925141 0
5.7640004 2.9824715 0.82972765 0
5.7710004 2.9767354 0.83028316 0
5.7810001 2.9726567 0.83107686 0
5.7940001 2.9702199 0.83210862 0
5.8070002 2.967736 0.83314037 0
5.6900005 2.8548124 0.82385445 0
5.6880002 2.844177 0.82369566 0
5.6910005 2.8362727 0.82393378 0
5.7040005 2.8337872 0.8249656 0
5.7170005 2.8312545 0.82599735 0
5.7300005 2.8286753 0.82702911 0
5.7470002 3.0307429 0.81873339 0
5.7460003 3.0205245 0.81865585 0
5.7470002 3.0114532 0.81873339 0
5.7490005 3.0029483 0.81888855 0
5.7530003 2.9955723 0.81919873 0
5.7580004 2.9887486 0.81958663 0
5.7640004 2.9824715 0.82005203 0
5.7710004 2.9767354 0.82059491 0
5.7810001 2.9726567 0.82137054 0
5.7940001 2.9702199 0.82237887 0
5.8070002 2.967736 0.82338727 0
5.6900005 2.8548124 0.81431228 0
5.6880002 2.844177 0.81415713 0
5.6910005 2.8362727 0.81438982 0
5.7040005 2.8337872 0.81539822 0
5.7170005 2.8312545 0.81640649 0
5.7300005 2.8286753 0.81741488 0
5.7470002 3.0307429 0.80908847 0
5.7460003 3.0205245 0.80901265 0
5.7470002 3.0114532 0.80908847 0
5.7490005 3.0029483 0.80923998 0
5.7530003 2.9955723 0.80954301 0
5.7580004 2.9887486 0.8099218 0
5.7640004 2.9824715 0.81037641 0
5.7710004 2.9767354 0.81090665 0
5.7810001 2.9726567 0.81166422 0
5.7940001 2.9702199 0.81264913 0
5.8070002 2.967736 0.81363404 0
5.6920004 2.8654547 0.80492163 0
5.6900005 2.8548124 0.80477011 0
5.6880002 2.844177 0.8046186 0
5.6910005 2.8362727 0.80484593 0
5.7040005 2.8337872 0.80583078 0
5.7170005 2.8312545 0.80681562 0
5.7300005 2.8286753 0.80780053 0
5.7440004 2.8265862 0.80886114 0
5.7470002 3.0307429 0.79944348 0
5.7460003 3.0205245 0.79936951 0
5.7470002 3.0114532 0.79944348 0
5.7490005 3.0029483 0.79959142 0
5.7530003 2.9955723 0.79988718 0
5.7580004 2.9887486 0.80025697 0
5.7640004 2.9824715 0.80070072 0
5.7710004 2.9767354 0.80121839 0
5.7810001 2.9726567 0.80195796 0
5.7940001 2.9702199 0.80291939 0
5.8070002 2.967736 0.80388081 0
5.6920004 2.8654547 0.79537594 0
5.6900005 2.8548124 0.795228 0
5.6880002 2.844177 0.79508007 0
5.6910005 2.8362727 0.79530191 0
5.7040005 2.8337872 0.7962634 0
5.7170005 2.8312545 0.79722476 0
5.7300005 2.8286753 0.79818624 0
5.7440004 2.8265862 0.79922163 0
5.7570004 2.8239112 0.80018306 0
5.7710004 2.8217232 0.80121839 0
5.7470002 3.0307429 0.7897985 0
5.7460003 3.0205245 0.78972638 0
5.7470002 3.0114532 0.7897985 0
5.7490005 3.0029483 0.78994286 0
5.7530003 2.9955723 0.79023147 0
5.7580004 2.9887486 0.79059219 0
5.7640004 2.9824715 0.7910251 0
5.7710004 2.9767354 0.79153019 0
5.7810001 2.9726567 0.79225171 0
5.7940001 2.9702199 0.79318964 0
5.8070002 2.967736 0.79412764 0
5.6920004 2.8654547 0.78583014 0
5.6900005 2.8548124 0.7856859 0
5.6880002 2.844177 0.78554153 0
5.6910005 2.8362727 0.78575802 0
5.7040005 2.8337872 0.78669596 0
5.7170005 2.8312545 0.78763402 0
5.7300005 2.8286753 0.78857195 0
5.7440004 2.8265862 0.78958207 0
5.7570004 2.8239112 0.79052007 0
5.7710004 2.8217232 0.79153019 0
5.7850003 2.8194847 0.79254031 0
5.7470002 3.0307429 0.78015351 0
5.7460003 3.0205245 0.78008318 0
5.7470002 3.0114532 0.78015351 0
5.7490005 3.0029483 0.7802943 0
5.7530003 2.9955723 0.78057563 0
5.7580004 2.9887486 0.78092742 0
5.7640004 2.9824715 0.78134948 0
5.7710004 2.9767354 0.78184193 0
5.7810001 2.9726567 0.78254545 0
5.7940001 2.9702199 0.7834599 0
5.8070002 2.967736 0.78437448 0
5.6920004 2.8654547 0.7762844 0
5.6900005 2.8548124 0.77614367 0
5.6880002 2.844177 0.776003 0
5.6910005 2.8362727 0.776214 0
5.7040005 2.8337872 0.77712858 0
5.7170005 2.8312545 0.77804315 0
5.7300005 2.8286753 0.77895761 0
5.7440004 2.8265862 0.77994251 0
5.7570004 2.8239112 0.78085709 0
5.7710004 2.8217232 0.78184193 0
5.7850003 2.8194847 0.78282678 0
5.7470002 3.0307429 0.77050859 0
5.7460003 3.0205245 0.77044004 0
5.7470002 3.0114532 0.77050859 0
5.7490005 3.0029483 0.77064574 0
5.7530003 2.9955723 0.77091986 0
5.7580004 2.9887486 0.77126259 0
5.7640004 2.9824715 0.77167386 0
5.7710004 2.9767354 0.77215368 0
5.7810001 2.9726567 0.77283907 0
5.7940001 2.9702199 0.77373016 0
5.8070002 2.967736 0.77462125 0
5.6920004 2.8654547 0.76673865 0
5.6900005 2.8548124 0.76660156 0
5.6880002 2.844177 0.76646447 0
5.6910005 2.8362727 0.76667011 0
5.7040005 2.8337872 0.7675612 0
5.7170005 2.8312545 0.76845229 0
5.7300005 2.8286753 0.76934338 0
5.7440004 2.8265862 0.77030295 0
5.7570004 2.8239112 0.77119404 0
5.7710004 2.8217232 0.77215368 0
5.7850003 2.8194847 0.77311325 0
5.7470002 3.0307429 0.76086366 0
5.7460003 3.0205245 0.7607969 0
5.7470002 3.0114532 0.76086366 0
5.7490005 3.0029483 0.76099712 0
5.7530003 2.9955723 0.76126409 0
5.7580004 2.9887486 0.76159775 0
5.7640004 2.9824715 0.76199824 0
5.7710004 2.9767354 0.76246542 0
5.7810001 2.9726567 0.76313281 0
5.7940001 2.9702199 0.76400042 0
5.8070002 2.967736 0.76486808 0
5.6920004 2.8654547 0.75719285 0
5.6900005 2.8548124 0.7570594 0
5.6880002 2.844177 0.75692594 0
5.6910005 2.8362727 0.75712615 0
5.7040005 2.8337872 0.75799382 0
5.7170005 2.8312545 0.75886142 0
5.7300005 2.8286753 0.75972903 0
5.7440004 2.8265862 0.76066339 0
5.7570004 2.8239112 0.76153105 0
5.7710004 2.8217232 0.76246542 0
5.7850003 2.8194847 0.76339978 0
5.7470002 3.0307429 0.75121868 0
5.7460003 3.0205245 0.75115371 0
5.7470002 3.0114532 0.75121868 0
5.7490005 3.0029483 0.75134856 0
5.7530003 2.9955723 0.75160825 0
5.7580004 2.9887486 0.75193298 0
5.7640004 2.9824715 0.75232255 0
5.7710004 2.9767354 0.75277722 0
5.7810001 2.9726567 0.75342655 0
5.7940001 2.9702199 0.75427067 0
5.8070002 2.967736 0.75511491 0
5.6920004 2.8654547 0.74764717 0
5.6900005 2.8548124 0.74751723 0
5.6880002 2.844177 0.74738741 0
5.6910005 2.8362727 0.7475822 0
5.7040005 2.8337872 0.74842638 0
5.7170005 2.8312545 0.74927056 0
5.7300005 2.8286753 0.7501148 0
5.7440004 2.8265862 0.75102389 0
5.7570004 2.8239112 0.75186807 0
5.7710004 2.8217232 0.75277722 0
5.7850003 2.8194847 0.75368631 0
5.7470002 3.0307429 0.74157369 0
5.7460003 3.0205245 0.74151057 0
5.7470002 3.0114532 0.74157369 0
5.7490005 3.0029483 0.74169993 0
5.7530003 2.9955723 0.74195254 0
5.7580004 2.9887486 0.7422682 0
5.7640004 2.9824715 0.74264693 0
5.7710004 2.9767354 0.74308896 0
5.7810001 2.9726567 0.74372023 0
5.7940001 2.9702199 0.74454093 0
5.8070002 2.967736 0.74536169 0
5.6920004 2.8654547 0.73810136 0
5.6900005 2.8548124 0.73797512 0
5.6880002 2.844177 0.73784882 0
5.6910005 2.8362727 0.73803824 0
5.7040005 2.8337872 0.738859 0
5.7170005 2.8312545 0.73967969 0
5.7300005 2.8286753 0.74050045 0
5.7440004 2.8265862 0.74138427 0
5.7570004 2.8239112 0.74220502 0
5.7710004 2.8217232 0.74308896 0
5.7850003 2.8194847 0.74397278 0
5.7470002 3.0307429 0.73192871 0
5.7460003 3.0205245 0.73186743 0
5.7470002 3.0114532 0.73192871 0
5.7490005 3.0029483 0.73205137 0
5.7530003 2.9955723 0.73229671 0
5.7580004 2.9887486 0.73260337 0
5.7640004 2.9824715 0.73297131 0
5.7710004 2.9767354 0.7334007 0
5.7810001 2.9726567 0.73401392 0
5.7940001 2.9702199 0.73481119 0
5.8070002 2.967736 0.73560846 0
5.6920004 2.8654547 0.72855562 0
5.6900005 2.8548124 0.72843301 0
5.6880002 2.844177 0.72831029 0
5.6910005 2.8362727 0.72849429 0
5.7040005 2.8337872 0.72929156 0
5.7170005 2.8312545 0.73008883 0
5.7300005 2.8286753 0.73088616 0
5.7440004 2.8265862 0.73174477 0
5.7570004 2.8239112 0.73254204 0
5.7710004 2.8217232 0.7334007 0
5.7850003 2.8194847 0.73425925 0
5.7470002 3.0307429 0.72228378 0
5.7460003 3.0205245 0.72222424 0
5.7470002 3.0114532 0.72228378 0
5.7490005 3.0029483 0.72240281 0
5.7530003 2.9955723 0.72264093 0
5.7580004 2.9887486 0.72293854 0
5.7640004 2.9824715 0.72329569 0
5.7710004 2.9767354 0.72371244 0
5.7810001 2.9726567 0.72430766 0
5.7940001 2.9702199 0.72508144 0
5.8070002 2.967736 0.72585529 0
5.6920004 2.8654547 0.71900988 0
5.6900005 2.8548124 0.71889079 0
5.6880002 2.844177 0.71877176 0
5.6910005 2.8362727 0.71895039 0
5.7040005 2.8337872 0.71972418 0
5.7170005 2.8312545 0.72049803 0
5.7300005 2.8286753 0.72127187 0
5.7440004 2.8265862 0.72210521 0
5.7570004 2.8239112 0.72287905 0
5.7710004 2.8217232 0.72371244 0
5.7850003 2.8194847 0.72454572 0
5.7470002 3.0307429 0.71263885 0
5.7460003 3.0205245 0.7125811 0
5.7470002 3.0114532 0.71263885 0
5.7490005 3.0029483 0.71275425 0
5.7530003 2.9955723 0.71298516 0
5.7580004 2.9887486 0.71327376 0
5.7640004 2.9824715 0.71362007 0
5.7710004 2.9767354 0.71402419 0
5.7810001 2.9726567 0.71460134 0
5.7940001 2.9702199 0.7153517 0
5.8070002 2.967736 0.71610212 0
5.6920004 2.8654547 0.70946407 0
5.6900005 2.8548124 0.70934868 0
5.6880002 2.844177 0.70923322 0
5.6910005 2.8362727 0.70940638 0
5.7040005 2.8337872 0.7101568 0
5.7170005 2.8312545 0.71090716 0
5.7300005 2.8286753 0.71165752 0
5.7440004 2.8265862 0.71246564 0
5.7570004 2.8239112 0.71321607 0
5.7710004 2.8217232 0.71402419 0
5.7850003 2.8194847 0.71483225 0
5.7470002 3.0307429 0.70299387 0
5.7460003 3.0205245 0.70293796 0
5.7470002 3.0114532 0.70299387 0
5.7490005 3.0029483 0.70310569 0
5.7530003 2.9955723 0.70332932 0
5.7580004 2.9887486 0.70360899 0
5.7640004 2.9824715 0.70394444 0
5.7710004 2.9767354 0.70433593 0
5.7810001 2.9726567 0.70489502 0
5.7940001 2.9702199 0.70562196 0
5.8070002 2.967736 0.7063489 0
5.6920004 2.8654547 0.69991839 0
5.6900005 2.8548124 0.69980657 0
5.6880002 2.844177 0.69969469 0
5.6910005 2.8362727 0.69986248 0
5.7040005 2.8337872 0.70058942 0
5.7170005 2.8312545 0.70131636 0
5.7300005 2.8286753 0.70204329 0
5.7440004 2.8265862 0.70282614 0
5.7570004 2.8239112 0.70355308 0
5.7710004 2.8217232 0.70433593 0
5.7850003 2.8194847 0.70511878 0
5.7470002 3.0307429 0.69334888 0
5.7460003 3.0205245 0.69329476 0
5.7470002 3.0114532 0.69334888 0
5.7490005 3.0029483 0.69345713 0
5.7530003 2.9955723 0.69367361 0
5.7580004 2.9887486 0.69394416 0
5.7640004 2.9824715 0.69426882 0
5.7710004 2.9767354 0.69464767 0
5.7810001 2.9726567 0.69518876 0
5.7940001 2.9702199 0.69589227 0
5.8070002 2.967736 0.69659579 0
5.6920004 2.8654547 0.69037259 0
5.6900005 2.8548124 0.6902644 0
5.6880002 2.844177 0.6901561 0
5.6910005 2.8362727 0.69031847 0
5.7040005 2.8337872 0.69102198 0
5.7170005 2.8312545 0.69172549 0
5.7300005 2.8286753 0.69242895 0
5.7440004 2.8265862 0.69318652 0
5.7570004 2.8239112 0.69389004 0
5.7710004 2.8217232 0.69464767 0
5.7850003 2.8194847 0.69540524 0
5.7470002 3.0307429 0.6837039 0
5.7460003 3.0205245 0.68365163 0
5.7470002 3.0114532 0.6837039 0
5.7490005 3.0029483 0.68380857 0
5.7530003 2.9955723 0.68401778 0
5.7580004 2.9887486 0.68427932 0
5.7640004 2.9824715 0.6845932 0
5.7710004 2.9767354 0.68495941 0
5.7810001 2.9726567 0.6854825 0
5.7940001 2.9702199 0.68616247 0
5.8070002 2.967736 0.68684256 0
5.6920004 2.8654547 0.68082684 0
5.6900005 2.8548124 0.68072224 0
5.6880002 2.844177 0.68061757 0
5.6910005 2.8362727 0.68077457 0
5.7040005 2.8337872 0.6814546 0
5.7170005 2.8312545 0.68213463 0
5.7300005 2.8286753 0.68281466 0
5.7440004 2.8265862 0.68354702 0
5.7570004 2.8239112 0.68422705 0
5.7710004 2.8217232 0.68495941 0
5.7850003 2.8194847 0.68569171 0
5.7470002 3.0307429 0.67405897 0
5.7460003 3.0205245 0.67400849 0
5.7470002 3.0114532 0.67405897 0
5.7490005 3.0029483 0.67416 0
5.7530003 2.9955723 0.674362 0
5.7580004 2.9887486 0.67461455 0
5.7640004 2.9824715 0.67491758 0
5.7710004 2.9767354 0.67527115 0
5.7810001 2.9726567 0.67577618 0
5.7940001 2.9702199 0.67643273 0
5.8070002 2.967736 0.67708933 0
5.6920004 2.8654547 0.6712811 0
5.6900005 2.8548124 0.67118013 0
5.6880002 2.844177 0.67107904 0
5.6910005 2.8362727 0.67123061 0
5.7040005 2.8337872 0.67188716 0
5.7170005 2.8312545 0.67254376 0
5.7300005 2.8286753 0.67320037 0
5.7440004 2.8265862 0.6739074 0
5.7570004 2.8239112 0.674564 0
5.7710004 2.8217232 0.67527115 0
5.7850003 2.8194847 0.67597818 0
5.7470002 3.0307429 0.66441399 0
5.7460003 3.0205245 0.66436529 0
5.7470002 3.0114532 0.66441399 0
5.7490005 3.0029483 0.66451144 0
5.7530003 2.9955723 0.66470623 0
5.7580004 2.9887486 0.66494972 0
5.7640004 2.9824715 0.66524196 0
5.7710004 2.9767354 0.6655829 0
5.7810001 2.9726567 0.66606987 0
5.7940001 2.9702199 0.66670299 0
5.8070002 2.967736 0.66733617 0
5.6920004 2.8654547 0.66173536 0
5.6900005 2.8548124 0.66163796 0
5.6880002 2.844177 0.66154051 0
5.6910005 2.8362727 0.66168666 0
5.7040005 2.8337872 0.66231978 0
5.7170005 2.8312545 0.6629529 0
5.7300005 2.8286753 0.66358602 0
5.7440004 2.8265862 0.6642679 0
5.7570004 2.8239112 0.66490102 0
5.7710004 2.8217232 0.6655829 0
5.7850003 2.8194847 0.66626471 0
5.7470002 3.0307429 0.65476906 0
5.7460003 3.0205245 0.65472209 0
5.7470002 3.0114532 0.65476906 0
5.7490005 3.0029483 0.65486288 0
5.7530003 2.9955723 0.6550504 0
5.7580004 2.9887486 0.65528494 0
5.7640004 2.9824715 0.65556633 0
5.7710004 2.9767354 0.65589464 0
5.7810001 2.9726567 0.65636361 0
5.7940001 2.9702199 0.6569733 0
5.8070002 2.967736 0.657583 0
5.6920004 2.8654547 0.65218961 0
5.6900005 2.8548124 0.65209579 0
5.6880002 2.844177 0.65200198 0
5.6910005 2.8362727 0.6521427 0
5.7040005 2.8337872 0.6527524 0
5.7170005 2.8312545 0.65336204 0
5.7300005 2.8286753 0.65397179 0
5.7440004 2.8265862 0.6546284 0
5.7570004 2.8239112 0.65523803 0
5.7710004 2.8217232 0.65589464 0
5.7850003 2.8194847 0.65655124 0
5.7470002 3.0307429 0.64512408 0
5.7460003 3.0205245 0.64507902 0
5.7470002 3.0114532 0.64512408 0
5.7490005 3.0029483 0.64521426 0
5.7530003 2.9955723 0.64539462 0
5.7580004 2.9887486 0.64562011 0
5.7640004 2.9824715 0.64589071 0
5.7710004 2.9767354 0.64620638 0
5.7810001 2.9726567 0.64665729 0
5.7940001 2.9702199 0.64724356 0
5.8070002 2.967736 0.64782977 0
5.6920004 2.8654547 0.64264381 0
5.6900005 2.8548124 0.64255369 0
5.6880002 2.844177 0.64246345 0
5.6910005 2.8362727 0.64259875 0
5.7040005 2.8337872 0.64318502 0
5.7170005 2.8312545 0.64377123 0
5.7300005 2.8286753 0.64435744 0
5.7440004 2.8265862 0.64498878 0
5.7570004 2.8239112 0.64557505 0
5.7710004 2.8217232 0.64620638 0
5.7850003 2.8194847 0.64683771 0
5.7470002 3.0307429 0.63547909 0
5.7460003 3.0205245 0.63543582 0
5.7470002 3.0114532 0.63547909 0
5.7490005 3.0029483 0.6355657 0
5.7530003 2.9955723 0.63573885 0
5.7580004 2.9887486 0.63595533 0
5.7640004 2.9824715 0.63621509 0
5.7710004 2.9767354 0.63651812 0
5.7810001 2.9726567 0.63695103 0
5.7940001 2.9702199 0.63751376 0
5.8070002 2.967736 0.6380766 0
5.6920004 2.8654547 0.63309813 0
5.6900005 2.8548124 0.63301152 0
5.6880002 2.844177 0.63292491 0
5.6910005 2.8362727 0.63305479 0
5.7040005 2.8337872 0.63361758 0
5.7170005 2.8312545 0.63418037 0
5.7300005 2.8286753 0.63474321 0
5.7440004 2.8265862 0.63534927 0
5.7570004 2.8239112 0.63591206 0
5.7710004 2.8217232 0.63651812 0
5.7850003 2.8194847 0.63712418 0
5.7470002 3.0307429 0.62583417 0
5.7460003 3.0205245 0.62579268 0
5.7470002 3.0114532 0.62583417 0
5.7490005 3.0029483 0.62591714 0
5.7530003 2.9955723 0.62608308 0
5.7580004 2.9887486 0.62629056 0
5.7640004 2.9824715 0.62653947 0
5.7710004 2.9767354 0.62682986 0
5.7810001 2.9726567 0.62724471 0
5.7940001 2.9702199 0.62778407 0
5.8070002 2.967736 0.62832344 0
5.6920004 2.8654547 0.62355232 0
5.6900005 2.8548124 0.62346935 0
5.6880002 2.844177 0.62338638 0
5.6910005 2.8362727 0.62351084 0
5.7040005 2.8337872 0.6240502 0
5.7170005 2.8312545 0.62458956 0
5.7300005 2.8286753 0.62512887 0
5.7440004 2.8265862 0.62570971 0
5.7570004 2.8239112 0.62624902 0
5.7710004 2.8217232 0.62682986 0
5.7850003 2.8194847 0.62741065 0
5.7470002 3.0307429 0.61618918 0
5.7460003 3.0205245 0.61614954 0
5.7470002 3.0114532 0.61618918 0
5.7490005 3.0029483 0.61626858 0
5.7530003 2.9955723 0.6164273 0
5.7580004 2.9887486 0.61662573 0
5.7640004 2.9824715 0.61686385 0
5.7710004 2.9767354 0.6171416 0
5.7810001 2.9726567 0.61753845 0
5.7940001 2.9702199 0.61805433 0
5.8070002 2.967736 0.61857021 0
5.6920004 2.8654547 0.61400658 0
5.6900005 2.8548124 0.61392725 0
5.6880002 2.844177 0.61384785 0
5.6910005 2.8362727 0.61396688 0
5.7040005 2.8337872 0.61448282 0
5.7170005 2.8312545 0.6149987 0
5.7300005 2.8286753 0.61551458 0
5.7440004 2.8265862 0.61607015 0
5.7570004 2.8239112 0.61658603 0
5.7710004 2.8217232 0.6171416 0
5.7850003 2.8194847 0.61769718 0
5.7470002 3.0307429 0.60654426 0
5.7460003 3.0205245 0.60650635 0
5.7470002 3.0114532 0.60654426 0
5.7490005 3.0029483 0.60662001 0
5.7530003 2.9955723 0.60677147 0
5.7580004 2.9887486 0.60696089 0
5.7640004 2.9824715 0.60718822 0
5.7710004 2.9767354 0.60745335 0
5.7810001 2.9726567 0.60783213 0
5.7940001 2.9702199 0.60832459 0
5.8070002 2.967736 0.60881704 0
5.6920004 2.8654547 0.60446084 0
5.6900005 2.8548124 0.60438508 0
5.6880002 2.844177 0.60430932 0
5.6910005 2.8362727 0.60442293 0
5.7040005 2.8337872 0.60491538 0
5.7170005 2.8312545 0.60540783 0
5.7300005 2.8286753 0.60590029 0
5.7440004 2.8265862 0.60643059 0
5.7570004 2.8239112 0.60692304 0
5.7710004 2.8217232 0.60745335 0
5.7850003 2.8194847 0.60798365 0
5.7470002 3.0307429 0.59689927 0
5.7460003 3.0205245 0.59686321 0
5.7470002 3.0114532 0.59689927 0
5.7490005 3.0029483 0.59697139 0
5.7530003 2.9955723 0.59711576 0
5.7580004 2.9887486 0.59729612 0
5.7640004 2.9824715 0.59751254 0
5.7710004 2.9767354 0.59776509 0
5.7810001 2.9726567 0.59812582 0
5.7940001 2.9702199 0.59859484 0
5.8070002 2.967736 0.59906381 0
5.6920004 2.8654547 0.59491509 0
5.6900005 2.8548124 0.59484291 0
5.6880002 2.844177 0.59477079 0
5.6910005 2.8362727 0.59487903 0
5.7040005 2.8337872 0.595348 0
5.7170005 2.8312545 0.59581697 0
5.7300005 2.8286753 0.59628594 0
5.7440004 2.8265862 0.59679103 0
5.7570004 2.8239112 0.59726 0
5.7710004 2.8217232 0.59776509 0
5.7850003 2.8194847 0.59827018 0
5.7470002 3.0307429 0.58725429 0
5.7460003 3.0205245 0.58722001 0
5.7470002 3.0114532 0.58725429 0
5.7490005 3.0029483 0.58732283 0
5.7530003 2.9955723 0.58745992 0
5.7580004 2.9887486 0.58763129 0
5.7640004 2.9824715 0.58783692 0
5.7710004 2.9767354 0.58807683 0
5.7810001 2.9726567 0.58841956 0
5.7940001 2.9702199 0.5888651 0
5.8070002 2.967736 0.58931065 0
5.6920004 2.8654547 0.58536935 0
5.6900005 2.8548124 0.5853008 0
5.6880002 2.844177 0.58523226 0
5.6910005 2.8362727 0.58533508 0
5.7040005 2.8337872 0.58578062 0
5.7170005 2.8312545 0.58622617 0
5.7300005 2.8286753 0.58667171 0
5.7440004 2.8265862 0.58715147 0
5.7570004 2.8239112 0.58759701 0
5.7710004 2.8217232 0.58807683 0
5.7850003 2.8194847 0.58855665 0
5.7470002 3.0307429 0.5776093 0
5.7460003 3.0205245 0.57757688 0
5.7470002 3.0114532 0.5776093 0
5.7490005 3.0029483 0.57767427 0
5.7530003 2.9955723 0.57780415 0
5.7580004 2.9887486 0.57796651 0
5.7640004 2.9824715 0.5781613 0
5.7710004 2.9767354 0.57838857 0
5.7810001 2.9726567 0.5787133 0
5.7940001 2.9702199 0.57913536 0
5.8070002 2.967736 0.57955742 0
5.6920004 2.8654547 0.57582355 0
5.6900005 2.8548124 0.57575864 0
5.6880002 2.844177 0.57569373 0
5.6910005 2.8362727 0.57579112 0
5.7040005 2.8337872 0.57621318 0
5.7170005 2.8312545 0.5766353 0
5.7300005 2.8286753 0.57705736 0
5.7440004 2.8265862 0.57751191 0
5.7570004 2.8239112 0.57793403 0
5.7710004 2.8217232 0.57838857 0
5.7850003 2.8194847 0.57884312 0
5.7470002 3.0307429 0.56796438 0
5.7460003 3.0205245 0.56793368 0
5.7470002 3.0114532 0.56796438 0
5.7490005 3.0029483 0.56802571 0
5.7530003 2.9955723 0.56814837 0
5.7580004 2.9887486 0.56830168 0
5.7640004 2.9824715 0.56848568 0
5.7710004 2.9767354 0.56870031 0
5.7810001 2.9726567 0.56900698 0
5.7940001 2.9702199 0.56940562 0
5.8070002 2.967736 0.56980425 0
5.6920004 2.8654547 0.5662778 0
5.6900005 2.8548124 0.56621647 0
5.6880002 2.844177 0.56615514 0
5.6910005 2.8362727 0.56624717 0
5.7040005 2.8337872 0.5666458 0
5.7170005 2.8312545 0.56704444 0
5.7300005 2.8286753 0.56744307 0
5.7440004 2.8265862 0.56787241 0
5.7570004 2.8239112 0.56827104 0
5.7710004 2.8217232 0.56870031 0
5.7850003 2.8194847 0.56912965 0
5.7470002 3.0307429 0.55831945 0
5.7460003 3.0205245 0.55829054 0
5.7470002 3.0114532 0.55831945 0
5.7490005 3.0029483 0.55837715 0
5.7530003 2.9955723 0.5584926 0
5.7580004 2.9887486 0.5586369 0
5.7640004 2.9824715 0.55881006 0
5.7710004 2.9767354 0.55901206 0
5.7810001 2.9726567 0.55930066 0
5.7940001 2.9702199 0.55967587 0
5.8070002 2.967736 0.56005108 0
5.6920004 2.8654547 0.55673206 0
5.6900005 2.8548124 0.55667436 0
5.6880002 2.844177 0.5566166 0
5.6910005 2.8362727 0.55670321 0
5.7040005 2.8337872 0.55707842 0
5.7170005 2.8312545 0.55745357 0
5.7300005 2.8286753 0.55782878 0
5.7440004 2.8265862 0.55823284 0
5.7570004 2.8239112 0.55860806 0
5.7710004 2.8217232 0.55901206 0
5.7850003 2.8194847 0.55941612 0
5.7470002 3.0307429 0.54867446 0
5.7460003 3.0205245 0.5486474 0
5.7470002 3.0114532 0.54867446 0
5.7490005 3.0029483 0.54872859 0
5.7530003 2.9955723 0.54883683 0
5.7580004 2.9887486 0.54897207 0
5.7640004 2.9824715 0.54913443 0
5.7710004 2.9767354 0.5493238 0
5.7810001 2.9726567 0.5495944 0
5.7940001 2.9702199 0.54994613 0
5.8070002 2.967736 0.55029786 0
5.6920004 2.8654547 0.54718632 0
5.6900005 2.8548124 0.54713219 0
5.6880002 2.844177 0.54707807 0
5.6910005 2.8362727 0.54715925 0
5.7040005 2.8337872 0.54751098 0
5.7170005 2.8312545 0.54786277 0
5.7300005 2.8286753 0.5482145 0
5.7440004 2.8265862 0.54859328 0
5.7570004 2.8239112 0.54894501 0
5.7710004 2.8217232 0.5493238 0
5.7850003 2.8194847 0.54970264 0
5.7470002 3.0307429 0.53902948 0
5.7460003 3.0205245 0.53900421 0
5.7470002 3.0114532 0.53902948 0
5.7490005 3.0029483 0.53908002 0
5.7530003 2.9955723 0.53918099 0
5.7580004 2.9887486 0.53930724 0
5.7640004 2.9824715 0.53945881 0
5.7710004 2.9767354 0.53963554 0
5.7810001 2.9726567 0.53988808 0
5.7940001 2.9702199 0.54021639 0
5.8070002 2.967736 0.54054469 0
5.6920004 2.8654547 0.53764057 0
5.6900005 2.8548124 0.53759003 0
5.6880002 2.844177 0.53753954 0
5.6910005 2.8362727 0.5376153 0
5.7040005 2.8337872 0.5379436 0
5.7170005 2.8312545 0.5382719 0
5.7300005 2.8286753 0.53860021 0
5.7440004 2.8265862 0.53895372 0
5.7570004 2.8239112 0.53928202 0
5.7710004 2.8217232 0.53963554 0
5.7850003 2.8194847 0.53998911 0
5.7470002 3.0307429 0.52938449 0
5.7460003 3.0205245 0.52936107 0
5.7470002 3.0114532 0.52938449 0
5.7490005 3.0029483 0.52943146 0
5.7530003 2.9955723 0.52952522 0
5.7580004 2.9887486 0.52964246 0
5.7640004 2.9824715 0.52978319 0
5.7710004 2.9767354 0.52994734 0
5.7810001 2.9726567 0.53018183 0
5.7940001 2.9702199 0.53048664 0
5.8070002 2.967736 0.53079152 0
5.6920004 2.8654547 0.52809483 0
5.6900005 2.8548124 0.52804792 0
5.6880002 2.844177 0.52800101 0
5.6910005 2.8362727 0.52807134 0
5.7040005 2.8337872 0.52837622 0
5.7170005 2.8312545 0.52868104 0
5.7300005 2.8286753 0.52898592 0
5.7440004 2.8265862 0.52931416 0
5.7570004 2.8239112 0.52961904 0
5.7710004 2.8217232 0.52994734 0
5.7850003 2.8194847 0.53027558 0
5.7470002 3.0307429 0.51973957 0
5.7460003 3.0205245 0.51971793 0
5.7470002 3.0114532 0.51973957 0
5.7490005 3.0029483 0.51978284 0
5.7530003 2.9955723 0.51986945 0
5.7580004 2.9887486 0.51997769 0
5.7640004 2.9824715 0.52010757 0
5.7710004 2.9767354 0.52025908 0
5.7810001 2.9726567 0.52047551 0
5.7940001 2.9702199 0.5207569 0
5.8070002 2.967736 0.52103829 0
5.6920004 2.8654547 0.51854908 0
5.6900005 2.8548124 0.51850575 0
5.6880002 2.844177 0.51846248 0
5.6910005 2.8362727 0.51852739 0
5.7040005 2.8337872 0.51880878 0
5.7170005 2.8312545 0.51909018 0
5.7300005 2.8286753 0.51937163 0
5.7440004 2.8265862 0.51967466 0
5.7570004 2.8239112 0.51995599 0
5.7710004 2.8217232 0.52025908 0
5.7850003 2.8194847 0.52056211 0
5.7470002 3.0307429 0.51009458 0
5.7460003 3.0205245 0.51007473 0
5.7470002 3.0114532 0.51009458 0
5.7490005 3.0029483 0.51013428 0
5.7530003 2.9955723 0.51021367 0
5.7580004 2.9887486 0.51031286 0
5.7640004 2.9824715 0.51043195 0
5.7710004 2.9767354 0.51057082 0
5.7810001 2.9726567 0.51076925 0
5.7940001 2.9702199 0.51102716 0
5.8070002 2.967736 0.51128513 0
5.6920004 2.8654547 0.50900328 0
5.6900005 2.8548124 0.50896364 0
5.6880002 2.844177 0.50892395 0
5.6910005 2.8362727 0.50898343 0
5.7040005 2.8337872 0.5092414 0
5.7170005 2.8312545 0.50949937 0
5.7300005 2.8286753 0.50975728 0
5.7440004 2.8265862 0.5100351 0
5.7570004 2.8239112 0.51029301 0
5.7710004 2.8217232 0.51057082 0
5.7850003 2.8194847 0.51084858 0
5.7470002 3.0307429 0.50044966 0
5.7460003 3.0205245 0.5004316 0
5.7470002 3.0114532 0.50044966 0
5.7490005 3.0029483 0.50048572 0
5.7530003 2.9955723 0.5005579 0
5.7580004 2.9887486 0.50064808 0
5.7640004 2.9824715 0.50075626 0
5.7710004 2.9767354 0.50088257 0
5.7810001 2.9726567 0.50106293 0
5.7940001 2.9702199 0.50129741 0
5.8070002 2.967736 0.5015319 0
5.6920004 2.8654547 0.49945754 0
5.6900005 2.8548124 0.49942148 0
5.6880002 2.844177 0.49938539 0
5.6910005 2.8362727 0.49943951 0
5.7040005 2.8337872 0.49967402 0
5.7170005 2.8312545 0.49990851 0
5.7300005 2.8286753 0.50014299 0
5.7440004 2.8265862 0.50039554 0
5.7570004 2.8239112 0.50063002 0
5.7710004 2.8217232 0.50088257 0
5.7850003 2.8194847 0.50113511 0
5.7470002 3.0307429 0.49080467 0
5.7460003 3.0205245 0.49078846 0
5.7470002 3.0114532 0.49080467 0
5.7490005 3.0029483 0.49083716 0
5.7530003 2.9955723 0.49090207 0
5.7580004 2.9887486 0.49098325 0
5.7640004 2.9824715 0.49108064 0
5.7710004 2.9767354 0.49119431 0
5.7810001 2.9726567 0.49135664 0
5.7940001 2.9702199 0.49156767 0
5.8070002 2.967736 0.49177873 0
5.6920004 2.8654547 0.48991179 0
5.6900005 2.8548124 0.48987931 0
5.6880002 2.844177 0.48984686 0
5.6910005 2.8362727 0.48989555 0
5.7040005 2.8337872 0.49010661 0
5.7170005 2.8312545 0.49031764 0
5.7300005 2.8286753 0.4905287 0
5.7440004 2.8265862 0.49075598 0
5.7570004 2.8239112 0.49096704 0
5.7710004 2.8217232 0.49119431 0
5.7850003 2.8194847 0.49142158 0
5.7470002 3.0307429 0.48115972 0
5.7460003 3.0205245 0.48114529 0
5.7470002 3.0114532 0.48115972 0
5.7490005 3.0029483 0.4811886 0
5.7530003 2.9955723 0.48124629 0
5.7580004 2.9887486 0.48131844 0
5.7640004 2.9824715 0.48140502 0
5.7710004 2.9767354 0.48150605 0
5.7810001 2.9726567 0.48165035 0
5.7940001 2.9702199 0.48183793 0
5.6920004 2.8654547 0.48036605 0
5.6900005 2.8548124 0.48033717 0
5.6880002 2.844177 0.48030832 0
5.6910005 2.8362727 0.48035163 0
5.7040005 2.8337872 0.4805392 0
5.7170005 2.8312545 0.48072681 0
5.7300005 2.8286753 0.48091441 0
5.7440004 2.8265862 0.48111641 0
5.7570004 2.8239112 0.48130402 0
5.7710004 2.8217232 0.48150605 0
5.7850003 2.8194847 0.48170808 0
5.7470002 3.0307429 0.47151476 0
5.7460003 3.0205245 0.47150213 0
5.7470002 3.0114532 0.47151476 0
5.7490005 3.0029483 0.47154 0
5.7530003 2.9955723 0.47159052 0
5.7580004 2.9887486 0.47165364 0
5.7640004 2.9824715 0.4717294 0
5.7710004 2.9767354 0.47181779 0
5.7810001 2.9726567 0.47194406 0
5.7940001 2.9702199 0.47210819 0
5.6920004 2.8654547 0.47082028 0
5.6900005 2.8548124 0.47079504 0
5.6880002 2.844177 0.47076976 0
5.6910005 2.8362727 0.47080767 0
5.7040005 2.8337872 0.47097182 0
5.7170005 2.8312545 0.47113594 0
5.7300005 2.8286753 0.4713001 0
5.7440004 2.8265862 0.47147685 0
5.7570004 2.8239112 0.471641 0
5.7710004 2.8217232 0.47181779 0
5.7850003 2.8194847 0.47199458 0
5.7460003 3.0205245 0.46185896 0
5.7470002 3.0114532 0.46186978 0
5.7490005 3.0029483 0.46189144 0
5.7530003 2.9955723 0.46193472 0
5.7580004 2.9887486 0.46198884 0
5.7640004 2.9824715 0.46205378 0
5.7710004 2.9767354 0.46212953 0
5.7810001 2.9726567 0.46223778 0
5.7940001 2.9702199 0.46237844 0
5.6920004 2.8654547 0.46127453 0
5.6900005 2.8548124 0.4612529 0
5.6880002 2.844177 0.46123123 0
5.6910005 2.8362727 0.46126372 0
5.7040005 2.8337872 0.46140441 0
5.7170005 2.8312545 0.46154511 0
5.7310004 2.8292146 0.46169662 0
5.7440004 2.8265862 0.46183732 0
5.7570004 2.8239112 0.46197802 0
5.7710004 2.8217232 0.46212953 0
5.7850003 2.8194847 0.46228105 0
5.7460003 3.0205245 0.45221582 0
5.7470002 3.0114532 0.45222482 0
5.7490005 3.0029483 0.45224285 0
5.7530003 2.9955723 0.45227894 0
5.7580004 2.9887486 0.45232403 0
5.7640004 2.9824715 0.45237815 0
5.7710004 2.9767354 0.45244128 0
5.7810001 2.9726567 0.45253146 0
5.6920004 2.8654547 0.45172879 0
5.6900005 2.8548124 0.45171076 0
5.6880002 2.844177 0.4516927 0
5.6910005 2.8362727 0.45171976 0
5.7040005 2.8337872 0.451837 0
5.7170005 2.8312545 0.45195425 0
5.7310004 2.8292146 0.45208052 0
5.7440004 2.8265862 0.45219776 0
5.7570004 2.8239112 0.45231503 0
5.7710004 2.8217232 0.45244128 0
5.7850003 2.8194847 0.45256755 0
5.7460003 3.0205245 0.44257265 0
5.7470002 3.0114532 0.44257987 0
5.7490005 3.0029483 0.44259429 0
5.7530003 2.9955723 0.44262317 0
5.7580004 2.9887486 0.44265923 0
5.7640004 2.9824715 0.44270253 0
5.6940002 2.8761044 0.44219744 0
5.6920004 2.8654547 0.44218302 0
5.6900005 2.8548124 0.44216859 0
5.6880002 2.844177 0.44215417 0
5.6910005 2.8362727 0.44217581 0
5.7040005 2.8337872 0.44226962 0
5.7170005 2.8312545 0.44236341 0
5.7310004 2.8292146 0.44246441 0
5.7440004 2.8265862 0.44255823 0
5.7570004 2.8239112 0.44265202 0
5.7710004 2.8217232 0.44275302 0
5.7850003 2.8194847 0.44285405 0
5.7470002 3.0114532 0.43293491 0
5.7490005 3.0029483 0.43294573 0
5.7530003 2.9955723 0.43296736 0
5.6940002 2.8761044 0.43264809 0
5.6920004 2.8654547 0.43263727 0
5.6900005 2.8548124 0.43262646 0
5.6880002 2.844177 0.43261564 0
5.6910005 2.8362727 0.43263185 0
5.7040005 2.8337872 0.43270221 0
5.7170005 2.8312545 0.43277255 0
5.7310004 2.8292146 0.43284833 0
5.7440004 2.8265862 0.43291867 0
5.7570004 2.8239112 0.432989 0
5.7710004 2.8217232 0.43306479 0
5.7850003 2.8194847 0.43314055 0
5.6940002 2.8761044 0.42309874 0
5.6920004 2.8654547 0.42309153 0
5.6900005 2.8548124 0.42308432 0
5.6880002 2.844177 0.42307708 0
5.6910005 2.8362727 0.42308792 0
5.7040005 2.8337872 0.4231348 0
5.7170005 2.8312545 0.42318171 0
5.7310004 2.8292146 0.42323223 0
5.7440004 2.8265862 0.42327911 0
5.7570004 2.8239112 0.42332602 0
5.7710004 2.8217232 0.42337653 0
5.7850003 2.8194847 0.42342702 0
5.6940002 2.8761044 0.41354936 0
5.6920004 2.8654547 0.41354576 0
5.6900005 2.8548124 0.41354215 0
5.6880002 2.844177 0.41353855 0
5.6910005 2.8362727 0.41354397 0
5.7040005 2.8337872 0.41356742 0
5.7170005 2.8312545 0.41359085 0
5.7310004 2.8292146 0.41361612 0
5.7440004 2.8265862 0.41363958 0
5.7570004 2.8239112 0.41366303 0
5.7710004 2.8217232 0.41368827 0
5.6940002 2.8761044 0.40400001 0
5.6920004 2.8654547 0.40400001 0
5.6900005 2.8548124 0.40400001 0
5.6880002 2.844177 0.40400001 0
5.6910005 2.8362727 0.40400001 0
5.7040005 2.8337872 0.40400001 0
5.7170005 2.8312545 0.40400001 0
5.7310004 2.8292146 0.40400001 0
5.7440004 2.8265862 0.40400001 0
5.6940002 2.8761044 0.39445066 0
5.6920004 2.8654547 0.39445427 0
5.6900005 2.8548124 0.39445788 0
5.6880002 2.844177 0.39446148 0
5.6910005 2.8362727 0.39445606 0
5.7040005 2.8337872 0.3944326 0
5.7170005 2.8312545 0.39440918 0
5.7310004 2.8292146 0.39438391 0
5.6940002 2.8761044 0.38490129 0
5.6920004 2.8654547 0.3849085 0
5.6900005 2.8548124 0.38491571 0
5.6880002 2.844177 0.38492295 0
5.6910005 2.8362727 0.3849121 0
5.7040005 2.8337872 0.38486522 0
5.7170005 2.8312545 0.38481832 0
5.7310004 2.8292146 0.3847678 0
5.6920004 2.8654547 0.37536275 0
5.6900005 2.8548124 0.37537357 0
5.7040005 2.8337872 0.37529781 0
5.7170005 2.8312545 0.37522748 0
5.7310004 2.8292146 0.37515169 0
5.7170005 2.8312545 0.36563662 0
5.7160006 2.8690696 0.35605478 0
5.7190003 2.8611202 0.35602772 0
5.7250004 2.8547943 0.35597363 0
5.7330003 2.8495324 0.35590148 0
5.7160006 2.8690696 0.34646574 0
5.7190003 2.8611202 0.34643328 0
5.7250004 2.8547943 0.34636834 0
5.7330003 2.8495324 0.34628177 0
5.7160006 2.8690696 0.33687669 0
5.7190003 2.8611202 0.33683881 0
5.7250004 2.8547943 0.33676305 0
5.7330003 2.8495324 0.33666205 0
5.7160006 2.8690696 0.32728764 0
5.7190003 2.8611202 0.32724437 0
5.7250004 2.8547943 0.3271578 0
5.7330003 2.8495324 0.32704234 0
5.7160006 2.8690696 0.3176986 0
5.7190003 2.8611202 0.3176499 0
5.7250004 2.8547943 0.31755251 0
5.7330003 2.8495324 0.31742263 0
5.7150002 2.8781085 0.30812761 0
5.7160006 2.8690696 0.30810958 0
5.7190003 2.8611202 0.30805546 0
5.7250004 2.8547943 0.30794722 0
5.7330003 2.8495324 0.30780292 0
5.7150002 2.8781085 0.29854035 0
5.7160006 2.8690696 0.29852051 0
5.7190003 2.8611202 0.29846099 0
5.7250004 2.8547943 0.29834193 0
5.7330003 2.8495324 0.2981832 0
6.0140004 2.8096955 0.29260764 0
6.0200005 2.8026102 0.29248857 0
5.7150002 2.8781085 0.28895313 0
5.7160006 2.8690696 0.28893149 0
5.7190003 2.8611202 0.28886655 0
5.7250004 2.8547943 0.28873667 0
5.7330003 2.8495324 0.28856349 0
6.0110002 2.8182902 0.28254601 0
6.0140004 2.8096955 0.28248107 0
6.0200005 2.8026102 0.2823512 0
5.7150002 2.8781085 0.2793659 0
5.7160006 2.8690696 0.27934241 0
5.7190003 2.8611202 0.27927208 0
5.7250004 2.8547943 0.27913138 0
5.7330003 2.8495324 0.27894378 0
6.0110002 2.8182902 0.27242482 0
6.0140004 2.8096955 0.27235448 0
6.0200005 2.8026102 0.27221379 0
5.7150002 2.8781085 0.26977864 0
5.7160006 2.8690696 0.2697534 0
5.7190003 2.8611202 0.26967764 0
5.7250004 2.8547943 0.26952612 0
5.7330003 2.8495324 0.26932406 0
6.0110002 2.8182902 0.26230365 0
6.0140004 2.8096955 0.26222789 0
6.0200005 2.8026102 0.26207638 0
5.7150002 2.8781085 0.26019141 0
5.7160006 2.8690696 0.26016432 0
5.7190003 2.8611202 0.26008317 0
5.7250004 2.8547943 0.25992084 0
5.7330003 2.8495324 0.25970438 0
6.0110002 2.8182902 0.25218248 0
6.0140004 2.8096955 0.2521013 0
6.0200005 2.8026102 0.251939 0
5.7150002 2.8781085 0.25060415 0
5.7160006 2.8690696 0.2505753 0
5.7190003 2.8611202 0.2504887 0
5.7250004 2.8547943 0.25031555 0
5.7330003 2.8495324 0.25008467 0
6.0110002 2.8182902 0.24206133 0
6.0140004 2.8096955 0.24197474 0
6.0200005 2.8026102 0.24180157 0
5.7150002 2.8781085 0.24101692 0
5.7160006 2.8690696 0.24098624 0
5.7190003 2.8611202 0.24089426 0
5.7250004 2.8547943 0.24071027 0
5.7330003 2.8495324 0.24046496 0
6.0110002 2.8182902 0.23194017 0
6.0140004 2.8096955 0.23184817 0
6.0200005 2.8026102 0.23166417 0
5.7150002 2.8781085 0.2314297 0
5.7160006 2.8690696 0.2313972 0
5.7190003 2.8611202 0.2312998 0
5.7250004 2.8547943 0.23110498 0
5.7330003 2.8495324 0.23084524 0
6.0110002 2.8182902 0.221819 0
6.0140004 2.8096955 0.22172159 0
6.0200005 2.8026102 0.22152677 0
5.7150002 2.8781085 0.22184245 0
5.7160006 2.8690696 0.22180817 0
5.7190003 2.8611202 0.22170535 0
5.7250004 2.8547943 0.22149973 0
5.7330003 2.8495324 0.22122554 0
6.0110002 2.8182902 0.21169783 0
6.0140004 2.8096955 0.211595 0
6.0200005 2.8026102 0.21138936 0
5.7150002 2.8781085 0.21225521 0
5.7160006 2.8690696 0.21221912 0
5.7190003 2.8611202 0.21211089 0
5.7250004 2.8547943 0.21189444 0
5.7330003 2.8495324 0.21160583 0
6.0110002 2.8182902 0.20157667 0
6.0140004 2.8096955 0.20146842 0
6.0200005 2.8026102 0.20125197 0
5.7150002 2.8781085 0.20266797 0
5.7160006 2.8690696 0.20263007 0
5.7190003 2.8611202 0.20251644 0
5.7250004 2.8547943 0.20228916 0
5.7330003 2.8495324 0.20198612 0
6.0110002 2.8182902 0.1914555 0
6.0140004 2.8096955 0.19134185 0
6.0200005 2.8026102 0.19111457 0
5.7150002 2.8781085 0.19308072 0
5.7160006 2.8690696 0.19304103 0
5.7190003 2.8611202 0.19292198 0
5.7250004 2.8547943 0.19268388 0
5.7330003 2.8495324 0.19236641 0
6.0110002 2.8182902 0.18133433 0
6.0140004 2.8096955 0.18121526 0
6.0200005 2.8026102 0.18097717 0
5.7150002 2.8781085 0.18349348 0
5.7160006 2.8690696 0.18345198 0
5.7190003 2.8611202 0.18332753 0
5.7250004 2.8547943 0.1830786 0
5.7330003 2.8495324 0.18274671 0
6.0110002 2.8182902 0.17121315 0
6.0140004 2.8096955 0.17108868 0
6.0200005 2.8026102 0.17083976 0
5.7150002 2.8781085 0.17390625 0
5.7160006 2.8690696 0.17386293 0
5.7190003 2.8611202 0.17373307 0
5.7250004 2.8547943 0.17347333 0
5.7330003 2.8495324 0.173127 0
6.0110002 2.8182902 0.161092 0
6.0140004 2.8096955 0.1609621 0
6.0200005 2.8026102 0.16070236 0
5.7150002 2.8781085 0.16431901 0
5.7160006 2.8690696 0.16427389 0
5.7190003 2.8611202 0.16413862 0
5.7250004 2.8547943 0.16386805 0
5.7330003 2.8495324 0.16350727 0
6.0110002 2.8182902 0.15097085 0
6.0140004 2.8096955 0.15083554 0
6.0200005 2.8026102 0.15056494 0
5.7150002 2.8781085 0.15473177 0
5.7160006 2.8690696 0.15468483 0
5.7190003 2.8611202 0.15454416 0
5.7250004 2.8547943 0.15426275 0
5.7330003 2.8495324 0.15388757 0
6.0110002 2.8182902 0.14084965 0
6.0140004 2.8096955 0.14070895 0
6.0200005 2.8026102 0.14042756 0
5.7150002 2.8781085 0.14514452 0
5.7160006 2.8690696 0.1450958 0
5.7190003 2.8611202 0.1449497 0
5.7250004 2.8547943 0.14465749 0
5.7330003 2.8495324 0.14426789 0
6.0110002 2.8182902 0.13072848 0
6.0140004 2.8096955 0.13058239 0
6.0200005 2.8026102 0.13029015 0
5.7150002 2.8781085 0.13555726 0
5.7160006 2.8690696 0.13550678 0
5.7190003 2.8611202 0.13535523 0
5.7250004 2.8547943 0.1350522 0
5.7330003 2.8495324 0.13464814 0
6.0110002 2.8182902 0.12060732 0
6.0140004 2.8096955 0.12045577 0
6.0200005 2.8026102 0.12015274 0
5.7150002 2.8781085 0.12597007 0
5.7160006 2.8690696 0.1259177 0
5.7190003 2.8611202 0.12576079 0
5.7250004 2.8547943 0.12544695 0
5.7330003 2.8495324 0.12502843 0
6.0110002 2.8182902 0.11048618 0
6.0140004 2.8096955 0.11032921 0
6.0200005 2.8026102 0.11001533 0
5.7150002 2.8781085 0.11638281 0
5.7160006 2.8690696 0.11632866 0
5.7190003 2.8611202 0.11616632 0
5.7250004 2.8547943 0.11584163 0
5.7330003 2.8495324 0.11540875 0
6.0110002 2.8182902 0.10036498 0
6.0140004 2.8096955 0.10020262 0
6.0200005 2.8026102 0.099877954 0
5.7150002 2.8781085 0.10679558 0
