# .PCD v0.7 - Point Cloud Data file format
VERSION 0.7
FIELDS x y z intensity
SIZE 4 4 4 4
TYPE F F F F
COUNT 1 1 1 1
WIDTH 1416
HEIGHT 1
VIEWPOINT 0 0 0 1 0 0 0
POINTS 1416
DATA ascii
6.0010004 -2.3495138 0.4646188 0
5.9960003 -2.3575513 0.46456468 0
5.9900002 -2.3651562 0.46449974 0
5.9840002 -2.3727396 0.4644348 0
5.9790006 -2.3807197 0.46438068 0
5.9730005 -2.3882613 0.46431577 0
5.9680004 -2.3962035 0.46426165 0
5.9620004 -2.4037037 0.46419671 0
5.9570003 -2.4116077 0.46414259 0
5.9510002 -2.4190667 0.46407765 0
5.9450002 -2.4265037 0.46401271 0
5.9400005 -2.4343503 0.46395859 0
5.9340005 -2.441746 0.46389365 0
5.9290004 -2.4495544 0.46383956 0
5.9240003 -2.4573452 0.46378544 0
5.9180002 -2.4646795 0.4637205 0
5.9130006 -2.4724324 0.46366638 0
5.9070005 -2.4797251 0.46360144 0
5.9020004 -2.4874401 0.46354732 0
5.8960004 -2.4946914 0.46348238 0
5.8910003 -2.5023685 0.46342829 0
5.8860002 -2.5100272 0.46337417 0
5.8800006 -2.5172174 0.46330923 0
5.8750005 -2.5248384 0.46325511 0
5.8690004 -2.531987 0.46319017 0
5.8640003 -2.5395701 0.46313608 0
5.8590002 -2.5471354 0.46308196 0
5.8530002 -2.5542223 0.46301702 0
6.1100001 -2.1986465 0.45549873 0
6.1040006 -2.2066736 0.45544463 0
6.0980005 -2.214679 0.45539051 0
6.0920005 -2.2226627 0.45533639 0
6.0870004 -2.2310088 0.4552913 0
6.0810003 -2.238951 0.45523718 0
6.0750003 -2.2468715 0.45518306 0
6.0690002 -2.2547703 0.45512897 0
6.0640001 -2.2630389 0.45508385 0
6.0580006 -2.2708964 0.45502976 0
6.0520005 -2.2787323 0.45497563 0
6.0460005 -2.2865465 0.45492151 0
6.0410004 -2.2947373 0.45487642 0
6.0350003 -2.30251 0.4548223 0
6.0290003 -2.310261 0.45476818 0
6.0240002 -2.3183942 0.45472309 0
6.0180001 -2.3261037 0.454669 0
6.0120006 -2.3337917 0.45461488 0
6.0070004 -2.3418672 0.45456979 0
6.0010004 -2.3495138 0.45451567 0
5.9960003 -2.3575513 0.45447057 0
5.9900002 -2.3651562 0.45441645 0
5.9840002 -2.3727396 0.45436233 0
5.9790006 -2.3807197 0.45431724 0
5.9730005 -2.3882613 0.45426312 0
5.9680004 -2.3962035 0.45421803 0
5.9620004 -2.4037037 0.45416391 0
5.9570003 -2.4116077 0.45411882 0
5.9510002 -2.4190667 0.45406473 0
5.9450002 -2.4265037 0.45401061 0
5.9400005 -2.4343503 0.45396551 0
5.9340005 -2.441746 0.45391139 0
5.9290004 -2.4495544 0.4538663 0
5.9240003 -2.4573452 0.45382118 0
5.9180002 -2.4646795 0.45376709 0
5.9130006 -2.4724324 0.453722 0
5.9070005 -2.4797251 0.45366788 0
5.9020004 -2.4874401 0.45362279 0
5.8960004 -2.4946914 0.45356867 0
5.8910003 -2.5023685 0.45352358 0
5.8860002 -2.5100272 0.45347846 0
5.8800006 -2.5172174 0.45342436 0
5.8750005 -2.5248384 0.45337927 0
5.8690004 -2.531987 0.45332515 0
5.8640003 -2.5395701 0.45328006 0
5.8590002 -2.5471354 0.45323497 0
5.8530002 -2.5542223 0.45318085 0
6.1100001 -2.1986465 0.44519898 0
6.1040006 -2.2066736 0.44515571 0
6.0980005 -2.214679 0.44511241 0
6.0920005 -2.2226627 0.44506913 0
6.0870004 -2.2310088 0.44503304 0
6.0810003 -2.238951 0.44498974 0
6.0750003 -2.2468715 0.44494647 0
6.0690002 -2.2547703 0.44490317 0
6.0640001 -2.2630389 0.4448671 0
6.0580006 -2.2708964 0.4448238 0
6.0520005 -2.2787323 0.4447805 0
6.0460005 -2.2865465 0.44473723 0
6.0410004 -2.2947373 0.44470114 0
6.0350003 -2.30251 0.44465786 0
6.0290003 -2.310261 0.44461456 0
6.0240002 -2.3183942 0.44457847 0
6.0180001 -2.3261037 0.4445352 0
6.0120006 -2.3337917 0.44449189 0
6.0070004 -2.3418672 0.44445583 0
6.0010004 -2.3495138 0.44441253 0
5.9960003 -2.3575513 0.44437647 0
5.9900002 -2.3651562 0.44433317 0
5.9840002 -2.3727396 0.44428986 0
5.9790006 -2.3807197 0.4442538 0
5.9730005 -2.3882613 0.4442105 0
5.9680004 -2.3962035 0.44417444 0
5.9620004 -2.4037037 0.44413114 0
5.9570003 -2.4116077 0.44409508 0
5.9510002 -2.4190667 0.44405177 0
5.9450002 -2.4265037 0.44400847 0
5.9400005 -2.4343503 0.44397241 0
5.9340005 -2.441746 0.44392911 0
5.9290004 -2.4495544 0.44389305 0
5.9240003 -2.4573452 0.44385695 0
5.9180002 -2.4646795 0.44381368 0
5.9130006 -2.4724324 0.44377759 0
5.9070005 -2.4797251 0.44373429 0
5.9020004 -2.4874401 0.44369823 0
5.8960004 -2.4946914 0.44365492 0
5.8910003 -2.5023685 0.44361886 0
5.8860002 -2.5100272 0.44358277 0
5.8800006 -2.5172174 0.4435395 0
5.8750005 -2.5248384 0.44350341 0
5.8690004 -2.531987 0.44346011 0
5.8640003 -2.5395701 0.44342405 0
5.8590002 -2.5471354 0.44338799 0
5.8530002 -2.5542223 0.44334468 0
6.1100001 -2.1986465 0.43489924 0
6.1040006 -2.2066736 0.43486679 0
6.0980005 -2.214679 0.4348343 0
6.0920005 -2.2226627 0.43480185 0
6.0870004 -2.2310088 0.43477479 0
6.0810003 -2.238951 0.43474233 0
6.0750003 -2.2468715 0.43470985 0
6.0690002 -2.2547703 0.43467739 0
6.0640001 -2.2630389 0.43465033 0
6.0580006 -2.2708964 0.43461785 0
6.0520005 -2.2787323 0.43458539 0
6.0460005 -2.2865465 0.43455291 0
6.0410004 -2.2947373 0.43452585 0
6.0350003 -2.30251 0.43449339 0
6.0290003 -2.310261 0.43446094 0
6.0240002 -2.3183942 0.43443388 0
6.0180001 -2.3261037 0.43440139 0
6.0120006 -2.3337917 0.43436894 0
6.0070004 -2.3418672 0.43434188 0
6.0010004 -2.3495138 0.43430939 0
5.9960003 -2.3575513 0.43428233 0
5.9900002 -2.3651562 0.43424988 0
5.9840002 -2.3727396 0.43421742 0
5.9790006 -2.3807197 0.43419036 0
5.9730005 -2.3882613 0.43415788 0
5.9680004 -2.3962035 0.43413082 0
5.9620004 -2.4037037 0.43409836 0
5.9570003 -2.4116077 0.4340713 0
5.9510002 -2.4190667 0.43403882 0
5.9450002 -2.4265037 0.43400636 0
5.9400005 -2.4343503 0.4339793 0
5.9340005 -2.441746 0.43394685 0
5.9290004 -2.4495544 0.43391979 0
5.9240003 -2.4573452 0.43389273 0
5.9180002 -2.4646795 0.43386024 0
5.9130006 -2.4724324 0.43383321 0
5.9070005 -2.4797251 0.43380073 0
5.9020004 -2.4874401 0.43377367 0
5.8960004 -2.4946914 0.43374121 0
5.8910003 -2.5023685 0.43371415 0
5.8860002 -2.5100272 0.43368709 0
5.8800006 -2.5172174 0.43365464 0
5.8750005 -2.5248384 0.43362758 0
5.8690004 -2.531987 0.43359509 0
5.8640003 -2.5395701 0.43356803 0
5.8590002 -2.5471354 0.43354097 0
5.8530002 -2.5542223 0.43350852 0
6.1100001 -2.1986465 0.4245995 0
6.1040006 -2.2066736 0.42457786 0
6.0980005 -2.214679 0.42455623 0
6.0920005 -2.2226627 0.42453456 0
6.0870004 -2.2310088 0.42451653 0
6.0810003 -2.238951 0.42449489 0
6.0750003 -2.2468715 0.42447323 0
6.0690002 -2.2547703 0.42445159 0
6.0640001 -2.2630389 0.42443356 0
6.0580006 -2.2708964 0.42441192 0
6.0520005 -2.2787323 0.42439026 0
6.0460005 -2.2865465 0.42436862 0
6.0410004 -2.2947373 0.42435059 0
6.0350003 -2.30251 0.42432892 0
6.0290003 -2.310261 0.42430729 0
6.0240002 -2.3183942 0.42428926 0
6.0180001 -2.3261037 0.42426759 0
6.0120006 -2.3337917 0.42424595 0
6.0070004 -2.3418672 0.42422792 0
6.0010004 -2.3495138 0.42420629 0
5.9960003 -2.3575513 0.42418823 0
5.9900002 -2.3651562 0.42416659 0
5.9840002 -2.3727396 0.42414495 0
5.9790006 -2.3807197 0.42412689 0
5.9730005 -2.3882613 0.42410526 0
5.9680004 -2.3962035 0.42408723 0
5.9620004 -2.4037037 0.42406559 0
5.9570003 -2.4116077 0.42404753 0
5.9510002 -2.4190667 0.42402589 0
5.9450002 -2.4265037 0.42400426 0
5.9400005 -2.4343503 0.4239862 0
5.9340005 -2.441746 0.42396456 0
5.9290004 -2.4495544 0.42394653 0
5.9240003 -2.4573452 0.4239285 0
5.9180002 -2.4646795 0.42390683 0
5.9130006 -2.4724324 0.4238888 0
5.9070005 -2.4797251 0.42386717 0
5.9020004 -2.4874401 0.42384911 0
5.8960004 -2.4946914 0.42382747 0
5.8910003 -2.5023685 0.42380944 0
5.8860002 -2.5100272 0.42379141 0
5.8800006 -2.5172174 0.42376974 0
5.8750005 -2.5248384 0.42375171 0
5.8690004 -2.531987 0.42373008 0
5.8640003 -2.5395701 0.42371202 0
5.8590002 -2.5471354 0.42369398 0
5.8530002 -2.5542223 0.42367235 0
6.1100001 -2.1986465 0.41429976 0
6.1040006 -2.2066736 0.41428894 0
6.0980005 -2.214679 0.41427812 0
6.0920005 -2.2226627 0.4142673 0
6.0870004 -2.2310088 0.41425827 0
6.0810003 -2.238951 0.41424745 0
6.0750003 -2.2468715 0.41423663 0
6.0690002 -2.2547703 0.41422582 0
6.0640001 -2.2630389 0.41421679 0
6.0580006 -2.2708964 0.41420597 0
6.0520005 -2.2787323 0.41419515 0
6.0460005 -2.2865465 0.4141843 0
6.0410004 -2.2947373 0.4141753 0
6.0350003 -2.30251 0.41416448 0
6.0290003 -2.310261 0.41415364 0
6.0240002 -2.3183942 0.41414464 0
6.0180001 -2.3261037 0.41413382 0
6.0120006 -2.3337917 0.414123 0
6.0070004 -2.3418672 0.41411397 0
6.0010004 -2.3495138 0.41410315 0
5.9960003 -2.3575513 0.41409412 0
5.9900002 -2.3651562 0.4140833 0
5.9840002 -2.3727396 0.41407248 0
5.9790006 -2.3807197 0.41406345 0
5.9730005 -2.3882613 0.41405264 0
5.9680004 -2.3962035 0.41404361 0
5.9620004 -2.4037037 0.41403279 0
5.9570003 -2.4116077 0.41402379 0
5.9510002 -2.4190667 0.41401297 0
5.9450002 -2.4265037 0.41400212 0
5.9400005 -2.4343503 0.41399312 0
5.9340005 -2.441746 0.4139823 0
5.9290004 -2.4495544 0.41397327 0
5.9240003 -2.4573452 0.41396424 0
5.9180002 -2.4646795 0.41395342 0
5.9130006 -2.4724324 0.41394442 0
5.9070005 -2.4797251 0.41393358 0
5.9020004 -2.4874401 0.41392457 0
5.8960004 -2.4946914 0.41391376 0
5.8910003 -2.5023685 0.41390473 0
5.8860002 -2.5100272 0.4138957 0
5.8800006 -2.5172174 0.41388488 0
5.8750005 -2.5248384 0.41387588 0
5.8690004 -2.531987 0.41386503 0
5.8640003 -2.5395701 0.41385603 0
5.8590002 -2.5471354 0.413847 0
5.8530002 -2.5542223 0.41383618 0
6.1100001 -2.1986465 0.40400001 0
6.1040006 -2.2066736 0.40400001 0
6.0980005 -2.214679 0.40400001 0
6.0920005 -2.2226627 0.40400001 0
6.0870004 -2.2310088 0.40400001 0
6.0810003 -2.238951 0.40400001 0
6.0750003 -2.2468715 0.40400001 0
6.0690002 -2.2547703 0.40400001 0
6.0640001 -2.2630389 0.40400001 0
6.0580006 -2.2708964 0.40400001 0
6.0520005 -2.2787323 0.40400001 0
6.0460005 -2.2865465 0.40400001 0
6.0410004 -2.2947373 0.40400001 0
6.0350003 -2.30251 0.40400001 0
6.0290003 -2.310261 0.40400001 0
6.0240002 -2.3183942 0.40400001 0
6.0180001 -2.3261037 0.40400001 0
6.0120006 -2.3337917 0.40400001 0
6.0070004 -2.3418672 0.40400001 0
6.0010004 -2.3495138 0.40400001 0
5.9960003 -2.3575513 0.40400001 0
5.9900002 -2.3651562 0.40400001 0
5.9840002 -2.3727396 0.40400001 0
5.9790006 -2.3807197 0.40400001 0
5.9730005 -2.3882613 0.40400001 0
5.9680004 -2.3962035 0.40400001 0
5.9620004 -2.4037037 0.40400001 0
5.9570003 -2.4116077 0.40400001 0
5.9510002 -2.4190667 0.40400001 0
5.9450002 -2.4265037 0.40400001 0
5.9400005 -2.4343503 0.40400001 0
5.9340005 -2.441746 0.40400001 0
5.9290004 -2.4495544 0.40400001 0
5.9240003 -2.4573452 0.40400001 0
5.9180002 -2.4646795 0.40400001 0
5.9130006 -2.4724324 0.40400001 0
5.9070005 -2.4797251 0.40400001 0
5.9020004 -2.4874401 0.40400001 0
5.8960004 -2.4946914 0.40400001 0
5.8910003 -2.5023685 0.40400001 0
5.8860002 -2.5100272 0.40400001 0
5.8800006 -2.5172174 0.40400001 0
5.8750005 -2.5248384 0.40400001 0
5.8690004 -2.531987 0.40400001 0
5.8640003 -2.5395701 0.40400001 0
5.8590002 -2.5471354 0.40400001 0
5.8530002 -2.5542223 0.40400001 0
6.1100001 -2.1986465 0.39370027 0
6.1040006 -2.2066736 0.39371109 0
6.0980005 -2.214679 0.39372191 0
6.0920005 -2.2226627 0.39373273 0
6.0870004 -2.2310088 0.39374176 0
6.0810003 -2.238951 0.39375257 0
6.0750003 -2.2468715 0.39376339 0
6.0690002 -2.2547703 0.39377421 0
6.0640001 -2.2630389 0.39378324 0
6.0580006 -2.2708964 0.39379406 0
6.0520005 -2.2787323 0.39380488 0
6.0460005 -2.2865465 0.39381573 0
6.0410004 -2.2947373 0.39382473 0
6.0350003 -2.30251 0.39383554 0
6.0290003 -2.310261 0.39384639 0
6.0240002 -2.3183942 0.39385539 0
6.0180001 -2.3261037 0.39386621 0
6.0120006 -2.3337917 0.39387703 0
6.0070004 -2.3418672 0.39388606 0
6.0010004 -2.3495138 0.39389688 0
5.9960003 -2.3575513 0.39390591 0
5.9900002 -2.3651562 0.39391673 0
5.9840002 -2.3727396 0.39392754 0
5.9790006 -2.3807197 0.39393657 0
5.9730005 -2.3882613 0.39394739 0
5.9680004 -2.3962035 0.39395642 0
5.9620004 -2.4037037 0.39396724 0
5.9570003 -2.4116077 0.39397624 0
5.9510002 -2.4190667 0.39398706 0
5.9450002 -2.4265037 0.39399791 0
5.9400005 -2.4343503 0.39400691 0
5.9350004 -2.4421787 0.39401594 0
5.9290004 -2.4495544 0.39402676 0
5.9240003 -2.4573452 0.39403579 0
5.9180002 -2.4646795 0.3940466 0
5.9130006 -2.4724324 0.3940556 0
5.9070005 -2.4797251 0.39406645 0
5.9020004 -2.4874401 0.39407545 0
5.8960004 -2.4946914 0.39408627 0
5.8910003 -2.5023685 0.3940953 0
5.8860002 -2.5100272 0.39410433 0
5.8800006 -2.5172174 0.39411515 0
5.8750005 -2.5248384 0.39412415 0
5.8690004 -2.531987 0.394135 0
5.8640003 -2.5395701 0.394144 0
5.8590002 -2.5471354 0.39415303 0
5.8530002 -2.5542223 0.39416385 0
6.1100001 -2.1986465 0.38340053 0
6.1040006 -2.2066736 0.38342217 0
6.0980005 -2.214679 0.3834438 0
6.0920005 -2.2226627 0.38346547 0
6.0870004 -2.2310088 0.3834835 0
6.0810003 -2.238951 0.38350514 0
6.0750003 -2.2468715 0.3835268 0
6.0690002 -2.2547703 0.38354844 0
6.0640001 -2.2630389 0.38356647 0
6.0580006 -2.2708964 0.38358811 0
6.0520005 -2.2787323 0.38360977 0
6.0460005 -2.2865465 0.38363141 0
6.0410004 -2.2947373 0.38364944 0
6.0350003 -2.30251 0.3836711 0
6.0290003 -2.310261 0.38369274 0
6.0240002 -2.3183942 0.38371077 0
6.0180001 -2.3261037 0.38373244 0
6.0120006 -2.3337917 0.38375407 0
6.0070004 -2.3418672 0.3837721 0
6.0010004 -2.3495138 0.38379374 0
5.9960003 -2.3575513 0.3838118 0
5.9900002 -2.3651562 0.38383344 0
5.9840002 -2.3727396 0.38385507 0
5.9790006 -2.3807197 0.38387313 0
5.9730005 -2.3882613 0.38389477 0
5.9680004 -2.3962035 0.3839128 0
5.9620004 -2.4037037 0.38393444 0
5.9570003 -2.4116077 0.3839525 0
5.9510002 -2.4190667 0.38397413 0
5.9450002 -2.4265037 0.38399577 0
5.9400005 -2.4343503 0.38401383 0
5.9350004 -2.4421787 0.38403186 0
5.9290004 -2.4495544 0.3840535 0
5.9240003 -2.4573452 0.38407153 0
5.9180002 -2.4646795 0.3840932 0
5.9130006 -2.4724324 0.38411123 0
5.9070005 -2.4797251 0.38413286 0
5.9020004 -2.4874401 0.38415092 0
5.8960004 -2.4946914 0.38417256 0
5.8910003 -2.5023685 0.38419059 0
5.8860002 -2.5100272 0.38420862 0
5.8800006 -2.5172174 0.38423029 0
5.8750005 -2.5248384 0.38424832 0
5.8690004 -2.531987 0.38426995 0
5.8640003 -2.5395701 0.38428801 0
5.8590002 -2.5471354 0.38430604 0
5.8530002 -2.5542223 0.38432768 0
6.1100001 -2.1986465 0.37310079 0
6.1040006 -2.2066736 0.37313324 0
6.0980005 -2.214679 0.37316573 0
6.0920005 -2.2226627 0.37319818 0
6.0870004 -2.2310088 0.37322524 0
6.0810003 -2.238951 0.3732577 0
6.0750003 -2.2468715 0.37329018 0
6.0690002 -2.2547703 0.37332264 0
6.0640001 -2.2630389 0.3733497 0
6.0580006 -2.2708964 0.37338218 0
6.0520005 -2.2787323 0.37341464 0
6.0460005 -2.2865465 0.37344712 0
6.0410004 -2.2947373 0.37347418 0
6.0350003 -2.30251 0.37350664 0
6.0290003 -2.310261 0.37353909 0
6.0240002 -2.3183942 0.37356615 0
6.0180001 -2.3261037 0.37359864 0
6.0120006 -2.3337917 0.37363109 0
6.0070004 -2.3418672 0.37365815 0
6.0010004 -2.3495138 0.37369063 0
5.9960003 -2.3575513 0.3737177 0
5.9900002 -2.3651562 0.37375015 0
5.9840002 -2.3727396 0.3737826 0
5.9790006 -2.3807197 0.37380967 0
5.9730005 -2.3882613 0.37384215 0
5.9680004 -2.3962035 0.37386921 0
5.9620004 -2.4037037 0.37390167 0
5.9570003 -2.4116077 0.37392873 0
5.9510002 -2.4190667 0.37396121 0
5.9450002 -2.4265037 0.37399366 0
5.9400005 -2.4343503 0.37402073 0
5.9350004 -2.4421787 0.37404779 0
5.9290004 -2.4495544 0.37408024 0
5.9240003 -2.4573452 0.3741073 0
5.9180002 -2.4646795 0.37413979 0
5.9130006 -2.4724324 0.37416682 0
5.9070005 -2.4797251 0.3741993 0
5.9020004 -2.4874401 0.37422636 0
5.8960004 -2.4946914 0.37425882 0
5.8910003 -2.5023685 0.37428588 0
5.8860002 -2.5100272 0.37431294 0
5.8800006 -2.5172174 0.37434539 0
5.8750005 -2.5248384 0.37437245 0
5.8690004 -2.531987 0.37440494 0
5.8640003 -2.5395701 0.374432 0
5.8590002 -2.5471354 0.37445906 0
5.8530002 -2.5542223 0.37449151 0
6.1100001 -2.1986465 0.36280105 0
6.1040006 -2.2066736 0.36284432 0
6.0980005 -2.214679 0.36288762 0
6.0920005 -2.2226627 0.36293089 0
6.0870004 -2.2310088 0.36296698 0
6.0810003 -2.238951 0.36301029 0
6.0750003 -2.2468715 0.36305356 0
6.0690002 -2.2547703 0.36309686 0
6.0640001 -2.2630389 0.36313292 0
6.0580006 -2.2708964 0.36317623 0
6.0520005 -2.2787323 0.36321953 0
6.0460005 -2.2865465 0.3632628 0
6.0410004 -2.2947373 0.36329889 0
6.0350003 -2.30251 0.36334217 0
6.0290003 -2.310261 0.36338547 0
6.0240002 -2.3183942 0.36342156 0
6.0180001 -2.3261037 0.36346483 0
6.0120006 -2.3337917 0.36350814 0
6.0070004 -2.3418672 0.3635442 0
6.0010004 -2.3495138 0.3635875 0
5.9960003 -2.3575513 0.36362356 0
5.9900002 -2.3651562 0.36366686 0
5.9840002 -2.3727396 0.36371017 0
5.9790006 -2.3807197 0.36374623 0
5.9730005 -2.3882613 0.36378953 0
5.9680004 -2.3962035 0.36382559 0
5.9620004 -2.4037037 0.36386889 0
5.9570003 -2.4116077 0.36390495 0
5.9510002 -2.4190667 0.36394826 0
5.9450002 -2.4265037 0.36399156 0
5.9400005 -2.4343503 0.36402762 0
5.9350004 -2.4421787 0.36406371 0
5.9290004 -2.4495544 0.36410698 0
5.9240003 -2.4573452 0.36414307 0
5.9180002 -2.4646795 0.36418635 0
5.9130006 -2.4724324 0.36422244 0
5.9070005 -2.4797251 0.36426574 0
5.9020004 -2.4874401 0.3643018 0
5.8960004 -2.4946914 0.3643451 0
5.8910003 -2.5023685 0.36438116 0
5.8860002 -2.5100272 0.36441725 0
5.8800006 -2.5172174 0.36446053 0
5.8750005 -2.5248384 0.36449662 0
5.8690004 -2.531987 0.36453992 0
5.8640003 -2.5395701 0.36457598 0
5.8590002 -2.5471354 0.36461204 0
5.8530002 -2.5542223 0.36465535 0
6.1100001 -2.1986465 0.3525013 0
6.1040006 -2.2066736 0.35255539 0
6.0980005 -2.214679 0.35260952 0
6.0920005 -2.2226627 0.35266364 0
6.0870004 -2.2310088 0.35270873 0
6.0810003 -2.238951 0.35276285 0
6.0750003 -2.2468715 0.35281697 0
6.0690002 -2.2547703 0.35287106 0
6.0640001 -2.2630389 0.35291618 0
6.0580006 -2.2708964 0.35297027 0
6.0520005 -2.2787323 0.35302439 0
6.0460005 -2.2865465 0.35307851 0
6.0410004 -2.2947373 0.35312361 0
6.0350003 -2.30251 0.35317773 0
6.0290003 -2.310261 0.35323185 0
6.0240002 -2.3183942 0.35327694 0
6.0180001 -2.3261037 0.35333103 0
6.0120006 -2.3337917 0.35338515 0
6.0070004 -2.3418672 0.35343024 0
6.0010004 -2.3495138 0.35348436 0
5.9960003 -2.3575513 0.35352945 0
5.9900002 -2.3651562 0.35358357 0
5.9840002 -2.3727396 0.3536377 0
5.9790006 -2.3807197 0.35368279 0
5.9730005 -2.3882613 0.35373691 0
5.9680004 -2.3962035 0.353782 0
5.9620004 -2.4037037 0.35383612 0
5.9570003 -2.4116077 0.35388121 0
5.9510002 -2.4190667 0.3539353 0
5.9450002 -2.4265037 0.35398942 0
5.9400005 -2.4343503 0.35403451 0
5.9350004 -2.4421787 0.35407963 0
5.9290004 -2.4495544 0.35413373 0
5.9240003 -2.4573452 0.35417885 0
5.9180002 -2.4646795 0.35423294 0
5.9130006 -2.4724324 0.35427803 0
5.9070005 -2.4797251 0.35433215 0
5.9020004 -2.4874401 0.35437724 0
5.8960004 -2.4946914 0.35443136 0
5.8910003 -2.5023685 0.35447645 0
5.8860002 -2.5100272 0.35452157 0
5.8800006 -2.5172174 0.35457566 0
5.8750005 -2.5248384 0.35462075 0
5.8690004 -2.531987 0.35467488 0
5.8640003 -2.5395701 0.35471997 0
5.8590002 -2.5471354 0.35476506 0
5.8530002 -2.5542223 0.35481918 0
6.1100001 -2.1986465 0.34220153 0
6.1040006 -2.2066736 0.34226647 0
6.0980005 -2.214679 0.34233141 0
6.0920005 -2.2226627 0.34239635 0
6.0870004 -2.2310088 0.34245047 0
6.0810003 -2.238951 0.34251541 0
6.0750003 -2.2468715 0.34258035 0
6.0690002 -2.2547703 0.34264529 0
6.0640001 -2.2630389 0.34269941 0
6.0580006 -2.2708964 0.34276432 0
6.0520005 -2.2787323 0.34282926 0
6.0460005 -2.2865465 0.3428942 0
6.0410004 -2.2947373 0.34294832 0
6.0350003 -2.30251 0.34301326 0
6.0290003 -2.310261 0.3430782 0
6.0240002 -2.3183942 0.34313232 0
6.0180001 -2.3261037 0.34319726 0
6.0120006 -2.3337917 0.34326217 0
6.0070004 -2.3418672 0.34331629 0
6.0010004 -2.3495138 0.34338123 0
5.9960003 -2.3575513 0.34343535 0
5.9900002 -2.3651562 0.34350029 0
5.9840002 -2.3727396 0.34356523 0
5.9790006 -2.3807197 0.34361935 0
5.9730005 -2.3882613 0.34368426 0
5.9680004 -2.3962035 0.34373838 0
5.9620004 -2.4037037 0.34380332 0
5.9570003 -2.4116077 0.34385744 0
5.9510002 -2.4190667 0.34392238 0
5.9450002 -2.4265037 0.34398732 0
5.9400005 -2.4343503 0.34404144 0
5.9350004 -2.4421787 0.34409553 0
5.9290004 -2.4495544 0.34416047 0
5.9240003 -2.4573452 0.34421459 0
5.9180002 -2.4646795 0.34427953 0
5.9130006 -2.4724324 0.34433365 0
5.9070005 -2.4797251 0.34439859 0
5.9020004 -2.4874401 0.34445271 0
5.8960004 -2.4946914 0.34451765 0
5.8910003 -2.5023685 0.34457174 0
5.8860002 -2.5100272 0.34462586 0
5.8800006 -2.5172174 0.3446908 0
5.8750005 -2.5248384 0.34474492 0
5.8690004 -2.531987 0.34480986 0
5.8640003 -2.5395701 0.34486395 0
5.8590002 -2.5471354 0.34491807 0
5.8530002 -2.5542223 0.34498301 0
6.1100001 -2.1986465 0.33190179 0
6.1040006 -2.2066736 0.33197755 0
6.0980005 -2.214679 0.3320533 0
6.0920005 -2.2226627 0.33212906 0
6.0870004 -2.2310088 0.33219221 0
6.0810003 -2.238951 0.33226797 0
6.0750003 -2.2468715 0.33234373 0
6.0690002 -2.2547703 0.33241948 0
6.0640001 -2.2630389 0.33248264 0
6.0580006 -2.2708964 0.33255839 0
6.0520005 -2.2787323 0.33263415 0
6.0460005 -2.2865465 0.33270991 0
6.0410004 -2.2947373 0.33277303 0
6.0350003 -2.30251 0.33284879 0
6.0290003 -2.310261 0.33292454 0
6.0240002 -2.3183942 0.3329877 0
6.0180001 -2.3261037 0.33306345 0
6.0120006 -2.3337917 0.33313921 0
6.0070004 -2.3418672 0.33320236 0
6.0010004 -2.3495138 0.33327812 0
5.9960003 -2.3575513 0.33334124 0
5.9900002 -2.3651562 0.333417 0
5.9840002 -2.3727396 0.33349276 0
5.9790006 -2.3807197 0.33355588 0
5.9730005 -2.3882613 0.33363163 0
5.9680004 -2.3962035 0.33369479 0
5.9620004 -2.4037037 0.33377054 0
5.9570003 -2.4116077 0.33383369 0
5.9510002 -2.4190667 0.33390945 0
5.9450002 -2.4265037 0.33398521 0
5.9400005 -2.4343503 0.33404833 0
5.9350004 -2.4421787 0.33411145 0
5.9290004 -2.4495544 0.33418721 0
5.9240003 -2.4573452 0.33425036 0
5.9180002 -2.4646795 0.33432612 0
5.9130006 -2.4724324 0.33438924 0
5.9070005 -2.4797251 0.334465 0
5.9020004 -2.4874401 0.33452815 0
5.8960004 -2.4946914 0.33460391 0
5.8910003 -2.5023685 0.33466703 0
5.8860002 -2.5100272 0.33473018 0
5.8800006 -2.5172174 0.33480594 0
5.8750005 -2.5248384 0.33486906 0
5.8690004 -2.531987 0.33494481 0
5.8640003 -2.5395701 0.33500797 0
5.8590002 -2.5471354 0.33507109 0
5.8530002 -2.5542223 0.33514684 0
6.1100001 -2.1986465 0.32160205 0
6.1040006 -2.2066736 0.32168865 0
6.0980005 -2.214679 0.32177523 0
6.0920005 -2.2226627 0.3218618 0
6.0870004 -2.2310088 0.32193395 0
6.0810003 -2.238951 0.32202053 0
6.0750003 -2.2468715 0.32210714 0
6.0690002 -2.2547703 0.32219371 0
6.0640001 -2.2630389 0.32226586 0
6.0580006 -2.2708964 0.32235244 0
6.0520005 -2.2787323 0.32243901 0
6.0460005 -2.2865465 0.32252562 0
6.0410004 -2.2947373 0.32259774 0
6.0350003 -2.30251 0.32268435 0
6.0290003 -2.310261 0.32277092 0
6.0240002 -2.3183942 0.32284307 0
6.0180001 -2.3261037 0.32292965 0
6.0120006 -2.3337917 0.32301623 0
6.0070004 -2.3418672 0.32308841 0
6.0010004 -2.3495138 0.32317498 0
5.9960003 -2.3575513 0.32324713 0
5.9900002 -2.3651562 0.32333371 0
5.9840002 -2.3727396 0.32342029 0
5.9790006 -2.3807197 0.32349244 0
5.9730005 -2.3882613 0.32357901 0
5.9680004 -2.3962035 0.32365119 0
5.9620004 -2.4037037 0.32373777 0
5.9570003 -2.4116077 0.32380992 0
5.9510002 -2.4190667 0.3238965 0
5.9450002 -2.4265037 0.32398307 0
5.9400005 -2.4343503 0.32405522 0
5.9350004 -2.4421787 0.32412738 0
5.9290004 -2.4495544 0.32421398 0
5.9240003 -2.4573452 0.32428613 0
5.9180002 -2.4646795 0.32437271 0
5.9130006 -2.4724324 0.32444486 0
5.9070005 -2.4797251 0.32453144 0
5.9020004 -2.4874401 0.32460359 0
5.8960004 -2.4946914 0.32469016 0
5.8910003 -2.5023685 0.32476234 0
5.8860002 -2.5100272 0.32483447 0
5.8800006 -2.5172174 0.32492107 0
5.8750005 -2.5248384 0.32499319 0
5.8690004 -2.531987 0.3250798 0
5.8640003 -2.5395701 0.32515195 0
5.8590002 -2.5471354 0.3252241 0
5.8530002 -2.5542223 0.32531068 0
6.1100001 -2.1986465 0.3113023 0
6.1040006 -2.2066736 0.3113997 0
6.0980005 -2.214679 0.31149712 0
6.0920005 -2.2226627 0.31159452 0
6.0870004 -2.2310088 0.3116757 0
6.0810003 -2.238951 0.31177312 0
6.0750003 -2.2468715 0.31187052 0
6.0690002 -2.2547703 0.31196791 0
6.0640001 -2.2630389 0.31204909 0
6.0580006 -2.2708964 0.31214648 0
6.0520005 -2.2787323 0.31224388 0
6.0460005 -2.2865465 0.3123413 0
6.0410004 -2.2947373 0.31242248 0
6.0350003 -2.30251 0.31251988 0
6.0290003 -2.310261 0.3126173 0
6.0240002 -2.3183942 0.31269845 0
6.0180001 -2.3261037 0.31279588 0
6.0120006 -2.3337917 0.31289327 0
6.0070004 -2.3418672 0.31297445 0
6.0010004 -2.3495138 0.31307185 0
5.9960003 -2.3575513 0.31315303 0
5.9900002 -2.3651562 0.31325042 0
5.9840002 -2.3727396 0.31334782 0
5.9790006 -2.3807197 0.313429 0
5.9730005 -2.3882613 0.31352639 0
5.9680004 -2.3962035 0.31360757 0
5.9620004 -2.4037037 0.31370497 0
5.9570003 -2.4116077 0.31378615 0
5.9510002 -2.4190667 0.31388357 0
5.9450002 -2.4265037 0.31398097 0
5.9400005 -2.4343503 0.31406212 0
5.9350004 -2.4421787 0.3141433 0
5.9290004 -2.4495544 0.31424072 0
5.9240003 -2.4573452 0.31432188 0
5.9180002 -2.4646795 0.3144193 0
5.9130006 -2.4724324 0.31450045 0
5.9070005 -2.4797251 0.31459787 0
5.9020004 -2.4874401 0.31467903 0
5.8960004 -2.4946914 0.31477645 0
5.8910003 -2.5023685 0.3148576 0
5.8860002 -2.5100272 0.31493878 0
5.8800006 -2.5172174 0.31503618 0
5.8750005 -2.5248384 0.31511736 0
5.8690004 -2.531987 0.31521475 0
5.8640003 -2.5395701 0.31529593 0
5.8590002 -2.5471354 0.31537712 0
5.8530002 -2.5542223 0.31547451 0
6.1100001 -2.1986465 0.30100256 0
6.1040006 -2.2066736 0.3011108 0
6.0980005 -2.214679 0.30121902 0
6.0920005 -2.2226627 0.30132723 0
6.0870004 -2.2310088 0.30141744 0
6.0810003 -2.238951 0.30152565 0
6.0750003 -2.2468715 0.30163389 0
6.0690002 -2.2547703 0.30174214 0
6.0640001 -2.2630389 0.30183232 0
6.0580006 -2.2708964 0.30194053 0
6.0520005 -2.2787323 0.30204877 0
6.0460005 -2.2865465 0.30215698 0
6.0410004 -2.2947373 0.3022472 0
6.0350003 -2.30251 0.30235541 0
6.0290003 -2.310261 0.30246365 0
6.0240002 -2.3183942 0.30255383 0
6.0180001 -2.3261037 0.30266207 0
6.0120006 -2.3337917 0.30277029 0
6.0070004 -2.3418672 0.3028605 0
6.0010004 -2.3495138 0.30296871 0
5.9960003 -2.3575513 0.30305892 0
5.9900002 -2.3651562 0.30316713 0
5.9840002 -2.3727396 0.30327538 0
5.9790006 -2.3807197 0.30336556 0
5.9730005 -2.3882613 0.30347377 0
5.9680004 -2.3962035 0.30356395 0
5.9620004 -2.4037037 0.30367219 0
5.9570003 -2.4116077 0.30376241 0
5.9510002 -2.4190667 0.30387062 0
5.9450002 -2.4265037 0.30397886 0
5.9400005 -2.4343503 0.30406904 0
5.9350004 -2.4421787 0.30415922 0
5.9290004 -2.4495544 0.30426747 0
5.9240003 -2.4573452 0.30435765 0
5.9180002 -2.4646795 0.30446589 0
5.9130006 -2.4724324 0.30455607 0
5.9070005 -2.4797251 0.30466428 0
5.9020004 -2.4874401 0.3047545 0
5.8960004 -2.4946914 0.30486271 0
5.8910003 -2.5023685 0.30495292 0
5.8860002 -2.5100272 0.3050431 0
5.8800006 -2.5172174 0.30515131 0
5.8750005 -2.5248384 0.30524153 0
5.8690004 -2.531987 0.30534974 0
5.8640003 -2.5395701 0.30543995 0
5.8590002 -2.5471354 0.30553013 0
5.8530002 -2.5542223 0.30563837 0
6.1100001 -2.1986465 0.29070282 0
6.1040006 -2.2066736 0.29082188 0
6.0980005 -2.214679 0.29094091 0
6.0920005 -2.2226627 0.29105997 0
6.0870004 -2.2310088 0.29115918 0
6.0810003 -2.238951 0.29127824 0
6.0750003 -2.2468715 0.29139727 0
6.0690002 -2.2547703 0.29151633 0
6.0640001 -2.2630389 0.29161555 0
6.0580006 -2.2708964 0.29173458 0
6.0520005 -2.2787323 0.29185364 0
6.0460005 -2.2865465 0.2919727 0
6.0410004 -2.2947373 0.29207191 0
6.0350003 -2.30251 0.29219097 0
6.0290003 -2.310261 0.29231 0
6.0240002 -2.3183942 0.29240924 0
6.0180001 -2.3261037 0.29252827 0
6.0120006 -2.3337917 0.2926473 0
6.0070004 -2.3418672 0.29274654 0
6.0010004 -2.3495138 0.29286557 0
5.9960003 -2.3575513 0.29296479 0
5.9900002 -2.3651562 0.29308385 0
5.9840002 -2.3727396 0.29320291 0
5.9790006 -2.3807197 0.29330212 0
5.9730005 -2.3882613 0.29342115 0
5.9680004 -2.3962035 0.29352036 0
5.9620004 -2.4037037 0.29363942 0
5.9570003 -2.4116077 0.29373863 0
5.9510002 -2.4190667 0.29385769 0
5.9450002 -2.4265037 0.29397672 0
5.9400005 -2.4343503 0.29407594 0
5.9350004 -2.4421787 0.29417515 0
5.9290004 -2.4495544 0.29429421 0
5.9240003 -2.4573452 0.29439342 0
5.9180002 -2.4646795 0.29451245 0
5.9130006 -2.4724324 0.29461166 0
5.9070005 -2.4797251 0.29473072 0
5.9020004 -2.4874401 0.29482993 0
5.8960004 -2.4946914 0.294949 0
5.8910003 -2.5023685 0.29504821 0
5.8860002 -2.5100272 0.29514742 0
5.8800006 -2.5172174 0.29526645 0
5.8750005 -2.5248384 0.29536566 0
5.8690004 -2.531987 0.29548472 0
5.8640003 -2.5395701 0.2955839 0
5.8590002 -2.5471354 0.29568315 0
5.8530002 -2.5542223 0.29580218 0
6.1100001 -2.1986465 0.28040308 0
6.1040006 -2.2066736 0.28053296 0
6.0980005 -2.214679 0.2806628 0
6.0920005 -2.2226627 0.28079271 0
6.0870004 -2.2310088 0.28090093 0
6.0810003 -2.238951 0.2810308 0
6.0750003 -2.2468715 0.28116065 0
6.0690002 -2.2547703 0.28129056 0
6.0640001 -2.2630389 0.28139877 0
6.0580006 -2.2708964 0.28152865 0
6.0520005 -2.2787323 0.28165853 0
6.0460005 -2.2865465 0.28178841 0
6.0410004 -2.2947373 0.28189662 0
6.0350003 -2.30251 0.2820265 0
6.0290003 -2.310261 0.28215638 0
6.0240002 -2.3183942 0.28226462 0
6.0180001 -2.3261037 0.28239447 0
6.0120006 -2.3337917 0.28252435 0
6.0070004 -2.3418672 0.28263259 0
6.0010004 -2.3495138 0.28276247 0
5.9960003 -2.3575513 0.28287068 0
5.9900002 -2.3651562 0.28300056 0
5.9840002 -2.3727396 0.28313044 0
5.9790006 -2.3807197 0.28323865 0
5.9730005 -2.3882613 0.28336853 0
5.9680004 -2.3962035 0.28347677 0
5.9620004 -2.4037037 0.28360665 0
5.9570003 -2.4116077 0.28371486 0
5.9510002 -2.4190667 0.28384474 0
5.9450002 -2.4265037 0.28397462 0
5.9400005 -2.4343503 0.28408283 0
5.9350004 -2.4421787 0.28419107 0
5.9290004 -2.4495544 0.28432095 0
5.9240003 -2.4573452 0.28442919 0
5.9180002 -2.4646795 0.28455904 0
5.9130006 -2.4724324 0.28466725 0
5.9070005 -2.4797251 0.28479713 0
5.9020004 -2.4874401 0.28490537 0
5.8960004 -2.4946914 0.28503525 0
5.8910003 -2.5023685 0.28514349 0
5.8860002 -2.5100272 0.28525171 0
5.8800006 -2.5172174 0.28538156 0
5.8750005 -2.5248384 0.2854898 0
5.8690004 -2.531987 0.28561968 0
5.8640003 -2.5395701 0.28572792 0
5.8590002 -2.5471354 0.28583616 0
5.8530002 -2.5542223 0.28596601 0
6.1100001 -2.1986465 0.27010334 0
6.1040006 -2.2066736 0.270244 0
6.0980005 -2.214679 0.27038473 0
6.0920005 -2.2226627 0.27052543 0
6.0870004 -2.2310088 0.27064267 0
6.0810003 -2.238951 0.27078336 0
6.0750003 -2.2468715 0.27092406 0
6.0690002 -2.2547703 0.27106476 0
6.0640001 -2.2630389 0.271182 0
6.0580006 -2.2708964 0.2713227 0
6.0520005 -2.2787323 0.27146339 0
6.0460005 -2.2865465 0.27160412 0
6.0410004 -2.2947373 0.27172136 0
6.0350003 -2.30251 0.27186203 0
6.0290003 -2.310261 0.27200276 0
6.0240002 -2.3183942 0.27212 0
6.0180001 -2.3261037 0.2722607 0
6.0120006 -2.3337917 0.27240139 0
6.0070004 -2.3418672 0.27251863 0
6.0010004 -2.3495138 0.27265933 0
5.9960003 -2.3575513 0.27277657 0
5.9900002 -2.3651562 0.27291727 0
5.9840002 -2.3727396 0.27305797 0
5.9790006 -2.3807197 0.27317521 0
5.9730005 -2.3882613 0.27331591 0
5.9680004 -2.3962035 0.27343315 0
5.9620004 -2.4037037 0.27357388 0
5.9570003 -2.4116077 0.27369112 0
5.9510002 -2.4190667 0.27383178 0
5.9450002 -2.4265037 0.27397251 0
5.9400005 -2.4343503 0.27408975 0
5.9350004 -2.4421787 0.274207 0
5.9290004 -2.4495544 0.27434766 0
5.9240003 -2.4573452 0.27446494 0
5.9180002 -2.4646795 0.27460563 0
5.9130006 -2.4724324 0.27472287 0
5.9070005 -2.4797251 0.2748636 0
5.9020004 -2.4874401 0.27498084 0
5.8960004 -2.4946914 0.27512151 0
5.8910003 -2.5023685 0.27523875 0
5.8860002 -2.5100272 0.27535602 0
5.8800006 -2.5172174 0.27549672 0
5.8750005 -2.5248384 0.27561396 0
5.8690004 -2.531987 0.27575463 0
5.8640003 -2.5395701 0.2758719 0
5.8590002 -2.5471354 0.27598917 0
5.8530002 -2.5542223 0.27612984 0
6.1100001 -2.1986465 0.25980359 0
6.1040006 -2.2066736 0.25995511 0
6.0980005 -2.214679 0.26010662 0
6.0920005 -2.2226627 0.26025814 0
6.0870004 -2.2310088 0.26038441 0
6.0810003 -2.238951 0.26053593 0
6.0750003 -2.2468715 0.26068747 0
6.0690002 -2.2547703 0.26083899 0
6.0640001 -2.2630389 0.26096523 0
6.0580006 -2.2708964 0.26111674 0
6.0520005 -2.2787323 0.26126826 0
6.0460005 -2.2865465 0.26141977 0
6.0410004 -2.2947373 0.26154608 0
6.0350003 -2.30251 0.26169759 0
6.0290003 -2.310261 0.26184911 0
6.0240002 -2.3183942 0.26197538 0
6.0180001 -2.3261037 0.26212689 0
6.0120006 -2.3337917 0.26227841 0
6.0070004 -2.3418672 0.26240468 0
6.0010004 -2.3495138 0.2625562 0
5.9960003 -2.3575513 0.26268247 0
5.9900002 -2.3651562 0.26283398 0
5.9840002 -2.3727396 0.2629855 0
5.9790006 -2.3807197 0.26311177 0
5.9730005 -2.3882613 0.26326329 0
5.9680004 -2.3962035 0.26338956 0
5.9620004 -2.4037037 0.26354107 0
5.9570003 -2.4116077 0.26366735 0
5.9510002 -2.4190667 0.26381886 0
5.9450002 -2.4265037 0.26397038 0
5.9400005 -2.4343503 0.26409665 0
5.9350004 -2.4421787 0.26422292 0
5.9290004 -2.4495544 0.26437443 0
5.9240003 -2.4573452 0.26450071 0
5.9180002 -2.4646795 0.26465222 0
5.9130006 -2.4724324 0.26477849 0
5.9070005 -2.4797251 0.26493001 0
5.9020004 -2.4874401 0.26505625 0
5.8960004 -2.4946914 0.2652078 0
5.8910003 -2.5023685 0.26533407 0
5.8860002 -2.5100272 0.26546031 0
5.8800006 -2.5172174 0.26561183 0
5.8750005 -2.5248384 0.2657381 0
5.8690004 -2.531987 0.26588964 0
5.8640003 -2.5395701 0.26601589 0
5.8590002 -2.5471354 0.26614219 0
5.8530002 -2.5542223 0.2662937 0
6.1100001 -2.1986465 0.24950385 0
6.1040006 -2.2066736 0.24966618 0
6.0980005 -2.214679 0.24982852 0
6.0920005 -2.2226627 0.24999087 0
6.0870004 -2.2310088 0.25012612 0
6.0810003 -2.238951 0.25028849 0
6.0750003 -2.2468715 0.25045085 0
6.0690002 -2.2547703 0.25061318 0
6.0640001 -2.2630389 0.25074846 0
6.0580006 -2.2708964 0.25091082 0
6.0520005 -2.2787323 0.25107315 0
6.0460005 -2.2865465 0.25123549 0
6.0410004 -2.2947373 0.25137079 0
6.0350003 -2.30251 0.25153312 0
6.0290003 -2.310261 0.25169545 0
6.0240002 -2.3183942 0.25183076 0
6.0180001 -2.3261037 0.25199309 0
6.0120006 -2.3337917 0.25215542 0
6.0070004 -2.3418672 0.25229073 0
6.0010004 -2.3495138 0.25245306 0
5.9960003 -2.3575513 0.25258833 0
5.9900002 -2.3651562 0.25275069 0
5.9840002 -2.3727396 0.25291306 0
5.9790006 -2.3807197 0.2530483 0
5.9730005 -2.3882613 0.25321066 0
5.9680004 -2.3962035 0.25334597 0
5.9620004 -2.4037037 0.25350827 0
5.9570003 -2.4116077 0.25364357 0
5.9510002 -2.4190667 0.25380594 0
5.9450002 -2.4265037 0.25396827 0
5.9400005 -2.4343503 0.25410354 0
5.9350004 -2.4421787 0.25423884 0
5.9290004 -2.4495544 0.25440118 0
5.9240003 -2.4573452 0.25453645 0
5.9180002 -2.4646795 0.25469881 0
5.9130006 -2.4724324 0.25483409 0
5.9070005 -2.4797251 0.25499642 0
5.9020004 -2.4874401 0.25513172 0
5.8960004 -2.4946914 0.25529408 0
5.8910003 -2.5023685 0.25542933 0
5.8860002 -2.5100272 0.25556463 0
5.8800006 -2.5172174 0.25572699 0
5.8750005 -2.5248384 0.25586224 0
5.8690004 -2.531987 0.2560246 0
5.8640003 -2.5395701 0.2561599 0
5.8590002 -2.5471354 0.25629517 0
5.8530002 -2.5542223 0.25645754 0
6.1100001 -2.1986465 0.23920409 0
6.1040006 -2.2066736 0.23937726 0
6.0980005 -2.214679 0.23955043 0
6.0920005 -2.2226627 0.23972359 0
6.0870004 -2.2310088 0.2398679 0
6.0810003 -2.238951 0.24004106 0
6.0750003 -2.2468715 0.24021423 0
6.0690002 -2.2547703 0.2403874 0
6.0640001 -2.2630389 0.2405317 0
6.0580006 -2.2708964 0.24070485 0
6.0520005 -2.2787323 0.24087803 0
6.0460005 -2.2865465 0.2410512 0
6.0410004 -2.2947373 0.2411955 0
6.0350003 -2.30251 0.24136867 0
6.0290003 -2.310261 0.24154183 0
6.0240002 -2.3183942 0.24168614 0
6.0180001 -2.3261037 0.2418593 0
6.0120006 -2.3337917 0.24203245 0
6.0070004 -2.3418672 0.24217677 0
6.0010004 -2.3495138 0.24234994 0
5.9960003 -2.3575513 0.24249424 0
5.9900002 -2.3651562 0.24266741 0
5.9840002 -2.3727396 0.24284057 0
5.9790006 -2.3807197 0.24298488 0
5.9730005 -2.3882613 0.24315804 0
5.9680004 -2.3962035 0.24330235 0
5.9620004 -2.4037037 0.24347551 0
5.9570003 -2.4116077 0.24361981 0
5.9510002 -2.4190667 0.24379298 0
5.9450002 -2.4265037 0.24396615 0
5.9400005 -2.4343503 0.24411045 0
5.9350004 -2.4421787 0.24425475 0
5.9290004 -2.4495544 0.24442792 0
5.9240003 -2.4573452 0.24457224 0
5.9180002 -2.4646795 0.2447454 0
5.9130006 -2.4724324 0.24488969 0
5.9070005 -2.4797251 0.24506286 0
5.9020004 -2.4874401 0.24520716 0
5.8960004 -2.4946914 0.24538033 0
5.8910003 -2.5023685 0.24552464 0
5.8860002 -2.5100272 0.24566895 0
5.8800006 -2.5172174 0.2458421 0
5.8750005 -2.5248384 0.2459864 0
5.8690004 -2.531987 0.24615958 0
5.8640003 -2.5395701 0.24630389 0
5.8590002 -2.5471354 0.24644819 0
5.8530002 -2.5542223 0.24662136 0
6.1100001 -2.1986465 0.22890435 0
6.1040006 -2.2066736 0.22908832 0
6.0980005 -2.214679 0.22927232 0
6.0920005 -2.2226627 0.22945631 0
6.0870004 -2.2310088 0.22960964 0
6.0810003 -2.238951 0.22979362 0
6.0750003 -2.2468715 0.22997761 0
6.0690002 -2.2547703 0.23016161 0
6.0640001 -2.2630389 0.23031493 0
6.0580006 -2.2708964 0.23049891 0
6.0520005 -2.2787323 0.23068289 0
6.0460005 -2.2865465 0.23086688 0
6.0410004 -2.2947373 0.23102021 0
6.0350003 -2.30251 0.2312042 0
6.0290003 -2.310261 0.2313882 0
6.0240002 -2.3183942 0.23154151 0
6.0180001 -2.3261037 0.23172551 0
6.0120006 -2.3337917 0.23190948 0
6.0070004 -2.3418672 0.23206282 0
6.0010004 -2.3495138 0.2322468 0
5.9960003 -2.3575513 0.23240013 0
5.9900002 -2.3651562 0.23258413 0
5.9840002 -2.3727396 0.23276812 0
5.9790006 -2.3807197 0.23292142 0
5.9730005 -2.3882613 0.23310542 0
5.9680004 -2.3962035 0.23325874 0
5.9620004 -2.4037037 0.23344274 0
5.9570003 -2.4116077 0.23359606 0
5.9510002 -2.4190667 0.23378004 0
5.9450002 -2.4265037 0.23396404 0
5.9400005 -2.4343503 0.23411734 0
5.9350004 -2.4421787 0.23427068 0
5.9290004 -2.4495544 0.23445466 0
5.9240003 -2.4573452 0.23460799 0
5.9180002 -2.4646795 0.23479199 0
5.9130006 -2.4724324 0.2349453 0
5.9070005 -2.4797251 0.23512928 0
5.9020004 -2.4874401 0.23528261 0
5.8960004 -2.4946914 0.2354666 0
5.8910003 -2.5023685 0.23561993 0
5.8860002 -2.5100272 0.23577325 0
5.8800006 -2.5172174 0.23595722 0
5.8750005 -2.5248384 0.23611057 0
5.8690004 -2.531987 0.23629455 0
5.8640003 -2.5395701 0.23644789 0
5.8590002 -2.5471354 0.2366012 0
5.8530002 -2.5542223 0.23678519 0
6.1100001 -2.1986465 0.21860461 0
6.1040006 -2.2066736 0.2187994 0
6.0980005 -2.214679 0.21899422 0
6.0920005 -2.2226627 0.21918903 0
6.0870004 -2.2310088 0.21935138 0
6.0810003 -2.238951 0.2195462 0
6.0750003 -2.2468715 0.219741 0
6.0690002 -2.2547703 0.21993582 0
6.0640001 -2.2630389 0.22009815 0
6.0580006 -2.2708964 0.22029296 0
6.0520005 -2.2787323 0.22048777 0
6.0460005 -2.2865465 0.22068259 0
6.0410004 -2.2947373 0.22084494 0
6.0350003 -2.30251 0.22103974 0
6.0290003 -2.310261 0.22123456 0
6.0240002 -2.3183942 0.22139691 0
6.0180001 -2.3261037 0.22159171 0
6.0120006 -2.3337917 0.22178651 0
6.0070004 -2.3418672 0.22194886 0
6.0010004 -2.3495138 0.22214366 0
5.9960003 -2.3575513 0.22230601 0
5.9900002 -2.3651562 0.22250083 0
5.9840002 -2.3727396 0.22269565 0
5.9790006 -2.3807197 0.22285797 0
5.9730005 -2.3882613 0.22305278 0
5.9680004 -2.3962035 0.22321513 0
5.9620004 -2.4037037 0.22340995 0
5.9570003 -2.4116077 0.2235723 0
5.9510002 -2.4190667 0.22376712 0
5.9450002 -2.4265037 0.22396193 0
5.9400005 -2.4343503 0.22412425 0
5.9350004 -2.4421787 0.2242866 0
5.9290004 -2.4495544 0.22448142 0
5.9240003 -2.4573452 0.22464375 0
5.9180002 -2.4646795 0.22483857 0
5.9130006 -2.4724324 0.2250009 0
5.9070005 -2.4797251 0.22519572 0
5.9020004 -2.4874401 0.22535807 0
5.8960004 -2.4946914 0.22555287 0
5.8910003 -2.5023685 0.22571522 0
5.8860002 -2.5100272 0.22587757 0
5.8800006 -2.5172174 0.22607237 0
5.8750005 -2.5248384 0.22623472 0
5.8690004 -2.531987 0.22642952 0
5.8640003 -2.5395701 0.22659187 0
5.8590002 -2.5471354 0.22675422 0
5.8530002 -2.5542223 0.22694904 0
6.1100001 -2.1986465 0.20830487 0
6.1040006 -2.2066736 0.20851049 0
6.0980005 -2.214679 0.20871612 0
6.0920005 -2.2226627 0.20892175 0
6.0870004 -2.2310088 0.20909311 0
6.0810003 -2.238951 0.20929876 0
6.0750003 -2.2468715 0.2095044 0
6.0690002 -2.2547703 0.20971002 0
6.0640001 -2.2630389 0.2098814 0
6.0580006 -2.2708964 0.21008702 0
6.0520005 -2.2787323 0.21029265 0
6.0460005 -2.2865465 0.21049829 0
6.0410004 -2.2947373 0.21066965 0
6.0350003 -2.30251 0.21087529 0
6.0290003 -2.310261 0.21108092 0
6.0240002 -2.3183942 0.21125229 0
6.0180001 -2.3261037 0.21145792 0
6.0120006 -2.3337917 0.21166354 0
6.0070004 -2.3418672 0.21183491 0
6.0010004 -2.3495138 0.21204054 0
5.9960003 -2.3575513 0.21221191 0
5.9900002 -2.3651562 0.21241754 0
5.9840002 -2.3727396 0.21262318 0
5.9790006 -2.3807197 0.21279453 0
5.9730005 -2.3882613 0.21300016 0
5.9680004 -2.3962035 0.21317153 0
5.9620004 -2.4037037 0.21337716 0
5.9570003 -2.4116077 0.21354854 0
5.9510002 -2.4190667 0.21375416 0
5.9450002 -2.4265037 0.2139598 0
5.9400005 -2.4343503 0.21413115 0
5.9350004 -2.4421787 0.21430251 0
5.9290004 -2.4495544 0.21450816 0
5.9240003 -2.4573452 0.21467952 0
5.9180002 -2.4646795 0.21488516 0
5.9130006 -2.4724324 0.21505651 0
5.9070005 -2.4797251 0.21526213 0
5.9020004 -2.4874401 0.21543349 0
5.8960004 -2.4946914 0.21563914 0
5.8910003 -2.5023685 0.21581051 0
5.8860002 -2.5100272 0.21598187 0
5.8800006 -2.5172174 0.21618749 0
5.8750005 -2.5248384 0.21635886 0
5.8690004 -2.531987 0.21656451 0
5.8640003 -2.5395701 0.21673587 0
5.8590002 -2.5471354 0.21690723 0
5.8530002 -2.5542223 0.21711285 0
6.1100001 -2.1986465 0.19800512 0
6.1040006 -2.2066736 0.19822156 0
6.0980005 -2.214679 0.19843802 0
6.0920005 -2.2226627 0.19865447 0
6.0870004 -2.2310088 0.19883487 0
6.0810003 -2.238951 0.19905132 0
6.0750003 -2.2468715 0.19926779 0
6.0690002 -2.2547703 0.19948424 0
6.0640001 -2.2630389 0.19966462 0
6.0580006 -2.2708964 0.19988106 0
6.0520005 -2.2787323 0.20009753 0
6.0460005 -2.2865465 0.20031399 0
6.0410004 -2.2947373 0.20049436 0
6.0350003 -2.30251 0.20071083 0
6.0290003 -2.310261 0.20092729 0
6.0240002 -2.3183942 0.20110767 0
6.0180001 -2.3261037 0.20132414 0
6.0120006 -2.3337917 0.20154057 0
6.0070004 -2.3418672 0.20172095 0
6.0010004 -2.3495138 0.20193742 0
5.9960003 -2.3575513 0.2021178 0
5.9900002 -2.3651562 0.20233425 0
5.9840002 -2.3727396 0.20255072 0
5.9790006 -2.3807197 0.20273109 0
5.9730005 -2.3882613 0.20294754 0
5.9680004 -2.3962035 0.20312792 0
5.9620004 -2.4037037 0.20334439 0
5.9570003 -2.4116077 0.20352478 0
5.9510002 -2.4190667 0.20374122 0
5.9450002 -2.4265037 0.20395769 0
5.9400005 -2.4343503 0.20413806 0
5.9350004 -2.4421787 0.20431845 0
5.9290004 -2.4495544 0.2045349 0
5.9240003 -2.4573452 0.20471528 0
5.9180002 -2.4646795 0.20493175 0
5.9130006 -2.4724324 0.20511211 0
5.9070005 -2.4797251 0.20532857 0
5.9020004 -2.4874401 0.20550895 0
5.8960004 -2.4946914 0.20572542 0
5.8910003 -2.5023685 0.2059058 0
5.8860002 -2.5100272 0.20608619 0
5.8800006 -2.5172174 0.20630263 0
5.8750005 -2.5248384 0.20648301 0
5.8690004 -2.531987 0.20669948 0
5.8640003 -2.5395701 0.20687985 0
5.8590002 -2.5471354 0.20706023 0
5.8530002 -2.5542223 0.2072767 0
6.1100001 -2.1986465 0.18770537 0
6.1040006 -2.2066736 0.18793264 0
6.0980005 -2.214679 0.18815991 0
6.0920005 -2.2226627 0.18838722 0
6.0870004 -2.2310088 0.18857661 0
6.0810003 -2.238951 0.1888039 0
6.0750003 -2.2468715 0.18903117 0
6.0690002 -2.2547703 0.18925846 0
6.0640001 -2.2630389 0.18944785 0
6.0580006 -2.2708964 0.18967512 0
6.0520005 -2.2787323 0.1899024 0
6.0460005 -2.2865465 0.19012968 0
6.0410004 -2.2947373 0.19031909 0
6.0350003 -2.30251 0.19054636 0
6.0290003 -2.310261 0.19077365 0
6.0240002 -2.3183942 0.19096304 0
6.0180001 -2.3261037 0.19119035 0
6.0120006 -2.3337917 0.19141759 0
6.0070004 -2.3418672 0.191607 0
6.0010004 -2.3495138 0.19183427 0
5.9960003 -2.3575513 0.19202368 0
5.9900002 -2.3651562 0.19225098 0
5.9840002 -2.3727396 0.19247825 0
5.9790006 -2.3807197 0.19266763 0
5.9730005 -2.3882613 0.19289491 0
5.9680004 -2.3962035 0.19308431 0
5.9620004 -2.4037037 0.19331162 0
5.9570003 -2.4116077 0.19350101 0
5.9510002 -2.4190667 0.1937283 0
5.9450002 -2.4265037 0.19395557 0
5.9400005 -2.4343503 0.19414495 0
5.9350004 -2.4421787 0.19433436 0
5.9290004 -2.4495544 0.19456165 0
5.9240003 -2.4573452 0.19475104 0
5.9180002 -2.4646795 0.19497833 0
5.9130006 -2.4724324 0.19516772 0
5.9070005 -2.4797251 0.19539499 0
5.9020004 -2.4874401 0.1955844 0
5.8960004 -2.4946914 0.19581167 0
5.8910003 -2.5023685 0.19600108 0
5.8860002 -2.5100272 0.19619049 0
5.8800006 -2.5172174 0.19641775 0
5.8750005 -2.5248384 0.19660716 0
5.8690004 -2.531987 0.19683444 0
5.8640003 -2.5395701 0.19702384 0
5.8590002 -2.5471354 0.19721325 0
5.8530002 -2.5542223 0.19744053 0
6.1100001 -2.1986465 0.17740563 0
6.1040006 -2.2066736 0.17764373 0
6.0980005 -2.214679 0.17788182 0
6.0920005 -2.2226627 0.17811993 0
6.0870004 -2.2310088 0.17831835 0
6.0810003 -2.238951 0.17855646 0
6.0750003 -2.2468715 0.17879456 0
6.0690002 -2.2547703 0.17903267 0
6.0640001 -2.2630389 0.17923109 0
6.0580006 -2.2708964 0.17946917 0
6.0520005 -2.2787323 0.17970727 0
6.0460005 -2.2865465 0.17994538 0
6.0410004 -2.2947373 0.1801438 0
6.0350003 -2.30251 0.18038191 0
6.0290003 -2.310261 0.18062001 0
6.0240002 -2.3183942 0.18081844 0
6.0180001 -2.3261037 0.18105654 0
6.0120006 -2.3337917 0.18129462 0
6.0070004 -2.3418672 0.18149306 0
6.0010004 -2.3495138 0.18173115 0
5.9960003 -2.3575513 0.18192957 0
5.9900002 -2.3651562 0.18216768 0
5.9840002 -2.3727396 0.18240578 0
5.9790006 -2.3807197 0.18260419 0
5.9730005 -2.3882613 0.1828423 0
5.9680004 -2.3962035 0.18304071 0
5.9620004 -2.4037037 0.18327883 0
5.9570003 -2.4116077 0.18347724 0
5.9510002 -2.4190667 0.18371536 0
5.9450002 -2.4265037 0.18395345 0
5.9400005 -2.4343503 0.18415186 0
5.9350004 -2.4421787 0.18435028 0
5.9290004 -2.4495544 0.18458839 0
5.9240003 -2.4573452 0.18478681 0
5.9180002 -2.4646795 0.18502492 0
5.9130006 -2.4724324 0.18522333 0
5.9070005 -2.4797251 0.18546143 0
5.9020004 -2.4874401 0.18565986 0
5.8960004 -2.4946914 0.18589796 0
5.8910003 -2.5023685 0.18609639 0
5.8860002 -2.5100272 0.18629479 0
5.8800006 -2.5172174 0.18653288 0
5.8750005 -2.5248384 0.18673129 0
5.8690004 -2.531987 0.18696941 0
5.8640003 -2.5395701 0.18716782 0
5.8590002 -2.5471354 0.18736626 0
5.8530002 -2.5542223 0.18760435 0
6.1100001 -2.1986465 0.16710588 0
6.1040006 -2.2066736 0.16735479 0
6.0980005 -2.214679 0.16760372 0
6.0920005 -2.2226627 0.16785264 0
6.0870004 -2.2310088 0.16806008 0
6.0810003 -2.238951 0.16830902 0
6.0750003 -2.2468715 0.16855794 0
6.0690002 -2.2547703 0.16880687 0
6.0640001 -2.2630389 0.16901432 0
6.0580006 -2.2708964 0.16926321 0
6.0520005 -2.2787323 0.16951217 0
6.0460005 -2.2865465 0.16976109 0
6.0410004 -2.2947373 0.16996852 0
6.0350003 -2.30251 0.17021744 0
6.0290003 -2.310261 0.17046636 0
6.0240002 -2.3183942 0.17067382 0
6.0180001 -2.3261037 0.17092274 0
6.0120006 -2.3337917 0.17117167 0
6.0070004 -2.3418672 0.17137909 0
6.0010004 -2.3495138 0.17162801 0
5.9960003 -2.3575513 0.17183547 0
5.9900002 -2.3651562 0.17208439 0
5.9840002 -2.3727396 0.17233332 0
5.9790006 -2.3807197 0.17254074 0
5.9730005 -2.3882613 0.17278966 0
5.9680004 -2.3962035 0.1729971 0
5.9620004 -2.4037037 0.17324604 0
5.9570003 -2.4116077 0.17345348 0
5.9510002 -2.4190667 0.1737024 0
5.9450002 -2.4265037 0.17395134 0
5.9400005 -2.4343503 0.17415875 0
5.9350004 -2.4421787 0.17436621 0
5.9290004 -2.4495544 0.17461513 0
5.9240003 -2.4573452 0.17482258 0
5.9180002 -2.4646795 0.17507151 0
5.9130006 -2.4724324 0.17527893 0
5.9070005 -2.4797251 0.17552786 0
5.9020004 -2.4874401 0.17573529 0
5.8960004 -2.4946914 0.17598422 0
5.8910003 -2.5023685 0.17619166 0
5.8860002 -2.5100272 0.17639911 0
5.8800006 -2.5172174 0.17664802 0
5.8750005 -2.5248384 0.17685546 0
5.8690004 -2.531987 0.17710438 0
5.8640003 -2.5395701 0.17731182 0
5.8590002 -2.5471354 0.17751928 0
5.8530002 -2.5542223 0.1777682 0
6.1100001 -2.1986465 0.15680613 0
6.1040006 -2.2066736 0.15706587 0
6.0980005 -2.214679 0.15732561 0
6.0920005 -2.2226627 0.15758538 0
6.0870004 -2.2310088 0.15780184 0
6.0810003 -2.238951 0.15806158 0
6.0750003 -2.2468715 0.15832132 0
6.0690002 -2.2547703 0.15858109 0
6.0640001 -2.2630389 0.15879755 0
6.0580006 -2.2708964 0.15905729 0
6.0520005 -2.2787323 0.15931703 0
6.0460005 -2.2865465 0.15957677 0
6.0410004 -2.2947373 0.15979324 0
6.0350003 -2.30251 0.16005298 0
6.0290003 -2.310261 0.16031273 0
6.0240002 -2.3183942 0.16052921 0
6.0180001 -2.3261037 0.16078895 0
6.0120006 -2.3337917 0.16104867 0
6.0070004 -2.3418672 0.16126515 0
6.0010004 -2.3495138 0.16152489 0
5.9960003 -2.3575513 0.16174136 0
5.9900002 -2.3651562 0.1620011 0
5.9840002 -2.3727396 0.16226085 0
5.9790006 -2.3807197 0.1624773 0
5.9730005 -2.3882613 0.16273704 0
