# .PCD v0.7 - Point Cloud Data file format
VERSION 0.7
FIELDS x y z intensity
SIZE 4 4 4 4
TYPE F F F F
COUNT 1 1 1 1
WIDTH 1246
HEIGHT 1
VIEWPOINT 0 0 0 1 0 0 0
POINTS 1246
DATA ascii
6.3520002 1.5751762 1.1340661 0
6.3530002 1.5647105 1.1341888 0
6.3560004 1.5547788 1.1345568 0
6.3450003 1.6054405 1.1224838 0
6.3430004 1.594165 1.1222422 0
6.3430004 1.583445 1.1222422 0
6.3440003 1.5729973 1.122363 0
6.3460002 1.5628165 1.1226047 0
6.3490005 1.5528975 1.1229674 0
6.3530002 1.5432343 1.1234508 0
6.3580003 1.5338222 1.124055 0
6.3640003 1.5246551 1.1247802 0
6.3410006 1.6150458 1.111284 0
6.3390002 1.6037738 1.111046 0
6.3370004 1.592509 1.1108078 0
6.3370004 1.5817999 1.1108078 0
6.3380003 1.571363 1.1109269 0
6.3400002 1.5611931 1.1111649 0
6.3430004 1.5512848 1.1115221 0
6.3470006 1.5416327 1.1119984 0
6.3520002 1.5322312 1.1125935 0
6.3580003 1.5230751 1.113308 0
6.3650002 1.5141588 1.1141412 0
6.3400002 1.6254808 1.1004504 0
6.3360004 1.6136479 1.0999814 0
6.3340006 1.6023849 1.0997469 0
6.3330002 1.591405 1.0996296 0
6.3330002 1.5807031 1.0996296 0
6.3340006 1.5702735 1.0997469 0
6.3350005 1.5598403 1.0998641 0
6.3380003 1.5499409 1.1002158 0
6.3420005 1.5402979 1.1006849 0
6.3470006 1.5309054 1.1012712 0
6.3520002 1.5214949 1.1018573 0
6.3590002 1.5125895 1.1026781 0
6.3680005 1.5041784 1.1037333 0
6.3410006 1.6364787 1.0898513 0
6.3360004 1.6243553 1.0892739 0
6.3330002 1.6128091 1.0889276 0
6.3310003 1.6015515 1.0886967 0
6.3300004 1.5905771 1.0885813 0
6.3300004 1.5798806 1.0885813 0
6.3310003 1.5694565 1.0886967 0
6.3330002 1.5592991 1.0889276 0
6.3350005 1.5491347 1.0891585 0
6.3390002 1.5394969 1.0896202 0
6.3430004 1.5298448 1.090082 0
6.3490005 1.5207049 1.0907748 0
6.3560004 1.5118049 1.0915829 0
6.3630004 1.5028796 1.092391 0
6.3730001 1.4947028 1.0935453 0
6.3380003 1.6356291 1.0787939 0
6.3330002 1.6235111 1.0782256 0
6.3300004 1.6119703 1.0778848 0
6.3280005 1.6007181 1.0776575 0
6.3270001 1.5897491 1.0775437 0
6.3270001 1.5790579 1.0775437 0
6.3280005 1.5686393 1.0776575 0
6.3300004 1.5584874 1.0778848 0
6.3330002 1.5485971 1.0782256 0
6.3370004 1.538963 1.0786802 0
6.3410006 1.5293145 1.0791348 0
6.3470006 1.5201782 1.0798167 0
6.3530002 1.5110202 1.0804985 0
6.3610005 1.5023601 1.0814075 0
6.3700004 1.4939291 1.0824304 0
6.3800006 1.4857219 1.0835668 0
6.3370004 1.6353459 1.067971 0
6.3320003 1.6232296 1.0674118 0
6.3290005 1.6116908 1.0670763 0
6.3270001 1.6004403 1.0668526 0
6.3260002 1.5894732 1.0667408 0
6.3270001 1.5790579 1.0668526 0
6.3280005 1.5686393 1.0669645 0
6.3290005 1.5582168 1.0670763 0
6.3320003 1.5483284 1.0674118 0
6.3360004 1.5386961 1.0678592 0
6.3400002 1.5290492 1.0683064 0
6.3450003 1.5196514 1.0688657 0
6.3520002 1.5107586 1.0696485 0
6.3590002 1.5018406 1.0704314 0
6.3680005 1.4934133 1.071438 0
6.3780003 1.4852095 1.0725563 0
6.3420005 1.6474801 1.057812 0
6.3360004 1.6350627 1.0571518 0
6.3310003 1.6229483 1.0566016 0
6.3280005 1.6114112 1.0562716 0
6.3270001 1.6004403 1.0561614 0
6.3260002 1.5894732 1.0560514 0
6.3260002 1.5787839 1.0560514 0
6.3270001 1.5683668 1.0561614 0
6.3290005 1.5582168 1.0563816 0
6.3320003 1.5483284 1.0567117 0
6.3350005 1.5384291 1.0570418 0
6.3400002 1.5290492 1.0575918 0
6.3450003 1.5196514 1.0581421 0
6.3510003 1.5104971 1.0588022 0
6.3590002 1.5018406 1.0596825 0
6.3670006 1.4931554 1.0605627 0
6.3770003 1.4849533 1.061663 0
6.3430004 1.6477652 1.047202 0
6.3370004 1.6353459 1.0465527 0
6.3330002 1.6235111 1.0461197 0
6.3300004 1.6119703 1.045795 0
6.3280005 1.6007181 1.0455785 0
6.3270001 1.5897491 1.0454702 0
6.3270001 1.5790579 1.0454702 0
6.3280005 1.5686393 1.0455785 0
6.3300004 1.5584874 1.045795 0
6.3320003 1.5483284 1.0460114 0
6.3360004 1.5386961 1.0464444 0
6.3400002 1.5290492 1.0468773 0
6.3450003 1.5196514 1.0474184 0
6.3520002 1.5107586 1.0481759 0
6.3590002 1.5018406 1.0489336 0
6.3680005 1.4934133 1.0499077 0
6.3780003 1.4852095 1.05099 0
6.3380003 1.6356291 1.0359498 0
6.3340006 1.6237926 1.0355241 0
6.3310003 1.61225 1.0352048 0
6.3290005 1.600996 1.034992 0
6.3280005 1.5900253 1.0348855 0
6.3280005 1.5793324 1.0348855 0
6.3290005 1.5689117 1.034992 0
6.3310003 1.5587579 1.0352048 0
6.3340006 1.5488659 1.0355241 0
6.3370004 1.538963 1.0358434 0
6.3420005 1.5295796 1.0363755 0
6.3470006 1.5201782 1.0369077 0
6.3530002 1.5110202 1.0375462 0
6.3600006 1.5021003 1.0382912 0
6.3690004 1.4936713 1.0392489 0
6.3790002 1.4854656 1.0403132 0
6.3420005 1.6367619 1.0256573 0
6.3370004 1.6246367 1.0251342 0
6.3340006 1.6130887 1.0248203 0
6.3320003 1.6018293 1.024611 0
6.3310003 1.5908532 1.0245064 0
6.3310003 1.5801548 1.0245064 0
6.3320003 1.5697286 1.024611 0
6.3340006 1.5595698 1.0248203 0
6.3360004 1.5494034 1.0250295 0
6.3400002 1.5397638 1.025448 0
6.3440003 1.53011 1.0258665 0
6.3500004 1.5209682 1.0264943 0
6.3560004 1.5118049 1.027122 0
6.3630004 1.5028796 1.0278543 0
6.3720002 1.494445 1.0287958 0
6.3820004 1.4862341 1.0298421 0
6.3460002 1.6378946 1.0153502 0
6.3410006 1.6257623 1.0148362 0
6.3380003 1.614207 1.0145278 0
6.3350005 1.6026627 1.0142193 0
6.3340006 1.5916812 1.0141165 0
6.3340006 1.5809773 1.0141165 0
6.3350005 1.5705459 1.0142193 0
6.3370004 1.5603814 1.0144249 0
6.3400002 1.5504785 1.0147334 0
6.3430004 1.5405648 1.0150418 0
6.3480005 1.5311706 1.015556 0
6.3530002 1.5217582 1.01607 0
6.3590002 1.5125895 1.0166869 0
6.3670006 1.5039186 1.0175095 0
6.3750005 1.4952189 1.018332 0
6.3860002 1.4872586 1.0194629 0
6.3470006 1.6274506 1.0047259 0
6.3430004 1.615605 1.0043218 0
6.3410006 1.6043295 1.0041198 0
6.3390002 1.593061 1.0039178 0
6.3390002 1.5823481 1.0039178 0
6.3400002 1.5719076 1.0040188 0
6.3420005 1.5617343 1.0042208 0
6.3440003 1.5515535 1.0044228 0
6.3470006 1.5416327 1.0047259 0
6.3520002 1.5322312 1.0052309 0
6.3570004 1.5228117 1.005736 0
6.3640003 1.5138973 1.0064431 0
6.3710003 1.5049576 1.0071502 0
6.3800006 1.4965086 1.0080594 0
6.3530002 1.6291389 0.99459386 0
6.3490005 1.6172825 0.99419701 0
6.3460002 1.6057183 0.99389935 0
6.3450003 1.5947169 0.99380016 0
6.3440003 1.5837191 0.99370098 0
6.3450003 1.5732696 0.99380016 0
6.3470006 1.5630871 0.99399865 0
6.3500004 1.5531662 0.99429631 0
6.3530002 1.5432343 0.99459386 0
6.3570004 1.5335569 0.99499071 0
6.3630004 1.5243918 0.99558604 0
6.3690004 1.5152051 0.99618125 0
6.3770003 1.5065161 0.99697495 0
6.3870006 1.4983141 0.997967 0
6.3570004 1.6195192 0.98424542 0
6.3540006 1.6079407 0.98395324 0
6.3520002 1.5966487 0.98375845 0
6.3520002 1.5859125 0.98375845 0
6.3520002 1.5751762 0.98375845 0
6.3540006 1.5649812 0.98395324 0
6.3560004 1.5547788 0.98414803 0
6.3600006 1.5451032 0.98453772 0
6.3640003 1.535413 0.9849273 0
6.3700004 1.5262353 0.98551166 0
6.3770003 1.5172975 0.98619354 0
6.3850002 1.508594 0.98697281 0
6.3630004 1.6104407 0.97407377 0
6.3600006 1.5988567 0.97378695 0
6.3600006 1.588106 0.97378695 0
6.3600006 1.5773554 0.97378695 0
6.3620005 1.5671457 0.97397816 0
6.3640003 1.556929 0.97416937 0
6.3680005 1.5472388 0.9745518 0
6.3730001 1.5377995 0.97502971 0
6.3790002 1.5286055 0.97560334 0
6.3850002 1.5193899 0.97617698 0
6.3710003 1.5911219 0.96406806 0
6.3710003 1.5803514 0.96406806 0
6.3720002 1.5698514 0.96416187 0
6.3740005 1.5596166 0.96434939 0
6.3780003 1.5499085 0.96472466 0
6.3830004 1.5404512 0.96519363 0
6.3890004 1.5312392 0.96575642 0
6.3580003 1.5983046 0.95210159 0
6.3850002 1.5733688 0.95458543 0
6.3870006 1.5631106 0.95476949 0
6.3900003 1.553112 0.95504546 0
6.3960004 1.5438982 0.9555974 0
6.3530002 1.5861866 0.94090354 0
6.3700004 1.580079 0.9424367 0
6.3580003 1.5768105 0.93060744 0
6.3750005 1.5706632 0.93210995 0
6.2860003 1.6421372 0.91362631 0
6.2860003 1.63152 0.91362631 0
6.2880006 1.6214693 0.91379952 0
6.2920003 1.6119739 0.91414583 0
6.2980003 1.6030235 0.91466534 0
6.3070002 1.5948846 0.91544461 0
6.2890005 1.6536202 0.90326345 0
6.2860003 1.6421372 0.90300912 0
6.2860003 1.63152 0.90300912 0
6.2880006 1.6214693 0.90317869 0
6.2920003 1.6119739 0.90351784 0
6.2980003 1.6030235 0.90402651 0
6.3060002 1.5946069 0.90470469 0
6.3200002 1.5878173 0.90589154 0
6.2890005 1.6536202 0.89264083 0
6.2860003 1.6421372 0.89239192 0
6.2860003 1.63152 0.89239192 0
6.2880006 1.6214693 0.89255786 0
6.2920003 1.6119739 0.89288974 0
6.2980003 1.6030235 0.89338762 0
6.3060002 1.5946069 0.89405137 0
6.3200002 1.5878173 0.89521307 0
6.2950006 1.6659855 0.8825053 0
6.2890005 1.6536202 0.88201821 0
6.2860003 1.6421372 0.88177466 0
6.2860003 1.63152 0.88177466 0
6.2880006 1.6214693 0.88193703 0
6.2920003 1.6119739 0.88226175 0
6.2980003 1.6030235 0.88274872 0
6.3060002 1.5946069 0.88339818 0
6.3200002 1.5878173 0.88453448 0
6.2950006 1.6659855 0.87187177 0
6.2890005 1.6536202 0.87139559 0
6.2860003 1.6421372 0.87115747 0
6.2860003 1.63152 0.87115747 0
6.2880006 1.6214693 0.87131619 0
6.2920003 1.6119739 0.87163371 0
6.2980003 1.6030235 0.87210989 0
6.3060002 1.5946069 0.8727448 0
6.3200002 1.5878173 0.87385595 0
6.3000002 1.6780798 0.86162615 0
6.2970004 1.6665663 0.86139345 0
6.2890005 1.6536202 0.86077297 0
6.2860003 1.6421372 0.86054027 0
6.2860003 1.63152 0.86054027 0
6.2880006 1.6214693 0.86069542 0
6.2920003 1.6119739 0.86100566 0
6.2980003 1.6030235 0.86147106 0
6.3060002 1.5946069 0.86209154 0
6.3200002 1.5878173 0.86317742 0
6.3000002 1.6780798 0.85098368 0
6.2970004 1.6665663 0.85075641 0
6.2890005 1.6536202 0.85015035 0
6.2860003 1.6421372 0.84992301 0
6.2860003 1.63152 0.84992301 0
6.2880006 1.6214693 0.85007459 0
6.2920003 1.6119739 0.85037756 0
6.2980003 1.6030235 0.85083216 0
6.3060002 1.5946069 0.85143822 0
6.3200002 1.5878173 0.85249889 0
6.3020005 1.6786644 0.84048915 0
6.2970004 1.6665663 0.84011936 0
6.2890005 1.6536202 0.83952773 0
6.2860003 1.6421372 0.83930582 0
6.2860003 1.63152 0.83930582 0
6.2880006 1.6214693 0.83945376 0
6.2920003 1.6119739 0.83974957 0
6.2980003 1.6030235 0.84019327 0
6.3060002 1.5946069 0.84078497 0
6.3200002 1.5878173 0.84182036 0
6.3060002 1.6904864 0.83013165 0
6.3030005 1.6789566 0.82991523 0
6.2970004 1.6665663 0.82948232 0
6.2890005 1.6536202 0.82890511 0
6.2860003 1.6421372 0.82868862 0
6.2860003 1.63152 0.82868862 0
6.2880006 1.6214693 0.82883298 0
6.2920003 1.6119739 0.82912153 0
6.2980003 1.6030235 0.82955444 0
6.3060002 1.5946069 0.83013165 0
6.3200002 1.5878173 0.83114183 0
6.3070002 1.6907804 0.81954873 0
6.3060002 1.6798332 0.81947839 0
6.2970004 1.6665663 0.81884527 0
6.2890005 1.6536202 0.81828249 0
6.2860003 1.6421372 0.81807137 0
6.2860003 1.63152 0.81807137 0
6.2880006 1.6214693 0.81821215 0
6.2920003 1.6119739 0.81849349 0
6.2980003 1.6030235 0.81891561 0
6.3060002 1.5946069 0.81947839 0
6.3200002 1.5878173 0.82046324 0
6.2070003 1.4728335 0.81251383 0
6.2220006 1.4662551 0.81356907 0
6.3080006 1.6910746 0.80896223 0
6.3080006 1.6804177 0.80896223 0
6.2970004 1.6665663 0.80820823 0
6.2890005 1.6536202 0.80765986 0
6.2860003 1.6421372 0.80745417 0
6.2860003 1.63152 0.80745417 0
6.2880006 1.6214693 0.80759132 0
6.2920003 1.6119739 0.8078655 0
6.2980003 1.6030235 0.80827671 0
6.3060002 1.5946069 0.80882508 0
6.3200002 1.5878173 0.80978471 0
6.1920004 1.4898057 0.80101097 0
6.1920004 1.479358 0.80101097 0
6.2070003 1.4728335 0.80203915 0
6.2220006 1.4662551 0.80306733 0
6.2370005 1.4596225 0.80409551 0
6.3120003 1.7029147 0.79857224 0
6.3100004 1.6916627 0.79843879 0
6.3110003 1.6812943 0.79850554 0
6.2970004 1.6665663 0.79757112 0
6.2890005 1.6536202 0.79703724 0
6.2860003 1.6421372 0.79683697 0
6.2860003 1.63152 0.79683697 0
6.2880006 1.6214693 0.79697049 0
6.2920003 1.6119739 0.7972374 0
6.2980003 1.6030235 0.79763788 0
6.3060002 1.5946069 0.79817176 0
6.3200002 1.5878173 0.79910618 0
6.1920004 1.4898057 0.79056334 0
6.1920004 1.479358 0.79056334 0
6.2070003 1.4728335 0.79156446 0
6.2220006 1.4662551 0.79256558 0
6.2370005 1.4596225 0.7935667 0
6.3160005 1.7147694 0.78816789 0
6.3130002 1.7032105 0.78797305 0
6.3130002 1.6925446 0.78797305 0
6.3140006 1.682171 0.78803802 0
6.2970004 1.6665663 0.78693408 0
6.2890005 1.6536202 0.78641462 0
6.2860003 1.6421372 0.78621978 0
6.2860003 1.63152 0.78621978 0
6.2880006 1.6214693 0.78634965 0
6.2920003 1.6119739 0.78660941 0
6.2980003 1.6030235 0.78699899 0
6.3060002 1.5946069 0.7875185 0
6.3200002 1.5878173 0.78842759 0
6.1920004 1.4898057 0.78011566 0
6.1920004 1.479358 0.78011566 0
6.2070003 1.4728335 0.78108972 0
6.2220006 1.4662551 0.78206378 0
6.2370005 1.4596225 0.7830379 0
6.3170004 1.715067 0.7775597 0
6.3150005 1.7038022 0.7774334 0
6.3150005 1.6931328 0.7774334 0
6.3170004 1.6830477 0.7775597 0
6.2970004 1.6665663 0.77629697 0
6.2890005 1.6536202 0.775792 0
6.2860003 1.6421372 0.77560258 0
6.2860003 1.63152 0.77560258 0
6.2880006 1.6214693 0.77572882 0
6.2920003 1.6119739 0.77598131 0
6.2980003 1.6030235 0.77636015 0
6.3060002 1.5946069 0.77686524 0
6.3200002 1.5878173 0.77774906 0
6.1920004 1.4898057 0.76966804 0
6.1920004 1.479358 0.76966804 0
6.2070003 1.4728335 0.77061498 0
6.2220006 1.4662551 0.77156204 0
6.2370005 1.4596225 0.77250904 0
6.3210006 1.726938 0.76713187 0
6.3180003 1.7153646 0.76694787 0
6.3180003 1.7046897 0.76694787 0
6.3190002 1.6943086 0.7670092 0
6.3220005 1.6845087 0.7671932 0
6.2970004 1.6665663 0.76565993 0
6.2890005 1.6536202 0.76516932 0
6.2860003 1.6421372 0.76498532 0
6.2860003 1.63152 0.76498532 0
6.2880006 1.6214693 0.76510799 0
6.2920003 1.6119739 0.76535332 0
6.2980003 1.6030235 0.76572132 0
6.3060002 1.5946069 0.76621187 0
6.3200002 1.5878173 0.76707053 0
6.1920004 1.4898057 0.75922036 0
6.1920004 1.479358 0.75922036 0
6.2070003 1.4728335 0.7601403 0
6.2220006 1.4662551 0.76106024 0
6.2370005 1.4596225 0.76198018 0
6.3220005 1.7272373 0.75651103 0
6.3200002 1.7159598 0.756392 0
6.3200002 1.7052813 0.756392 0
6.3220005 1.6951909 0.75651103 0
6.3260002 1.6856775 0.75674915 0
6.2970004 1.6665663 0.75502288 0
6.2890005 1.6536202 0.7545467 0
6.2860003 1.6421372 0.75436813 0
6.2860003 1.63152 0.75436813 0
6.2880006 1.6214693 0.75448716 0
6.2920003 1.6119739 0.75472528 0
6.2980003 1.6030235 0.75508243 0
6.3060002 1.5946069 0.75555861 0
6.3200002 1.5878173 0.756392 0
6.1920004 1.4898057 0.74877274 0
6.1920004 1.479358 0.74877274 0
6.2070003 1.4728335 0.74966562 0
6.2220006 1.4662551 0.7505585 0
6.2370005 1.4596225 0.75145137 0
6.3260002 1.7391243 0.74605978 0
6.3230004 1.7275368 0.74588662 0
6.3220005 1.7165551 0.74582887 0
6.3230004 1.7061689 0.74588662 0
6.3260002 1.6963669 0.74605978 0
6.2970004 1.6665663 0.74438584 0
6.2890005 1.6536202 0.74392408 0
6.2860003 1.6421372 0.74375093 0
6.2860003 1.63152 0.74375093 0
6.2880006 1.6214693 0.74386632 0
6.2920003 1.6119739 0.74409723 0
6.2980003 1.6030235 0.74444354 0
6.3060002 1.5946069 0.74490535 0
6.3200002 1.5878173 0.74571347 0
6.1920004 1.4898057 0.73832506 0
6.1920004 1.479358 0.73832506 0
6.2070003 1.4728335 0.73919088 0
6.2220006 1.4662551 0.74005675 0
6.2370005 1.4596225 0.74092257 0
6.3270001 1.7394255 0.73542631 0
6.3250003 1.7281356 0.73531449 0
6.3250003 1.717448 0.73531449 0
6.3270001 1.707352 0.73542631 0
6.3300004 1.6975429 0.73559409 0
6.2970004 1.6665663 0.73374879 0
6.2890005 1.6536202 0.7333014 0
6.2860003 1.6421372 0.73313367 0
6.2860003 1.63152 0.73313367 0
6.2880006 1.6214693 0.73324549 0
6.2920003 1.6119739 0.73346919 0
6.2980003 1.6030235 0.7338047 0
6.3060002 1.5946069 0.73425204 0
6.3200002 1.5878173 0.73503488 0
6.1920004 1.4898057 0.72787738 0
6.1920004 1.479358 0.72787738 0
6.2070003 1.4728335 0.72871614 0
6.2220006 1.4662551 0.72955489 0
6.2370005 1.4596225 0.73039371 0
6.3310003 1.7513289 0.72495162 0
6.3280005 1.7397269 0.72478926 0
6.3270001 1.7287344 0.72473514 0
6.3280005 1.7183409 0.72478926 0
6.3310003 1.7085353 0.72495162 0
6.3350005 1.6990132 0.72516811 0
6.2890005 1.6536202 0.72267878 0
6.2860003 1.6421372 0.72251642 0
6.2860003 1.63152 0.72251642 0
6.2880006 1.6214693 0.72262472 0
6.2920003 1.6119739 0.72284114 0
6.2980003 1.6030235 0.72316587 0
6.3060002 1.5946069 0.72359872 0
6.3200002 1.5878173 0.72435635 0
6.1920004 1.4898057 0.71742976 0
6.1920004 1.479358 0.71742976 0
6.2070003 1.4728335 0.71824145 0
6.2220006 1.4662551 0.71905315 0
6.2370005 1.4596225 0.71986485 0
6.3320003 1.751632 0.71430552 0
6.3300004 1.7403294 0.71420091 0
6.3300004 1.7296327 0.71420091 0
6.3310003 1.7192338 0.71425319 0
6.3350005 1.7097188 0.71446246 0
6.2890005 1.6536202 0.71205616 0
6.2860003 1.6421372 0.71189928 0
6.2860003 1.63152 0.71189928 0
6.2880006 1.6214693 0.71200389 0
6.2920003 1.6119739 0.71221316 0
6.2980003 1.6030235 0.71252698 0
6.3060002 1.5946069 0.71294546 0
6.3200002 1.5878173 0.71367782 0
6.1920004 1.4898057 0.70698208 0
6.1920004 1.479358 0.70698208 0
6.2070003 1.4728335 0.70776671 0
6.2220006 1.4662551 0.70855141 0
6.2370005 1.4596225 0.70933604 0
6.3360004 1.7635516 0.70380735 0
6.3330002 1.751935 0.70365584 0
6.3320003 1.7409317 0.70360535 0
6.3330002 1.730531 0.70365584 0
6.3350005 1.7204244 0.70375687 0
6.3390002 1.710902 0.70395887 0
6.2890005 1.6536202 0.70143354 0
6.2860003 1.6421372 0.70128202 0
6.2860003 1.63152 0.70128202 0
6.2880006 1.6214693 0.70138305 0
6.2920003 1.6119739 0.70158505 0
6.2980003 1.6030235 0.70188814 0
6.3060002 1.5946069 0.7022922 0
6.3200002 1.5878173 0.70299923 0
6.1920004 1.4898057 0.6965344 0
6.1920004 1.479358 0.6965344 0
6.2070003 1.4728335 0.69729203 0
6.2220006 1.4662551 0.69804966 0
6.2370005 1.4596225 0.69880724 0
6.3420005 1.7760988 0.69339216 0
6.3370004 1.7638564 0.69314867 0
6.3350005 1.7525412 0.69305128 0
6.3340006 1.7415344 0.69300258 0
6.3360004 1.7314293 0.69309998 0
6.3390002 1.7216147 0.69324607 0
6.3450003 1.7126769 0.69353831 0
6.2890005 1.6536202 0.69081092 0
6.2860003 1.6421372 0.69066477 0
6.2860003 1.63152 0.69066477 0
6.2880006 1.6214693 0.69076228 0
6.2920003 1.6119739 0.69095707 0
6.2980003 1.6030235 0.69124925 0
6.3060002 1.5946069 0.69163889 0
6.3200002 1.5878173 0.6923207 0
6.1920004 1.4898057 0.68608677 0
6.1920004 1.479358 0.68608677 0
6.2070003 1.4728335 0.68681729 0
6.2220006 1.4662551 0.68754786 0
6.2370005 1.4596225 0.68827844 0
6.3550005 1.7908269 0.68328369 0
6.3430004 1.7764055 0.68272084 0
6.3380003 1.7641612 0.68248636 0
6.3370004 1.7531471 0.68243945 0
6.3370004 1.742438 0.68243945 0
6.3400002 1.732627 0.68258011 0
6.3440003 1.7231029 0.68276775 0
6.2890005 1.6536202 0.6801883 0
6.2860003 1.6421372 0.68004763 0
6.2860003 1.63152 0.68004763 0
6.2880006 1.6214693 0.68014145 0
6.2920003 1.6119739 0.68032897 0
6.2980003 1.6030235 0.68061042 0
6.3060002 1.5946069 0.68098557 0
6.3200002 1.5878173 0.68164217 0
6.1920004 1.4898057 0.67563915 0
6.1920004 1.479358 0.67563915 0
6.2070003 1.4728335 0.67634261 0
6.2220006 1.4662551 0.67704606 0
6.2370005 1.4596225 0.67774957 0
6.3520002 1.8006378 0.67240667 0
6.3520002 1.7899016 0.67240667 0
6.3470006 1.7776322 0.67218125 0
6.3410006 1.7650758 0.67191064 0
6.3400002 1.7540562 0.67186552 0
6.3410006 1.743643 0.67191064 0
6.3440003 1.7338247 0.67204595 0
6.2890005 1.6536202 0.66956568 0
6.2860003 1.6421372 0.66943038 0
6.2860003 1.63152 0.66943038 0
6.2880006 1.6214693 0.66952062 0
6.2920003 1.6119739 0.66970098 0
6.2980003 1.6030235 0.66997159 0
6.3060002 1.5946069 0.67033231 0
6.3200002 1.5878173 0.67096364 0
6.1920004 1.4898057 0.66519141 0
6.1920004 1.479358 0.66519141 0
6.2070003 1.4728335 0.66586787 0
6.2220006 1.4662551 0.66654432 0
6.2370005 1.4596225 0.66722071 0
6.3580003 1.8132464 0.66193014 0
6.3540006 1.8012586 0.66175699 0
6.3510003 1.7895931 0.66162711 0
6.3570004 1.7806985 0.66188687 0
6.3480005 1.7672098 0.66149724 0
6.3460002 1.7558745 0.66141069 0
6.3460002 1.745149 0.66141069 0
6.2890005 1.6536202 0.65894306 0
6.2860003 1.6421372 0.65881318 0
6.2860003 1.63152 0.65881318 0
6.2880006 1.6214693 0.65889978 0
6.2920003 1.6119739 0.65907294 0
6.2980003 1.6030235 0.65933263 0
6.3060002 1.5946069 0.659679 0
6.3200002 1.5878173 0.66028512 0
6.1920004 1.4898057 0.65474379 0
6.1920004 1.479358 0.65474379 0
6.2070003 1.4728335 0.65539318 0
6.2220006 1.4662551 0.65604258 0
6.2370005 1.4596225 0.65669191 0
6.3630004 1.8255628 0.65139049 0
6.3600006 1.8138707 0.6512661 0
6.3570004 1.802189 0.65114158 0
6.3550005 1.7908269 0.65105861 0
6.3540006 1.7797786 0.65101713 0
6.3630004 1.7717824 0.65139049 0
6.3570004 1.759208 0.65114158 0
6.2890005 1.6536202 0.64832044 0
6.2860003 1.6421372 0.64819598 0
6.2860003 1.63152 0.64819598 0
6.2880006 1.6214693 0.64827895 0
6.2920003 1.6119739 0.64844489 0
6.2980003 1.6030235 0.6486938 0
6.3060002 1.5946069 0.64902568 0
6.3200002 1.5878173 0.64960653 0
6.1920004 1.4898057 0.64429611 0
6.1920004 1.479358 0.64429611 0
6.2070003 1.4728335 0.64491844 0
6.2220006 1.4662551 0.64554077 0
6.2370005 1.4596225 0.64616311 0
6.3740005 1.8505673 0.64107096 0
6.3690004 1.838213 0.64087248 0
6.3660002 1.8265043 0.64075345 0
6.3630004 1.8148067 0.64063442 0
6.3620005 1.8037405 0.64059472 0
6.3610005 1.7926776 0.64055502 0
6.3610005 1.7819252 0.64055502 0
6.2890005 1.6536202 0.63769782 0
6.2860003 1.6421372 0.63757873 0
6.2860003 1.63152 0.63757873 0
6.2880006 1.6214693 0.63765812 0
6.2920003 1.6119739 0.63781685 0
6.2980003 1.6030235 0.63805497 0
6.3060002 1.5946069 0.63837242 0
6.3200002 1.5878173 0.638928 0
6.1920004 1.4898057 0.63384849 0
6.1920004 1.479358 0.63384849 0
6.2070003 1.4728335 0.63444376 0
6.2220006 1.4662551 0.63503897 0
6.2370005 1.4596225 0.63563424 0
6.3790002 1.8629395 0.63048434 0
6.3750005 1.8508848 0.63033283 0
6.3720002 1.8391598 0.63021922 0
6.3700004 1.8277599 0.63014346 0
6.3680005 1.8163671 0.63006771 0
6.3680005 1.805602 0.63006771 0
6.2890005 1.6536202 0.6270752 0
6.2860003 1.6421372 0.62696153 0
6.2860003 1.63152 0.62696153 0
6.2880006 1.6214693 0.62703729 0
6.2920003 1.6119739 0.6271888 0
6.2980003 1.6030235 0.62741607 0
6.3060002 1.5946069 0.6277191 0
6.3200002 1.5878173 0.62824941 0
6.1920004 1.4898057 0.62340081 0
6.1920004 1.479358 0.62340081 0
6.2070003 1.4728335 0.62396902 0
6.2220006 1.4662551 0.62453723 0
6.2370005 1.4596225 0.62510544 0
6.3890004 1.8877382 0.62006015 0
6.3850002 1.8756511 0.61991584 0
6.3810005 1.8635782 0.6197716 0
6.3780003 1.8518372 0.61966336 0
6.3760004 1.8404226 0.61959118 0
6.3750005 1.8293291 0.61955512 0
6.3750005 1.8185514 0.61955512 0
6.2890005 1.6536202 0.61645257 0
6.2860003 1.6421372 0.61634433 0
6.2860003 1.63152 0.61634433 0
6.2880006 1.6214693 0.61641645 0
6.2920003 1.6119739 0.61656076 0
6.2980003 1.6030235 0.61677724 0
6.3060002 1.5946069 0.61706585 0
6.3200002 1.5878173 0.61757088 0
6.1920004 1.4898057 0.61295319 0
6.1920004 1.479358 0.61295319 0
6.2070003 1.4728335 0.61349428 0
6.2220006 1.4662551 0.61403549 0
6.2370005 1.4596225 0.61457658 0
6.4010005 1.9132621 0.60966843 0
6.3950005 1.9004896 0.6094628 0
6.3900003 1.8880613 0.60929143 0
6.3870006 1.8762932 0.60918862 0
6.3850002 1.8648551 0.60912007 0
6.3830004 1.8534245 0.60905153 0
6.3830004 1.8426323 0.60905153 0
6.3830004 1.83184 0.60905153 0
6.2890005 1.6536202 0.60582995 0
6.2860003 1.6421372 0.60572708 0
6.2860003 1.63152 0.60572708 0
6.2880006 1.6214693 0.60579562 0
6.2920003 1.6119739 0.60593271 0
6.2980003 1.6030235 0.60613835 0
6.3060002 1.5946069 0.60641253 0
6.3200002 1.5878173 0.60689235 0
6.1920004 1.4898057 0.60250551 0
6.1920004 1.479358 0.60250551 0
6.2070003 1.4728335 0.6030196 0
6.2220006 1.4662551 0.60353369 0
6.2370005 1.4596225 0.60404778 0
6.4020004 1.9352417 0.59887624 0
6.4030004 1.9247434 0.59890872 0
6.4010005 1.9132621 0.59884375 0
6.3960004 1.9008141 0.59868145 0
6.3930006 1.8890299 0.59858406 0
6.3910003 1.8775775 0.59851909 0
6.3900003 1.8664517 0.5984866 0
6.3900003 1.8556467 0.5984866 0
6.2890005 1.6536202 0.59520733 0
6.2860003 1.6421372 0.59510988 0
6.2860003 1.63152 0.59510988 0
6.2880006 1.6214693 0.59517485 0
6.2920003 1.6119739 0.59530473 0
6.2980003 1.6030235 0.59549952 0
6.3060002 1.5946069 0.59575927 0
6.3200002 1.5878173 0.59621382 0
6.1920004 1.4898057 0.59205782 0
6.1920004 1.479358 0.59205782 0
6.2070003 1.4728335 0.59254485 0
6.2220006 1.4662551 0.59303188 0
6.2370005 1.4596225 0.59351897 0
6.4000006 1.9454044 0.5879885 0
6.3990002 1.9342513 0.5879578 0
6.4000006 1.9237587 0.5879885 0
6.4030004 1.9139153 0.58808047 0
6.4000006 1.902113 0.5879885 0
6.3980002 1.8906441 0.5879271 0
6.3970003 1.879504 0.58789647 0
6.3970003 1.8686864 0.58789647 0
6.3980002 1.8581866 0.5879271 0
6.2890005 1.6536202 0.58458465 0
6.2860003 1.6421372 0.58449268 0
6.2860003 1.63152 0.58449268 0
6.2880006 1.6214693 0.58455402 0
6.2920003 1.6119739 0.58467662 0
6.2980003 1.6030235 0.58486068 0
6.3060002 1.5946069 0.58510596 0
6.3200002 1.5878173 0.58553529 0
6.1920004 1.4898057 0.5816102 0
6.1920004 1.479358 0.5816102 0
6.2070003 1.4728335 0.58207017 0
6.2220006 1.4662551 0.58253014 0
6.2370005 1.4596225 0.58299011 0
6.4000006 1.9454044 0.5771656 0
6.3990002 1.9342513 0.57713675 0
6.4000006 1.9237587 0.5771656 0
6.4020004 1.9135888 0.5772233 0
6.4050002 1.9037362 0.57730991 0
6.4040003 1.8925816 0.57728106 0
6.4040003 1.8817514 0.57728106 0
6.4060006 1.8715601 0.57733876 0
6.2890005 1.6536202 0.57396203 0
6.2860003 1.6421372 0.57387543 0
6.2860003 1.63152 0.57387543 0
6.2880006 1.6214693 0.57393318 0
6.2920003 1.6119739 0.57404864 0
6.2980003 1.6030235 0.57422179 0
6.3060002 1.5946069 0.57445264 0
6.3200002 1.5878173 0.57485676 0
6.1920004 1.4898057 0.57116252 0
6.1920004 1.479358 0.57116252 0
6.2070003 1.4728335 0.57159543 0
6.2220006 1.4662551 0.5720284 0
6.2370005 1.4596225 0.57246125 0
6.4010005 1.9457363 0.56636983 0
6.4000006 1.9345815 0.56634277 0
6.4010005 1.924087 0.56636983 0
6.4030004 1.9139153 0.56642389 0
6.4070005 1.9043858 0.56653214 0
6.4120002 1.8951646 0.56666744 0
6.4140005 1.8849623 0.56672156 0
6.4180002 1.8753912 0.5668298 0
6.2890005 1.6536202 0.56333941 0
6.2860003 1.6421372 0.56325823 0
6.2860003 1.63152 0.56325823 0
6.2880006 1.6214693 0.56331235 0
6.2920003 1.6119739 0.56342059 0
6.2980003 1.6030235 0.5635829 0
6.3060002 1.5946069 0.56379938 0
6.3200002 1.5878173 0.56417817 0
6.1920004 1.4898057 0.56071484 0
6.1920004 1.479358 0.56071484 0
6.2070003 1.4728335 0.56112075 0
6.2220006 1.4662551 0.5615266 0
6.2370005 1.4596225 0.56193244 0
6.4040003 1.9467319 0.55562091 0
6.4030004 1.9355718 0.55559564 0
6.4040003 1.9250717 0.55562091 0
6.4060006 1.9148947 0.55567145 0
6.4100003 1.9053597 0.55577242 0
6.4160004 1.8964561 0.55592394 0
6.4240003 1.8881729 0.556126 0
6.2890005 1.6536202 0.55271679 0
6.2860003 1.6421372 0.55264103 0
6.2860003 1.63152 0.55264103 0
6.2880006 1.6214693 0.55269152 0
6.2920003 1.6119739 0.55279255 0
6.2980003 1.6030235 0.55294406 0
6.3060002 1.5946069 0.55314612 0
6.3200002 1.5878173 0.55349964 0
6.1920004 1.4898057 0.55026722 0
6.1920004 1.479358 0.55026722 0
6.2070003 1.4728335 0.55064601 0
6.2220006 1.4662551 0.55102479 0
6.2370005 1.4596225 0.55140364 0
6.4100003 1.9487233 0.54493153 0
6.4080005 1.9372224 0.54488468 0
6.4090004 1.9267132 0.54490811 0
6.4110003 1.9165272 0.54495502 0
6.4150004 1.9069833 0.54504883 0
6.4210005 1.8980706 0.5451895 0
6.2890005 1.6536202 0.54209417 0
6.2860003 1.6421372 0.54202384 0
6.2860003 1.63152 0.54202384 0
6.2880006 1.6214693 0.54207075 0
6.2920003 1.6119739 0.5421645 0
6.2980003 1.6030235 0.54230523 0
6.3060002 1.5946069 0.54249281 0
6.3200002 1.5878173 0.54282111 0
6.1920004 1.4898057 0.5398196 0
6.1920004 1.479358 0.5398196 0
6.2070003 1.4728335 0.54017133 0
6.2220006 1.4662551 0.54052305 0
6.2370005 1.4596225 0.54087478 0
6.4160004 1.9398631 0.53422052 0
6.4160004 1.9290113 0.53422052 0
6.4190001 1.9191389 0.53428543 0
6.4230003 1.9095806 0.53437203 0
6.2890005 1.6536202 0.53147155 0
6.2860003 1.6421372 0.53140658 0
6.2860003 1.63152 0.53140658 0
6.2880006 1.6214693 0.53144991 0
6.2920003 1.6119739 0.53153646 0
6.2980003 1.6030235 0.53166634 0
6.3060002 1.5946069 0.53183949 0
6.3200002 1.5878173 0.53214252 0
6.1920004 1.4898057 0.52937192 0
6.1920004 1.479358 0.52937192 0
6.2070003 1.4728335 0.52969658 0
6.2220006 1.4662551 0.53002131 0
6.2370005 1.4596225 0.53034598 0
6.4240003 1.9207714 0.52352756 0
6.4190001 1.9082819 0.52342832 0
6.4130006 1.8954877 0.52330929 0
6.4080005 1.8830359 0.52321011 0
6.2890005 1.6536202 0.52084893 0
6.2860003 1.6421372 0.52078938 0
6.2860003 1.63152 0.52078938 0
6.2880006 1.6214693 0.52082908 0
6.2920003 1.6119739 0.52090842 0
6.2980003 1.6030235 0.52102751 0
6.3060002 1.5946069 0.52118623 0
6.3200002 1.5878173 0.52146399 0
6.1920004 1.4898057 0.51892424 0
6.1920004 1.479358 0.51892424 0
6.2070003 1.4728335 0.5192219 0
6.2220006 1.4662551 0.51951951 0
6.2370005 1.4596225 0.51981711 0
6.4170003 1.9293394 0.51253515 0
6.4110003 1.9165272 0.51242691 0
6.4060006 1.9040611 0.51233673 0
6.4000006 1.8912902 0.51222849 0
6.2890005 1.6536202 0.51022625 0
6.2860003 1.6421372 0.51017219 0
6.2860003 1.63152 0.51017219 0
6.2880006 1.6214693 0.51020825 0
6.2920003 1.6119739 0.51028037 0
6.2980003 1.6030235 0.51038861 0
6.3060002 1.5946069 0.51053292 0
6.3200002 1.5878173 0.51078546 0
6.1920004 1.4898057 0.50847661 0
6.1920004 1.479358 0.50847661 0
6.2070003 1.4728335 0.50874716 0
6.2220006 1.4662551 0.50901771 0
6.2370005 1.4596225 0.50928831 0
6.4100003 1.9270415 0.50156802 0
6.4040003 1.9142416 0.50147057 0
6.3990002 1.9017882 0.50138944 0
6.3930006 1.8890299 0.50129199 0
6.3400002 1.7647709 0.5004316 0
6.3340006 1.7522382 0.5003342 0
6.2890005 1.6536202 0.49960366 0
6.2860003 1.6421372 0.49955496 0
6.2860003 1.63152 0.49955496 0
6.2880006 1.6214693 0.49958742 0
6.2920003 1.6119739 0.49965236 0
6.2980003 1.6030235 0.49974975 0
6.3060002 1.5946069 0.49987963 0
6.3200002 1.5878173 0.50010693 0
6.1920004 1.4898057 0.49802893 0
6.1920004 1.479358 0.49802893 0
6.2070003 1.4728335 0.49827245 0
6.2220006 1.4662551 0.49851596 0
6.2370005 1.4596225 0.49875948 0
6.4120002 1.9385426 0.49075598 0
6.4060006 1.9257283 0.4906694 0
6.4010005 1.9132621 0.49059725 0
6.3950005 1.9004896 0.49051064 0
6.3900003 1.8880613 0.49043852 0
6.3420005 1.7760988 0.48974586 0
6.3370004 1.7638564 0.48967367 0
6.3320003 1.751632 0.48960155 0
6.3260002 1.7391243 0.48951495 0
6.2890005 1.6536202 0.48898104 0
6.2860003 1.6421372 0.48893774 0
6.2860003 1.63152 0.48893774 0
6.2880006 1.6214693 0.48896658 0
6.2920003 1.6119739 0.48902431 0
6.2980003 1.6030235 0.48911089 0
6.3060002 1.5946069 0.48922634 0
6.3200002 1.5878173 0.48942837 0
6.1920004 1.4898057 0.48758128 0
6.1920004 1.479358 0.48758128 0
6.2070003 1.4728335 0.48779774 0
6.2220006 1.4662551 0.48801419 0
6.2370005 1.4596225 0.48823065 0
6.4110003 1.9382125 0.47989884 0
6.4060006 1.9257283 0.47983572 0
6.4010005 1.9132621 0.4797726 0
6.3950005 1.9004896 0.47969684 0
6.3900003 1.8880613 0.47963369 0
6.3580003 1.8132464 0.47922963 0
6.3530002 1.800948 0.47916651 0
6.3470006 1.7883594 0.47909075 0
6.3420005 1.7760988 0.47902763 0
6.3370004 1.7638564 0.47896448 0
6.3320003 1.751632 0.47890136 0
6.3260002 1.7391243 0.47882557 0
6.3300004 1.7189362 0.47887608 0
6.2890005 1.6536202 0.47835839 0
6.2860003 1.6421372 0.47832051 0
6.2860003 1.63152 0.47832051 0
6.2880006 1.6214693 0.47834578 0
6.2920003 1.6119739 0.4783963 0
6.2980003 1.6030235 0.47847205 0
6.3060002 1.5946069 0.47857305 0
6.3200002 1.5878173 0.47874981 0
6.1970005 1.5015881 0.47719675 0
6.1920004 1.4898057 0.47713363 0
6.1920004 1.479358 0.47713363 0
6.2070003 1.4728335 0.47732303 0
6.2220006 1.4662551 0.47751242 0
6.2370005 1.4596225 0.47770181 0
6.4140005 1.9392029 0.46908864 0
6.4090004 1.9267132 0.46903452 0
6.4030004 1.9139153 0.46896958 0
6.3980002 1.9014635 0.46891546 0
6.3930006 1.8890299 0.46886134 0
6.3610005 1.8141826 0.46851504 0
6.3560004 1.8018788 0.46846092 0
6.3500004 1.7892847 0.46839595 0
6.3450003 1.7770188 0.46834186 0
6.3400002 1.7647709 0.46828774 0
6.3350005 1.7525412 0.46823362 0
6.3290005 1.7400281 0.46816868 0
6.2860003 1.6421372 0.46770331 0
6.2860003 1.63152 0.46770331 0
6.2880006 1.6214693 0.46772495 0
6.2920003 1.6119739 0.46776825 0
6.2980003 1.6030235 0.46783316 0
6.3060002 1.5946069 0.46791977 0
6.3200002 1.5878173 0.46807128 0
6.1970005 1.5015881 0.46674007 0
6.1920004 1.4898057 0.46668595 0
6.1920004 1.479358 0.46668595 0
6.2070003 1.4728335 0.46684831 0
6.2220006 1.4662551 0.46701065 0
6.2370005 1.4596225 0.46717298 0
6.4140005 1.9392029 0.45824054 0
6.4140005 1.9283547 0.45824054 0
6.4100003 1.9162006 0.45820445 0
6.4040003 1.9034117 0.45815033 0
6.3990002 1.8909671 0.45810524 0
6.3510003 1.7788587 0.45767233 0
6.3460002 1.7665999 0.45762724 0
6.3410006 1.7543594 0.45758215 0
6.3350005 1.7418356 0.45752802 0
6.3300004 1.7296327 0.45748293 0
6.2860003 1.6421372 0.45708609 0
6.2860003 1.63152 0.45708609 0
6.2880006 1.6214693 0.45710415 0
6.2920003 1.6119739 0.45714021 0
6.2980003 1.6030235 0.45719433 0
6.1970005 1.5015881 0.45628339 0
6.1920004 1.4898057 0.4562383 0
6.1920004 1.479358 0.4562383 0
6.2070003 1.4728335 0.45637357 0
6.2220006 1.4662551 0.45650887 0
6.2370005 1.4596225 0.45664415 0
6.4140005 1.9392029 0.44739243 0
6.4140005 1.9283547 0.44739243 0
6.4160004 1.9181595 0.44740686 0
6.4160004 1.9073077 0.44740686 0
6.4100003 1.8945189 0.44736356 0
6.2860003 1.6421372 0.44646889 0
6.2860003 1.63152 0.44646889 0
6.2880006 1.6214693 0.44648331 0
6.2920003 1.6119739 0.44651216 0
6.1970005 1.5015881 0.44582671 0
6.1920004 1.4898057 0.44579065 0
6.1920004 1.479358 0.44579065 0
6.2070003 1.4728335 0.44589886 0
6.2220006 1.4662551 0.4460071 0
6.2370005 1.4596225 0.44611531 0
6.4140005 1.9392029 0.43654433 0
6.4140005 1.9283547 0.43654433 0
6.4160004 1.9181595 0.43655515 0
6.4210005 1.9089313 0.43658221 0
6.4270005 1.900008 0.43661466 0
6.2860003 1.6421372 0.43585166 0
6.2860003 1.63152 0.43585166 0
6.2880006 1.6214693 0.43586248 0
6.2020001 1.5133885 0.43539709 0
6.1970005 1.5015881 0.43537003 0
6.1920004 1.4898057 0.435343 0
6.1920004 1.479358 0.435343 0
6.2070003 1.4728335 0.43542415 0
6.2220006 1.4662551 0.43550533 0
6.2370005 1.4596225 0.43558651 0
6.4140005 1.9392029 0.42569622 0
6.4140005 1.9283547 0.42569622 0
6.4160004 1.9181595 0.42570344 0
6.4210005 1.9089313 0.42572147 0
6.4270005 1.900008 0.42574313 0
6.2020001 1.5133885 0.42493141 0
6.1970005 1.5015881 0.42491338 0
6.1920004 1.4898057 0.42489532 0
6.1920004 1.479358 0.42489532 0
6.2070003 1.4728335 0.42494944 0
6.2220006 1.4662551 0.42500356 0
6.2370005 1.4596225 0.42505768 0
6.4140005 1.9392029 0.41484812 0
6.4140005 1.9283547 0.41484812 0
6.4160004 1.9181595 0.41485173 0
6.4210005 1.9089313 0.41486076 0
6.4270005 1.900008 0.41487157 0
6.2020001 1.5133885 0.4144657 0
6.1970005 1.5015881 0.4144567 0
6.1920004 1.4898057 0.41444767 0
6.1920004 1.479358 0.41444767 0
6.2070003 1.4728335 0.41447473 0
6.2220006 1.4662551 0.41450179 0
6.2370005 1.4596225 0.41452885 0
6.4140005 1.9392029 0.40400001 0
6.4140005 1.9283547 0.40400001 0
6.4160004 1.9181595 0.40400001 0
6.4210005 1.9089313 0.40400001 0
6.4270005 1.900008 0.40400001 0
6.2020001 1.5133885 0.40400001 0
6.1970005 1.5015881 0.40400001 0
6.1920004 1.4898057 0.40400001 0
6.1920004 1.479358 0.40400001 0
6.2070003 1.4728335 0.40400001 0
6.2220006 1.4662551 0.40400001 0
6.2370005 1.4596225 0.40400001 0
6.4140005 1.9392029 0.39315191 0
6.4140005 1.9283547 0.39315191 0
6.4160004 1.9181595 0.3931483 0
6.4210005 1.9089313 0.39313927 0
6.4270005 1.900008 0.39312845 0
6.2020001 1.5133885 0.39353433 0
6.1970005 1.5015881 0.39354333 0
6.1920004 1.4898057 0.39355236 0
6.1920004 1.479358 0.39355236 0
6.2070003 1.4728335 0.3935253 0
6.2220006 1.4662551 0.39349824 0
6.4140005 1.9392029 0.3823038 0
6.4140005 1.9283547 0.3823038 0
6.4160004 1.9181595 0.38229659 0
6.4210005 1.9089313 0.38227856 0
6.4270005 1.900008 0.3822569 0
6.2020001 1.5133885 0.38306862 0
6.1970005 1.5015881 0.38308665 0
6.1920004 1.4898057 0.38310471 0
6.2070003 1.4728335 0.38305059 0
6.2220006 1.4662551 0.38299647 0
6.4140005 1.9392029 0.3714557 0
6.4140005 1.9283547 0.3714557 0
6.4160004 1.9181595 0.37144488 0
6.4210005 1.9089313 0.37141782 0
6.4270005 1.900008 0.37138537 0
6.4140005 1.9392029 0.36060759 0
6.4140005 1.9283547 0.36060759 0
6.4160004 1.9181595 0.36059317 0
6.4210005 1.9089313 0.36055708 0
6.4270005 1.900008 0.36051381 0
6.4140005 1.9392029 0.34975949 0
6.4140005 1.9283547 0.34975949 0
6.4160004 1.9181595 0.34974146 0
6.4210005 1.9089313 0.34969637 0
6.4270005 1.900008 0.34964225 0
6.2250004 1.4985559 0.35146409 0
6.2300005 1.4893655 0.351419 0
6.4140005 1.9392029 0.33891138 0
6.4140005 1.9283547 0.33891138 0
6.4160004 1.9181595 0.33888975 0
6.4210005 1.9089313 0.33883563 0
6.4270005 1.900008 0.33877069 0
6.2250004 1.4985559 0.34095693 0
6.4140005 1.9392029 0.32806331 0
6.4140005 1.9283547 0.32806331 0
6.4160004 1.9181595 0.32803804 0
6.4210005 1.9089313 0.32797492 0
6.4270005 1.900008 0.32789916 0
6.4140005 1.9392029 0.3172152 0
6.4140005 1.9283547 0.3172152 0
6.4160004 1.9181595 0.31718633 0
6.4210005 1.9089313 0.31711417 0
6.4270005 1.900008 0.3170276 0
6.4140005 1.9392029 0.3063671 0
6.4140005 1.9283547 0.3063671 0
6.4160004 1.9181595 0.30633461 0
6.4210005 1.9089313 0.30625343 0
6.4270005 1.900008 0.30615604 0
6.4140005 1.9392029 0.29551899 0
6.4140005 1.9283547 0.29551899 0
6.4160004 1.9181595 0.2954829 0
6.4210005 1.9089313 0.29539272 0
6.4270005 1.900008 0.29528448 0
6.4140005 1.9392029 0.28467089 0
6.4140005 1.9283547 0.28467089 0
6.4160004 1.9181595 0.28463119 0
6.4210005 1.9089313 0.28453198 0
6.4270005 1.900008 0.28441292 0
6.4140005 1.9392029 0.27382278 0
6.4140005 1.9283547 0.27382278 0
6.4160004 1.9181595 0.27377951 0
6.4210005 1.9089313 0.27367127 0
6.4270005 1.900008 0.27354139 0
6.4140005 1.9392029 0.26297468 0
6.4140005 1.9283547 0.26297468 0
6.4160004 1.9181595 0.26292777 0
6.4210005 1.9089313 0.26281053 0
6.4270005 1.900008 0.26266983 0
6.4140005 1.9392029 0.25212657 0
6.4140005 1.9283547 0.25212657 0
6.4160004 1.9181595 0.25207606 0
6.4210005 1.9089313 0.25194979 0
6.4270005 1.900008 0.25179827 0
6.4140005 1.9392029 0.24127847 0
6.4140005 1.9283547 0.24127847 0
6.4160004 1.9181595 0.24122436 0
6.4210005 1.9089313 0.24108908 0
6.4270005 1.900008 0.24092673 0
6.4140005 1.9392029 0.23043036 0
6.4140005 1.9283547 0.23043036 0
6.4160004 1.9181595 0.23037265 0
6.4210005 1.9089313 0.23022833 0
6.4270005 1.900008 0.23005517 0
6.4140005 1.9392029 0.21958226 0
6.4140005 1.9283547 0.21958226 0
6.4160004 1.9181595 0.21952094 0
6.4210005 1.9089313 0.21936761 0
6.4270005 1.900008 0.21918362 0
6.4140005 1.9392029 0.20873417 0
6.4140005 1.9283547 0.20873417 0
6.4160004 1.9181595 0.20866923 0
6.4210005 1.9089313 0.20850688 0
6.4270005 1.900008 0.20831206 0
6.4140005 1.9392029 0.19788606 0
6.4140005 1.9283547 0.19788606 0
6.4160004 1.9181595 0.19781752 0
6.4210005 1.9089313 0.19764614 0
6.4270005 1.900008 0.19744052 0
6.4140005 1.9392029 0.18703796 0
6.4140005 1.9283547 0.18703796 0
6.4160004 1.9181595 0.18696581 0
6.4210005 1.9089313 0.18678543 0
6.4270005 1.900008 0.18656896 0
6.4140005 1.9392029 0.17618985 0
6.4140005 1.9283547 0.17618985 0
6.4160004 1.9181595 0.1761141 0
6.4210005 1.9089313 0.17592469 0
6.4270005 1.900008 0.17569742 0
6.4140005 1.9392029 0.16534173 0
6.4140005 1.9283547 0.16534173 0
6.4160004 1.9181595 0.16526239 0
6.4210005 1.9089313 0.16506396 0
6.4270005 1.900008 0.16482586 0
6.4140005 1.9392029 0.15449366 0
6.4140005 1.9283547 0.15449366 0
6.4160004 1.9181595 0.15441066 0
6.4210005 1.9089313 0.15420325 0
6.4270005 1.900008 0.15395433 0
6.4140005 1.9392029 0.14364552 0
6.4140005 1.9283547 0.14364552 0
6.4160004 1.9181595 0.14355898 0
6.4210005 1.9089313 0.14334249 0
6.4270005 1.900008 0.14308277 0
6.4140005 1.9392029 0.13279745 0
6.4140005 1.9283547 0.13279745 0
6.4160004 1.9181595 0.13270724 0
6.4210005 1.9089313 0.13248178 0
6.4270005 1.900008 0.13221118 0
6.4140005 1.9392029 0.12194934 0
6.4140005 1.9283547 0.12194934 0
6.4160004 1.9181595 0.12185556 0
6.4210005 1.9089313 0.12162104 0
6.4270005 1.900008 0.12133965 0
6.4170003 1.9510466 0.11095515 0
6.4140005 1.9392029 0.11110124 0
6.4140005 1.9283547 0.11110124 0
6.4160004 1.9181595 0.11100385 0
6.4210005 1.9089313 0.1107603 0
6.4270005 1.900008 0.11046812 0
6.4170003 1.9510466 0.10010162 0
6.4140005 1.9392029 0.10025313 0
6.4140005 1.9283547 0.10025313 0
6.4160004 1.9181595 0.10015211 0
6.4210005 1.9089313 0.09989959 0
6.4270005 1.900008 0.09959653 0
6.4360003 1.8920261 0.099141985 0
6.4170003 1.9510466 0.089248091 0
6.4140005 1.9392029 0.08940503 0
6.4140005 1.9283547 0.08940503 0
6.4160004 1.9181595 0.089300424 0
6.4210005 1.9089313 0.089038849 0
6.4270005 1.900008 0.088724971 0
6.4360003 1.8920261 0.088254213 0
6.4170003 1.9510466 0.078394592 0
6.4140005 1.9392029 0.078556925 0
6.4140005 1.9283547 0.078556925 0
6.4160004 1.9181595 0.078448713 0
6.4210005 1.9089313 0.078178138 0
6.4270005 1.900008 0.077853441 0
6.4360003 1.8920261 0.077366441 0
6.4160004 1.9507148 0.067597002 0
6.4110003 1.9382125 0.067876607 0
6.4050002 1.9254 0.068212122 0
6.4000006 1.9129359 0.068491668 0
6.4060006 1.9040611 0.068156153 0
6.4210005 1.8980706 0.067317396 0
6.4350004 1.891705 0.066534549 0
6.4160004 1.9507148 0.056745291 0
6.4110003 1.9382125 0.057033896 0
6.4050002 1.9254 0.057380229 0
6.4000006 1.9129359 0.057668835 0
6.4060006 1.9040611 0.057322502 0
6.4210005 1.8980706 0.056456655 0
6.4350004 1.891705 0.055648565 0
