# .PCD v0.7 - Point Cloud Data file format
VERSION 0.7
FIELDS x y z intensity
SIZE 4 4 4 4
TYPE F F F F
COUNT 1 1 1 1
WIDTH 1412
HEIGHT 1
VIEWPOINT 0 0 0 1 0 0 0
POINTS 1412
DATA ascii
3.3090003 -0.093225509 1.5321649 0
3.3040001 -0.098382592 1.5302256 0
3.3000002 -0.10354148 1.5286744 0
3.2950003 -0.1086643 1.5267354 0
3.2910001 -0.11379252 1.525184 0
3.2860003 -0.11888108 1.5232451 0
3.2820003 -0.12397863 1.5216938 0
3.2770002 -0.12903289 1.5197545 0
3.2730002 -0.1340998 1.5182034 0
3.2690003 -0.13915226 1.5166521 0
3.2640002 -0.14415602 1.5147129 0
3.2600002 -0.14917783 1.5131617 0
3.2550001 -0.15414733 1.5112226 0
3.2510002 -0.15913846 1.5096713 0
3.2470002 -0.16411516 1.5081201 0
3.2420003 -0.16903415 1.506181 0
3.2380002 -0.17398021 1.5046296 0
3.2340002 -0.17891182 1.5030783 0
3.2290003 -0.18378028 1.5011394 0
3.2250001 -0.18868123 1.499588 0
3.2210002 -0.19356775 1.4980367 0
3.2160003 -0.19838572 1.4960978 0
3.2120001 -0.20324157 1.4945464 0
3.2080002 -0.20808299 1.4929951 0
3.2040002 -0.21290998 1.4914439 0
3.1990001 -0.21766122 1.4895048 0
3.1950002 -0.22245754 1.4879534 0
3.1910002 -0.22723944 1.4864022 0
3.1870003 -0.23200691 1.4848509 0
3.1830003 -0.23675995 1.4832997 0
3.1790001 -0.24149854 1.4817483 0
3.1740003 -0.24615057 1.4798093 0
3.1700003 -0.25085852 1.4782581 0
3.1660001 -0.25555199 1.4767067 0
3.1620002 -0.26023108 1.4751555 0
3.1580002 -0.26489574 1.4736042 0
3.1540003 -0.26954594 1.4720529 0
3.1500003 -0.27418175 1.4705018 0
3.1460001 -0.27880308 1.4689504 0
3.1420002 -0.28341001 1.4673991 0
3.1380002 -0.28800252 1.4658478 0
3.1340003 -0.2925806 1.4642966 0
3.1300001 -0.2971442 1.4627453 0
3.1260002 -0.30169341 1.461194 0
3.1220002 -0.30622819 1.4596428 0
3.1180003 -0.31074855 1.4580915 0
3.1140003 -0.31525448 1.4565402 0
3.3090003 -0.093225509 1.5269176 0
3.3040001 -0.098382592 1.5249875 0
3.3000002 -0.10354148 1.5234435 0
3.2950003 -0.1086643 1.5215133 0
3.2910001 -0.11379252 1.5199692 0
3.2860003 -0.11888108 1.5180392 0
3.2820003 -0.12397863 1.5164952 0
3.2770002 -0.12903289 1.5145651 0
3.2730002 -0.1340998 1.513021 0
3.2690003 -0.13915226 1.511477 0
3.2640002 -0.14415602 1.5095469 0
3.2600002 -0.14917783 1.5080029 0
3.2550001 -0.15414733 1.5060728 0
3.2510002 -0.15913846 1.5045286 0
3.2470002 -0.16411516 1.5029846 0
3.2420003 -0.16903415 1.5010546 0
3.2380002 -0.17398021 1.4995105 0
3.2340002 -0.17891182 1.4979664 0
3.2290003 -0.18378028 1.4960364 0
3.2250001 -0.18868123 1.4944923 0
3.2210002 -0.19356775 1.4929483 0
3.2160003 -0.19838572 1.4910182 0
3.2120001 -0.20324157 1.4894741 0
3.2080002 -0.20808299 1.4879301 0
3.2040002 -0.21290998 1.4863859 0
3.1990001 -0.21766122 1.4844559 0
3.1950002 -0.22245754 1.4829118 0
3.1910002 -0.22723944 1.4813678 0
3.1870003 -0.23200691 1.4798237 0
3.1830003 -0.23675995 1.4782797 0
3.1790001 -0.24149854 1.4767356 0
3.1740003 -0.24615057 1.4748056 0
3.1700003 -0.25085852 1.4732615 0
3.1660001 -0.25555199 1.4717174 0
3.1620002 -0.26023108 1.4701734 0
3.1580002 -0.26489574 1.4686294 0
3.1540003 -0.26954594 1.4670852 0
3.1500003 -0.27418175 1.4655412 0
3.1460001 -0.27880308 1.463997 0
3.1420002 -0.28341001 1.462453 0
3.1380002 -0.28800252 1.460909 0
3.1340003 -0.2925806 1.459365 0
3.1300001 -0.2971442 1.4578209 0
3.1260002 -0.30169341 1.4562768 0
3.1220002 -0.30622819 1.4547328 0
3.1180003 -0.31074855 1.4531888 0
3.1140003 -0.31525448 1.4516447 0
3.3090003 -0.093225509 1.5216702 0
3.3040001 -0.098382592 1.5197492 0
3.3000002 -0.10354148 1.5182123 0
3.2950003 -0.1086643 1.5162914 0
3.2910001 -0.11379252 1.5147544 0
3.2860003 -0.11888108 1.5128334 0
3.2820003 -0.12397863 1.5112966 0
3.2770002 -0.12903289 1.5093756 0
3.2730002 -0.1340998 1.5078387 0
3.2690003 -0.13915226 1.5063019 0
3.2640002 -0.14415602 1.5043808 0
3.2600002 -0.14917783 1.502844 0
3.2550001 -0.15414733 1.5009228 0
3.2510002 -0.15913846 1.499386 0
3.2470002 -0.16411516 1.4978491 0
3.2420003 -0.16903415 1.4959282 0
3.2380002 -0.17398021 1.4943913 0
3.2340002 -0.17891182 1.4928545 0
3.2290003 -0.18378028 1.4909334 0
3.2250001 -0.18868123 1.4893966 0
3.2210002 -0.19356775 1.4878597 0
3.2160003 -0.19838572 1.4859387 0
3.2120001 -0.20324157 1.4844017 0
3.2080002 -0.20808299 1.482865 0
3.2040002 -0.21290998 1.4813281 0
3.1990001 -0.21766122 1.4794071 0
3.1950002 -0.22245754 1.4778702 0
3.1910002 -0.22723944 1.4763334 0
3.1870003 -0.23200691 1.4747965 0
3.1830003 -0.23675995 1.4732597 0
3.1790001 -0.24149854 1.4717228 0
3.1740003 -0.24615057 1.4698018 0
3.1700003 -0.25085852 1.4682651 0
3.1660001 -0.25555199 1.4667281 0
3.1620002 -0.26023108 1.4651912 0
3.1580002 -0.26489574 1.4636544 0
3.1540003 -0.26954594 1.4621176 0
3.1500003 -0.27418175 1.4605808 0
3.1460001 -0.27880308 1.4590439 0
3.1420002 -0.28341001 1.457507 0
3.1380002 -0.28800252 1.4559702 0
3.1340003 -0.2925806 1.4544333 0
3.1300001 -0.2971442 1.4528965 0
3.1260002 -0.30169341 1.4513596 0
3.1220002 -0.30622819 1.4498228 0
3.1180003 -0.31074855 1.4482859 0
3.1140003 -0.31525448 1.4467491 0
3.3090003 -0.093225509 1.516423 0
3.3040001 -0.098382592 1.514511 0
3.3000002 -0.10354148 1.5129814 0
3.2950003 -0.1086643 1.5110693 0
3.2910001 -0.11379252 1.5095397 0
3.2860003 -0.11888108 1.5076276 0
3.2820003 -0.12397863 1.506098 0
3.2770002 -0.12903289 1.5041859 0
3.2730002 -0.1340998 1.5026563 0
3.2690003 -0.13915226 1.5011268 0
3.2640002 -0.14415602 1.4992146 0
3.2600002 -0.14917783 1.497685 0
3.2550001 -0.15414733 1.495773 0
3.2510002 -0.15913846 1.4942433 0
3.2470002 -0.16411516 1.4927138 0
3.2420003 -0.16903415 1.4908017 0
3.2380002 -0.17398021 1.489272 0
3.2340002 -0.17891182 1.4877425 0
3.2290003 -0.18378028 1.4858304 0
3.2250001 -0.18868123 1.4843007 0
3.2210002 -0.19356775 1.4827712 0
3.2160003 -0.19838572 1.4808592 0
3.2120001 -0.20324157 1.4793295 0
3.2080002 -0.20808299 1.4777999 0
3.2040002 -0.21290998 1.4762703 0
3.1990001 -0.21766122 1.4743582 0
3.1950002 -0.22245754 1.4728286 0
3.1910002 -0.22723944 1.4712989 0
3.1870003 -0.23200691 1.4697694 0
3.1830003 -0.23675995 1.4682397 0
3.1790001 -0.24149854 1.46671 0
3.1740003 -0.24615057 1.464798 0
3.1700003 -0.25085852 1.4632684 0
3.1660001 -0.25555199 1.4617387 0
3.1620002 -0.26023108 1.4602091 0
3.1580002 -0.26489574 1.4586796 0
3.1540003 -0.26954594 1.4571499 0
3.1500003 -0.27418175 1.4556203 0
3.1460001 -0.27880308 1.4540906 0
3.1420002 -0.28341001 1.452561 0
3.1380002 -0.28800252 1.4510314 0
3.1340003 -0.2925806 1.4495018 0
3.1300001 -0.2971442 1.4479721 0
3.1260002 -0.30169341 1.4464424 0
3.1220002 -0.30622819 1.4449128 0
3.1180003 -0.31074855 1.4433832 0
3.1140003 -0.31525448 1.4418536 0
3.3090003 -0.093225509 1.5111758 0
3.3040001 -0.098382592 1.5092727 0
3.3000002 -0.10354148 1.5077503 0
3.2950003 -0.1086643 1.5058473 0
3.2910001 -0.11379252 1.5043248 0
3.2860003 -0.11888108 1.5024219 0
3.2820003 -0.12397863 1.5008994 0
3.2770002 -0.12903289 1.4989964 0
3.2730002 -0.1340998 1.497474 0
3.2690003 -0.13915226 1.4959517 0
3.2640002 -0.14415602 1.4940486 0
3.2600002 -0.14917783 1.4925262 0
3.2550001 -0.15414733 1.4906231 0
3.2510002 -0.15913846 1.4891007 0
3.2470002 -0.16411516 1.4875784 0
3.2420003 -0.16903415 1.4856753 0
3.2380002 -0.17398021 1.4841528 0
3.2340002 -0.17891182 1.4826304 0
3.2290003 -0.18378028 1.4807276 0
3.2250001 -0.18868123 1.479205 0
3.2210002 -0.19356775 1.4776826 0
3.2160003 -0.19838572 1.4757797 0
3.2120001 -0.20324157 1.4742572 0
3.2080002 -0.20808299 1.4727348 0
3.2040002 -0.21290998 1.4712124 0
3.1990001 -0.21766122 1.4693093 0
3.1950002 -0.22245754 1.4677869 0
3.1910002 -0.22723944 1.4662645 0
3.1870003 -0.23200691 1.4647422 0
3.1830003 -0.23675995 1.4632198 0
3.1790001 -0.24149854 1.4616972 0
3.1740003 -0.24615057 1.4597943 0
3.1700003 -0.25085852 1.4582719 0
3.1660001 -0.25555199 1.4567493 0
3.1620002 -0.26023108 1.455227 0
3.1580002 -0.26489574 1.4537046 0
3.1540003 -0.26954594 1.4521823 0
3.1500003 -0.27418175 1.4506599 0
3.1460001 -0.27880308 1.4491373 0
3.1420002 -0.28341001 1.4476149 0
3.1380002 -0.28800252 1.4460925 0
3.1340003 -0.2925806 1.4445701 0
3.1300001 -0.2971442 1.4430478 0
3.1260002 -0.30169341 1.4415253 0
3.1220002 -0.30622819 1.4400029 0
3.1180003 -0.31074855 1.4384805 0
3.3090003 -0.093225509 1.5059284 0
3.3040001 -0.098382592 1.5040344 0
3.3000002 -0.10354148 1.5025192 0
3.2950003 -0.1086643 1.5006254 0
3.2910001 -0.11379252 1.49911 0
3.2860003 -0.11888108 1.4972161 0
3.2820003 -0.12397863 1.4957008 0
3.2770002 -0.12903289 1.4938068 0
3.2730002 -0.1340998 1.4922917 0
3.2690003 -0.13915226 1.4907765 0
3.2640002 -0.14415602 1.4888824 0
3.2600002 -0.14917783 1.4873673 0
3.2550001 -0.15414733 1.4854732 0
3.2510002 -0.15913846 1.483958 0
3.2470002 -0.16411516 1.4824429 0
3.2420003 -0.16903415 1.480549 0
3.2380002 -0.17398021 1.4790337 0
3.2340002 -0.17891182 1.4775184 0
3.2290003 -0.18378028 1.4756244 0
3.2250001 -0.18868123 1.4741092 0
3.2210002 -0.19356775 1.4725941 0
3.2160003 -0.19838572 1.4707001 0
3.2120001 -0.20324157 1.4691849 0
3.2080002 -0.20808299 1.4676696 0
3.2040002 -0.21290998 1.4661545 0
3.1990001 -0.21766122 1.4642603 0
3.1950002 -0.22245754 1.4627453 0
3.1910002 -0.22723944 1.4612302 0
3.1870003 -0.23200691 1.4597149 0
3.1830003 -0.23675995 1.4581997 0
3.1790001 -0.24149854 1.4566845 0
3.1740003 -0.24615057 1.4547905 0
3.1700003 -0.25085852 1.4532753 0
3.1660001 -0.25555199 1.4517601 0
3.1620002 -0.26023108 1.4502449 0
3.1580002 -0.26489574 1.4487298 0
3.1540003 -0.26954594 1.4472145 0
3.1500003 -0.27418175 1.4456993 0
3.1460001 -0.27880308 1.4441841 0
3.1420002 -0.28341001 1.4426689 0
3.1380002 -0.28800252 1.4411538 0
3.1340003 -0.2925806 1.4396385 0
3.1300001 -0.2971442 1.4381232 0
3.1260002 -0.30169341 1.4366081 0
3.1220002 -0.30622819 1.4350928 0
3.1180003 -0.31074855 1.4335777 0
3.3090003 -0.093225509 1.5006812 0
3.3040001 -0.098382592 1.4987962 0
3.3000002 -0.10354148 1.4972882 0
3.2950003 -0.1086643 1.4954033 0
3.2910001 -0.11379252 1.4938952 0
3.2860003 -0.11888108 1.4920102 0
3.2820003 -0.12397863 1.4905024 0
3.2770002 -0.12903289 1.4886173 0
3.2730002 -0.1340998 1.4871093 0
3.2690003 -0.13915226 1.4856013 0
3.2640002 -0.14415602 1.4837162 0
3.2600002 -0.14917783 1.4822084 0
3.2550001 -0.15414733 1.4803233 0
3.2510002 -0.15913846 1.4788154 0
3.2470002 -0.16411516 1.4773074 0
3.2420003 -0.16903415 1.4754225 0
3.2380002 -0.17398021 1.4739145 0
3.2340002 -0.17891182 1.4724065 0
3.2290003 -0.18378028 1.4705216 0
3.2250001 -0.18868123 1.4690135 0
3.2210002 -0.19356775 1.4675056 0
3.2160003 -0.19838572 1.4656206 0
3.2120001 -0.20324157 1.4641125 0
3.2080002 -0.20808299 1.4626045 0
3.2040002 -0.21290998 1.4610965 0
3.1990001 -0.21766122 1.4592116 0
3.1950002 -0.22245754 1.4577036 0
3.1910002 -0.22723944 1.4561957 0
3.1870003 -0.23200691 1.4546877 0
3.1830003 -0.23675995 1.4531797 0
3.1790001 -0.24149854 1.4516717 0
3.1740003 -0.24615057 1.4497868 0
3.1700003 -0.25085852 1.4482788 0
3.1660001 -0.25555199 1.4467707 0
3.1620002 -0.26023108 1.4452627 0
3.1580002 -0.26489574 1.4437548 0
3.1540003 -0.26954594 1.4422469 0
3.1500003 -0.27418175 1.4407389 0
3.1460001 -0.27880308 1.4392308 0
3.1420002 -0.28341001 1.4377228 0
3.1380002 -0.28800252 1.4362148 0
3.1340003 -0.2925806 1.4347069 0
3.1300001 -0.2971442 1.4331989 0
3.1260002 -0.30169341 1.4316909 0
3.1220002 -0.30622819 1.4301829 0
3.1180003 -0.31074855 1.4286749 0
3.3090003 -0.093225509 1.4954339 0
3.3040001 -0.098382592 1.4935578 0
3.3000002 -0.10354148 1.4920571 0
3.2950003 -0.1086643 1.4901812 0
3.2910001 -0.11379252 1.4886804 0
3.2860003 -0.11888108 1.4868045 0
3.2820003 -0.12397863 1.4853038 0
3.2770002 -0.12903289 1.4834278 0
3.2730002 -0.1340998 1.481927 0
3.2690003 -0.13915226 1.4804262 0
3.2640002 -0.14415602 1.4785503 0
3.2600002 -0.14917783 1.4770495 0
3.2550001 -0.15414733 1.4751735 0
3.2510002 -0.15913846 1.4736727 0
3.2470002 -0.16411516 1.472172 0
3.2420003 -0.16903415 1.470296 0
3.2380002 -0.17398021 1.4687952 0
3.2340002 -0.17891182 1.4672946 0
3.2290003 -0.18378028 1.4654186 0
3.2250001 -0.18868123 1.4639177 0
3.2210002 -0.19356775 1.462417 0
3.2160003 -0.19838572 1.460541 0
3.2120001 -0.20324157 1.4590402 0
3.2080002 -0.20808299 1.4575394 0
3.2040002 -0.21290998 1.4560388 0
3.1990001 -0.21766122 1.4541627 0
3.1950002 -0.22245754 1.4526619 0
3.1910002 -0.22723944 1.4511613 0
3.1870003 -0.23200691 1.4496605 0
3.1830003 -0.23675995 1.4481598 0
3.1790001 -0.24149854 1.4466588 0
3.1740003 -0.24615057 1.4447831 0
3.1700003 -0.25085852 1.4432822 0
3.1660001 -0.25555199 1.4417814 0
3.1620002 -0.26023108 1.4402807 0
3.1580002 -0.26489574 1.4387798 0
3.1540003 -0.26954594 1.4372791 0
3.1500003 -0.27418175 1.4357784 0
3.1460001 -0.27880308 1.4342775 0
3.1420002 -0.28341001 1.4327768 0
3.1380002 -0.28800252 1.4312761 0
3.1340003 -0.2925806 1.4297754 0
3.1300001 -0.2971442 1.4282745 0
3.1260002 -0.30169341 1.4267737 0
3.1220002 -0.30622819 1.4252729 0
3.1180003 -0.31074855 1.4237722 0
3.3090003 -0.093225509 1.4901866 0
3.3040001 -0.098382592 1.4883196 0
3.3000002 -0.10354148 1.4868262 0
3.2950003 -0.1086643 1.4849592 0
3.2910001 -0.11379252 1.4834656 0
3.2860003 -0.11888108 1.4815987 0
3.2820003 -0.12397863 1.4801052 0
3.2770002 -0.12903289 1.4782381 0
3.2730002 -0.1340998 1.4767447 0
3.2690003 -0.13915226 1.4752512 0
3.2640002 -0.14415602 1.4733841 0
3.2600002 -0.14917783 1.4718906 0
3.2550001 -0.15414733 1.4700236 0
3.2510002 -0.15913846 1.4685302 0
3.2470002 -0.16411516 1.4670366 0
3.2420003 -0.16903415 1.4651697 0
3.2380002 -0.17398021 1.463676 0
3.2340002 -0.17891182 1.4621824 0
3.2290003 -0.18378028 1.4603156 0
3.2250001 -0.18868123 1.458822 0
3.2210002 -0.19356775 1.4573284 0
3.2160003 -0.19838572 1.4554615 0
3.2120001 -0.20324157 1.4539679 0
3.2080002 -0.20808299 1.4524745 0
3.2040002 -0.21290998 1.4509809 0
3.1990001 -0.21766122 1.4491138 0
3.1950002 -0.22245754 1.4476203 0
3.1910002 -0.22723944 1.4461267 0
3.1870003 -0.23200691 1.4446332 0
3.1830003 -0.23675995 1.4431398 0
3.1790001 -0.24149854 1.4416461 0
3.1740003 -0.24615057 1.4397792 0
3.1700003 -0.25085852 1.4382857 0
3.1660001 -0.25555199 1.436792 0
3.1620002 -0.26023108 1.4352986 0
3.1580002 -0.26489574 1.433805 0
3.1540003 -0.26954594 1.4323115 0
3.1500003 -0.27418175 1.430818 0
3.1460001 -0.27880308 1.4293243 0
3.1420002 -0.28341001 1.4278307 0
3.1380002 -0.28800252 1.4263372 0
3.1340003 -0.2925806 1.4248437 0
3.1300001 -0.2971442 1.4233501 0
3.1260002 -0.30169341 1.4218566 0
3.1220002 -0.30622819 1.4203631 0
3.1180003 -0.31074855 1.4188695 0
3.3090003 -0.093225509 1.4849393 0
3.3040001 -0.098382592 1.4830813 0
3.3000002 -0.10354148 1.481595 0
3.2950003 -0.1086643 1.4797372 0
3.2910001 -0.11379252 1.4782509 0
3.2860003 -0.11888108 1.476393 0
3.2820003 -0.12397863 1.4749066 0
3.2770002 -0.12903289 1.4730487 0
3.2730002 -0.1340998 1.4715623 0
3.2690003 -0.13915226 1.470076 0
3.2640002 -0.14415602 1.468218 0
3.2600002 -0.14917783 1.4667317 0
3.2550001 -0.15414733 1.4648738 0
3.2510002 -0.15913846 1.4633875 0
3.2470002 -0.16411516 1.4619012 0
3.2420003 -0.16903415 1.4600432 0
3.2380002 -0.17398021 1.4585568 0
3.2340002 -0.17891182 1.4570705 0
3.2290003 -0.18378028 1.4552126 0
3.2250001 -0.18868123 1.4537262 0
3.2210002 -0.19356775 1.4522399 0
3.2160003 -0.19838572 1.4503821 0
3.2120001 -0.20324157 1.4488957 0
3.2080002 -0.20808299 1.4474093 0
3.2040002 -0.21290998 1.445923 0
3.1990001 -0.21766122 1.444065 0
3.1950002 -0.22245754 1.4425787 0
3.1910002 -0.22723944 1.4410924 0
3.1870003 -0.23200691 1.439606 0
3.1830003 -0.23675995 1.4381198 0
3.1790001 -0.24149854 1.4366333 0
3.1740003 -0.24615057 1.4347755 0
3.1700003 -0.25085852 1.4332892 0
3.1660001 -0.25555199 1.4318027 0
3.1620002 -0.26023108 1.4303164 0
3.1580002 -0.26489574 1.42883 0
3.1540003 -0.26954594 1.4273437 0
3.1500003 -0.27418175 1.4258574 0
3.1460001 -0.27880308 1.4243711 0
3.1420002 -0.28341001 1.4228848 0
3.1380002 -0.28800252 1.4213984 0
3.1340003 -0.2925806 1.4199121 0
3.1300001 -0.2971442 1.4184257 0
3.1260002 -0.30169341 1.4169394 0
3.1220002 -0.30622819 1.4154531 0
3.1180003 -0.31074855 1.4139667 0
3.3090003 -0.093225509 1.4796921 0
3.3040001 -0.098382592 1.4778432 0
3.3000002 -0.10354148 1.476364 0
3.2950003 -0.1086643 1.4745152 0
3.2910001 -0.11379252 1.4730361 0
3.2860003 -0.11888108 1.4711871 0
3.2820003 -0.12397863 1.4697081 0
3.2770002 -0.12903289 1.4678591 0
3.2730002 -0.1340998 1.46638 0
3.2690003 -0.13915226 1.4649009 0
3.2640002 -0.14415602 1.4630519 0
3.2600002 -0.14917783 1.4615729 0
3.2550001 -0.15414733 1.4597239 0
3.2510002 -0.15913846 1.4582448 0
3.2470002 -0.16411516 1.4567657 0
3.2420003 -0.16903415 1.4549168 0
3.2380002 -0.17398021 1.4534377 0
3.2340002 -0.17891182 1.4519585 0
3.2290003 -0.18378028 1.4501097 0
3.2250001 -0.18868123 1.4486305 0
3.2210002 -0.19356775 1.4471513 0
3.2160003 -0.19838572 1.4453025 0
3.2120001 -0.20324157 1.4438233 0
3.2080002 -0.20808299 1.4423442 0
3.2040002 -0.21290998 1.440865 0
3.1990001 -0.21766122 1.4390161 0
3.1950002 -0.22245754 1.4375371 0
3.1910002 -0.22723944 1.4360579 0
3.1870003 -0.23200691 1.4345788 0
3.1830003 -0.23675995 1.4330997 0
3.1790001 -0.24149854 1.4316206 0
3.1740003 -0.24615057 1.4297717 0
3.1700003 -0.25085852 1.4282925 0
3.1660001 -0.25555199 1.4268135 0
3.1620002 -0.26023108 1.4253343 0
3.1580002 -0.26489574 1.4238552 0
3.1540003 -0.26954594 1.4223762 0
3.1500003 -0.27418175 1.420897 0
3.1460001 -0.27880308 1.4194177 0
3.1420002 -0.28341001 1.4179387 0
3.1380002 -0.28800252 1.4164596 0
3.1340003 -0.2925806 1.4149804 0
3.1300001 -0.2971442 1.4135013 0
3.1260002 -0.30169341 1.4120222 0
3.1220002 -0.30622819 1.4105431 0
3.1180003 -0.31074855 1.4090641 0
3.3090003 -0.093225509 1.4744447 0
3.3040001 -0.098382592 1.4726049 0
3.3000002 -0.10354148 1.471133 0
3.2950003 -0.1086643 1.4692931 0
3.2910001 -0.11379252 1.4678211 0
3.2860003 -0.11888108 1.4659812 0
3.2820003 -0.12397863 1.4645095 0
3.2770002 -0.12903289 1.4626695 0
3.2730002 -0.1340998 1.4611976 0
3.2690003 -0.13915226 1.4597257 0
3.2640002 -0.14415602 1.4578859 0
3.2600002 -0.14917783 1.4564139 0
3.2550001 -0.15414733 1.454574 0
3.2510002 -0.15913846 1.4531021 0
3.2470002 -0.16411516 1.4516302 0
3.2420003 -0.16903415 1.4497904 0
3.2380002 -0.17398021 1.4483185 0
3.2340002 -0.17891182 1.4468466 0
3.2290003 -0.18378028 1.4450066 0
3.2250001 -0.18868123 1.4435346 0
3.2210002 -0.19356775 1.4420627 0
3.2160003 -0.19838572 1.440223 0
3.2120001 -0.20324157 1.438751 0
3.2080002 -0.20808299 1.4372791 0
3.2040002 -0.21290998 1.4358072 0
3.1990001 -0.21766122 1.4339674 0
3.1950002 -0.22245754 1.4324954 0
3.1910002 -0.22723944 1.4310235 0
3.1870003 -0.23200691 1.4295516 0
3.1830003 -0.23675995 1.4280797 0
3.1790001 -0.24149854 1.4266077 0
3.1740003 -0.24615057 1.424768 0
3.1700003 -0.25085852 1.423296 0
3.1660001 -0.25555199 1.421824 0
3.1620002 -0.26023108 1.4203521 0
3.1580002 -0.26489574 1.4188802 0
3.1540003 -0.26954594 1.4174083 0
3.1500003 -0.27418175 1.4159365 0
3.1460001 -0.27880308 1.4144646 0
3.1420002 -0.28341001 1.4129927 0
3.1380002 -0.28800252 1.4115207 0
3.1340003 -0.2925806 1.4100488 0
3.1300001 -0.2971442 1.4085768 0
3.1260002 -0.30169341 1.407105 0
3.1220002 -0.30622819 1.4056331 0
3.1180003 -0.31074855 1.4041612 0
3.3090003 -0.093225509 1.4691975 0
3.3040001 -0.098382592 1.4673666 0
3.3000002 -0.10354148 1.465902 0
3.2950003 -0.1086643 1.4640712 0
3.2910001 -0.11379252 1.4626063 0
3.2860003 -0.11888108 1.4607755 0
3.2820003 -0.12397863 1.4593108 0
3.2770002 -0.12903289 1.45748 0
3.2730002 -0.1340998 1.4560153 0
3.2690003 -0.13915226 1.4545506 0
3.2640002 -0.14415602 1.4527197 0
3.2600002 -0.14917783 1.451255 0
3.2550001 -0.15414733 1.4494241 0
3.2510002 -0.15913846 1.4479594 0
3.2470002 -0.16411516 1.4464948 0
3.2420003 -0.16903415 1.4446639 0
3.2380002 -0.17398021 1.4431992 0
3.2340002 -0.17891182 1.4417344 0
3.2290003 -0.18378028 1.4399037 0
3.2250001 -0.18868123 1.438439 0
3.2210002 -0.19356775 1.4369743 0
3.2160003 -0.19838572 1.4351435 0
3.2120001 -0.20324157 1.4336786 0
3.2080002 -0.20808299 1.432214 0
3.2040002 -0.21290998 1.4307493 0
3.1990001 -0.21766122 1.4289185 0
3.1950002 -0.22245754 1.4274538 0
3.1910002 -0.22723944 1.425989 0
3.1870003 -0.23200691 1.4245244 0
3.1830003 -0.23675995 1.4230597 0
3.1790001 -0.24149854 1.421595 0
3.1740003 -0.24615057 1.4197642 0
3.1700003 -0.25085852 1.4182996 0
3.1660001 -0.25555199 1.4168347 0
3.1620002 -0.26023108 1.4153701 0
3.1580002 -0.26489574 1.4139054 0
3.1540003 -0.26954594 1.4124407 0
3.1500003 -0.27418175 1.4109761 0
3.1460001 -0.27880308 1.4095112 0
3.1420002 -0.28341001 1.4080466 0
3.1380002 -0.28800252 1.4065819 0
3.1340003 -0.2925806 1.4051172 0
3.1300001 -0.2971442 1.4036524 0
3.1260002 -0.30169341 1.4021877 0
3.1220002 -0.30622819 1.4007231 0
3.3090003 -0.093225509 1.4639503 0
3.3040001 -0.098382592 1.4621284 0
3.3000002 -0.10354148 1.4606709 0
3.2950003 -0.1086643 1.4588491 0
3.2910001 -0.11379252 1.4573915 0
3.2860003 -0.11888108 1.4555697 0
3.2820003 -0.12397863 1.4541123 0
3.2770002 -0.12903289 1.4522903 0
3.2730002 -0.1340998 1.4508328 0
3.2690003 -0.13915226 1.4493755 0
3.2640002 -0.14415602 1.4475536 0
3.2600002 -0.14917783 1.4460962 0
3.2550001 -0.15414733 1.4442743 0
3.2510002 -0.15913846 1.4428169 0
3.2470002 -0.16411516 1.4413593 0
3.2420003 -0.16903415 1.4395375 0
3.2380002 -0.17398021 1.43808 0
3.2340002 -0.17891182 1.4366225 0
3.2290003 -0.18378028 1.4348007 0
3.2250001 -0.18868123 1.4333432 0
3.2210002 -0.19356775 1.4318857 0
3.2160003 -0.19838572 1.4300638 0
3.2120001 -0.20324157 1.4286064 0
3.2080002 -0.20808299 1.4271489 0
3.2040002 -0.21290998 1.4256915 0
3.1990001 -0.21766122 1.4238696 0
3.1950002 -0.22245754 1.4224122 0
3.1910002 -0.22723944 1.4209547 0
3.1870003 -0.23200691 1.4194973 0
3.1830003 -0.23675995 1.4180398 0
3.1790001 -0.24149854 1.4165822 0
3.1740003 -0.24615057 1.4147604 0
3.1700003 -0.25085852 1.4133029 0
3.1660001 -0.25555199 1.4118453 0
3.1620002 -0.26023108 1.4103879 0
3.1580002 -0.26489574 1.4089304 0
3.1540003 -0.26954594 1.407473 0
3.1500003 -0.27418175 1.4060156 0
3.1460001 -0.27880308 1.4045581 0
3.1420002 -0.28341001 1.4031005 0
3.1380002 -0.28800252 1.4016432 0
3.1340003 -0.2925806 1.4001857 0
3.1300001 -0.2971442 1.3987281 0
3.1260002 -0.30169341 1.3972707 0
3.1220002 -0.30622819 1.3958131 0
3.3090003 -0.093225509 1.458703 0
3.3040001 -0.098382592 1.45689 0
3.3000002 -0.10354148 1.4554398 0
3.2950003 -0.1086643 1.453627 0
3.2910001 -0.11379252 1.4521767 0
3.2860003 -0.11888108 1.450364 0
3.2820003 -0.12397863 1.4489137 0
3.2770002 -0.12903289 1.4471009 0
3.2730002 -0.1340998 1.4456506 0
3.2690003 -0.13915226 1.4442004 0
3.2640002 -0.14415602 1.4423875 0
3.2600002 -0.14917783 1.4409373 0
3.2550001 -0.15414733 1.4391243 0
3.2510002 -0.15913846 1.4376742 0
3.2470002 -0.16411516 1.4362239 0
3.2420003 -0.16903415 1.4344112 0
3.2380002 -0.17398021 1.4329607 0
3.2340002 -0.17891182 1.4315106 0
3.2290003 -0.18378028 1.4296978 0
3.2250001 -0.18868123 1.4282475 0
3.2210002 -0.19356775 1.4267972 0
3.2160003 -0.19838572 1.4249845 0
3.2120001 -0.20324157 1.4235342 0
3.2080002 -0.20808299 1.4220839 0
3.2040002 -0.21290998 1.4206336 0
3.1990001 -0.21766122 1.4188207 0
3.1950002 -0.22245754 1.4173706 0
3.1910002 -0.22723944 1.4159203 0
3.1870003 -0.23200691 1.41447 0
3.1830003 -0.23675995 1.4130198 0
3.1790001 -0.24149854 1.4115694 0
3.1740003 -0.24615057 1.4097567 0
3.1700003 -0.25085852 1.4083064 0
3.1660001 -0.25555199 1.4068561 0
3.1620002 -0.26023108 1.4054058 0
3.1580002 -0.26489574 1.4039556 0
3.1540003 -0.26954594 1.4025053 0
3.1500003 -0.27418175 1.4010551 0
3.1460001 -0.27880308 1.3996047 0
3.1420002 -0.28341001 1.3981545 0
3.1380002 -0.28800252 1.3967042 0
3.1340003 -0.2925806 1.395254 0
3.1300001 -0.2971442 1.3938036 0
3.1260002 -0.30169341 1.3923534 0
3.1220002 -0.30622819 1.3909031 0
3.3090003 -0.093225509 1.4534557 0
3.3040001 -0.098382592 1.4516518 0
3.3000002 -0.10354148 1.4502088 0
3.2950003 -0.1086643 1.448405 0
3.2910001 -0.11379252 1.4469619 0
3.2860003 -0.11888108 1.4451581 0
3.2820003 -0.12397863 1.4437151 0
3.2770002 -0.12903289 1.4419113 0
3.2730002 -0.1340998 1.4404683 0
3.2690003 -0.13915226 1.4390253 0
3.2640002 -0.14415602 1.4372213 0
3.2600002 -0.14917783 1.4357783 0
3.2550001 -0.15414733 1.4339745 0
3.2510002 -0.15913846 1.4325315 0
3.2470002 -0.16411516 1.4310884 0
3.2420003 -0.16903415 1.4292847 0
3.2380002 -0.17398021 1.4278417 0
3.2340002 -0.17891182 1.4263986 0
3.2290003 -0.18378028 1.4245948 0
3.2250001 -0.18868123 1.4231516 0
3.2210002 -0.19356775 1.4217086 0
3.2160003 -0.19838572 1.4199049 0
3.2120001 -0.20324157 1.4184618 0
3.2080002 -0.20808299 1.4170188 0
3.2040002 -0.21290998 1.4155757 0
3.1990001 -0.21766122 1.4137719 0
3.1950002 -0.22245754 1.4123288 0
3.1910002 -0.22723944 1.4108858 0
3.1870003 -0.23200691 1.4094428 0
3.1830003 -0.23675995 1.4079998 0
3.1790001 -0.24149854 1.4065566 0
3.1740003 -0.24615057 1.4047529 0
3.1700003 -0.25085852 1.4033098 0
3.1660001 -0.25555199 1.4018667 0
3.1620002 -0.26023108 1.4004236 0
3.1580002 -0.26489574 1.3989806 0
3.1540003 -0.26954594 1.3975376 0
3.1500003 -0.27418175 1.3960946 0
3.1460001 -0.27880308 1.3946514 0
3.1420002 -0.28341001 1.3932085 0
3.1380002 -0.28800252 1.3917655 0
3.1340003 -0.2925806 1.3903224 0
3.1300001 -0.2971442 1.3888793 0
3.1260002 -0.30169341 1.3874363 0
3.1220002 -0.30622819 1.3859932 0
3.3090003 -0.093225509 1.4482085 0
3.3040001 -0.098382592 1.4464135 0
3.3000002 -0.10354148 1.4449778 0
3.2950003 -0.1086643 1.4431831 0
3.2910001 -0.11379252 1.4417472 0
3.2860003 -0.11888108 1.4399524 0
3.2820003 -0.12397863 1.4385166 0
3.2770002 -0.12903289 1.4367217 0
3.2730002 -0.1340998 1.4352859 0
3.2690003 -0.13915226 1.43385 0
3.2640002 -0.14415602 1.4320554 0
3.2600002 -0.14917783 1.4306195 0
3.2550001 -0.15414733 1.4288247 0
3.2510002 -0.15913846 1.4273888 0
3.2470002 -0.16411516 1.425953 0
3.2420003 -0.16903415 1.4241582 0
3.2380002 -0.17398021 1.4227223 0
3.2340002 -0.17891182 1.4212865 0
3.2290003 -0.18378028 1.4194919 0
3.2250001 -0.18868123 1.4180559 0
3.2210002 -0.19356775 1.4166201 0
3.2160003 -0.19838572 1.4148253 0
3.2120001 -0.20324157 1.4133894 0
3.2080002 -0.20808299 1.4119536 0
3.2040002 -0.21290998 1.4105178 0
3.1990001 -0.21766122 1.408723 0
3.1950002 -0.22245754 1.4072872 0
3.1910002 -0.22723944 1.4058514 0
3.1870003 -0.23200691 1.4044156 0
3.1830003 -0.23675995 1.4029796 0
3.1790001 -0.24149854 1.4015437 0
3.1740003 -0.24615057 1.3997492 0
3.1700003 -0.25085852 1.3983133 0
3.1660001 -0.25555199 1.3968774 0
3.1620002 -0.26023108 1.3954415 0
3.1580002 -0.26489574 1.3940058 0
3.1540003 -0.26954594 1.3925699 0
3.1500003 -0.27418175 1.3911341 0
3.1460001 -0.27880308 1.3896983 0
3.1420002 -0.28341001 1.3882624 0
3.1380002 -0.28800252 1.3868266 0
3.1340003 -0.2925806 1.3853908 0
3.1300001 -0.2971442 1.3839549 0
3.1260002 -0.30169341 1.382519 0
3.1220002 -0.30622819 1.3810833 0
3.1180003 -0.31074855 1.3796474 0
3.3090003 -0.093225509 1.4429612 0
3.3040001 -0.098382592 1.4411753 0
3.3000002 -0.10354148 1.4397467 0
3.2950003 -0.1086643 1.437961 0
3.2910001 -0.11379252 1.4365324 0
3.2860003 -0.11888108 1.4347466 0
3.2820003 -0.12397863 1.433318 0
3.2770002 -0.12903289 1.4315321 0
3.2730002 -0.1340998 1.4301035 0
3.2690003 -0.13915226 1.4286749 0
3.2640002 -0.14415602 1.4268892 0
3.2600002 -0.14917783 1.4254606 0
3.2550001 -0.15414733 1.4236747 0
3.2510002 -0.15913846 1.4222461 0
3.2470002 -0.16411516 1.4208176 0
3.2420003 -0.16903415 1.4190319 0
3.2380002 -0.17398021 1.4176031 0
3.2340002 -0.17891182 1.4161745 0
3.2290003 -0.18378028 1.4143888 0
3.2250001 -0.18868123 1.4129602 0
3.2210002 -0.19356775 1.4115316 0
3.2160003 -0.19838572 1.4097458 0
3.2120001 -0.20324157 1.4083171 0
3.2080002 -0.20808299 1.4068885 0
3.2040002 -0.21290998 1.4054599 0
3.1990001 -0.21766122 1.4036741 0
3.1950002 -0.22245754 1.4022455 0
3.1910002 -0.22723944 1.4008169 0
3.1870003 -0.23200691 1.3993883 0
3.1830003 -0.23675995 1.3979597 0
3.1790001 -0.24149854 1.396531 0
3.1740003 -0.24615057 1.3947452 0
3.1700003 -0.25085852 1.3933166 0
3.1660001 -0.25555199 1.391888 0
3.1620002 -0.26023108 1.3904594 0
3.1580002 -0.26489574 1.3890308 0
3.1540003 -0.26954594 1.3876022 0
3.1500003 -0.27418175 1.3861736 0
3.1460001 -0.27880308 1.384745 0
3.1420002 -0.28341001 1.3833164 0
3.1380002 -0.28800252 1.3818878 0
3.1340003 -0.2925806 1.3804592 0
3.1300001 -0.2971442 1.3790305 0
3.1260002 -0.30169341 1.3776019 0
3.1220002 -0.30622819 1.3761734 0
3.1180003 -0.31074855 1.3747448 0
3.3090003 -0.093225509 1.4377139 0
3.3040001 -0.098382592 1.435937 0
3.3000002 -0.10354148 1.4345157 0
3.2950003 -0.1086643 1.432739 0
3.2910001 -0.11379252 1.4313174 0
3.2860003 -0.11888108 1.4295409 0
3.2820003 -0.12397863 1.4281194 0
3.2770002 -0.12903289 1.4263426 0
3.2730002 -0.1340998 1.4249213 0
3.2690003 -0.13915226 1.4234998 0
3.2640002 -0.14415602 1.421723 0
3.2600002 -0.14917783 1.4203017 0
3.2550001 -0.15414733 1.4185249 0
3.2510002 -0.15913846 1.4171035 0
3.2470002 -0.16411516 1.4156821 0
3.2420003 -0.16903415 1.4139054 0
3.2380002 -0.17398021 1.4124839 0
3.2340002 -0.17891182 1.4110626 0
3.2290003 -0.18378028 1.4092859 0
3.2250001 -0.18868123 1.4078645 0
3.2210002 -0.19356775 1.406443 0
3.2160003 -0.19838572 1.4046663 0
3.2120001 -0.20324157 1.4032447 0
3.2080002 -0.20808299 1.4018234 0
3.2040002 -0.21290998 1.4004019 0
3.1990001 -0.21766122 1.3986253 0
3.1950002 -0.22245754 1.3972038 0
3.1910002 -0.22723944 1.3957825 0
3.1870003 -0.23200691 1.3943611 0
3.1830003 -0.23675995 1.3929397 0
3.1790001 -0.24149854 1.3915182 0
3.1740003 -0.24615057 1.3897415 0
3.1700003 -0.25085852 1.3883202 0
3.1660001 -0.25555199 1.3868986 0
3.1620002 -0.26023108 1.3854773 0
3.1580002 -0.26489574 1.384056 0
3.1540003 -0.26954594 1.3826345 0
3.1500003 -0.27418175 1.3812132 0
3.1460001 -0.27880308 1.3797917 0
3.1420002 -0.28341001 1.3783703 0
3.1380002 -0.28800252 1.376949 0
3.1340003 -0.2925806 1.3755275 0
3.1300001 -0.2971442 1.374106 0
3.1260002 -0.30169341 1.3726847 0
3.1220002 -0.30622819 1.3712633 0
3.1180003 -0.31074855 1.3698419 0
3.3090003 -0.093225509 1.4324665 0
3.3040001 -0.098382592 1.4306989 0
3.3000002 -0.10354148 1.4292847 0
3.2950003 -0.1086643 1.4275169 0
3.2910001 -0.11379252 1.4261026 0
3.2860003 -0.11888108 1.424335 0
3.2820003 -0.12397863 1.4229209 0
3.2770002 -0.12903289 1.4211531 0
3.2730002 -0.1340998 1.4197389 0
3.2690003 -0.13915226 1.4183247 0
3.2640002 -0.14415602 1.416557 0
3.2600002 -0.14917783 1.4151428 0
3.2550001 -0.15414733 1.413375 0
3.2510002 -0.15913846 1.4119608 0
3.2470002 -0.16411516 1.4105467 0
3.2420003 -0.16903415 1.408779 0
3.2380002 -0.17398021 1.4073647 0
3.2340002 -0.17891182 1.4059507 0
3.2290003 -0.18378028 1.4041829 0
3.2250001 -0.18868123 1.4027686 0
3.2210002 -0.19356775 1.4013544 0
3.2160003 -0.19838572 1.3995867 0
3.2120001 -0.20324157 1.3981725 0
3.2080002 -0.20808299 1.3967583 0
3.2040002 -0.21290998 1.3953441 0
3.1990001 -0.21766122 1.3935764 0
3.1950002 -0.22245754 1.3921622 0
3.1910002 -0.22723944 1.390748 0
3.1870003 -0.23200691 1.3893338 0
3.1830003 -0.23675995 1.3879197 0
3.1790001 -0.24149854 1.3865055 0
3.1740003 -0.24615057 1.3847378 0
3.1700003 -0.25085852 1.3833237 0
3.1660001 -0.25555199 1.3819094 0
3.1620002 -0.26023108 1.3804952 0
3.1580002 -0.26489574 1.3790811 0
3.1540003 -0.26954594 1.377667 0
3.1500003 -0.27418175 1.3762528 0
3.1460001 -0.27880308 1.3748385 0
3.1420002 -0.28341001 1.3734243 0
3.1380002 -0.28800252 1.3720101 0
3.1340003 -0.2925806 1.3705959 0
3.1300001 -0.2971442 1.3691818 0
3.1260002 -0.30169341 1.3677676 0
3.1220002 -0.30622819 1.3663534 0
3.1180003 -0.31074855 1.3649392 0
3.3090003 -0.093225509 1.4272193 0
3.3040001 -0.098382592 1.4254606 0
3.3000002 -0.10354148 1.4240535 0
3.2950003 -0.1086643 1.4222949 0
3.2910001 -0.11379252 1.4208878 0
3.2860003 -0.11888108 1.4191291 0
3.2820003 -0.12397863 1.4177222 0
3.2770002 -0.12903289 1.4159635 0
3.2730002 -0.1340998 1.4145566 0
3.2690003 -0.13915226 1.4131496 0
3.2640002 -0.14415602 1.4113909 0
3.2600002 -0.14917783 1.4099839 0
3.2550001 -0.15414733 1.4082251 0
3.2510002 -0.15913846 1.4068182 0
3.2470002 -0.16411516 1.4054112 0
3.2420003 -0.16903415 1.4036525 0
3.2380002 -0.17398021 1.4022455 0
3.2340002 -0.17891182 1.4008385 0
3.2290003 -0.18378028 1.3990798 0
3.2250001 -0.18868123 1.3976728 0
3.2210002 -0.19356775 1.3962659 0
3.2160003 -0.19838572 1.3945073 0
3.2120001 -0.20324157 1.3931003 0
3.2080002 -0.20808299 1.3916932 0
3.2040002 -0.21290998 1.3902863 0
3.1990001 -0.21766122 1.3885275 0
3.1950002 -0.22245754 1.3871206 0
3.1910002 -0.22723944 1.3857136 0
3.1870003 -0.23200691 1.3843067 0
3.1830003 -0.23675995 1.3828998 0
3.1790001 -0.24149854 1.3814927 0
3.1740003 -0.24615057 1.379734 0
3.1700003 -0.25085852 1.378327 0
3.1660001 -0.25555199 1.37692 0
3.1620002 -0.26023108 1.3755131 0
3.1580002 -0.26489574 1.374106 0
3.1540003 -0.26954594 1.3726991 0
3.1500003 -0.27418175 1.3712922 0
3.1460001 -0.27880308 1.3698852 0
3.1420002 -0.28341001 1.3684782 0
3.1380002 -0.28800252 1.3670713 0
3.1340003 -0.2925806 1.3656644 0
3.1300001 -0.2971442 1.3642572 0
3.1260002 -0.30169341 1.3628503 0
3.1220002 -0.30622819 1.3614434 0
3.1180003 -0.31074855 1.3600364 0
3.3090003 -0.093225509 1.4219719 0
3.3040001 -0.098382592 1.4202223 0
3.3000002 -0.10354148 1.4188225 0
3.2950003 -0.1086643 1.4170729 0
3.2910001 -0.11379252 1.415673 0
3.2860003 -0.11888108 1.4139234 0
3.2820003 -0.12397863 1.4125236 0
3.2770002 -0.12903289 1.4107739 0
3.2730002 -0.1340998 1.4093741 0
3.2690003 -0.13915226 1.4079745 0
3.2640002 -0.14415602 1.4062247 0
3.2600002 -0.14917783 1.404825 0
3.2550001 -0.15414733 1.4030752 0
3.2510002 -0.15913846 1.4016755 0
3.2470002 -0.16411516 1.4002757 0
3.2420003 -0.16903415 1.3985261 0
3.2380002 -0.17398021 1.3971263 0
3.2340002 -0.17891182 1.3957266 0
3.2290003 -0.18378028 1.3939769 0
3.2250001 -0.18868123 1.3925771 0
3.2210002 -0.19356775 1.3911774 0
3.2160003 -0.19838572 1.3894277 0
3.2120001 -0.20324157 1.3880279 0
3.2080002 -0.20808299 1.3866282 0
3.2040002 -0.21290998 1.3852284 0
3.1990001 -0.21766122 1.3834786 0
3.1950002 -0.22245754 1.382079 0
3.1910002 -0.22723944 1.3806792 0
3.1870003 -0.23200691 1.3792795 0
3.1830003 -0.23675995 1.3778797 0
3.1790001 -0.24149854 1.37648 0
3.1740003 -0.24615057 1.3747302 0
3.1700003 -0.25085852 1.3733306 0
3.1660001 -0.25555199 1.3719307 0
3.1620002 -0.26023108 1.370531 0
3.1580002 -0.26489574 1.3691312 0
3.1540003 -0.26954594 1.3677316 0
3.1500003 -0.27418175 1.3663318 0
3.1460001 -0.27880308 1.3649319 0
3.1420002 -0.28341001 1.3635322 0
3.1380002 -0.28800252 1.3621325 0
3.1340003 -0.2925806 1.3607328 0
3.1300001 -0.2971442 1.3593329 0
3.1260002 -0.30169341 1.3579332 0
3.1220002 -0.30622819 1.3565334 0
3.1180003 -0.31074855 1.3551338 0
3.3090003 -0.093225509 1.4167247 0
3.3040001 -0.098382592 1.414984 0
3.3000002 -0.10354148 1.4135915 0
3.2950003 -0.1086643 1.4118509 0
3.2910001 -0.11379252 1.4104583 0
3.2860003 -0.11888108 1.4087176 0
3.2820003 -0.12397863 1.407325 0
3.2770002 -0.12903289 1.4055845 0
3.2730002 -0.1340998 1.4041919 0
3.2690003 -0.13915226 1.4027994 0
3.2640002 -0.14415602 1.4010586 0
3.2600002 -0.14917783 1.3996661 0
3.2550001 -0.15414733 1.3979254 0
3.2510002 -0.15913846 1.3965329 0
3.2470002 -0.16411516 1.3951403 0
3.2420003 -0.16903415 1.3933997 0
3.2380002 -0.17398021 1.3920071 0
3.2340002 -0.17891182 1.3906146 0
3.2290003 -0.18378028 1.3888739 0
3.2250001 -0.18868123 1.3874813 0
3.2210002 -0.19356775 1.3860887 0
3.2160003 -0.19838572 1.3843482 0
3.2120001 -0.20324157 1.3829556 0
3.2080002 -0.20808299 1.3815631 0
3.2040002 -0.21290998 1.3801705 0
3.1990001 -0.21766122 1.3784299 0
3.1950002 -0.22245754 1.3770373 0
3.1910002 -0.22723944 1.3756448 0
3.1870003 -0.23200691 1.3742523 0
3.1830003 -0.23675995 1.3728597 0
3.1790001 -0.24149854 1.3714671 0
3.1740003 -0.24615057 1.3697264 0
3.1700003 -0.25085852 1.3683339 0
3.1660001 -0.25555199 1.3669413 0
3.1620002 -0.26023108 1.3655488 0
3.1580002 -0.26489574 1.3641562 0
3.1540003 -0.26954594 1.3627638 0
3.1500003 -0.27418175 1.3613713 0
3.1460001 -0.27880308 1.3599787 0
3.1420002 -0.28341001 1.3585861 0
3.1380002 -0.28800252 1.3571936 0
3.1340003 -0.2925806 1.3558011 0
3.1300001 -0.2971442 1.3544085 0
3.1260002 -0.30169341 1.353016 0
3.1220002 -0.30622819 1.3516234 0
3.1180003 -0.31074855 1.3502309 0
3.3090003 -0.093225509 1.4114774 0
3.3040001 -0.098382592 1.4097457 0
3.3000002 -0.10354148 1.4083605 0
3.2950003 -0.1086643 1.4066288 0
3.2910001 -0.11379252 1.4052435 0
3.2860003 -0.11888108 1.4035119 0
3.2820003 -0.12397863 1.4021266 0
3.2770002 -0.12903289 1.4003948 0
3.2730002 -0.1340998 1.3990095 0
3.2690003 -0.13915226 1.3976241 0
3.2640002 -0.14415602 1.3958925 0
3.2600002 -0.14917783 1.3945072 0
3.2550001 -0.15414733 1.3927755 0
3.2510002 -0.15913846 1.3913902 0
3.2470002 -0.16411516 1.3900049 0
3.2420003 -0.16903415 1.3882732 0
3.2380002 -0.17398021 1.3868879 0
3.2340002 -0.17891182 1.3855026 0
3.2290003 -0.18378028 1.3837709 0
3.2250001 -0.18868123 1.3823856 0
3.2210002 -0.19356775 1.3810003 0
3.2160003 -0.19838572 1.3792686 0
3.2120001 -0.20324157 1.3778832 0
3.2080002 -0.20808299 1.3764979 0
3.2040002 -0.21290998 1.3751127 0
3.1990001 -0.21766122 1.373381 0
3.1950002 -0.22245754 1.3719957 0
3.1910002 -0.22723944 1.3706104 0
3.1870003 -0.23200691 1.369225 0
3.1830003 -0.23675995 1.3678397 0
3.1790001 -0.24149854 1.3664544 0
3.1740003 -0.24615057 1.3647227 0
3.1700003 -0.25085852 1.3633374 0
3.1660001 -0.25555199 1.3619521 0
3.1620002 -0.26023108 1.3605667 0
3.1580002 -0.26489574 1.3591814 0
3.1540003 -0.26954594 1.3577962 0
3.1500003 -0.27418175 1.3564109 0
3.1460001 -0.27880308 1.3550254 0
3.1420002 -0.28341001 1.3536401 0
3.1380002 -0.28800252 1.3522549 0
3.1340003 -0.2925806 1.3508695 0
3.1300001 -0.2971442 1.3494842 0
3.1260002 -0.30169341 1.3480989 0
3.1220002 -0.30622819 1.3467135 0
3.1180003 -0.31074855 1.3453281 0
3.3090003 -0.093225509 1.4062302 0
3.3040001 -0.098382592 1.4045075 0
3.3000002 -0.10354148 1.4031293 0
3.2950003 -0.1086643 1.4014069 0
3.2910001 -0.11379252 1.4000287 0
3.2860003 -0.11888108 1.398306 0
3.2820003 -0.12397863 1.396928 0
3.2770002 -0.12903289 1.3952053 0
3.2730002 -0.1340998 1.3938272 0
3.2690003 -0.13915226 1.3924491 0
3.2640002 -0.14415602 1.3907263 0
3.2600002 -0.14917783 1.3893483 0
3.2550001 -0.15414733 1.3876256 0
3.2510002 -0.15913846 1.3862475 0
3.2470002 -0.16411516 1.3848695 0
3.2420003 -0.16903415 1.3831468 0
3.2380002 -0.17398021 1.3817686 0
3.2340002 -0.17891182 1.3803905 0
3.2290003 -0.18378028 1.378668 0
3.2250001 -0.18868123 1.3772898 0
3.2210002 -0.19356775 1.3759117 0
3.2160003 -0.19838572 1.3741891 0
3.2120001 -0.20324157 1.372811 0
3.2080002 -0.20808299 1.3714328 0
3.2040002 -0.21290998 1.3700547 0
3.1990001 -0.21766122 1.3683321 0
3.1950002 -0.22245754 1.3669541 0
3.1910002 -0.22723944 1.3655759 0
3.1870003 -0.23200691 1.3641977 0
3.1830003 -0.23675995 1.3628197 0
3.1790001 -0.24149854 1.3614415 0
3.1740003 -0.24615057 1.359719 0
3.1700003 -0.25085852 1.3583409 0
3.1660001 -0.25555199 1.3569627 0
3.1620002 -0.26023108 1.3555845 0
3.1580002 -0.26489574 1.3542064 0
3.1540003 -0.26954594 1.3528284 0
3.1500003 -0.27418175 1.3514503 0
3.1460001 -0.27880308 1.3500721 0
3.1420002 -0.28341001 1.3486941 0
3.1380002 -0.28800252 1.3473159 0
3.1340003 -0.2925806 1.3459378 0
3.1300001 -0.2971442 1.3445597 0
3.1260002 -0.30169341 1.3431816 0
3.1220002 -0.30622819 1.3418036 0
3.1180003 -0.31074855 1.3404255 0
3.1140003 -0.31525448 1.3390473 0
3.3090003 -0.093225509 1.4009829 0
3.3040001 -0.098382592 1.3992692 0
3.3000002 -0.10354148 1.3978983 0
3.2950003 -0.1086643 1.3961848 0
3.2910001 -0.11379252 1.3948138 0
3.2860003 -0.11888108 1.3931003 0
3.2820003 -0.12397863 1.3917294 0
3.2770002 -0.12903289 1.3900157 0
3.2730002 -0.1340998 1.3886448 0
3.2690003 -0.13915226 1.3872739 0
3.2640002 -0.14415602 1.3855603 0
3.2600002 -0.14917783 1.3841894 0
3.2550001 -0.15414733 1.3824757 0
3.2510002 -0.15913846 1.3811048 0
3.2470002 -0.16411516 1.379734 0
3.2420003 -0.16903415 1.3780204 0
3.2380002 -0.17398021 1.3766495 0
3.2340002 -0.17891182 1.3752786 0
3.2290003 -0.18378028 1.3735651 0
3.2250001 -0.18868123 1.3721941 0
3.2210002 -0.19356775 1.3708231 0
3.2160003 -0.19838572 1.3691096 0
3.2120001 -0.20324157 1.3677387 0
3.2080002 -0.20808299 1.3663678 0
3.2040002 -0.21290998 1.3649969 0
3.1990001 -0.21766122 1.3632833 0
3.1950002 -0.22245754 1.3619123 0
3.1910002 -0.22723944 1.3605415 0
3.1870003 -0.23200691 1.3591706 0
3.1830003 -0.23675995 1.3577996 0
3.1790001 -0.24149854 1.3564287 0
3.1740003 -0.24615057 1.3547152 0
3.1700003 -0.25085852 1.3533443 0
3.1660001 -0.25555199 1.3519733 0
3.1620002 -0.26023108 1.3506025 0
3.1580002 -0.26489574 1.3492316 0
3.1540003 -0.26954594 1.3478607 0
3.1500003 -0.27418175 1.3464899 0
3.1460001 -0.27880308 1.3451189 0
3.1420002 -0.28341001 1.3437481 0
3.1380002 -0.28800252 1.3423772 0
3.1340003 -0.2925806 1.3410063 0
3.1300001 -0.2971442 1.3396354 0
3.1260002 -0.30169341 1.3382645 0
3.1220002 -0.30622819 1.3368936 0
3.1180003 -0.31074855 1.3355227 0
3.1140003 -0.31525448 1.3341517 0
3.3090003 -0.093225509 1.3957356 0
3.3040001 -0.098382592 1.3940309 0
3.3000002 -0.10354148 1.3926673 0
3.2950003 -0.1086643 1.3909627 0
3.2910001 -0.11379252 1.389599 0
3.2860003 -0.11888108 1.3878945 0
3.2820003 -0.12397863 1.3865308 0
3.2770002 -0.12903289 1.3848261 0
3.2730002 -0.1340998 1.3834624 0
3.2690003 -0.13915226 1.3820988 0
3.2640002 -0.14415602 1.3803942 0
3.2600002 -0.14917783 1.3790306 0
3.2550001 -0.15414733 1.3773259 0
3.2510002 -0.15913846 1.3759621 0
3.2470002 -0.16411516 1.3745985 0
3.2420003 -0.16903415 1.372894 0
3.2380002 -0.17398021 1.3715303 0
3.2340002 -0.17891182 1.3701667 0
3.2290003 -0.18378028 1.368462 0
3.2250001 -0.18868123 1.3670982 0
3.2210002 -0.19356775 1.3657346 0
3.2160003 -0.19838572 1.3640301 0
3.2120001 -0.20324157 1.3626664 0
3.2080002 -0.20808299 1.3613027 0
3.2040002 -0.21290998 1.3599391 0
3.1990001 -0.21766122 1.3582343 0
3.1950002 -0.22245754 1.3568707 0
3.1910002 -0.22723944 1.355507 0
3.1870003 -0.23200691 1.3541434 0
3.1830003 -0.23675995 1.3527797 0
3.1790001 -0.24149854 1.351416 0
3.1740003 -0.24615057 1.3497114 0
3.1700003 -0.25085852 1.3483478 0
3.1660001 -0.25555199 1.346984 0
3.1620002 -0.26023108 1.3456204 0
3.1580002 -0.26489574 1.3442568 0
3.1540003 -0.26954594 1.342893 0
3.1500003 -0.27418175 1.3415294 0
3.1460001 -0.27880308 1.3401656 0
3.1420002 -0.28341001 1.338802 0
3.1380002 -0.28800252 1.3374383 0
3.1340003 -0.2925806 1.3360746 0
3.1300001 -0.2971442 1.334711 0
3.1260002 -0.30169341 1.3333472 0
3.1220002 -0.30622819 1.3319836 0
3.1180003 -0.31074855 1.3306199 0
3.1140003 -0.31525448 1.3292563 0
3.3090003 -0.093225509 1.3904883 0
3.3040001 -0.098382592 1.3887928 0
3.3000002 -0.10354148 1.3874363 0
3.2950003 -0.1086643 1.3857408 0
3.2910001 -0.11379252 1.3843842 0
3.2860003 -0.11888108 1.3826886 0
3.2820003 -0.12397863 1.3813322 0
3.2770002 -0.12903289 1.3796366 0
3.2730002 -0.1340998 1.3782802 0
3.2690003 -0.13915226 1.3769237 0
3.2640002 -0.14415602 1.375228 0
3.2600002 -0.14917783 1.3738717 0
3.2550001 -0.15414733 1.3721759 0
3.2510002 -0.15913846 1.3708196 0
3.2470002 -0.16411516 1.3694631 0
3.2420003 -0.16903415 1.3677676 0
3.2380002 -0.17398021 1.3664111 0
3.2340002 -0.17891182 1.3650546 0
3.2290003 -0.18378028 1.3633591 0
3.2250001 -0.18868123 1.3620026 0
3.2210002 -0.19356775 1.3606461 0
3.2160003 -0.19838572 1.3589505 0
3.2120001 -0.20324157 1.357594 0
3.2080002 -0.20808299 1.3562375 0
3.2040002 -0.21290998 1.3548812 0
3.1990001 -0.21766122 1.3531854 0
3.1950002 -0.22245754 1.3518291 0
3.1910002 -0.22723944 1.3504726 0
3.1870003 -0.23200691 1.3491162 0
3.1830003 -0.23675995 1.3477597 0
3.1790001 -0.24149854 1.3464032 0
3.1740003 -0.24615057 1.3447076 0
3.1700003 -0.25085852 1.3433512 0
3.1660001 -0.25555199 1.3419946 0
3.1620002 -0.26023108 1.3406383 0
3.1580002 -0.26489574 1.3392818 0
3.1540003 -0.26954594 1.3379253 0
3.1500003 -0.27418175 1.336569 0
3.1460001 -0.27880308 1.3352123 0
3.1420002 -0.28341001 1.333856 0
3.1380002 -0.28800252 1.3324995 0
3.1340003 -0.2925806 1.3311431 0
3.1300001 -0.2971442 1.3297865 0
3.1260002 -0.30169341 1.3284301 0
3.1220002 -0.30622819 1.3270736 0
3.1180003 -0.31074855 1.3257172 0
3.1140003 -0.31525448 1.3243607 0
3.3090003 -0.093225509 1.385241 0
3.3040001 -0.098382592 1.3835545 0
3.3000002 -0.10354148 1.3822051 0
3.2950003 -0.1086643 1.3805187 0
3.2910001 -0.11379252 1.3791693 0
3.2860003 -0.11888108 1.3774828 0
3.2820003 -0.12397863 1.3761336 0
3.2770002 -0.12903289 1.374447 0
3.2730002 -0.1340998 1.3730978 0
3.2690003 -0.13915226 1.3717486 0
3.2640002 -0.14415602 1.3700619 0
3.2600002 -0.14917783 1.3687127 0
3.2550001 -0.15414733 1.3670261 0
3.2510002 -0.15913846 1.3656769 0
3.2470002 -0.16411516 1.3643277 0
3.2420003 -0.16903415 1.3626411 0
3.2380002 -0.17398021 1.3612918 0
3.2340002 -0.17891182 1.3599426 0
3.2290003 -0.18378028 1.3582561 0
3.2250001 -0.18868123 1.3569068 0
3.2210002 -0.19356775 1.3555576 0
3.2160003 -0.19838572 1.353871 0
3.2120001 -0.20324157 1.3525217 0
3.2080002 -0.20808299 1.3511724 0
3.2040002 -0.21290998 1.3498232 0
3.1990001 -0.21766122 1.3481367 0
3.1950002 -0.22245754 1.3467875 0
3.1910002 -0.22723944 1.3454382 0
3.1870003 -0.23200691 1.3440889 0
3.1830003 -0.23675995 1.3427397 0
3.1790001 -0.24149854 1.3413905 0
3.1740003 -0.24615057 1.3397039 0
3.1700003 -0.25085852 1.3383547 0
3.1660001 -0.25555199 1.3370054 0
3.1620002 -0.26023108 1.3356562 0
3.1580002 -0.26489574 1.334307 0
3.1540003 -0.26954594 1.3329577 0
3.1500003 -0.27418175 1.3316084 0
3.1460001 -0.27880308 1.3302591 0
3.1420002 -0.28341001 1.3289099 0
3.1380002 -0.28800252 1.3275607 0
3.1340003 -0.2925806 1.3262115 0
3.1300001 -0.2971442 1.3248621 0
3.1260002 -0.30169341 1.3235129 0
3.1220002 -0.30622819 1.3221637 0
3.1180003 -0.31074855 1.3208144 0
3.1140003 -0.31525448 1.3194652 0
3.3090003 -0.093225509 1.3799938 0
3.3040001 -0.098382592 1.3783162 0
3.3000002 -0.10354148 1.3769742 0
3.2950003 -0.1086643 1.3752966 0
3.2910001 -0.11379252 1.3739545 0
3.2860003 -0.11888108 1.372277 0
3.2820003 -0.12397863 1.3709351 0
3.2770002 -0.12903289 1.3692575 0
3.2730002 -0.1340998 1.3679155 0
3.2690003 -0.13915226 1.3665735 0
3.2640002 -0.14415602 1.3648959 0
3.2600002 -0.14917783 1.3635539 0
3.2550001 -0.15414733 1.3618762 0
3.2510002 -0.15913846 1.3605342 0
3.2470002 -0.16411516 1.3591921 0
3.2420003 -0.16903415 1.3575147 0
3.2380002 -0.17398021 1.3561726 0
3.2340002 -0.17891182 1.3548306 0
3.2290003 -0.18378028 1.3531531 0
3.2250001 -0.18868123 1.3518111 0
3.2210002 -0.19356775 1.350469 0
3.2160003 -0.19838572 1.3487916 0
3.2120001 -0.20324157 1.3474494 0
3.2080002 -0.20808299 1.3461074 0
3.2040002 -0.21290998 1.3447653 0
3.1990001 -0.21766122 1.3430878 0
3.1950002 -0.22245754 1.3417457 0
3.1910002 -0.22723944 1.3404038 0
3.1870003 -0.23200691 1.3390617 0
3.1830003 -0.23675995 1.3377198 0
3.1790001 -0.24149854 1.3363776 0
3.1740003 -0.24615057 1.3347002 0
3.1700003 -0.25085852 1.333358 0
3.1660001 -0.25555199 1.332016 0
3.1620002 -0.26023108 1.3306739 0
3.1580002 -0.26489574 1.329332 0
3.1540003 -0.26954594 1.3279899 0
3.1500003 -0.27418175 1.3266479 0
3.1460001 -0.27880308 1.3253058 0
3.1420002 -0.28341001 1.3239639 0
3.1380002 -0.28800252 1.3226218 0
3.1340003 -0.2925806 1.3212799 0
3.1300001 -0.2971442 1.3199377 0
3.1260002 -0.30169341 1.3185956 0
3.1220002 -0.30622819 1.3172537 0
3.1180003 -0.31074855 1.3159117 0
3.3090003 -0.093225509 1.3747464 0
3.3040001 -0.098382592 1.3730779 0
3.3000002 -0.10354148 1.3717431 0
3.2950003 -0.1086643 1.3700746 0
3.2910001 -0.11379252 1.3687398 0
3.2860003 -0.11888108 1.3670713 0
3.2820003 -0.12397863 1.3657365 0
3.2770002 -0.12903289 1.3640679 0
3.2730002 -0.1340998 1.3627331 0
3.2690003 -0.13915226 1.3613982 0
3.2640002 -0.14415602 1.3597298 0
3.2600002 -0.14917783 1.358395 0
3.2550001 -0.15414733 1.3567264 0
3.2510002 -0.15913846 1.3553915 0
3.2470002 -0.16411516 1.3540567 0
3.2420003 -0.16903415 1.3523883 0
3.2380002 -0.17398021 1.3510535 0
3.2340002 -0.17891182 1.3497187 0
3.2290003 -0.18378028 1.3480501 0
3.2250001 -0.18868123 1.3467152 0
3.2210002 -0.19356775 1.3453804 0
3.2160003 -0.19838572 1.343712 0
3.2120001 -0.20324157 1.3423772 0
3.2080002 -0.20808299 1.3410424 0
3.2040002 -0.21290998 1.3397075 0
3.1990001 -0.21766122 1.3380389 0
3.1950002 -0.22245754 1.3367041 0
