# .PCD v0.7 - Point Cloud Data file format
VERSION 0.7
FIELDS x y z intensity
SIZE 4 4 4 4
TYPE F F F F
COUNT 1 1 1 1
WIDTH 1464
HEIGHT 1
VIEWPOINT 0 0 0 1 0 0 0
POINTS 1464
DATA ascii
7.2210002 3.6082213 0.77311325 0
7.2300005 3.6007233 0.77360034 0
7.2400002 3.5937243 0.77414143 0
7.2500005 3.5866895 0.77468264 0
7.2590003 3.5790899 0.77516961 0
7.2690005 3.5719848 0.77571076 0
7.2790003 3.5648434 0.77625191 0
7.2880006 3.5571432 0.77673894 0
7.2980003 3.5499313 0.77728009 0
7.3080006 3.5426838 0.77782124 0
7.3180003 3.5353999 0.77836239 0
7.3280005 3.52808 0.77890348 0
7.3380003 3.5207241 0.77944463 0
7.3470006 3.51282 0.77993166 0
7.3570004 3.5053935 0.78047282 0
7.3670006 3.4979312 0.78101397 0
7.3770003 3.4904327 0.78155512 0
7.3870006 3.4828982 0.78209627 0
7.3970003 3.4753277 0.78263736 0
7.4070005 3.4677212 0.78317857 0
7.4170003 3.4600782 0.78371966 0
7.4280005 3.4528975 0.78431493 0
7.4380002 3.4451807 0.78485608 0
7.4480004 3.437428 0.78539717 0
7.4580007 3.4296391 0.78593838 0
7.4680004 3.4218142 0.78647947 0
7.4790006 3.4144421 0.7870748 0
7.4890003 3.406543 0.7876159 0
7.4990005 3.3986082 0.78815711 0
7.5100002 3.3911202 0.78875232 0
7.0260005 3.7547467 0.75060898 0
7.0350003 3.747941 0.7510798 0
7.0440006 3.7411027 0.75155056 0
7.0530005 3.7342319 0.75202137 0
7.0620003 3.7273288 0.75249213 0
7.0710006 3.7203932 0.75296295 0
7.0800004 3.7134252 0.7534337 0
7.0900006 3.7069852 0.75395685 0
7.0990005 3.6999507 0.75442767 0
7.1080003 3.692883 0.75489843 0
7.1170006 3.6857836 0.75536925 0
7.1270003 3.6792047 0.75589234 0
7.1360006 3.6720383 0.75636315 0
7.1450005 3.6648395 0.75683391 0
7.1550002 3.6581562 0.757357 0
7.1640005 3.6508906 0.75782782 0
7.1730003 3.6435921 0.75829864 0
7.1830006 3.6368046 0.75882173 0
7.1920004 3.6294396 0.75929248 0
7.2020006 3.6225815 0.75981563 0
7.2110004 3.61515 0.76028645 0
7.2210002 3.6082213 0.76080954 0
7.2300005 3.6007233 0.7612803 0
7.2400002 3.5937243 0.76180339 0
7.2500005 3.5866895 0.76232648 0
7.2590003 3.5790899 0.76279736 0
7.2690005 3.5719848 0.76332045 0
7.2790003 3.5648434 0.76384354 0
7.2880006 3.5571432 0.76431429 0
7.2980003 3.5499313 0.76483738 0
7.3080006 3.5426838 0.76536053 0
7.3180003 3.5353999 0.76588362 0
7.3280005 3.52808 0.76640677 0
7.3380003 3.5207241 0.76692986 0
7.3470006 3.51282 0.76740062 0
7.3570004 3.5053935 0.76792371 0
7.3670006 3.4979312 0.76844686 0
7.3770003 3.4904327 0.76896995 0
7.3870006 3.4828982 0.7694931 0
7.3970003 3.4753277 0.77001619 0
7.4070005 3.4677212 0.77053928 0
7.4170003 3.4600782 0.77106237 0
7.4280005 3.4528975 0.7716378 0
7.4380002 3.4451807 0.77216089 0
7.4480004 3.437428 0.77268398 0
7.4580007 3.4296391 0.77320707 0
7.4680004 3.4218142 0.77373022 0
7.4790006 3.4144421 0.77430558 0
7.4890003 3.406543 0.77482867 0
7.4990005 3.3986082 0.77535182 0
7.5100002 3.3911202 0.77592719 0
7.0260005 3.7547467 0.738657 0
7.0350003 3.747941 0.73911148 0
7.0440006 3.7411027 0.73956609 0
7.0530005 3.7342319 0.74002063 0
7.0620003 3.7273288 0.74047518 0
7.0710006 3.7203932 0.74092972 0
7.0800004 3.7134252 0.74138427 0
7.0900006 3.7069852 0.74188936 0
7.0990005 3.6999507 0.7423439 0
7.1080003 3.692883 0.74279845 0
7.1170006 3.6857836 0.74325311 0
7.1270003 3.6792047 0.74375808 0
7.1360006 3.6720383 0.74421269 0
7.1450005 3.6648395 0.74466729 0
7.1550002 3.6581562 0.74517226 0
7.1640005 3.6508906 0.74562687 0
7.1730003 3.6435921 0.74608147 0
7.1830006 3.6368046 0.7465865 0
7.1920004 3.6294396 0.74704105 0
7.2020006 3.6225815 0.74754608 0
7.2110004 3.61515 0.74800068 0
7.2210002 3.6082213 0.74850571 0
7.2300005 3.6007233 0.74896026 0
7.2400002 3.5937243 0.74946535 0
7.2500005 3.5866895 0.74997044 0
7.2590003 3.5790899 0.75042498 0
7.2690005 3.5719848 0.75093007 0
7.2790003 3.5648434 0.7514351 0
7.2880006 3.5571432 0.75188971 0
7.2980003 3.5499313 0.7523948 0
7.3080006 3.5426838 0.75289983 0
7.3180003 3.5353999 0.75340486 0
7.3280005 3.52808 0.75390995 0
7.3380003 3.5207241 0.75441504 0
7.3470006 3.51282 0.75486958 0
7.3570004 3.5053935 0.75537467 0
7.3670006 3.4979312 0.75587976 0
7.3770003 3.4904327 0.75638473 0
7.3870006 3.4828982 0.75688982 0
7.3970003 3.4753277 0.75739491 0
7.4070005 3.4677212 0.7579 0
7.4170003 3.4600782 0.75840509 0
7.4280005 3.4528975 0.7589606 0
7.4380002 3.4451807 0.75946569 0
7.4480004 3.437428 0.75997078 0
7.4580007 3.4296391 0.76047587 0
7.4680004 3.4218142 0.76098084 0
7.4790006 3.4144421 0.76153648 0
7.4890003 3.406543 0.76204151 0
7.4990005 3.3986082 0.7625466 0
7.5100002 3.3911202 0.76310217 0
7.0260005 3.7547467 0.72670496 0
7.0350003 3.747941 0.72714323 0
7.0440006 3.7411027 0.72758162 0
7.0530005 3.7342319 0.72801989 0
7.0620003 3.7273288 0.72845823 0
7.0710006 3.7203932 0.72889656 0
7.0800004 3.7134252 0.72933489 0
7.0900006 3.7069852 0.72982192 0
7.0990005 3.6999507 0.73026025 0
7.1080003 3.692883 0.73069853 0
7.1170006 3.6857836 0.73113686 0
7.1270003 3.6792047 0.73162389 0
7.1360006 3.6720383 0.73206222 0
7.1450005 3.6648395 0.73250055 0
7.1550002 3.6581562 0.73298758 0
7.1640005 3.6508906 0.73342586 0
7.1730003 3.6435921 0.73386419 0
7.1830006 3.6368046 0.73435128 0
7.1920004 3.6294396 0.73478961 0
7.2020006 3.6225815 0.73527658 0
7.2110004 3.61515 0.73571491 0
7.2210002 3.6082213 0.736202 0
7.2300005 3.6007233 0.73664027 0
7.2400002 3.5937243 0.7371273 0
7.2500005 3.5866895 0.73761439 0
7.2590003 3.5790899 0.73805267 0
7.2690005 3.5719848 0.7385397 0
7.2790003 3.5648434 0.73902673 0
7.2880006 3.5571432 0.73946506 0
7.2980003 3.5499313 0.73995209 0
7.3080006 3.5426838 0.74043912 0
7.3180003 3.5353999 0.74092615 0
7.3280005 3.52808 0.74141318 0
7.3380003 3.5207241 0.74190021 0
7.3470006 3.51282 0.74233854 0
7.3570004 3.5053935 0.74282551 0
7.3670006 3.4979312 0.7433126 0
7.3770003 3.4904327 0.74379963 0
7.3870006 3.4828982 0.74428666 0
7.3970003 3.4753277 0.74477363 0
7.4070005 3.4677212 0.74526072 0
7.4170003 3.4600782 0.74574769 0
7.4280005 3.4528975 0.74628341 0
7.4380002 3.4451807 0.7467705 0
7.4480004 3.437428 0.74725747 0
7.4580007 3.4296391 0.74774456 0
7.4680004 3.4218142 0.74823153 0
7.4790006 3.4144421 0.74876726 0
7.4890003 3.406543 0.74925435 0
7.4990005 3.3986082 0.74974138 0
7.5100002 3.3911202 0.75027704 0
7.0260005 3.7547467 0.71475291 0
7.0350003 3.747941 0.71517497 0
7.0440006 3.7411027 0.71559709 0
7.0530005 3.7342319 0.71601915 0
7.0620003 3.7273288 0.71644127 0
7.0710006 3.7203932 0.71686333 0
7.0800004 3.7134252 0.71728539 0
7.0900006 3.7069852 0.71775442 0
7.0990005 3.6999507 0.71817648 0
7.1080003 3.692883 0.7185986 0
7.1170006 3.6857836 0.71902072 0
7.1270003 3.6792047 0.71948969 0
7.1360006 3.6720383 0.71991181 0
7.1450005 3.6648395 0.72033387 0
7.1550002 3.6581562 0.72080284 0
7.1640005 3.6508906 0.72122496 0
7.1730003 3.6435921 0.72164702 0
7.1830006 3.6368046 0.72211605 0
7.1920004 3.6294396 0.72253811 0
7.2020006 3.6225815 0.72300714 0
7.2110004 3.61515 0.7234292 0
7.2210002 3.6082213 0.72389817 0
7.2300005 3.6007233 0.72432029 0
7.2400002 3.5937243 0.72478926 0
7.2500005 3.5866895 0.72525823 0
7.2590003 3.5790899 0.72568035 0
7.2690005 3.5719848 0.72614932 0
7.2790003 3.5648434 0.72661829 0
7.2880006 3.5571432 0.72704041 0
7.2980003 3.5499313 0.72750938 0
7.3080006 3.5426838 0.72797841 0
7.3180003 3.5353999 0.72844744 0
7.3280005 3.52808 0.72891641 0
7.3380003 3.5207241 0.72938538 0
7.3470006 3.51282 0.7298075 0
7.3570004 3.5053935 0.73027647 0
7.3670006 3.4979312 0.73074543 0
7.3770003 3.4904327 0.7312144 0
7.3870006 3.4828982 0.73168343 0
7.3970003 3.4753277 0.73215246 0
7.4070005 3.4677212 0.73262143 0
7.4170003 3.4600782 0.7330904 0
7.4280005 3.4528975 0.73360628 0
7.4380002 3.4451807 0.73407531 0
7.4480004 3.437428 0.73454428 0
7.4580007 3.4296391 0.73501325 0
7.4680004 3.4218142 0.73548222 0
7.4790006 3.4144421 0.73599815 0
7.4890003 3.406543 0.73646712 0
7.4990005 3.3986082 0.73693609 0
7.5100002 3.3911202 0.73745203 0
7.0260005 3.7547467 0.70280087 0
7.0350003 3.747941 0.70320666 0
7.0440006 3.7411027 0.70361257 0
7.0530005 3.7342319 0.70401841 0
7.0620003 3.7273288 0.70442426 0
7.0710006 3.7203932 0.70483017 0
7.0800004 3.7134252 0.70523596 0
7.0900006 3.7069852 0.70568693 0
7.0990005 3.6999507 0.70609283 0
7.1080003 3.692883 0.70649862 0
7.1170006 3.6857836 0.70690453 0
7.1270003 3.6792047 0.7073555 0
7.1360006 3.6720383 0.70776129 0
7.1450005 3.6648395 0.7081672 0
7.1550002 3.6581562 0.7086181 0
7.1640005 3.6508906 0.70902395 0
7.1730003 3.6435921 0.70942986 0
7.1830006 3.6368046 0.70988083 0
7.1920004 3.6294396 0.71028662 0
7.2020006 3.6225815 0.71073759 0
7.2110004 3.61515 0.71114349 0
7.2210002 3.6082213 0.7115944 0
7.2300005 3.6007233 0.71200025 0
7.2400002 3.5937243 0.71245122 0
7.2500005 3.5866895 0.71290219 0
7.2590003 3.5790899 0.71330804 0
7.2690005 3.5719848 0.71375895 0
7.2790003 3.5648434 0.71420991 0
7.2880006 3.5571432 0.71461582 0
7.2980003 3.5499313 0.71506679 0
7.3080006 3.5426838 0.7155177 0
7.3180003 3.5353999 0.71596867 0
7.3280005 3.52808 0.71641958 0
7.3380003 3.5207241 0.71687055 0
7.3470006 3.51282 0.71727645 0
7.3570004 3.5053935 0.71772736 0
7.3670006 3.4979312 0.71817833 0
7.3770003 3.4904327 0.71862924 0
7.3870006 3.4828982 0.71908021 0
7.3970003 3.4753277 0.71953118 0
7.4070005 3.4677212 0.71998215 0
7.4170003 3.4600782 0.72043306 0
7.4280005 3.4528975 0.72092915 0
7.4380002 3.4451807 0.72138005 0
7.4480004 3.437428 0.72183102 0
7.4580007 3.4296391 0.72228199 0
7.4680004 3.4218142 0.7227329 0
7.4790006 3.4144421 0.72322893 0
7.4890003 3.406543 0.7236799 0
7.4990005 3.3986082 0.72413087 0
7.5100002 3.3911202 0.7246269 0
7.0260005 3.7547467 0.69084883 0
7.0350003 3.747941 0.6912384 0
7.0440006 3.7411027 0.6916281 0
7.0530005 3.7342319 0.69201767 0
7.0620003 3.7273288 0.69240725 0
7.0710006 3.7203932 0.69279695 0
7.0800004 3.7134252 0.69318652 0
7.0900006 3.7069852 0.69361949 0
7.0990005 3.6999507 0.69400907 0
7.1080003 3.692883 0.6943987 0
7.1170006 3.6857836 0.69478834 0
7.1270003 3.6792047 0.69522119 0
7.1360006 3.6720383 0.69561088 0
7.1450005 3.6648395 0.69600046 0
7.1550002 3.6581562 0.69643342 0
7.1640005 3.6508906 0.696823 0
7.1730003 3.6435921 0.69721264 0
7.1830006 3.6368046 0.69764555 0
7.1920004 3.6294396 0.69803518 0
7.2020006 3.6225815 0.69846809 0
7.2110004 3.61515 0.69885772 0
7.2210002 3.6082213 0.69929063 0
7.2300005 3.6007233 0.69968027 0
7.2400002 3.5937243 0.70011318 0
7.2500005 3.5866895 0.70054609 0
7.2590003 3.5790899 0.70093572 0
7.2690005 3.5719848 0.70136863 0
7.2790003 3.5648434 0.70180154 0
7.2880006 3.5571432 0.70219117 0
7.2980003 3.5499313 0.70262408 0
7.3080006 3.5426838 0.70305699 0
7.3180003 3.5353999 0.7034899 0
7.3280005 3.52808 0.70392281 0
7.3380003 3.5207241 0.70435572 0
7.3470006 3.51282 0.70474535 0
7.3570004 3.5053935 0.70517826 0
7.3670006 3.4979312 0.70561117 0
7.3770003 3.4904327 0.70604408 0
7.3870006 3.4828982 0.70647705 0
7.3970003 3.4753277 0.70690989 0
7.4070005 3.4677212 0.70734286 0
7.4170003 3.4600782 0.70777571 0
7.4280005 3.4528975 0.70825195 0
7.4380002 3.4451807 0.70868486 0
7.4480004 3.437428 0.70911777 0
7.4580007 3.4296391 0.70955074 0
7.4680004 3.4218142 0.70998359 0
7.4790006 3.4144421 0.71045983 0
7.4890003 3.406543 0.71089268 0
7.4990005 3.3986082 0.71132565 0
7.5100002 3.3911202 0.71180183 0
7.0260005 3.7547467 0.67889678 0
7.0350003 3.747941 0.67927015 0
7.0440006 3.7411027 0.67964357 0
7.0530005 3.7342319 0.68001699 0
7.0620003 3.7273288 0.68039036 0
7.0710006 3.7203932 0.68076372 0
7.0800004 3.7134252 0.68113708 0
7.0900006 3.7069852 0.68155199 0
7.0990005 3.6999507 0.68192542 0
7.1080003 3.692883 0.68229878 0
7.1170006 3.6857836 0.68267214 0
7.1270003 3.6792047 0.68308699 0
7.1360006 3.6720383 0.68346041 0
7.1450005 3.6648395 0.68383384 0
7.1550002 3.6581562 0.68424869 0
7.1640005 3.6508906 0.68462205 0
7.1730003 3.6435921 0.68499541 0
7.1830006 3.6368046 0.68541038 0
7.1920004 3.6294396 0.68578374 0
7.2020006 3.6225815 0.68619859 0
7.2110004 3.61515 0.68657196 0
7.2210002 3.6082213 0.6869868 0
7.2300005 3.6007233 0.68736029 0
7.2400002 3.5937243 0.68777514 0
7.2500005 3.5866895 0.68818998 0
7.2590003 3.5790899 0.68856335 0
7.2690005 3.5719848 0.68897831 0
7.2790003 3.5648434 0.68939316 0
7.2880006 3.5571432 0.68976653 0
7.2980003 3.5499313 0.69018137 0
7.3080006 3.5426838 0.69059634 0
7.3180003 3.5353999 0.69101113 0
7.3280005 3.52808 0.69142604 0
7.3380003 3.5207241 0.69184089 0
7.3470006 3.51282 0.69221425 0
7.3570004 3.5053935 0.69262916 0
7.3670006 3.4979312 0.69304407 0
7.3770003 3.4904327 0.69345891 0
7.3870006 3.4828982 0.69387376 0
7.3970003 3.4753277 0.69428867 0
7.4070005 3.4677212 0.69470358 0
7.4170003 3.4600782 0.69511843 0
7.4280005 3.4528975 0.69557476 0
7.4380002 3.4451807 0.69598967 0
7.4480004 3.437428 0.69640458 0
7.4580007 3.4296391 0.69681942 0
7.4680004 3.4218142 0.69723427 0
7.4790006 3.4144421 0.69769067 0
7.4890003 3.406543 0.69810557 0
7.4990005 3.3986082 0.69852042 0
7.5100002 3.3911202 0.69897676 0
7.0260005 3.7547467 0.66694474 0
7.0350003 3.747941 0.66730189 0
7.0440006 3.7411027 0.66765904 0
7.0530005 3.7342319 0.6680162 0
7.0620003 3.7273288 0.66837335 0
7.0710006 3.7203932 0.6687305 0
7.0800004 3.7134252 0.66908765 0
7.0900006 3.7069852 0.6694845 0
7.0990005 3.6999507 0.66984165 0
7.1080003 3.692883 0.6701988 0
7.1170006 3.6857836 0.67055595 0
7.1270003 3.6792047 0.6709528 0
7.1360006 3.6720383 0.67130995 0
7.1450005 3.6648395 0.6716671 0
7.1550002 3.6581562 0.67206395 0
7.1640005 3.6508906 0.6724211 0
7.1730003 3.6435921 0.67277825 0
7.1830006 3.6368046 0.6731751 0
7.1920004 3.6294396 0.67353225 0
7.2020006 3.6225815 0.6739291 0
7.2110004 3.61515 0.67428625 0
7.2210002 3.6082213 0.67468309 0
7.2300005 3.6007233 0.67504025 0
7.2400002 3.5937243 0.67543709 0
7.2500005 3.5866895 0.67583394 0
7.2590003 3.5790899 0.67619109 0
7.2690005 3.5719848 0.67658794 0
7.2790003 3.5648434 0.67698473 0
7.2880006 3.5571432 0.67734194 0
7.2980003 3.5499313 0.67773879 0
7.3080006 3.5426838 0.67813557 0
7.3180003 3.5353999 0.67853236 0
7.3280005 3.52808 0.67892927 0
7.3380003 3.5207241 0.67932606 0
7.3470006 3.51282 0.67968327 0
7.3570004 3.5053935 0.68008006 0
7.3670006 3.4979312 0.6804769 0
7.3770003 3.4904327 0.68087375 0
7.3870006 3.4828982 0.6812706 0
7.3970003 3.4753277 0.68166745 0
7.4070005 3.4677212 0.68206429 0
7.4170003 3.4600782 0.68246114 0
7.4280005 3.4528975 0.68289763 0
7.4380002 3.4451807 0.68329442 0
7.4480004 3.437428 0.68369126 0
7.4580007 3.4296391 0.68408817 0
7.4680004 3.4218142 0.68448496 0
7.4790006 3.4144421 0.6849215 0
7.4890003 3.406543 0.68531835 0
7.4990005 3.3986082 0.6857152 0
7.5100002 3.3911202 0.68615168 0
7.0260005 3.7547467 0.6549927 0
7.0350003 3.747941 0.65533364 0
7.0440006 3.7411027 0.65567458 0
7.0530005 3.7342319 0.65601552 0
7.0620003 3.7273288 0.65635639 0
7.0710006 3.7203932 0.65669727 0
7.0800004 3.7134252 0.65703821 0
7.0900006 3.7069852 0.65741706 0
7.0990005 3.6999507 0.65775794 0
7.1080003 3.692883 0.65809888 0
7.1170006 3.6857836 0.65843976 0
7.1270003 3.6792047 0.6588186 0
7.1360006 3.6720383 0.65915954 0
7.1450005 3.6648395 0.65950042 0
7.1550002 3.6581562 0.65987921 0
7.1640005 3.6508906 0.66022015 0
7.1730003 3.6435921 0.66056108 0
7.1830006 3.6368046 0.66093987 0
7.1920004 3.6294396 0.66128075 0
7.2020006 3.6225815 0.6616596 0
7.2110004 3.61515 0.66200054 0
7.2210002 3.6082213 0.66237926 0
7.2300005 3.6007233 0.6627202 0
7.2400002 3.5937243 0.66309905 0
7.2500005 3.5866895 0.66347784 0
7.2590003 3.5790899 0.66381872 0
7.2690005 3.5719848 0.66419756 0
7.2790003 3.5648434 0.66457629 0
7.2880006 3.5571432 0.66491723 0
7.2980003 3.5499313 0.66529608 0
7.3080006 3.5426838 0.66567487 0
7.3180003 3.5353999 0.66605365 0
7.3280005 3.52808 0.6664325 0
7.3380003 3.5207241 0.66681123 0
7.3470006 3.51282 0.66715217 0
7.3570004 3.5053935 0.66753101 0
7.3670006 3.4979312 0.66790974 0
7.3770003 3.4904327 0.66828859 0
7.3870006 3.4828982 0.66866738 0
7.3970003 3.4753277 0.66904616 0
7.4070005 3.4677212 0.66942501 0
7.4170003 3.4600782 0.6698038 0
7.4280005 3.4528975 0.67022049 0
7.4380002 3.4451807 0.67059922 0
7.4480004 3.437428 0.67097807 0
7.4580007 3.4296391 0.67135692 0
7.4680004 3.4218142 0.67173564 0
7.4790006 3.4144421 0.67215234 0
7.4890003 3.406543 0.67253113 0
7.4990005 3.3986082 0.67290998 0
7.5100002 3.3911202 0.67332661 0
7.0260005 3.7547467 0.64304066 0
7.0350003 3.747941 0.64336538 0
7.0440006 3.7411027 0.64369005 0
7.0530005 3.7342319 0.64401472 0
7.0620003 3.7273288 0.64433944 0
7.0710006 3.7203932 0.64466411 0
7.0800004 3.7134252 0.64498878 0
7.0900006 3.7069852 0.64534956 0
7.0990005 3.6999507 0.64567423 0
7.1080003 3.692883 0.64599895 0
7.1170006 3.6857836 0.64632362 0
7.1270003 3.6792047 0.64668441 0
7.1360006 3.6720383 0.64700907 0
7.1450005 3.6648395 0.64733374 0
7.1550002 3.6581562 0.64769447 0
7.1640005 3.6508906 0.64801919 0
7.1730003 3.6435921 0.64834386 0
7.1830006 3.6368046 0.64870465 0
7.1920004 3.6294396 0.64902931 0
7.2020006 3.6225815 0.6493901 0
7.2110004 3.61515 0.64971477 0
7.2210002 3.6082213 0.65007555 0
7.2300005 3.6007233 0.65040022 0
7.2400002 3.5937243 0.65076101 0
7.2500005 3.5866895 0.65112174 0
7.2590003 3.5790899 0.65144646 0
7.2690005 3.5719848 0.65180719 0
7.2790003 3.5648434 0.65216792 0
7.2880006 3.5571432 0.65249264 0
7.2980003 3.5499313 0.65285337 0
7.3080006 3.5426838 0.65321416 0
7.3180003 3.5353999 0.65357494 0
7.3280005 3.52808 0.65393567 0
7.3370004 3.52021 0.6542604 0
7.3470006 3.51282 0.65462112 0
7.3570004 3.5053935 0.65498185 0
7.3670006 3.4979312 0.6553427 0
7.3770003 3.4904327 0.65570343 0
7.3870006 3.4828982 0.65606415 0
7.3970003 3.4753277 0.65642494 0
7.4070005 3.4677212 0.65678573 0
7.4170003 3.4600782 0.65714645 0
7.4280005 3.4528975 0.6575433 0
7.4380002 3.4451807 0.65790403 0
7.4480004 3.437428 0.65826482 0
7.4580007 3.4296391 0.6586256 0
7.4680004 3.4218142 0.65898633 0
7.4790006 3.4144421 0.65938318 0
7.4890003 3.406543 0.65974391 0
7.4990005 3.3986082 0.66010475 0
7.5100002 3.3911202 0.66050154 0
7.0260005 3.7547467 0.63108861 0
7.0350003 3.747941 0.63139713 0
7.0440006 3.7411027 0.63170552 0
7.0530005 3.7342319 0.63201404 0
7.0620003 3.7273288 0.63232243 0
7.0710006 3.7203932 0.63263094 0
7.0800004 3.7134252 0.63293934 0
7.0900006 3.7069852 0.63328207 0
7.0990005 3.6999507 0.63359052 0
7.1080003 3.692883 0.63389897 0
7.1170006 3.6857836 0.63420743 0
7.1270003 3.6792047 0.63455015 0
7.1360006 3.6720383 0.63485861 0
7.1450005 3.6648395 0.63516706 0
7.1550002 3.6581562 0.63550979 0
7.1640005 3.6508906 0.63581824 0
7.1730003 3.6435921 0.6361267 0
7.1830006 3.6368046 0.63646942 0
7.1920004 3.6294396 0.63677788 0
7.2020006 3.6225815 0.6371206 0
7.2110004 3.61515 0.63742906 0
7.2210002 3.6082213 0.63777173 0
7.2300005 3.6007233 0.63808024 0
7.2400002 3.5937243 0.63842297 0
7.2500005 3.5866895 0.63876569 0
7.2590003 3.5790899 0.63907409 0
7.2690005 3.5719848 0.63941681 0
7.2790003 3.5648434 0.63975954 0
7.2880006 3.5571432 0.64006799 0
7.2980003 3.5499313 0.64041072 0
7.3080006 3.5426838 0.64075345 0
7.3180003 3.5353999 0.64109617 0
7.3280005 3.52808 0.6414389 0
7.3370004 3.52021 0.64174736 0
7.3470006 3.51282 0.64209008 0
7.3570004 3.5053935 0.64243281 0
7.3670006 3.4979312 0.64277554 0
7.3770003 3.4904327 0.64311826 0
7.3870006 3.4828982 0.64346099 0
7.3970003 3.4753277 0.64380372 0
7.4070005 3.4677212 0.64414644 0
7.4170003 3.4600782 0.64448911 0
7.4280005 3.4528975 0.64486617 0
7.4380002 3.4451807 0.64520884 0
7.4480004 3.437428 0.64555156 0
7.4580007 3.4296391 0.64589429 0
7.4680004 3.4218142 0.64623702 0
7.4790006 3.4144421 0.64661402 0
7.4890003 3.406543 0.64695674 0
7.4990005 3.3986082 0.64729947 0
7.5100002 3.3911202 0.64767647 0
7.0260005 3.7547467 0.61913663 0
7.0350003 3.747941 0.61942881 0
7.0440006 3.7411027 0.61972106 0
7.0530005 3.7342319 0.62001324 0
7.0620003 3.7273288 0.62030548 0
7.0710006 3.7203932 0.62059772 0
7.0800004 3.7134252 0.6208899 0
7.0900006 3.7069852 0.62121463 0
7.0990005 3.6999507 0.62150681 0
7.1080003 3.692883 0.62179905 0
7.1170006 3.6857836 0.62209123 0
7.1270003 3.6792047 0.62241596 0
7.1360006 3.6720383 0.62270814 0
7.1450005 3.6648395 0.62300038 0
7.1550002 3.6581562 0.62332505 0
7.1640005 3.6508906 0.62361729 0
7.1730003 3.6435921 0.62390947 0
7.1830006 3.6368046 0.6242342 0
7.1920004 3.6294396 0.62452638 0
7.2020006 3.6225815 0.62485111 0
7.2110004 3.61515 0.62514329 0
7.2210002 3.6082213 0.62546796 0
7.2300005 3.6007233 0.6257602 0
7.2400002 3.5937243 0.62608486 0
7.2500005 3.5866895 0.62640953 0
7.2590003 3.5790899 0.62670177 0
7.2690005 3.5719848 0.62702644 0
7.2790003 3.5648434 0.62735116 0
7.2880006 3.5571432 0.62764335 0
7.2980003 3.5499313 0.62796807 0
7.3080006 3.5426838 0.62829274 0
7.3180003 3.5353999 0.62861741 0
7.3280005 3.52808 0.62894213 0
7.3370004 3.52021 0.62923431 0
7.3470006 3.51282 0.62955904 0
7.3570004 3.5053935 0.62988371 0
7.3670006 3.4979312 0.63020837 0
7.3770003 3.4904327 0.6305331 0
7.3870006 3.4828982 0.63085777 0
7.3970003 3.4753277 0.63118243 0
7.4070005 3.4677212 0.63150716 0
7.4170003 3.4600782 0.63183182 0
7.4280005 3.4528975 0.63218898 0
7.4380002 3.4451807 0.63251364 0
7.4480004 3.437428 0.63283837 0
7.4580007 3.4296391 0.63316303 0
7.4680004 3.4218142 0.6334877 0
7.4790006 3.4144421 0.63384485 0
7.4890003 3.406543 0.63416958 0
7.4990005 3.3986082 0.63449425 0
7.5100002 3.3911202 0.6348514 0
7.0260005 3.7547467 0.60718459 0
7.0350003 3.747941 0.60746056 0
7.0440006 3.7411027 0.60773653 0
7.0530005 3.7342319 0.60801256 0
7.0620003 3.7273288 0.60828853 0
7.0710006 3.7203932 0.6085645 0
7.0800004 3.7134252 0.60884047 0
7.0900006 3.7069852 0.60914713 0
7.0990005 3.6999507 0.6094231 0
7.1080003 3.692883 0.60969907 0
7.1170006 3.6857836 0.6099751 0
7.1270003 3.6792047 0.61028171 0
7.1360006 3.6720383 0.61055768 0
7.1450005 3.6648395 0.6108337 0
7.1550002 3.6581562 0.61114031 0
7.1640005 3.6508906 0.61141634 0
7.1730003 3.6435921 0.61169231 0
7.1830006 3.6368046 0.61199892 0
7.1920004 3.6294396 0.61227494 0
7.2020006 3.6225815 0.61258161 0
7.2110004 3.61515 0.61285758 0
7.2210002 3.6082213 0.61316419 0
7.2300005 3.6007233 0.61344016 0
7.2400002 3.5937243 0.61374682 0
7.2500005 3.5866895 0.61405349 0
7.2590003 3.5790899 0.61432946 0
7.2690005 3.5719848 0.61463612 0
7.2790003 3.5648434 0.61494273 0
7.2880006 3.5571432 0.61521876 0
7.2980003 3.5499313 0.61552536 0
7.3080006 3.5426838 0.61583203 0
7.3180003 3.5353999 0.6161387 0
7.3280005 3.52808 0.6164453 0
7.3370004 3.52021 0.61672127 0
7.3470006 3.51282 0.617028 0
7.3570004 3.5053935 0.6173346 0
7.3670006 3.4979312 0.61764127 0
7.3770003 3.4904327 0.61794788 0
7.3870006 3.4828982 0.61825454 0
7.3970003 3.4753277 0.61856121 0
7.4070005 3.4677212 0.61886787 0
7.4170003 3.4600782 0.61917448 0
7.4280005 3.4528975 0.61951184 0
7.4380002 3.4451807 0.61981845 0
7.4480004 3.437428 0.62012511 0
7.4580007 3.4296391 0.62043178 0
7.4680004 3.4218142 0.62073839 0
7.4790006 3.4144421 0.62107575 0
7.4890003 3.406543 0.62138236 0
7.4990005 3.3986082 0.62168902 0
7.5100002 3.3911202 0.62202632 0
7.0260005 3.7547467 0.59523255 0
7.0350003 3.747941 0.5954923 0
7.0440006 3.7411027 0.59575206 0
7.0530005 3.7342319 0.59601176 0
7.0620003 3.7273288 0.59627151 0
7.0710006 3.7203932 0.59653127 0
7.0800004 3.7134252 0.59679103 0
7.0900006 3.7069852 0.59707963 0
7.0990005 3.6999507 0.59733939 0
7.1080003 3.692883 0.59759915 0
7.1170006 3.6857836 0.59785891 0
7.1270003 3.6792047 0.59814751 0
7.1360006 3.6720383 0.59840727 0
7.1450005 3.6648395 0.59866703 0
7.1550002 3.6581562 0.59895563 0
7.1640005 3.6508906 0.59921539 0
7.1730003 3.6435921 0.59947509 0
7.1830006 3.6368046 0.59976375 0
7.1920004 3.6294396 0.60002345 0
7.2020006 3.6225815 0.60031211 0
7.2110004 3.61515 0.60057181 0
7.2210002 3.6082213 0.60086042 0
7.2300005 3.6007233 0.60112017 0
7.2400002 3.5937243 0.60140878 0
7.2500005 3.5866895 0.60169739 0
7.2590003 3.5790899 0.60195714 0
7.2690005 3.5719848 0.60224575 0
7.2790003 3.5648434 0.60253435 0
7.2880006 3.5571432 0.60279411 0
7.2980003 3.5499313 0.60308272 0
7.3080006 3.5426838 0.60337132 0
7.3180003 3.5353999 0.60365993 0
7.3280005 3.52808 0.60394853 0
7.3370004 3.52021 0.60420829 0
7.3470006 3.51282 0.6044969 0
7.3570004 3.5053935 0.6047855 0
7.3670006 3.4979312 0.60507411 0
7.3770003 3.4904327 0.60536271 0
7.3870006 3.4828982 0.60565138 0
7.3970003 3.4753277 0.60593998 0
7.4070005 3.4677212 0.60622859 0
7.4170003 3.4600782 0.6065172 0
7.4280005 3.4528975 0.60683465 0
7.4380002 3.4451807 0.60712326 0
7.4480004 3.437428 0.60741186 0
7.4580007 3.4296391 0.60770047 0
7.4680004 3.4218142 0.60798907 0
7.4790006 3.4144421 0.60830653 0
7.4890003 3.406543 0.60859513 0
7.4990005 3.3986082 0.60888374 0
7.5100002 3.3911202 0.60920125 0
7.0260005 3.7547467 0.5832805 0
7.0350003 3.747941 0.58352399 0
7.0440006 3.7411027 0.58376753 0
7.0530005 3.7342319 0.58401108 0
7.0620003 3.7273288 0.58425456 0
7.0710006 3.7203932 0.58449811 0
7.0800004 3.7134252 0.58474159 0
7.0900006 3.7069852 0.5850122 0
7.0990005 3.6999507 0.58525568 0
7.1080003 3.692883 0.58549917 0
7.1170006 3.6857836 0.58574271 0
7.1270003 3.6792047 0.58601332 0
7.1360006 3.6720383 0.5862568 0
7.1450005 3.6648395 0.58650029 0
7.1550002 3.6581562 0.58677089 0
7.1640005 3.6508906 0.58701444 0
7.1730003 3.6435921 0.58725792 0
7.1830006 3.6368046 0.58752847 0
7.1920004 3.6294396 0.58777201 0
7.2020006 3.6225815 0.58804256 0
7.2110004 3.61515 0.5882861 0
7.2210002 3.6082213 0.58855665 0
7.2300005 3.6007233 0.58880019 0
7.2400002 3.5937243 0.58907074 0
7.2500005 3.5866895 0.58934128 0
7.2590003 3.5790899 0.58958483 0
7.2690005 3.5719848 0.58985537 0
7.2790003 3.5648434 0.59012598 0
7.2880006 3.5571432 0.59036946 0
7.2980003 3.5499313 0.59064007 0
7.3080006 3.5426838 0.59091061 0
7.3180003 3.5353999 0.59118116 0
7.3280005 3.52808 0.59145176 0
7.3370004 3.52021 0.59169531 0
7.3470006 3.51282 0.59196585 0
7.3570004 3.5053935 0.5922364 0
7.3670006 3.4979312 0.592507 0
7.3770003 3.4904327 0.59277755 0
7.3870006 3.4828982 0.59304816 0
7.3970003 3.4753277 0.5933187 0
7.4070005 3.4677212 0.59358931 0
7.4170003 3.4600782 0.59385985 0
7.4280005 3.4528975 0.59415746 0
7.4380002 3.4451807 0.59442806 0
7.4480004 3.437428 0.59469861 0
7.4580007 3.4296391 0.59496921 0
7.4680004 3.4218142 0.59523976 0
7.4790006 3.4144421 0.59553742 0
7.4890003 3.406543 0.59580797 0
7.4990005 3.3986082 0.59607852 0
7.5100002 3.3911202 0.59637618 0
7.0260005 3.7547467 0.57132852 0
7.0350003 3.747941 0.57155573 0
7.0440006 3.7411027 0.57178307 0
7.0530005 3.7342319 0.57201034 0
7.0620003 3.7273288 0.57223761 0
7.0710006 3.7203932 0.57246488 0
7.0800004 3.7134252 0.57269216 0
7.0900006 3.7069852 0.5729447 0
7.0990005 3.6999507 0.57317197 0
7.1080003 3.692883 0.57339925 0
7.1170006 3.6857836 0.57362652 0
7.1270003 3.6792047 0.57387906 0
7.1360006 3.6720383 0.57410634 0
7.1450005 3.6648395 0.57433367 0
7.1550002 3.6581562 0.57458615 0
7.1640005 3.6508906 0.57481343 0
7.1730003 3.6435921 0.5750407 0
7.1830006 3.6368046 0.57529324 0
7.1920004 3.6294396 0.57552052 0
7.2020006 3.6225815 0.57577306 0
7.2110004 3.61515 0.57600033 0
7.2210002 3.6082213 0.57625288 0
7.2300005 3.6007233 0.57648015 0
7.2400002 3.5937243 0.5767327 0
7.2500005 3.5866895 0.57698524 0
7.2590003 3.5790899 0.57721251 0
7.2690005 3.5719848 0.57746506 0
7.2790003 3.5648434 0.57771754 0
7.2880006 3.5571432 0.57794487 0
7.2980003 3.5499313 0.57819736 0
7.3080006 3.5426838 0.5784499 0
7.3180003 3.5353999 0.57870245 0
7.3280005 3.52808 0.57895499 0
7.3370004 3.52021 0.57918227 0
7.3470006 3.51282 0.57943481 0
7.3570004 3.5053935 0.57968736 0
7.3670006 3.4979312 0.57993984 0
7.3770003 3.4904327 0.58019239 0
7.3870006 3.4828982 0.58044493 0
7.3970003 3.4753277 0.58069742 0
7.4070005 3.4677212 0.58095002 0
7.4170003 3.4600782 0.58120251 0
7.4280005 3.4528975 0.58148032 0
7.4380002 3.4451807 0.58173287 0
7.4480004 3.437428 0.58198535 0
7.4580007 3.4296391 0.58223796 0
7.4680004 3.4218142 0.58249044 0
7.4790006 3.4144421 0.5827682 0
7.4890003 3.406543 0.58302075 0
7.4990005 3.3986082 0.58327329 0
7.5100002 3.3911202 0.58355105 0
7.0260005 3.7547467 0.55937648 0
7.0350003 3.747941 0.55958748 0
7.0440006 3.7411027 0.55979854 0
7.0530005 3.7342319 0.5600096 0
7.0620003 3.7273288 0.5602206 0
7.0710006 3.7203932 0.56043166 0
7.0800004 3.7134252 0.56064272 0
7.0900006 3.7069852 0.5608772 0
7.0990005 3.6999507 0.56108826 0
7.1080003 3.692883 0.56129932 0
7.1170006 3.6857836 0.56151032 0
7.1270003 3.6792047 0.56174487 0
7.1360006 3.6720383 0.56195593 0
7.1450005 3.6648395 0.56216693 0
7.1550002 3.6581562 0.56240141 0
7.1640005 3.6508906 0.56261247 0
7.1730003 3.6435921 0.56282353 0
7.1830006 3.6368046 0.56305802 0
7.1920004 3.6294396 0.56326908 0
7.2020006 3.6225815 0.56350356 0
7.2110004 3.61515 0.56371462 0
7.2210002 3.6082213 0.56394911 0
7.2300005 3.6007233 0.56416017 0
7.2400002 3.5937243 0.56439465 0
7.2500005 3.5866895 0.56462914 0
7.2590003 3.5790899 0.5648402 0
7.2690005 3.5719848 0.56507468 0
7.2790003 3.5648434 0.56530917 0
7.2880006 3.5571432 0.56552023 0
7.2980003 3.5499313 0.56575471 0
7.3080006 3.5426838 0.5659892 0
7.3180003 3.5353999 0.56622374 0
7.3280005 3.52808 0.56645823 0
7.3370004 3.52021 0.56666923 0
7.3470006 3.51282 0.56690371 0
7.3570004 3.5053935 0.5671382 0
7.3670006 3.4979312 0.56737274 0
7.3770003 3.4904327 0.56760722 0
7.3870006 3.4828982 0.56784171 0
7.3970003 3.4753277 0.56807625 0
7.4070005 3.4677212 0.56831074 0
7.4170003 3.4600782 0.56854522 0
7.4280005 3.4528975 0.56880313 0
7.4380002 3.4451807 0.56903768 0
7.4480004 3.437428 0.56927216 0
7.4580007 3.4296391 0.56950665 0
7.4680004 3.4218142 0.56974113 0
7.4790006 3.4144421 0.5699991 0
7.4890003 3.406543 0.57023358 0
7.4990005 3.3986082 0.57046807 0
7.5100002 3.3911202 0.57072604 0
7.0260005 3.7547467 0.54742444 0
7.0350003 3.747941 0.54761922 0
7.0440006 3.7411027 0.54781401 0
7.0530005 3.7342319 0.54800886 0
7.0620003 3.7273288 0.54820365 0
7.0710006 3.7203932 0.54839849 0
7.0800004 3.7134252 0.54859328 0
7.0900006 3.7069852 0.54880977 0
7.0990005 3.6999507 0.54900455 0
7.1080003 3.692883 0.54919934 0
7.1170006 3.6857836 0.54939419 0
7.1270003 3.6792047 0.54961061 0
7.1360006 3.6720383 0.54980546 0
7.1450005 3.6648395 0.55000025 0
7.1550002 3.6581562 0.55021667 0
7.1640005 3.6508906 0.55041152 0
7.1730003 3.6435921 0.55060631 0
7.1830006 3.6368046 0.55082279 0
7.1920004 3.6294396 0.55101758 0
7.2020006 3.6225815 0.55123407 0
7.2110004 3.61515 0.55142885 0
7.2210002 3.6082213 0.55164534 0
7.2300005 3.6007233 0.55184013 0
7.2400002 3.5937243 0.55205661 0
7.2500005 3.5866895 0.55227304 0
7.2590003 3.5790899 0.55246782 0
7.2690005 3.5719848 0.55268431 0
7.2790003 3.5648434 0.55290079 0
7.2880006 3.5571432 0.55309558 0
7.2980003 3.5499313 0.55331206 0
7.3080006 3.5426838 0.55352849 0
7.3180003 3.5353999 0.55374497 0
7.3280005 3.52808 0.5539614 0
7.3370004 3.52021 0.55415624 0
7.3470006 3.51282 0.55437267 0
7.3570004 3.5053935 0.55458915 0
7.3670006 3.4979312 0.55480558 0
7.3770003 3.4904327 0.55502206 0
7.3870006 3.4828982 0.55523849 0
7.3970003 3.4753277 0.55545497 0
7.4070005 3.4677212 0.55567145 0
7.4170003 3.4600782 0.55588788 0
7.4280005 3.4528975 0.556126 0
7.4380002 3.4451807 0.55634242 0
7.4480004 3.437428 0.55655891 0
7.4580007 3.4296391 0.55677533 0
7.4680004 3.4218142 0.55699182 0
7.4790006 3.4144421 0.55722994 0
7.4890003 3.406543 0.55744636 0
7.4990005 3.3986082 0.55766284 0
7.5100002 3.3911202 0.55790091 0
7.0260005 3.7547467 0.53547239 0
7.0350003 3.747941 0.53565097 0
7.0440006 3.7411027 0.53582954 0
7.0530005 3.7342319 0.53600812 0
7.0620003 3.7273288 0.5361867 0
7.0710006 3.7203932 0.53636527 0
7.0800004 3.7134252 0.53654385 0
7.0900006 3.7069852 0.53674227 0
7.0990005 3.6999507 0.53692085 0
7.1080003 3.692883 0.53709942 0
7.1170006 3.6857836 0.537278 0
7.1270003 3.6792047 0.53747642 0
7.1360006 3.6720383 0.537655 0
7.1450005 3.6648395 0.53783357 0
7.1550002 3.6581562 0.538032 0
7.1640005 3.6508906 0.53821057 0
7.1730003 3.6435921 0.53838915 0
7.1830006 3.6368046 0.53858757 0
7.1920004 3.6294396 0.53876615 0
7.2020006 3.6225815 0.53896457 0
7.2110004 3.61515 0.53914315 0
7.2210002 3.6082213 0.53934157 0
7.2300005 3.6007233 0.53952014 0
7.2400002 3.5937243 0.53971857 0
7.2500005 3.5866895 0.53991699 0
7.2590003 3.5790899 0.54009557 0
7.2690005 3.5719848 0.54029393 0
7.2790003 3.5648434 0.54049236 0
7.2880006 3.5571432 0.54067099 0
7.2980003 3.5499313 0.54086936 0
7.3080006 3.5426838 0.54106778 0
7.3180003 3.5353999 0.5412662 0
7.3280005 3.52808 0.54146463 0
7.3370004 3.52021 0.5416432 0
7.3470006 3.51282 0.54184163 0
7.3570004 3.5053935 0.54204005 0
7.3670006 3.4979312 0.54223847 0
7.3770003 3.4904327 0.5424369 0
7.3870006 3.4828982 0.54263532 0
7.3970003 3.4753277 0.54283369 0
7.4070005 3.4677212 0.54303217 0
7.4170003 3.4600782 0.54323053 0
7.4280005 3.4528975 0.54344881 0
7.4380002 3.4451807 0.54364723 0
7.4480004 3.437428 0.54384565 0
7.4580007 3.4296391 0.54404408 0
7.4680004 3.4218142 0.5442425 0
7.4790006 3.4144421 0.54446077 0
7.4890003 3.406543 0.5446592 0
7.4990005 3.3986082 0.54485762 0
7.5100002 3.3911202 0.54507583 0
7.0260005 3.7547467 0.52352035 0
7.0350003 3.747941 0.52368271 0
7.0440006 3.7411027 0.52384502 0
7.0530005 3.7342319 0.52400738 0
7.0620003 3.7273288 0.52416974 0
7.0710006 3.7203932 0.52433205 0
7.0800004 3.7134252 0.52449441 0
7.0900006 3.7069852 0.52467477 0
7.0990005 3.6999507 0.52483714 0
7.1080003 3.692883 0.5249995 0
7.1170006 3.6857836 0.5251618 0
7.1270003 3.6792047 0.52534223 0
7.1360006 3.6720383 0.52550453 0
7.1450005 3.6648395 0.52566689 0
7.1550002 3.6581562 0.52584726 0
7.1640005 3.6508906 0.52600962 0
7.1730003 3.6435921 0.52617192 0
7.1830006 3.6368046 0.52635235 0
7.1920004 3.6294396 0.52651465 0
7.2020006 3.6225815 0.52669507 0
7.2110004 3.61515 0.52685738 0
7.2210002 3.6082213 0.52703774 0
7.2300005 3.6007233 0.5272001 0
7.2400002 3.5937243 0.52738047 0
7.2500005 3.5866895 0.52756089 0
7.2590003 3.5790899 0.52772319 0
7.2690005 3.5719848 0.52790362 0
7.2790003 3.5648434 0.52808398 0
7.2880006 3.5571432 0.52824634 0
7.2980003 3.5499313 0.52842671 0
7.3080006 3.5426838 0.52860707 0
7.3180003 3.5353999 0.52878749 0
7.3280005 3.52808 0.52896786 0
7.3370004 3.52021 0.52913022 0
7.3470006 3.51282 0.52931058 0
7.3570004 3.5053935 0.52949095 0
7.3670006 3.4979312 0.52967131 0
7.3770003 3.4904327 0.52985173 0
7.3870006 3.4828982 0.5300321 0
7.3970003 3.4753277 0.53021246 0
7.4070005 3.4677212 0.53039289 0
7.4170003 3.4600782 0.53057325 0
7.4280005 3.4528975 0.53077167 0
7.4380002 3.4451807 0.53095204 0
7.4480004 3.437428 0.5311324 0
7.4580007 3.4296391 0.53131282 0
7.4680004 3.4218142 0.53149319 0
7.4790006 3.4144421 0.53169161 0
7.4890003 3.406543 0.53187197 0
7.4990005 3.3986082 0.5320524 0
7.5100002 3.3911202 0.53225076 0
7.0260005 3.7547467 0.51156831 0
7.0350003 3.747941 0.5117144 0
7.0440006 3.7411027 0.51186055 0
7.0530005 3.7342319 0.51200664 0
7.0620003 3.7273288 0.51215273 0
7.0710006 3.7203932 0.51229888 0
7.0800004 3.7134252 0.51244497 0
7.0900006 3.7069852 0.51260734 0
7.0990005 3.6999507 0.51275343 0
7.1080003 3.692883 0.51289952 0
7.1170006 3.6857836 0.51304561 0
7.1270003 3.6792047 0.51320797 0
7.1360006 3.6720383 0.51335406 0
7.1450005 3.6648395 0.51350021 0
7.1550002 3.6581562 0.51366252 0
7.1640005 3.6508906 0.51380867 0
7.1730003 3.6435921 0.51395476 0
7.1830006 3.6368046 0.51411712 0
7.1920004 3.6294396 0.51426321 0
7.2020006 3.6225815 0.51442558 0
7.2110004 3.61515 0.51457167 0
7.2210002 3.6082213 0.51473397 0
7.2300005 3.6007233 0.51488012 0
7.2400002 3.5937243 0.51504242 0
7.2500005 3.5866895 0.51520479 0
7.2590003 3.5790899 0.51535088 0
7.2690005 3.5719848 0.51551324 0
7.2790003 3.5648434 0.5156756 0
7.2880006 3.5571432 0.5158217 0
7.2980003 3.5499313 0.51598406 0
7.3080006 3.5426838 0.51614636 0
7.3180003 3.5353999 0.51630872 0
7.3280005 3.52808 0.51647109 0
7.3370004 3.52021 0.51661718 0
7.3470006 3.51282 0.51677954 0
7.3570004 3.5053935 0.51694185 0
7.3670006 3.4979312 0.51710421 0
7.3770003 3.4904327 0.51726651 0
7.3870006 3.4828982 0.51742887 0
7.3970003 3.4753277 0.51759124 0
7.4070005 3.4677212 0.5177536 0
7.4170003 3.4600782 0.5179159 0
7.4280005 3.4528975 0.51809448 0
7.4380002 3.4451807 0.51825684 0
7.4480004 3.437428 0.51841915 0
7.4580007 3.4296391 0.51858151 0
7.4680004 3.4218142 0.51874387 0
7.4790006 3.4144421 0.51892245 0
7.4890003 3.406543 0.51908481 0
7.4990005 3.3986082 0.51924711 0
7.5100002 3.3911202 0.51942569 0
7.0260005 3.7547467 0.49961627 0
7.0350003 3.747941 0.49974614 0
7.0440006 3.7411027 0.49987602 0
7.0530005 3.7342319 0.5000059 0
7.0620003 3.7273288 0.50013578 0
7.0710006 3.7203932 0.50026566 0
7.0800004 3.7134252 0.50039554 0
7.0900006 3.7069852 0.50053984 0
7.0990005 3.6999507 0.50066972 0
7.1080003 3.692883 0.5007996 0
7.1170006 3.6857836 0.50092947 0
7.1270003 3.6792047 0.50107378 0
7.1360006 3.6720383 0.50120366 0
7.1450005 3.6648395 0.50133348 0
7.1550002 3.6581562 0.50147784 0
7.1640005 3.6508906 0.50160766 0
7.1730003 3.6435921 0.50173753 0
7.1830006 3.6368046 0.50188184 0
7.1920004 3.6294396 0.50201172 0
7.2020006 3.6225815 0.50215602 0
7.2110004 3.61515 0.5022859 0
7.2210002 3.6082213 0.5024302 0
7.2300005 3.6007233 0.50256008 0
7.2400002 3.5937243 0.50270438 0
7.2500005 3.5866895 0.50284868 0
7.2590003 3.5790899 0.50297856 0
7.2690005 3.5719848 0.50312287 0
7.2790003 3.5648434 0.50326717 0
7.2880006 3.5571432 0.50339705 0
7.2980003 3.5499313 0.50354135 0
7.3080006 3.5426838 0.50368565 0
7.3180003 3.5353999 0.50382996 0
7.3280005 3.52808 0.50397426 0
7.3370004 3.52021 0.50410414 0
7.3470006 3.51282 0.50424844 0
7.3570004 3.5053935 0.50439274 0
7.3670006 3.4979312 0.50453705 0
7.3770003 3.4904327 0.50468135 0
7.3870006 3.4828982 0.50482571 0
7.3970003 3.4753277 0.50496995 0
7.4070005 3.4677212 0.50511432 0
7.4170003 3.4600782 0.50525856 0
7.4280005 3.4528975 0.50541735 0
7.4380002 3.4451807 0.50556165 0
7.4480004 3.437428 0.50570595 0
7.4580007 3.4296391 0.50585026 0
7.4680004 3.4218142 0.50599456 0
7.4790006 3.4144421 0.50615329 0
7.4890003 3.406543 0.50629759 0
7.4990005 3.3986082 0.50644189 0
7.5100002 3.3911202 0.50660062 0
7.0260005 3.7547467 0.48766425 0
7.0350003 3.747941 0.48777789 0
7.0440006 3.7411027 0.48789153 0
7.0530005 3.7342319 0.48800516 0
7.0620003 3.7273288 0.4881188 0
7.0710006 3.7203932 0.48823243 0
7.0800004 3.7134252 0.4883461 0
7.0900006 3.7069852 0.48847234 0
7.0990005 3.6999507 0.48858601 0
7.1080003 3.692883 0.48869962 0
7.1170006 3.6857836 0.48881328 0
7.1270003 3.6792047 0.48893952 0
7.1360006 3.6720383 0.48905319 0
7.1450005 3.6648395 0.48916683 0
7.1550002 3.6581562 0.4892931 0
7.1640005 3.6508906 0.48940673 0
7.1730003 3.6435921 0.48952037 0
7.1830006 3.6368046 0.48964664 0
7.1920004 3.6294396 0.48976028 0
7.2020006 3.6225815 0.48988652 0
7.2110004 3.61515 0.49000019 0
7.2210002 3.6082213 0.49012643 0
7.2300005 3.6007233 0.4902401 0
7.2400002 3.5937243 0.49036634 0
7.2500005 3.5866895 0.49049261 0
7.2590003 3.5790899 0.49060625 0
7.2690005 3.5719848 0.49073252 0
7.2790003 3.5648434 0.49085879 0
7.2880006 3.5571432 0.49097243 0
7.2980003 3.5499313 0.4910987 0
7.3080006 3.5426838 0.49122497 0
7.3180003 3.5353999 0.49135125 0
7.3280005 3.52808 0.49147749 0
7.3370004 3.52021 0.49159116 0
7.3470006 3.51282 0.4917174 0
7.3570004 3.5053935 0.49184367 0
7.3670006 3.4979312 0.49196994 0
7.3770003 3.4904327 0.49209619 0
7.3870006 3.4828982 0.49222249 0
7.3970003 3.4753277 0.49234873 0
7.4070005 3.4677212 0.492475 0
7.4170003 3.4600782 0.49260128 0
7.4280005 3.4528975 0.49274015 0
7.4380002 3.4451807 0.49286643 0
7.4480004 3.437428 0.4929927 0
7.4580007 3.4296391 0.49311897 0
7.4680004 3.4218142 0.49324524 0
7.4790006 3.4144421 0.49338412 0
7.4890003 3.406543 0.4935104 0
7.4990005 3.3986082 0.49363667 0
7.5100002 3.3911202 0.49377555 0
7.0260005 3.7547467 0.47571221 0
7.0350003 3.747941 0.47580963 0
7.0440006 3.7411027 0.47590703 0
7.0530005 3.7342319 0.47600442 0
7.0620003 3.7273288 0.47610182 0
7.0710006 3.7203932 0.47619924 0
7.0800004 3.7134252 0.47629666 0
7.0900006 3.7069852 0.47640488 0
7.0990005 3.6999507 0.47650227 0
7.1080003 3.692883 0.47659969 0
7.1170006 3.6857836 0.47669709 0
7.1270003 3.6792047 0.47680533 0
7.1360006 3.6720383 0.47690272 0
7.1450005 3.6648395 0.47700012 0
7.1550002 3.6581562 0.47710836 0
7.1640005 3.6508906 0.47720575 0
7.1730003 3.6435921 0.47730318 0
7.1830006 3.6368046 0.47741139 0
7.1920004 3.6294396 0.47750881 0
7.2020006 3.6225815 0.47761703 0
7.2110004 3.61515 0.47771445 0
7.2210002 3.6082213 0.47782266 0
7.2300005 3.6007233 0.47792009 0
7.2400002 3.5937243 0.4780283 0
7.2500005 3.5866895 0.47813654 0
7.2590003 3.5790899 0.47823393 0
7.2690005 3.5719848 0.47834218 0
7.2790003 3.5648434 0.47845039 0
7.2880006 3.5571432 0.47854781 0
7.2980003 3.5499313 0.47865602 0
7.3080006 3.5426838 0.47876427 0
7.3180003 3.5353999 0.47887248 0
7.3280005 3.52808 0.47898072 0
7.3370004 3.52021 0.47907811 0
7.3470006 3.51282 0.47918636 0
7.3570004 3.5053935 0.47929457 0
7.3670006 3.4979312 0.47940281 0
7.3770003 3.4904327 0.47951102 0
7.3870006 3.4828982 0.47961926 0
7.3970003 3.4753277 0.47972751 0
7.4070005 3.4677212 0.47983572 0
7.4170003 3.4600782 0.47994393 0
7.4280005 3.4528975 0.48006299 0
7.4380002 3.4451807 0.48017123 0
7.4480004 3.437428 0.48027945 0
7.4580007 3.4296391 0.48038769 0
7.4680004 3.4218142 0.48049593 0
7.4790006 3.4144421 0.48061496 0
7.4890003 3.406543 0.4807232 0
7.4990005 3.3986082 0.48083141 0
7.5100002 3.3911202 0.48095047 0
7.0260005 3.7547467 0.46376017 0
7.0350003 3.747941 0.46384135 0
7.0440006 3.7411027 0.46392253 0
7.0530005 3.7342319 0.46400368 0
7.0620003 3.7273288 0.46408486 0
7.0710006 3.7203932 0.46416605 0
7.0800004 3.7134252 0.4642472 0
7.0900006 3.7069852 0.46433741 0
7.0990005 3.6999507 0.46441856 0
7.1080003 3.692883 0.46449974 0
7.1170006 3.6857836 0.46458092 0
7.1270003 3.6792047 0.46467111 0
7.1360006 3.6720383 0.46475229 0
7.1450005 3.6648395 0.46483344 0
7.1550002 3.6581562 0.46492362 0
7.1640005 3.6508906 0.4650048 0
7.1730003 3.6435921 0.46508598 0
7.1830006 3.6368046 0.46517617 0
7.1920004 3.6294396 0.46525735 0
7.2020006 3.6225815 0.46534753 0
7.2110004 3.61515 0.46542871 0
7.2210002 3.6082213 0.46551889 0
7.2300005 3.6007233 0.46560007 0
7.2400002 3.5937243 0.46569026 0
7.2500005 3.5866895 0.46578044 0
7.2590003 3.5790899 0.46586162 0
7.2690005 3.5719848 0.4659518 0
7.2790003 3.5648434 0.46604198 0
7.2880006 3.5571432 0.46612316 0
7.2980003 3.5499313 0.46621335 0
7.3080006 3.5426838 0.46630356 0
7.3180003 3.5353999 0.46639374 0
7.3280005 3.52808 0.46648395 0
7.3370004 3.52021 0.4665651 0
7.3470006 3.51282 0.46665528 0
7.3570004 3.5053935 0.4667455 0
7.3670006 3.4979312 0.46683568 0
7.3770003 3.4904327 0.46692586 0
7.3870006 3.4828982 0.46701604 0
7.3970003 3.4753277 0.46710625 0
7.4070005 3.4677212 0.46719643 0
7.4170003 3.4600782 0.46728662 0
7.4280005 3.4528975 0.46738583 0
7.4380002 3.4451807 0.46747601 0
7.4480004 3.437428 0.46756622 0
7.4580007 3.4296391 0.4676564 0
7.4680004 3.4218142 0.46774659 0
7.4790006 3.4144421 0.4678458 0
7.4890003 3.406543 0.46793598 0
7.4990005 3.3986082 0.46802619 0
7.5100002 3.3911202 0.4681254 0
7.0260005 3.7547467 0.45180815 0
7.0350003 3.747941 0.45187309 0
7.0440006 3.7411027 0.45193803 0
7.0530005 3.7342319 0.45200294 0
7.0620003 3.7273288 0.45206791 0
7.0710006 3.7203932 0.45213282 0
7.0800004 3.7134252 0.45219776 0
7.0900006 3.7069852 0.45226991 0
7.0990005 3.6999507 0.45233485 0
7.1080003 3.692883 0.45239979 0
7.1170006 3.6857836 0.45246473 0
7.1270003 3.6792047 0.45253688 0
7.1360006 3.6720383 0.45260182 0
7.1450005 3.6648395 0.45266676 0
7.1550002 3.6581562 0.45273891 0
7.1640005 3.6508906 0.45280385 0
7.1730003 3.6435921 0.45286879 0
7.1830006 3.6368046 0.45294094 0
7.1920004 3.6294396 0.45300588 0
7.2020006 3.6225815 0.45307803 0
7.2110004 3.61515 0.45314297 0
7.2210002 3.6082213 0.45321512 0
7.2300005 3.6007233 0.45328006 0
7.2400002 3.5937243 0.45335221 0
7.2500005 3.5866895 0.45342436 0
7.2590003 3.5790899 0.4534893 0
7.2690005 3.5719848 0.45356146 0
7.2790003 3.5648434 0.45363361 0
7.2880006 3.5571432 0.45369855 0
7.2980003 3.5499313 0.4537707 0
7.3080006 3.5426838 0.45384285 0
7.3180003 3.5353999 0.453915 0
7.3280005 3.52808 0.45398715 0
7.3370004 3.52021 0.45405209 0
7.3470006 3.51282 0.45412424 0
7.3570004 3.5053935 0.45419639 0
7.3670006 3.4979312 0.45426854 0
7.3770003 3.4904327 0.4543407 0
7.3870006 3.4828982 0.45441285 0
7.3970003 3.4753277 0.454485 0
7.4070005 3.4677212 0.45455715 0
7.4170003 3.4600782 0.4546293 0
7.4280005 3.4528975 0.45470867 0
7.4380002 3.4451807 0.45478082 0
7.4480004 3.437428 0.45485297 0
7.4580007 3.4296391 0.45492512 0
7.4680004 3.4218142 0.45499727 0
7.4790006 3.4144421 0.45507663 0
7.4890003 3.406543 0.45514882 0
7.4990005 3.3986082 0.45522094 0
7.5100002 3.3911202 0.45530033 0
7.0260005 3.7547467 0.43985611 0
7.0350003 3.747941 0.43990481 0
7.0440006 3.7411027 0.43995351 0
7.0530005 3.7342319 0.44000223 0
7.0620003 3.7273288 0.44005093 0
7.0710006 3.7203932 0.44009963 0
7.0800004 3.7134252 0.44014832 0
7.0900006 3.7069852 0.44020244 0
7.0990005 3.6999507 0.44025114 0
7.1080003 3.692883 0.44029984 0
7.1170006 3.6857836 0.44034857 0
7.1270003 3.6792047 0.44040266 0
7.1360006 3.6720383 0.44045138 0
7.1450005 3.6648395 0.44050008 0
7.1550002 3.6581562 0.4405542 0
7.1640005 3.6508906 0.4406029 0
7.1730003 3.6435921 0.4406516 0
7.1830006 3.6368046 0.44070572 0
7.1920004 3.6294396 0.44075441 0
7.2020006 3.6225815 0.44080853 0
7.2110004 3.61515 0.44085723 0
7.2210002 3.6082213 0.44091135 0
7.2300005 3.6007233 0.44096005 0
7.2400002 3.5937243 0.44101417 0
7.2500005 3.5866895 0.44106826 0
7.2590003 3.5790899 0.44111699 0
7.2690005 3.5719848 0.44117108 0
7.2790003 3.5648434 0.4412252 0
7.2880006 3.5571432 0.4412739 0
7.2980003 3.5499313 0.44132802 0
7.3080006 3.5426838 0.44138214 0
7.3180003 3.5353999 0.44143626 0
7.3280005 3.52808 0.44149035 0
7.3370004 3.52021 0.44153908 0
7.3470006 3.51282 0.44159317 0
7.3570004 3.5053935 0.44164729 0
7.3670006 3.4979312 0.44170141 0
7.3770003 3.4904327 0.44175553 0
7.3870006 3.4828982 0.44180965 0
7.3970003 3.4753277 0.44186375 0
7.4070005 3.4677212 0.44191787 0
7.4170003 3.4600782 0.44197199 0
7.4280005 3.4528975 0.4420315 0
7.4380002 3.4451807 0.44208562 0
7.4480004 3.437428 0.44213974 0
7.4580007 3.4296391 0.44219387 0
7.4680004 3.4218142 0.44224796 0
7.4790006 3.4144421 0.4423075 0
7.4890003 3.406543 0.44236159 0
7.4990005 3.3986082 0.44241571 0
7.5100002 3.3911202 0.44247523 0
7.0260005 3.7547467 0.42790407 0
7.0350003 3.747941 0.42793655 0
7.0440006 3.7411027 0.42796901 0
7.0530005 3.7342319 0.42800149 0
7.0620003 3.7273288 0.42803395 0
7.0710006 3.7203932 0.42806643 0
7.0800004 3.7134252 0.42809889 0
7.0900006 3.7069852 0.42813498 0
7.0990005 3.6999507 0.42816743 0
7.1080003 3.692883 0.42819992 0
7.1170006 3.6857836 0.42823237 0
7.1270003 3.6792047 0.42826846 0
7.1360006 3.6720383 0.42830092 0
7.1450005 3.6648395 0.4283334 0
7.1550002 3.6581562 0.42836946 0
7.1640005 3.6508906 0.42840195 0
7.1730003 3.6435921 0.4284344 0
7.1830006 3.6368046 0.42847049 0
7.1920004 3.6294396 0.42850295 0
7.2020006 3.6225815 0.42853904 0
7.2110004 3.61515 0.42857149 0
7.2210002 3.6082213 0.42860755 0
7.2300005 3.6007233 0.42864004 0
7.2400002 3.5937243 0.4286761 0
7.2500005 3.5866895 0.42871219 0
7.2590003 3.5790899 0.42874464 0
7.2690005 3.5719848 0.42878073 0
7.2790003 3.5648434 0.4288168 0
7.2880006 3.5571432 0.42884928 0
7.2980003 3.5499313 0.42888534 0
7.3080006 3.5426838 0.42892143 0
7.3180003 3.5353999 0.42895749 0
7.3280005 3.52808 0.42899358 0
7.3370004 3.52021 0.42902604 0
7.3470006 3.51282 0.42906213 0
7.3570004 3.5053935 0.42909819 0
7.3670006 3.4979312 0.42913428 0
7.3770003 3.4904327 0.42917034 0
7.3870006 3.4828982 0.42920643 0
7.3970003 3.4753277 0.42924249 0
7.4070005 3.4677212 0.42927858 0
7.4170003 3.4600782 0.42931467 0
7.4280005 3.4528975 0.42935434 0
7.4380002 3.4451807 0.42939043 0
7.4480004 3.437428 0.42942649 0
7.4580007 3.4296391 0.42946258 0
7.4680004 3.4218142 0.42949864 0
7.4790006 3.4144421 0.42953834 0
7.4890003 3.406543 0.4295744 0
7.4990005 3.3986082 0.42961049 0
7.5100002 3.3911202 0.42965016 0
7.0260005 3.7547467 0.41595206 0
7.0350003 3.747941 0.41596827 0
7.0440006 3.7411027 0.41598451 0
7.0530005 3.7342319 0.41600075 0
7.0620003 3.7273288 0.416017 0
7.0710006 3.7203932 0.41603321 0
