# .PCD v0.7 - Point Cloud Data file format
VERSION 0.7
FIELDS x y z intensity
SIZE 4 4 4 4
TYPE F F F F
COUNT 1 1 1 1
WIDTH 1456
HEIGHT 1
VIEWPOINT 0 0 0 1 0 0 0
POINTS 1456
DATA ascii
4.9630003 1.8141556 0.69207716 0
4.9640002 1.8063307 0.69214034 0
4.9650002 1.7985021 0.69220352 0
4.9670005 1.7910724 0.69232976 0
4.9680004 1.7832347 0.69239283 0
4.9690003 1.7753935 0.69245601 0
4.9710002 1.7679455 0.69258225 0
4.9720001 1.7600954 0.69264543 0
4.9730005 1.7522418 0.69270855 0
4.9750004 1.7447758 0.69283485 0
4.9760003 1.7369128 0.69289792 0
4.9770002 1.7290465 0.6929611 0
4.9780002 1.7211764 0.69302416 0
4.9800005 1.7136872 0.69315052 0
4.9810004 1.705808 0.69321358 0
4.9820004 1.6979254 0.69327676 0
4.9840002 1.6904179 0.69340301 0
4.9850001 1.6825262 0.69346613 0
4.9860005 1.674631 0.69352925 0
4.9880004 1.6671056 0.69365555 0
4.9890003 1.6592013 0.69371867 0
4.9900002 1.6512933 0.69378185 0
4.9920001 1.6437497 0.6939081 0
4.9930005 1.635833 0.69397122 0
4.9940004 1.6279125 0.69403434 0
4.9960003 1.6203508 0.69416058 0
4.9970002 1.6124213 0.69422376 0
4.9980001 1.6044881 0.69428688 0
5.0000005 1.5969086 0.69441319 0
5.0010004 1.5889664 0.69447625 0
5.0020003 1.5810206 0.69453943 0
5.0040002 1.5734229 0.69466567 0
5.0050001 1.5654681 0.69472879 0
5.0060005 1.5575098 0.69479197 0
5.0080004 1.5498941 0.69491822 0
5.0090003 1.5419266 0.69498134 0
5.0100002 1.5339556 0.69504446 0
5.0120001 1.5263218 0.69517076 0
5.0130005 1.5183419 0.69523388 0
5.0140004 1.5103582 0.695297 0
5.0160003 1.5027065 0.69542325 0
5.0170002 1.4947138 0.69548643 0
5.0180001 1.4867175 0.69554955 0
5.0200005 1.4790478 0.69567585 0
5.0210004 1.4710424 0.69573891 0
5.0350003 1.4672779 0.69662279 0
4.9560003 1.8523927 0.68341708 0
4.9570003 1.8445894 0.68347847 0
4.9590001 1.8371955 0.68360108 0
4.9600005 1.8293834 0.68366241 0
4.9610004 1.8215674 0.68372381 0
4.9630003 1.8141556 0.68384647 0
4.9640002 1.8063307 0.68390775 0
4.9650002 1.7985021 0.68396908 0
4.9670005 1.7910724 0.68409181 0
4.9680004 1.7832347 0.68415308 0
4.9690003 1.7753935 0.68421441 0
4.9710002 1.7679455 0.68433702 0
4.9720001 1.7600954 0.68439841 0
4.9730005 1.7522418 0.68445969 0
4.9750004 1.7447758 0.68458235 0
4.9760003 1.7369128 0.68464375 0
4.9770002 1.7290465 0.68470502 0
4.9780002 1.7211764 0.68476641 0
4.9800005 1.7136872 0.68488908 0
4.9810004 1.705808 0.68495035 0
4.9820004 1.6979254 0.68501168 0
4.9840002 1.6904179 0.68513435 0
4.9850001 1.6825262 0.68519568 0
4.9860005 1.674631 0.68525702 0
4.9880004 1.6671056 0.68537962 0
4.9890003 1.6592013 0.68544102 0
4.9900002 1.6512933 0.68550229 0
4.9920001 1.6437497 0.68562496 0
4.9930005 1.635833 0.68568635 0
4.9940004 1.6279125 0.68574762 0
4.9960003 1.6203508 0.68587029 0
4.9970002 1.6124213 0.68593162 0
4.9980001 1.6044881 0.68599296 0
5.0000005 1.5969086 0.68611562 0
5.0010004 1.5889664 0.68617696 0
5.0020003 1.5810206 0.68623829 0
5.0040002 1.5734229 0.68636096 0
5.0050001 1.5654681 0.68642223 0
5.0060005 1.5575098 0.68648362 0
5.0080004 1.5498941 0.68660629 0
5.0090003 1.5419266 0.68666756 0
5.0100002 1.5339556 0.68672895 0
5.0120001 1.5263218 0.68685156 0
5.0130005 1.5183419 0.68691289 0
5.0140004 1.5103582 0.68697423 0
5.0160003 1.5027065 0.68709689 0
5.0170002 1.4947138 0.68715823 0
5.0180001 1.4867175 0.6872195 0
5.0200005 1.4790478 0.68734223 0
5.0210004 1.4710424 0.68740356 0
5.0350003 1.4672779 0.68826216 0
4.9560003 1.8523927 0.67519897 0
4.9570003 1.8445894 0.67525852 0
4.9590001 1.8371955 0.67537755 0
4.9600005 1.8293834 0.67543709 0
4.9610004 1.8215674 0.67549658 0
4.9630003 1.8141556 0.67561567 0
4.9640002 1.8063307 0.67567515 0
4.9650002 1.7985021 0.6757347 0
4.9670005 1.7910724 0.67585373 0
4.9680004 1.7832347 0.67591327 0
4.9690003 1.7753935 0.67597282 0
4.9710002 1.7679455 0.67609185 0
4.9720001 1.7600954 0.67615139 0
4.9730005 1.7522418 0.67621088 0
4.9750004 1.7447758 0.67632997 0
4.9760003 1.7369128 0.67638946 0
4.9770002 1.7290465 0.676449 0
4.9780002 1.7211764 0.67650855 0
4.9800005 1.7136872 0.67662764 0
4.9810004 1.705808 0.67668712 0
4.9820004 1.6979254 0.67674661 0
4.9840002 1.6904179 0.6768657 0
4.9850001 1.6825262 0.67692518 0
4.9860005 1.674631 0.67698479 0
4.9880004 1.6671056 0.67710376 0
4.9890003 1.6592013 0.67716336 0
4.9900002 1.6512933 0.67722285 0
4.9920001 1.6437497 0.67734188 0
4.9930005 1.635833 0.67740142 0
4.9940004 1.6279125 0.67746091 0
4.9960003 1.6203508 0.67758 0
4.9970002 1.6124213 0.67763948 0
4.9980001 1.6044881 0.67769909 0
5.0000005 1.5969086 0.67781812 0
5.0010004 1.5889664 0.67787766 0
5.0020003 1.5810206 0.67793715 0
5.0040002 1.5734229 0.67805624 0
5.0050001 1.5654681 0.67811573 0
5.0060005 1.5575098 0.67817527 0
5.0080004 1.5498941 0.6782943 0
5.0090003 1.5419266 0.67835379 0
5.0100002 1.5339556 0.67841339 0
5.0120001 1.5263218 0.67853236 0
5.0130005 1.5183419 0.67859197 0
5.0140004 1.5103582 0.67865145 0
5.0160003 1.5027065 0.67877054 0
5.0170002 1.4947138 0.67883003 0
5.0180001 1.4867175 0.67888951 0
5.0200005 1.4790478 0.6790086 0
5.0210004 1.4710424 0.67906815 0
5.0350003 1.4672779 0.67990148 0
4.9560003 1.8523927 0.66698086 0
4.9570003 1.8445894 0.66703856 0
4.9590001 1.8371955 0.66715395 0
4.9600005 1.8293834 0.66721171 0
4.9610004 1.8215674 0.66726947 0
4.9630003 1.8141556 0.66738486 0
4.9640002 1.8063307 0.66744256 0
4.9650002 1.7985021 0.66750032 0
4.9670005 1.7910724 0.66761577 0
4.9680004 1.7832347 0.66767347 0
4.9690003 1.7753935 0.66773117 0
4.9710002 1.7679455 0.66784668 0
4.9720001 1.7600954 0.66790438 0
4.9730005 1.7522418 0.66796207 0
4.9750004 1.7447758 0.66807753 0
4.9760003 1.7369128 0.66813529 0
4.9770002 1.7290465 0.66819298 0
4.9780002 1.7211764 0.66825068 0
4.9800005 1.7136872 0.66836619 0
4.9810004 1.705808 0.66842389 0
4.9820004 1.6979254 0.66848159 0
4.9840002 1.6904179 0.66859704 0
4.9850001 1.6825262 0.66865474 0
4.9860005 1.674631 0.6687125 0
4.9880004 1.6671056 0.66882789 0
4.9890003 1.6592013 0.66888565 0
4.9900002 1.6512933 0.66894341 0
4.9920001 1.6437497 0.6690588 0
4.9930005 1.635833 0.66911656 0
4.9940004 1.6279125 0.66917425 0
4.9960003 1.6203508 0.66928971 0
4.9970002 1.6124213 0.66934741 0
4.9980001 1.6044881 0.6694051 0
5.0000005 1.5969086 0.66952062 0
5.0010004 1.5889664 0.66957831 0
5.0020003 1.5810206 0.66963601 0
5.0040002 1.5734229 0.66975147 0
5.0050001 1.5654681 0.66980922 0
5.0060005 1.5575098 0.66986692 0
5.0080004 1.5498941 0.66998237 0
5.0090003 1.5419266 0.67004007 0
5.0100002 1.5339556 0.67009783 0
5.0120001 1.5263218 0.67021322 0
5.0130005 1.5183419 0.67027098 0
5.0140004 1.5103582 0.67032874 0
5.0160003 1.5027065 0.67044413 0
5.0170002 1.4947138 0.67050183 0
5.0180001 1.4867175 0.67055953 0
5.0200005 1.4790478 0.67067504 0
5.0210004 1.4710424 0.67073274 0
5.0350003 1.4672779 0.67154086 0
4.9560003 1.8523927 0.65876269 0
4.9570003 1.8445894 0.6588186 0
4.9590001 1.8371955 0.65893042 0
4.9600005 1.8293834 0.65898633 0
4.9610004 1.8215674 0.65904224 0
4.9630003 1.8141556 0.65915406 0
4.9640002 1.8063307 0.65921003 0
4.9650002 1.7985021 0.65926594 0
4.9670005 1.7910724 0.65937781 0
4.9680004 1.7832347 0.65943372 0
4.9690003 1.7753935 0.65948963 0
4.9710002 1.7679455 0.65960145 0
4.9720001 1.7600954 0.65965736 0
4.9730005 1.7522418 0.65971327 0
4.9750004 1.7447758 0.65982509 0
4.9760003 1.7369128 0.659881 0
4.9770002 1.7290465 0.65993696 0
4.9780002 1.7211764 0.65999281 0
4.9800005 1.7136872 0.66010475 0
4.9810004 1.705808 0.66016066 0
4.9820004 1.6979254 0.66021657 0
4.9840002 1.6904179 0.66032839 0
4.9850001 1.6825262 0.6603843 0
4.9860005 1.674631 0.66044021 0
4.9880004 1.6671056 0.66055202 0
4.9890003 1.6592013 0.66060793 0
4.9900002 1.6512933 0.6606639 0
4.9920001 1.6437497 0.66077572 0
4.9930005 1.635833 0.66083169 0
4.9940004 1.6279125 0.6608876 0
4.9960003 1.6203508 0.66099942 0
4.9970002 1.6124213 0.66105533 0
4.9980001 1.6044881 0.66111124 0
5.0000005 1.5969086 0.66122305 0
5.0010004 1.5889664 0.66127896 0
5.0020003 1.5810206 0.66133487 0
5.0040002 1.5734229 0.66144669 0
5.0050001 1.5654681 0.66150266 0
5.0060005 1.5575098 0.66155863 0
5.0080004 1.5498941 0.66167045 0
5.0090003 1.5419266 0.66172636 0
5.0100002 1.5339556 0.66178226 0
5.0120001 1.5263218 0.66189408 0
5.0130005 1.5183419 0.66194999 0
5.0140004 1.5103582 0.6620059 0
5.0160003 1.5027065 0.66211772 0
5.0170002 1.4947138 0.66217363 0
5.0180001 1.4867175 0.6622296 0
5.0200005 1.4790478 0.66234148 0
5.0210004 1.4710424 0.66239738 0
5.0350003 1.4672779 0.66318023 0
4.9560003 1.8523927 0.65054452 0
4.9570003 1.8445894 0.65059865 0
4.9590001 1.8371955 0.65070689 0
4.9600005 1.8293834 0.65076101 0
4.9610004 1.8215674 0.65081513 0
4.9630003 1.8141556 0.65092331 0
4.9640002 1.8063307 0.65097743 0
4.9650002 1.7985021 0.65103155 0
4.9670005 1.7910724 0.6511398 0
4.9680004 1.7832347 0.65119392 0
4.9690003 1.7753935 0.65124798 0
4.9710002 1.7679455 0.65135622 0
4.9720001 1.7600954 0.65141034 0
4.9730005 1.7522418 0.65146446 0
4.9750004 1.7447758 0.6515727 0
4.9760003 1.7369128 0.65162683 0
4.9770002 1.7290465 0.65168089 0
4.9780002 1.7211764 0.65173501 0
4.9800005 1.7136872 0.65184325 0
4.9810004 1.705808 0.65189737 0
4.9820004 1.6979254 0.65195149 0
4.9840002 1.6904179 0.65205973 0
4.9850001 1.6825262 0.6521138 0
4.9860005 1.674631 0.65216798 0
4.9880004 1.6671056 0.65227616 0
4.9890003 1.6592013 0.65233028 0
4.9900002 1.6512933 0.6523844 0
4.9920001 1.6437497 0.65249264 0
4.9930005 1.635833 0.65254676 0
4.9940004 1.6279125 0.65260088 0
4.9960003 1.6203508 0.65270913 0
4.9970002 1.6124213 0.65276319 0
4.9980001 1.6044881 0.65281731 0
5.0000005 1.5969086 0.65292555 0
5.0010004 1.5889664 0.65297967 0
5.0020003 1.5810206 0.65303379 0
5.0040002 1.5734229 0.65314198 0
5.0050001 1.5654681 0.6531961 0
5.0060005 1.5575098 0.65325022 0
5.0080004 1.5498941 0.65335846 0
5.0090003 1.5419266 0.65341258 0
5.0100002 1.5339556 0.6534667 0
5.0120001 1.5263218 0.65357494 0
5.0130005 1.5183419 0.65362906 0
5.0140004 1.5103582 0.65368319 0
5.0160003 1.5027065 0.65379137 0
5.0170002 1.4947138 0.65384549 0
5.0180001 1.4867175 0.65389961 0
5.0200005 1.4790478 0.65400779 0
5.0210004 1.4710424 0.65406191 0
5.0350003 1.4672779 0.65481955 0
4.9560003 1.8523927 0.64232635 0
4.9570003 1.8445894 0.64237869 0
4.9590001 1.8371955 0.64248329 0
4.9600005 1.8293834 0.64253563 0
4.9610004 1.8215674 0.6425879 0
4.9630003 1.8141556 0.64269257 0
4.9640002 1.8063307 0.64274484 0
4.9650002 1.7985021 0.64279711 0
4.9670005 1.7910724 0.64290178 0
4.9680004 1.7832347 0.64295411 0
4.9690003 1.7753935 0.64300644 0
4.9710002 1.7679455 0.64311105 0
4.9720001 1.7600954 0.64316332 0
4.9730005 1.7522418 0.64321566 0
4.9750004 1.7447758 0.64332026 0
4.9760003 1.7369128 0.6433726 0
4.9770002 1.7290465 0.64342487 0
4.9780002 1.7211764 0.6434772 0
4.9800005 1.7136872 0.64358181 0
4.9810004 1.705808 0.64363414 0
4.9820004 1.6979254 0.64368641 0
4.9840002 1.6904179 0.64379108 0
4.9850001 1.6825262 0.64384335 0
4.9860005 1.674631 0.64389575 0
4.9880004 1.6671056 0.64400029 0
4.9890003 1.6592013 0.64405262 0
4.9900002 1.6512933 0.6441049 0
4.9920001 1.6437497 0.6442095 0
4.9930005 1.635833 0.64426184 0
4.9940004 1.6279125 0.64431417 0
4.9960003 1.6203508 0.64441884 0
4.9970002 1.6124213 0.64447111 0
4.9980001 1.6044881 0.64452338 0
5.0000005 1.5969086 0.64462805 0
5.0010004 1.5889664 0.64468038 0
5.0020003 1.5810206 0.64473265 0
5.0040002 1.5734229 0.64483726 0
5.0050001 1.5654681 0.64488959 0
5.0060005 1.5575098 0.64494193 0
5.0080004 1.5498941 0.64504653 0
5.0090003 1.5419266 0.64509881 0
5.0100002 1.5339556 0.64515114 0
5.0120001 1.5263218 0.64525574 0
5.0130005 1.5183419 0.64530808 0
5.0140004 1.5103582 0.64536041 0
5.0160003 1.5027065 0.64546502 0
5.0170002 1.4947138 0.64551729 0
5.0180001 1.4867175 0.64556962 0
5.0200005 1.4790478 0.64567423 0
5.0210004 1.4710424 0.64572656 0
5.0350003 1.4672779 0.64645892 0
4.9560003 1.8523927 0.63410825 0
4.9570003 1.8445894 0.63415873 0
4.9590001 1.8371955 0.6342597 0
4.9600005 1.8293834 0.63431025 0
4.9610004 1.8215674 0.63436079 0
4.9630003 1.8141556 0.63446176 0
4.9640002 1.8063307 0.63451231 0
4.9650002 1.7985021 0.63456279 0
4.9670005 1.7910724 0.63466382 0
4.9680004 1.7832347 0.63471431 0
4.9690003 1.7753935 0.63476479 0
4.9710002 1.7679455 0.63486582 0
4.9720001 1.7600954 0.63491631 0
4.9730005 1.7522418 0.63496685 0
4.9750004 1.7447758 0.63506782 0
4.9760003 1.7369128 0.63511837 0
4.9770002 1.7290465 0.63516885 0
4.9780002 1.7211764 0.63521934 0
4.9800005 1.7136872 0.63532037 0
4.9810004 1.705808 0.63537085 0
4.9820004 1.6979254 0.6354214 0
4.9840002 1.6904179 0.63552243 0
4.9850001 1.6825262 0.63557291 0
4.9860005 1.674631 0.63562346 0
4.9880004 1.6671056 0.63572443 0
4.9890003 1.6592013 0.63577497 0
4.9900002 1.6512933 0.63582546 0
4.9920001 1.6437497 0.63592649 0
4.9930005 1.635833 0.63597697 0
4.9940004 1.6279125 0.63602746 0
4.9960003 1.6203508 0.63612849 0
4.9970002 1.6124213 0.63617897 0
4.9980001 1.6044881 0.63622952 0
5.0000005 1.5969086 0.63633054 0
5.0010004 1.5889664 0.63638103 0
5.0020003 1.5810206 0.63643152 0
5.0040002 1.5734229 0.63653255 0
5.0050001 1.5654681 0.63658303 0
5.0060005 1.5575098 0.63663357 0
5.0080004 1.5498941 0.63673455 0
5.0090003 1.5419266 0.63678503 0
5.0100002 1.5339556 0.63683558 0
5.0120001 1.5263218 0.6369366 0
5.0130005 1.5183419 0.63698709 0
5.0140004 1.5103582 0.63703763 0
5.0160003 1.5027065 0.63713861 0
5.0170002 1.4947138 0.63718915 0
5.0180001 1.4867175 0.63723963 0
5.0200005 1.4790478 0.63734066 0
5.0210004 1.4710424 0.63739115 0
5.0350003 1.4672779 0.63809824 0
4.9560003 1.8523927 0.62589008 0
4.9570003 1.8445894 0.62593877 0
4.9590001 1.8371955 0.62603617 0
4.9600005 1.8293834 0.62608492 0
4.9610004 1.8215674 0.62613356 0
4.9630003 1.8141556 0.62623096 0
4.9640002 1.8063307 0.62627971 0
4.9650002 1.7985021 0.62632841 0
4.9670005 1.7910724 0.6264258 0
4.9680004 1.7832347 0.6264745 0
4.9690003 1.7753935 0.6265232 0
4.9710002 1.7679455 0.62662059 0
4.9720001 1.7600954 0.62666929 0
4.9730005 1.7522418 0.62671804 0
4.9750004 1.7447758 0.62681544 0
4.9760003 1.7369128 0.62686414 0
4.9770002 1.7290465 0.62691283 0
4.9780002 1.7211764 0.62696153 0
4.9800005 1.7136872 0.62705898 0
4.9810004 1.705808 0.62710762 0
4.9820004 1.6979254 0.62715638 0
4.9840002 1.6904179 0.62725377 0
4.9850001 1.6825262 0.62730241 0
4.9860005 1.674631 0.62735116 0
4.9880004 1.6671056 0.62744856 0
4.9890003 1.6592013 0.62749726 0
4.9900002 1.6512933 0.62754595 0
4.9920001 1.6437497 0.62764335 0
4.9930005 1.635833 0.6276921 0
4.9940004 1.6279125 0.6277408 0
4.9960003 1.6203508 0.62783819 0
4.9970002 1.6124213 0.62788689 0
4.9980001 1.6044881 0.62793559 0
5.0000005 1.5969086 0.62803304 0
5.0010004 1.5889664 0.62808168 0
5.0020003 1.5810206 0.62813044 0
5.0040002 1.5734229 0.62822783 0
5.0050001 1.5654681 0.62827647 0
5.0060005 1.5575098 0.62832522 0
5.0080004 1.5498941 0.62842262 0
5.0090003 1.5419266 0.62847131 0
5.0100002 1.5339556 0.62852001 0
5.0120001 1.5263218 0.62861741 0
5.0130005 1.5183419 0.62866616 0
5.0140004 1.5103582 0.62871486 0
5.0160003 1.5027065 0.62881225 0
5.0170002 1.4947138 0.62886095 0
5.0180001 1.4867175 0.62890965 0
5.0200005 1.4790478 0.6290071 0
5.0210004 1.4710424 0.62905574 0
5.0350003 1.4672779 0.62973762 0
4.9560003 1.8523927 0.61767191 0
4.9570003 1.8445894 0.61771882 0
4.9590001 1.8371955 0.61781263 0
4.9600005 1.8293834 0.61785954 0
4.9610004 1.8215674 0.61790645 0
4.9630003 1.8141556 0.61800021 0
4.9640002 1.8063307 0.61804712 0
4.9650002 1.7985021 0.61809403 0
4.9670005 1.7910724 0.61818784 0
4.9680004 1.7832347 0.61823469 0
4.9690003 1.7753935 0.6182816 0
4.9710002 1.7679455 0.61837542 0
4.9720001 1.7600954 0.61842227 0
4.9730005 1.7522418 0.61846924 0
4.9750004 1.7447758 0.618563 0
4.9760003 1.7369128 0.61860991 0
4.9770002 1.7290465 0.61865681 0
4.9780002 1.7211764 0.61870372 0
4.9800005 1.7136872 0.61879754 0
4.9810004 1.705808 0.61884439 0
4.9820004 1.6979254 0.6188913 0
4.9840002 1.6904179 0.61898512 0
4.9850001 1.6825262 0.61903197 0
4.9860005 1.674631 0.61907887 0
4.9880004 1.6671056 0.61917269 0
4.9890003 1.6592013 0.6192196 0
4.9900002 1.6512933 0.61926651 0
4.9920001 1.6437497 0.61936027 0
4.9930005 1.635833 0.61940718 0
4.9940004 1.6279125 0.61945409 0
4.9960003 1.6203508 0.61954784 0
4.9970002 1.6124213 0.61959481 0
4.9980001 1.6044881 0.61964166 0
5.0000005 1.5969086 0.61973548 0
5.0010004 1.5889664 0.61978239 0
5.0020003 1.5810206 0.6198293 0
5.0040002 1.5734229 0.61992306 0
5.0050001 1.5654681 0.61996996 0
5.0060005 1.5575098 0.62001687 0
5.0080004 1.5498941 0.62011069 0
5.0090003 1.5419266 0.6201576 0
5.0100002 1.5339556 0.62020445 0
5.0120001 1.5263218 0.62029827 0
5.0130005 1.5183419 0.62034518 0
5.0140004 1.5103582 0.62039208 0
5.0160003 1.5027065 0.62048584 0
5.0170002 1.4947138 0.62053275 0
5.0180001 1.4867175 0.62057966 0
5.0200005 1.4790478 0.62067348 0
5.0210004 1.4710424 0.62072039 0
5.0350003 1.4672779 0.62137693 0
4.9560003 1.8523927 0.6094538 0
4.9570003 1.8445894 0.60949886 0
4.9590001 1.8371955 0.60958904 0
4.9600005 1.8293834 0.60963416 0
4.9610004 1.8215674 0.60967922 0
4.9630003 1.8141556 0.60976946 0
4.9640002 1.8063307 0.60981452 0
4.9650002 1.7985021 0.60985959 0
4.9670005 1.7910724 0.60994983 0
4.9680004 1.7832347 0.60999489 0
4.9690003 1.7753935 0.61004001 0
4.9710002 1.7679455 0.61013019 0
4.9720001 1.7600954 0.61017531 0
4.9730005 1.7522418 0.61022043 0
4.9750004 1.7447758 0.61031055 0
4.9760003 1.7369128 0.61035568 0
4.9770002 1.7290465 0.6104008 0
4.9780002 1.7211764 0.61044586 0
4.9800005 1.7136872 0.61053604 0
4.9810004 1.705808 0.61058116 0
4.9820004 1.6979254 0.61062622 0
4.9840002 1.6904179 0.61071646 0
4.9850001 1.6825262 0.61076152 0
4.9860005 1.674631 0.61080664 0
4.9880004 1.6671056 0.61089683 0
4.9890003 1.6592013 0.61094189 0
4.9900002 1.6512933 0.61098701 0
4.9920001 1.6437497 0.61107719 0
4.9930005 1.635833 0.61112231 0
4.9940004 1.6279125 0.61116737 0
4.9960003 1.6203508 0.61125755 0
4.9970002 1.6124213 0.61130267 0
4.9980001 1.6044881 0.61134779 0
5.0000005 1.5969086 0.61143798 0
5.0010004 1.5889664 0.6114831 0
5.0020003 1.5810206 0.61152816 0
5.0040002 1.5734229 0.61161834 0
5.0050001 1.5654681 0.61166346 0
5.0060005 1.5575098 0.61170852 0
5.0080004 1.5498941 0.6117987 0
5.0090003 1.5419266 0.61184382 0
5.0100002 1.5339556 0.61188889 0
5.0120001 1.5263218 0.61197913 0
5.0130005 1.5183419 0.61202419 0
5.0140004 1.5103582 0.61206931 0
5.0160003 1.5027065 0.61215949 0
5.0170002 1.4947138 0.61220455 0
5.0180001 1.4867175 0.61224967 0
5.0200005 1.4790478 0.61233985 0
5.0210004 1.4710424 0.61238497 0
5.0350003 1.4672779 0.61301631 0
4.9560003 1.8523927 0.60123563 0
4.9570003 1.8445894 0.6012789 0
4.9590001 1.8371955 0.60136551 0
4.9600005 1.8293834 0.60140878 0
4.9610004 1.8215674 0.60145211 0
4.9630003 1.8141556 0.60153866 0
4.9640002 1.8063307 0.60158193 0
4.9650002 1.7985021 0.6016252 0
4.9670005 1.7910724 0.60171187 0
4.9680004 1.7832347 0.60175514 0
4.9690003 1.7753935 0.60179842 0
4.9710002 1.7679455 0.60188496 0
4.9720001 1.7600954 0.60192823 0
4.9730005 1.7522418 0.60197163 0
4.9750004 1.7447758 0.60205817 0
4.9760003 1.7369128 0.60210145 0
4.9770002 1.7290465 0.60214472 0
4.9780002 1.7211764 0.60218799 0
4.9800005 1.7136872 0.60227466 0
4.9810004 1.705808 0.60231793 0
4.9820004 1.6979254 0.6023612 0
4.9840002 1.6904179 0.60244775 0
4.9850001 1.6825262 0.60249108 0
4.9860005 1.674631 0.60253435 0
4.9880004 1.6671056 0.60262096 0
4.9890003 1.6592013 0.60266423 0
4.9900002 1.6512933 0.60270751 0
4.9920001 1.6437497 0.60279411 0
4.9930005 1.635833 0.60283744 0
4.9940004 1.6279125 0.60288072 0
4.9960003 1.6203508 0.60296726 0
4.9970002 1.6124213 0.60301054 0
4.9980001 1.6044881 0.60305387 0
5.0000005 1.5969086 0.60314047 0
5.0010004 1.5889664 0.60318375 0
5.0020003 1.5810206 0.60322702 0
5.0040002 1.5734229 0.60331362 0
5.0050001 1.5654681 0.6033569 0
5.0060005 1.5575098 0.60340023 0
5.0080004 1.5498941 0.60348678 0
5.0090003 1.5419266 0.60353005 0
5.0100002 1.5339556 0.60357332 0
5.0120001 1.5263218 0.60365993 0
5.0130005 1.5183419 0.60370326 0
5.0140004 1.5103582 0.60374653 0
5.0160003 1.5027065 0.60383308 0
5.0170002 1.4947138 0.60387635 0
5.0180001 1.4867175 0.60391968 0
5.0200005 1.4790478 0.60400629 0
5.0210004 1.4710424 0.60404956 0
5.0350003 1.4672779 0.60465562 0
4.9560003 1.8523927 0.59301746 0
4.9570003 1.8445894 0.59305894 0
4.9590001 1.8371955 0.59314191 0
4.9600005 1.8293834 0.5931834 0
4.9610004 1.8215674 0.59322488 0
4.9630003 1.8141556 0.59330785 0
4.9640002 1.8063307 0.59334934 0
4.9650002 1.7985021 0.59339082 0
4.9670005 1.7910724 0.59347385 0
4.9680004 1.7832347 0.59351534 0
4.9690003 1.7753935 0.59355682 0
4.9710002 1.7679455 0.59363979 0
4.9720001 1.7600954 0.59368128 0
4.9730005 1.7522418 0.59372276 0
4.9750004 1.7447758 0.59380573 0
4.9760003 1.7369128 0.59384722 0
4.9770002 1.7290465 0.5938887 0
4.9780002 1.7211764 0.59393018 0
4.9800005 1.7136872 0.59401321 0
4.9810004 1.705808 0.5940547 0
4.9820004 1.6979254 0.59409618 0
4.9840002 1.6904179 0.59417909 0
4.9850001 1.6825262 0.59422064 0
4.9860005 1.674631 0.59426212 0
4.9880004 1.6671056 0.59434509 0
4.9890003 1.6592013 0.59438658 0
4.9900002 1.6512933 0.59442806 0
4.9920001 1.6437497 0.59451103 0
4.9930005 1.635833 0.59455252 0
4.9940004 1.6279125 0.594594 0
4.9960003 1.6203508 0.59467697 0
4.9970002 1.6124213 0.59471846 0
4.9980001 1.6044881 0.59475994 0
5.0000005 1.5969086 0.59484291 0
5.0010004 1.5889664 0.5948844 0
5.0020003 1.5810206 0.59492588 0
5.0040002 1.5734229 0.59500885 0
5.0050001 1.5654681 0.59505033 0
5.0060005 1.5575098 0.59509188 0
5.0080004 1.5498941 0.59517485 0
5.0090003 1.5419266 0.59521627 0
5.0100002 1.5339556 0.59525782 0
5.0120001 1.5263218 0.59534073 0
5.0130005 1.5183419 0.59538227 0
5.0140004 1.5103582 0.59542376 0
5.0160003 1.5027065 0.59550673 0
5.0170002 1.4947138 0.59554821 0
5.0180001 1.4867175 0.5955897 0
5.0200005 1.4790478 0.59567267 0
5.0210004 1.4710424 0.59571415 0
5.0350003 1.4672779 0.596295 0
4.9560003 1.8523927 0.58479929 0
4.9570003 1.8445894 0.58483899 0
4.9590001 1.8371955 0.58491838 0
4.9600005 1.8293834 0.58495808 0
4.9610004 1.8215674 0.58499777 0
4.9630003 1.8141556 0.58507711 0
4.9640002 1.8063307 0.5851168 0
4.9650002 1.7985021 0.58515644 0
4.9670005 1.7910724 0.58523583 0
4.9680004 1.7832347 0.58527553 0
4.9690003 1.7753935 0.58531523 0
4.9710002 1.7679455 0.58539456 0
4.9720001 1.7600954 0.58543426 0
4.9730005 1.7522418 0.58547395 0
4.9750004 1.7447758 0.58555329 0
4.9760003 1.7369128 0.58559299 0
4.9770002 1.7290465 0.58563268 0
4.9780002 1.7211764 0.58567238 0
4.9800005 1.7136872 0.58575177 0
4.9810004 1.705808 0.58579141 0
4.9820004 1.6979254 0.58583111 0
4.9840002 1.6904179 0.58591044 0
4.9850001 1.6825262 0.58595014 0
4.9860005 1.674631 0.58598983 0
4.9880004 1.6671056 0.58606923 0
4.9890003 1.6592013 0.58610892 0
4.9900002 1.6512933 0.58614856 0
4.9920001 1.6437497 0.58622795 0
4.9930005 1.635833 0.58626759 0
4.9940004 1.6279125 0.58630729 0
4.9960003 1.6203508 0.58638668 0
4.9970002 1.6124213 0.58642638 0
4.9980001 1.6044881 0.58646601 0
5.0000005 1.5969086 0.58654541 0
5.0010004 1.5889664 0.5865851 0
5.0020003 1.5810206 0.58662474 0
5.0040002 1.5734229 0.58670413 0
5.0050001 1.5654681 0.58674383 0
5.0060005 1.5575098 0.58678353 0
5.0080004 1.5498941 0.58686286 0
5.0090003 1.5419266 0.58690256 0
5.0100002 1.5339556 0.58694226 0
5.0120001 1.5263218 0.58702159 0
5.0130005 1.5183419 0.58706129 0
5.0140004 1.5103582 0.58710098 0
5.0160003 1.5027065 0.58718038 0
5.0170002 1.4947138 0.58722001 0
5.0180001 1.4867175 0.58725971 0
5.0200005 1.4790478 0.5873391 0
5.0210004 1.4710424 0.58737874 0
5.0350003 1.4672779 0.58793432 0
4.9560003 1.8523927 0.57658118 0
4.9570003 1.8445894 0.57661903 0
4.9590001 1.8371955 0.57669479 0
4.9600005 1.8293834 0.5767327 0
4.9610004 1.8215674 0.57677054 0
4.9630003 1.8141556 0.57684636 0
4.9640002 1.8063307 0.57688421 0
4.9650002 1.7985021 0.57692206 0
4.9670005 1.7910724 0.57699788 0
4.9680004 1.7832347 0.57703573 0
4.9690003 1.7753935 0.57707357 0
4.9710002 1.7679455 0.57714939 0
4.9720001 1.7600954 0.57718724 0
4.9730005 1.7522418 0.57722515 0
4.9750004 1.7447758 0.57730091 0
4.9760003 1.7369128 0.57733876 0
4.9770002 1.7290465 0.57737666 0
4.9780002 1.7211764 0.57741451 0
4.9800005 1.7136872 0.57749033 0
4.9810004 1.705808 0.57752818 0
4.9820004 1.6979254 0.57756603 0
4.9840002 1.6904179 0.57764179 0
4.9850001 1.6825262 0.57767969 0
4.9860005 1.674631 0.57771754 0
4.9880004 1.6671056 0.57779336 0
4.9890003 1.6592013 0.57783121 0
4.9900002 1.6512933 0.57786906 0
4.9920001 1.6437497 0.57794487 0
4.9930005 1.635833 0.57798272 0
4.9940004 1.6279125 0.57802063 0
4.9960003 1.6203508 0.57809639 0
4.9970002 1.6124213 0.57813424 0
4.9980001 1.6044881 0.57817209 0
5.0000005 1.5969086 0.5782479 0
5.0010004 1.5889664 0.57828581 0
5.0020003 1.5810206 0.57832366 0
5.0040002 1.5734229 0.57839942 0
5.0050001 1.5654681 0.57843727 0
5.0060005 1.5575098 0.57847518 0
5.0080004 1.5498941 0.57855093 0
5.0090003 1.5419266 0.57858878 0
5.0100002 1.5339556 0.57862669 0
5.0120001 1.5263218 0.57870245 0
5.0130005 1.5183419 0.57874036 0
5.0140004 1.5103582 0.57877821 0
5.0160003 1.5027065 0.57885396 0
5.0170002 1.4947138 0.57889187 0
5.0180001 1.4867175 0.57892972 0
5.0200005 1.4790478 0.57900548 0
5.0210004 1.4710424 0.57904339 0
5.0350003 1.4672779 0.57957369 0
4.9560003 1.8523927 0.56836301 0
4.9570003 1.8445894 0.56839907 0
4.9590001 1.8371955 0.56847125 0
4.9600005 1.8293834 0.56850731 0
4.9610004 1.8215674 0.56854343 0
4.9630003 1.8141556 0.56861556 0
4.9640002 1.8063307 0.56865162 0
4.9650002 1.7985021 0.56868768 0
4.9670005 1.7910724 0.56875986 0
4.9680004 1.7832347 0.56879592 0
4.9690003 1.7753935 0.56883204 0
4.9710002 1.7679455 0.56890416 0
4.9720001 1.7600954 0.56894022 0
4.9730005 1.7522418 0.56897628 0
4.9750004 1.7447758 0.56904846 0
4.9760003 1.7369128 0.56908453 0
4.9770002 1.7290465 0.56912065 0
4.9780002 1.7211764 0.56915665 0
4.9800005 1.7136872 0.56922889 0
4.9810004 1.705808 0.56926495 0
4.9820004 1.6979254 0.56930101 0
4.9840002 1.6904179 0.56937313 0
4.9850001 1.6825262 0.56940925 0
4.9860005 1.674631 0.56944531 0
4.9880004 1.6671056 0.56951749 0
4.9890003 1.6592013 0.56955355 0
4.9900002 1.6512933 0.56958961 0
4.9920001 1.6437497 0.56966174 0
4.9930005 1.635833 0.56969786 0
4.9940004 1.6279125 0.56973392 0
4.9960003 1.6203508 0.5698061 0
4.9970002 1.6124213 0.56984216 0
4.9980001 1.6044881 0.56987822 0
5.0000005 1.5969086 0.56995034 0
5.0010004 1.5889664 0.56998646 0
5.0020003 1.5810206 0.57002252 0
5.0040002 1.5734229 0.5700947 0
5.0050001 1.5654681 0.57013071 0
5.0060005 1.5575098 0.57016683 0
5.0080004 1.5498941 0.57023895 0
5.0090003 1.5419266 0.57027507 0
5.0100002 1.5339556 0.57031113 0
5.0120001 1.5263218 0.57038331 0
5.0130005 1.5183419 0.57041937 0
5.0140004 1.5103582 0.57045543 0
5.0160003 1.5027065 0.57052761 0
5.0170002 1.4947138 0.57056367 0
5.0180001 1.4867175 0.57059973 0
5.0200005 1.4790478 0.57067192 0
5.0210004 1.4710424 0.57070798 0
5.0350003 1.4672779 0.57121301 0
4.9560003 1.8523927 0.5601449 0
4.9570003 1.8445894 0.56017911 0
4.9590001 1.8371955 0.56024766 0
4.9600005 1.8293834 0.56028199 0
4.9610004 1.8215674 0.56031621 0
4.9630003 1.8141556 0.56038475 0
4.9640002 1.8063307 0.56041908 0
4.9650002 1.7985021 0.5604533 0
4.9670005 1.7910724 0.56052184 0
4.9680004 1.7832347 0.56055617 0
4.9690003 1.7753935 0.56059039 0
4.9710002 1.7679455 0.56065893 0
4.9720001 1.7600954 0.56069326 0
4.9730005 1.7522418 0.56072748 0
4.9750004 1.7447758 0.56079602 0
4.9760003 1.7369128 0.5608303 0
4.9770002 1.7290465 0.56086457 0
4.9780002 1.7211764 0.56089884 0
4.9800005 1.7136872 0.56096739 0
4.9810004 1.705808 0.56100166 0
4.9820004 1.6979254 0.56103599 0
4.9840002 1.6904179 0.56110448 0
4.9850001 1.6825262 0.56113875 0
4.9860005 1.674631 0.56117308 0
4.9880004 1.6671056 0.56124157 0
4.9890003 1.6592013 0.56127584 0
4.9900002 1.6512933 0.56131011 0
4.9920001 1.6437497 0.56137866 0
4.9930005 1.635833 0.56141293 0
4.9940004 1.6279125 0.5614472 0
4.9960003 1.6203508 0.56151575 0
4.9970002 1.6124213 0.56155002 0
4.9980001 1.6044881 0.56158429 0
5.0000005 1.5969086 0.5616529 0
5.0010004 1.5889664 0.56168711 0
5.0020003 1.5810206 0.56172138 0
5.0040002 1.5734229 0.56178993 0
5.0050001 1.5654681 0.5618242 0
5.0060005 1.5575098 0.56185848 0
5.0080004 1.5498941 0.56192702 0
5.0090003 1.5419266 0.56196129 0
5.0100002 1.5339556 0.56199557 0
5.0120001 1.5263218 0.56206411 0
5.0130005 1.5183419 0.56209838 0
5.0140004 1.5103582 0.56213266 0
5.0160003 1.5027065 0.5622012 0
5.0170002 1.4947138 0.56223547 0
5.0180001 1.4867175 0.56226975 0
5.0200005 1.4790478 0.56233829 0
5.0210004 1.4710424 0.56237257 0
5.0350003 1.4672779 0.56285238 0
4.9560003 1.8523927 0.55192673 0
4.9570003 1.8445894 0.55195916 0
4.9590001 1.8371955 0.55202413 0
4.9600005 1.8293834 0.55205661 0
4.9610004 1.8215674 0.5520891 0
4.9630003 1.8141556 0.552154 0
4.9640002 1.8063307 0.55218649 0
4.9650002 1.7985021 0.55221891 0
4.9670005 1.7910724 0.55228388 0
4.9680004 1.7832347 0.55231637 0
4.9690003 1.7753935 0.55234879 0
4.9710002 1.7679455 0.55241376 0
4.9720001 1.7600954 0.55244619 0
4.9730005 1.7522418 0.55247867 0
4.9750004 1.7447758 0.55254364 0
4.9760003 1.7369128 0.55257607 0
4.9770002 1.7290465 0.55260855 0
4.9780002 1.7211764 0.55264103 0
4.9800005 1.7136872 0.552706 0
4.9810004 1.705808 0.55273843 0
4.9820004 1.6979254 0.55277091 0
4.9840002 1.6904179 0.55283582 0
4.9850001 1.6825262 0.55286831 0
4.9860005 1.674631 0.55290079 0
4.9880004 1.6671056 0.5529657 0
4.9890003 1.6592013 0.55299819 0
4.9900002 1.6512933 0.55303067 0
4.9920001 1.6437497 0.55309558 0
4.9930005 1.635833 0.55312806 0
4.9940004 1.6279125 0.55316055 0
4.9960003 1.6203508 0.55322546 0
4.9970002 1.6124213 0.55325794 0
4.9980001 1.6044881 0.55329037 0
5.0000005 1.5969086 0.55335534 0
5.0010004 1.5889664 0.55338782 0
5.0020003 1.5810206 0.55342031 0
5.0040002 1.5734229 0.55348521 0
5.0050001 1.5654681 0.5535177 0
5.0060005 1.5575098 0.55355012 0
5.0080004 1.5498941 0.55361509 0
5.0090003 1.5419266 0.55364758 0
5.0100002 1.5339556 0.55368 0
5.0120001 1.5263218 0.55374491 0
5.0130005 1.5183419 0.55377746 0
5.0140004 1.5103582 0.55380988 0
5.0160003 1.5027065 0.55387485 0
5.0170002 1.4947138 0.55390728 0
5.0180001 1.4867175 0.55393976 0
5.0200005 1.4790478 0.55400467 0
5.0210004 1.4710424 0.55403721 0
5.0350003 1.4672779 0.55449176 0
4.9560003 1.8523927 0.54370856 0
4.9570003 1.8445894 0.5437392 0
4.9590001 1.8371955 0.54380053 0
4.9600005 1.8293834 0.54383123 0
4.9610004 1.8215674 0.54386187 0
4.9630003 1.8141556 0.54392326 0
4.9640002 1.8063307 0.5439539 0
4.9650002 1.7985021 0.54398453 0
4.9670005 1.7910724 0.54404593 0
4.9680004 1.7832347 0.54407656 0
4.9690003 1.7753935 0.5441072 0
4.9710002 1.7679455 0.54416853 0
4.9720001 1.7600954 0.54419923 0
4.9730005 1.7522418 0.54422987 0
4.9750004 1.7447758 0.5442912 0
4.9760003 1.7369128 0.54432189 0
4.9770002 1.7290465 0.54435253 0
4.9780002 1.7211764 0.54438317 0
4.9800005 1.7136872 0.54444456 0
4.9810004 1.705808 0.5444752 0
4.9820004 1.6979254 0.54450583 0
4.9840002 1.6904179 0.54456717 0
4.9850001 1.6825262 0.54459786 0
4.9860005 1.674631 0.5446285 0
4.9880004 1.6671056 0.54468983 0
4.9890003 1.6592013 0.54472053 0
4.9900002 1.6512933 0.54475117 0
4.9920001 1.6437497 0.5448125 0
4.9930005 1.635833 0.5448432 0
4.9940004 1.6279125 0.54487383 0
4.9960003 1.6203508 0.54493517 0
4.9970002 1.6124213 0.5449658 0
4.9980001 1.6044881 0.5449965 0
5.0000005 1.5969086 0.54505783 0
5.0010004 1.5889664 0.54508847 0
5.0020003 1.5810206 0.54511917 0
5.0040002 1.5734229 0.5451805 0
5.0050001 1.5654681 0.54521114 0
5.0060005 1.5575098 0.54524183 0
5.0080004 1.5498941 0.54530311 0
5.0090003 1.5419266 0.5453338 0
5.0100002 1.5339556 0.5453645 0
5.0120001 1.5263218 0.54542577 0
5.0130005 1.5183419 0.54545647 0
5.0140004 1.5103582 0.54548711 0
5.0160003 1.5027065 0.54554844 0
5.0170002 1.4947138 0.54557908 0
5.0180001 1.4867175 0.54560977 0
5.0200005 1.4790478 0.54567111 0
5.0210004 1.4710424 0.5457018 0
5.0350003 1.4672779 0.54613107 0
4.9560003 1.8523927 0.53549039 0
4.9570003 1.8445894 0.53551924 0
4.9590001 1.8371955 0.535577 0
4.9600005 1.8293834 0.53560585 0
4.9610004 1.8215674 0.53563476 0
4.9630003 1.8141556 0.53569245 0
4.9640002 1.8063307 0.5357213 0
4.9650002 1.7985021 0.53575015 0
4.9670005 1.7910724 0.53580791 0
4.9680004 1.7832347 0.53583676 0
4.9690003 1.7753935 0.5358656 0
4.9710002 1.7679455 0.53592336 0
4.9720001 1.7600954 0.53595221 0
4.9730005 1.7522418 0.53598106 0
4.9750004 1.7447758 0.53603876 0
4.9760003 1.7369128 0.53606761 0
4.9770002 1.7290465 0.53609651 0
4.9780002 1.7211764 0.53612536 0
4.9800005 1.7136872 0.53618312 0
4.9810004 1.705808 0.53621197 0
4.9820004 1.6979254 0.53624082 0
4.9840002 1.6904179 0.53629851 0
4.9850001 1.6825262 0.53632736 0
4.9860005 1.674631 0.53635627 0
4.9880004 1.6671056 0.53641397 0
4.9890003 1.6592013 0.53644282 0
4.9900002 1.6512933 0.53647172 0
4.9920001 1.6437497 0.53652942 0
4.9930005 1.635833 0.53655827 0
4.9940004 1.6279125 0.53658712 0
4.9960003 1.6203508 0.53664488 0
4.9970002 1.6124213 0.53667372 0
4.9980001 1.6044881 0.53670257 0
5.0000005 1.5969086 0.53676033 0
5.0010004 1.5889664 0.53678918 0
5.0020003 1.5810206 0.53681803 0
5.0040002 1.5734229 0.53687572 0
5.0050001 1.5654681 0.53690457 0
5.0060005 1.5575098 0.53693348 0
5.0080004 1.5498941 0.53699118 0
5.0090003 1.5419266 0.53702003 0
5.0100002 1.5339556 0.53704894 0
5.0120001 1.5263218 0.53710663 0
5.0130005 1.5183419 0.53713548 0
5.0140004 1.5103582 0.53716433 0
5.0160003 1.5027065 0.53722209 0
5.0170002 1.4947138 0.53725094 0
5.0180001 1.4867175 0.53727978 0
5.0200005 1.4790478 0.53733754 0
5.0210004 1.4710424 0.53736639 0
5.0350003 1.4672779 0.53777045 0
4.9560003 1.8523927 0.52727228 0
4.9570003 1.8445894 0.52729934 0
4.9590001 1.8371955 0.52735341 0
4.9600005 1.8293834 0.52738053 0
4.9610004 1.8215674 0.52740759 0
4.9630003 1.8141556 0.52746165 0
4.9640002 1.8063307 0.52748871 0
4.9650002 1.7985021 0.52751577 0
4.9670005 1.7910724 0.52756989 0
4.9680004 1.7832347 0.52759695 0
4.9690003 1.7753935 0.52762401 0
4.9710002 1.7679455 0.52767813 0
4.9720001 1.7600954 0.52770519 0
4.9730005 1.7522418 0.52773225 0
4.9750004 1.7447758 0.52778637 0
4.9760003 1.7369128 0.52781343 0
4.9770002 1.7290465 0.52784044 0
4.9780002 1.7211764 0.5278675 0
4.9800005 1.7136872 0.52792162 0
4.9810004 1.705808 0.52794868 0
4.9820004 1.6979254 0.52797574 0
4.9840002 1.6904179 0.52802986 0
4.9850001 1.6825262 0.52805692 0
4.9860005 1.674631 0.52808398 0
4.9880004 1.6671056 0.5281381 0
4.9890003 1.6592013 0.52816516 0
4.9900002 1.6512933 0.52819222 0
4.9920001 1.6437497 0.52824628 0
4.9930005 1.635833 0.5282734 0
4.9940004 1.6279125 0.52830046 0
4.9960003 1.6203508 0.52835453 0
4.9970002 1.6124213 0.52838159 0
4.9980001 1.6044881 0.52840865 0
5.0000005 1.5969086 0.52846277 0
5.0010004 1.5889664 0.52848983 0
5.0020003 1.5810206 0.52851689 0
5.0040002 1.5734229 0.52857101 0
5.0050001 1.5654681 0.52859807 0
5.0060005 1.5575098 0.52862513 0
5.0080004 1.5498941 0.52867925 0
5.0090003 1.5419266 0.52870631 0
5.0100002 1.5339556 0.52873337 0
5.0120001 1.5263218 0.52878749 0
5.0130005 1.5183419 0.52881455 0
5.0140004 1.5103582 0.52884161 0
5.0160003 1.5027065 0.52889568 0
5.0170002 1.4947138 0.52892274 0
5.0180001 1.4867175 0.5289498 0
5.0200005 1.4790478 0.52900392 0
5.0210004 1.4710424 0.52903098 0
5.0350003 1.4672779 0.52940977 0
4.9560003 1.8523927 0.51905411 0
4.9570003 1.8445894 0.51907939 0
4.9590001 1.8371955 0.51912987 0
4.9600005 1.8293834 0.51915514 0
4.9610004 1.8215674 0.51918042 0
4.9630003 1.8141556 0.5192309 0
4.9640002 1.8063307 0.51925611 0
4.9650002 1.7985021 0.51928139 0
4.9670005 1.7910724 0.51933193 0
4.9680004 1.7832347 0.51935714 0
4.9690003 1.7753935 0.51938242 0
4.9710002 1.7679455 0.5194329 0
4.9720001 1.7600954 0.51945817 0
4.9730005 1.7522418 0.51948345 0
4.9750004 1.7447758 0.51953393 0
4.9760003 1.7369128 0.5195592 0
4.9770002 1.7290465 0.51958442 0
4.9780002 1.7211764 0.51960969 0
4.9800005 1.7136872 0.51966017 0
4.9810004 1.705808 0.51968545 0
4.9820004 1.6979254 0.51971072 0
4.9840002 1.6904179 0.5197612 0
4.9850001 1.6825262 0.51978648 0
4.9860005 1.674631 0.51981175 0
4.9880004 1.6671056 0.51986223 0
4.9890003 1.6592013 0.51988745 0
4.9900002 1.6512933 0.51991272 0
4.9920001 1.6437497 0.51996326 0
4.9930005 1.635833 0.51998848 0
4.9940004 1.6279125 0.52001375 0
4.9960003 1.6203508 0.52006423 0
4.9970002 1.6124213 0.52008951 0
4.9980001 1.6044881 0.52011478 0
5.0000005 1.5969086 0.52016526 0
5.0010004 1.5889664 0.52019054 0
5.0020003 1.5810206 0.52021575 0
5.0040002 1.5734229 0.52026629 0
5.0050001 1.5654681 0.52029151 0
5.0060005 1.5575098 0.52031678 0
5.0080004 1.5498941 0.52036726 0
5.0090003 1.5419266 0.52039254 0
5.0100002 1.5339556 0.52041781 0
5.0120001 1.5263218 0.52046829 0
5.0130005 1.5183419 0.52049357 0
5.0140004 1.5103582 0.52051884 0
5.0160003 1.5027065 0.52056932 0
5.0170002 1.4947138 0.5205946 0
5.0180001 1.4867175 0.52061981 0
5.0200005 1.4790478 0.52067035 0
5.0210004 1.4710424 0.52069557 0
5.0350003 1.4672779 0.52104914 0
4.9560003 1.8523927 0.51083595 0
4.9570003 1.8445894 0.51085943 0
4.9590001 1.8371955 0.51090634 0
4.9600005 1.8293834 0.51092976 0
4.9610004 1.8215674 0.51095319 0
4.9630003 1.8141556 0.5110001 0
4.9640002 1.8063307 0.51102358 0
4.9650002 1.7985021 0.51104701 0
4.9670005 1.7910724 0.51109391 0
4.9680004 1.7832347 0.51111734 0
4.9690003 1.7753935 0.51114082 0
4.9710002 1.7679455 0.51118773 0
4.9720001 1.7600954 0.51121116 0
4.9730005 1.7522418 0.51123464 0
4.9750004 1.7447758 0.51128149 0
4.9760003 1.7369128 0.51130497 0
4.9770002 1.7290465 0.5113284 0
4.9780002 1.7211764 0.51135182 0
4.9800005 1.7136872 0.51139879 0
4.9810004 1.705808 0.51142222 0
4.9820004 1.6979254 0.51144564 0
4.9840002 1.6904179 0.51149255 0
4.9850001 1.6825262 0.51151597 0
4.9860005 1.674631 0.51153946 0
4.9880004 1.6671056 0.51158637 0
4.9890003 1.6592013 0.51160979 0
4.9900002 1.6512933 0.51163328 0
4.9920001 1.6437497 0.51168013 0
4.9930005 1.635833 0.51170361 0
4.9940004 1.6279125 0.51172704 0
4.9960003 1.6203508 0.51177394 0
4.9970002 1.6124213 0.51179743 0
4.9980001 1.6044881 0.51182085 0
5.0000005 1.5969086 0.51186776 0
5.0010004 1.5889664 0.51189119 0
5.0020003 1.5810206 0.51191467 0
5.0040002 1.5734229 0.51196152 0
5.0050001 1.5654681 0.511985 0
5.0060005 1.5575098 0.51200843 0
5.0080004 1.5498941 0.51205534 0
5.0090003 1.5419266 0.51207876 0
5.0100002 1.5339556 0.51210225 0
5.0120001 1.5263218 0.51214916 0
5.0130005 1.5183419 0.51217258 0
5.0140004 1.5103582 0.51219606 0
5.0160003 1.5027065 0.51224291 0
5.0170002 1.4947138 0.5122664 0
5.0180001 1.4867175 0.51228982 0
5.0200005 1.4790478 0.51233673 0
5.0210004 1.4710424 0.51236022 0
5.0350003 1.4672779 0.51268846 0
4.9560003 1.8523927 0.50261784 0
4.9570003 1.8445894 0.50263947 0
4.9590001 1.8371955 0.50268275 0
4.9600005 1.8293834 0.50270438 0
4.9610004 1.8215674 0.50272608 0
4.9630003 1.8141556 0.50276935 0
4.9640002 1.8063307 0.50279099 0
4.9650002 1.7985021 0.50281262 0
4.9670005 1.7910724 0.5028559 0
4.9680004 1.7832347 0.50287759 0
4.9690003 1.7753935 0.50289923 0
4.9710002 1.7679455 0.5029425 0
4.9720001 1.7600954 0.50296414 0
4.9730005 1.7522418 0.50298584 0
4.9750004 1.7447758 0.50302911 0
4.9760003 1.7369128 0.50305074 0
4.9770002 1.7290465 0.50307238 0
4.9780002 1.7211764 0.50309402 0
4.9800005 1.7136872 0.50313735 0
4.9810004 1.705808 0.50315899 0
4.9820004 1.6979254 0.50318062 0
4.9840002 1.6904179 0.5032239 0
4.9850001 1.6825262 0.50324553 0
4.9860005 1.674631 0.50326717 0
4.9880004 1.6671056 0.5033105 0
4.9890003 1.6592013 0.50333214 0
4.9900002 1.6512933 0.50335377 0
4.9920001 1.6437497 0.50339705 0
4.9930005 1.635833 0.50341868 0
4.9940004 1.6279125 0.50344038 0
4.9960003 1.6203508 0.50348365 0
4.9970002 1.6124213 0.50350529 0
4.9980001 1.6044881 0.50352693 0
5.0000005 1.5969086 0.5035702 0
5.0010004 1.5889664 0.5035919 0
5.0020003 1.5810206 0.50361353 0
5.0040002 1.5734229 0.5036568 0
5.0050001 1.5654681 0.50367844 0
5.0060005 1.5575098 0.50370014 0
5.0080004 1.5498941 0.50374341 0
5.0090003 1.5419266 0.50376505 0
5.0100002 1.5339556 0.50378668 0
5.0120001 1.5263218 0.50382996 0
5.0130005 1.5183419 0.50385165 0
5.0140004 1.5103582 0.50387329 0
5.0160003 1.5027065 0.50391656 0
5.0170002 1.4947138 0.5039382 0
5.0180001 1.4867175 0.50395983 0
5.0200005 1.4790478 0.50400317 0
5.0210004 1.4710424 0.5040248 0
5.0350003 1.4672779 0.50432783 0
4.9560003 1.8523927 0.49439967 0
4.9570003 1.8445894 0.49441952 0
4.9590001 1.8371955 0.49445918 0
4.9600005 1.8293834 0.49447903 0
4.9610004 1.8215674 0.49449888 0
4.9630003 1.8141556 0.49453855 0
4.9640002 1.8063307 0.49455839 0
4.9650002 1.7985021 0.49457824 0
4.9670005 1.7910724 0.49461794 0
4.9680004 1.7832347 0.49463779 0
4.9690003 1.7753935 0.49465761 0
4.9710002 1.7679455 0.4946973 0
4.9720001 1.7600954 0.49471712 0
4.9730005 1.7522418 0.49473697 0
4.9750004 1.7447758 0.49477667 0
4.9760003 1.7369128 0.49479651 0
4.9770002 1.7290465 0.49481633 0
4.9780002 1.7211764 0.49483618 0
4.9800005 1.7136872 0.49487588 0
4.9810004 1.705808 0.4948957 0
4.9820004 1.6979254 0.49491554 0
4.9840002 1.6904179 0.49495524 0
4.9850001 1.6825262 0.49497509 0
4.9860005 1.674631 0.49499494 0
4.9880004 1.6671056 0.49503461 0
4.9890003 1.6592013 0.49505445 0
4.9900002 1.6512933 0.49507427 0
4.9920001 1.6437497 0.49511397 0
4.9930005 1.635833 0.49513382 0
4.9940004 1.6279125 0.49515367 0
4.9960003 1.6203508 0.49519336 0
4.9970002 1.6124213 0.49521318 0
4.9980001 1.6044881 0.49523303 0
5.0000005 1.5969086 0.49527273 0
5.0010004 1.5889664 0.49529254 0
5.0020003 1.5810206 0.49531239 0
5.0040002 1.5734229 0.49535209 0
5.0050001 1.5654681 0.49537191 0
5.0060005 1.5575098 0.49539176 0
5.0080004 1.5498941 0.49543145 0
5.0090003 1.5419266 0.49545127 0
5.0100002 1.5339556 0.49547112 0
5.0120001 1.5263218 0.49551082 0
5.0130005 1.5183419 0.49553066 0
5.0140004 1.5103582 0.49555051 0
5.0160003 1.5027065 0.49559018 0
5.0170002 1.4947138 0.49561003 0
5.0180001 1.4867175 0.49562985 0
5.0200005 1.4790478 0.49566954 0
5.0210004 1.4710424 0.49568939 0
5.0350003 1.4672779 0.49596718 0
4.9560003 1.8523927 0.4861815 0
4.9570003 1.8445894 0.48619956 0
4.9590001 1.8371955 0.48623562 0
4.9600005 1.8293834 0.48625368 0
4.9610004 1.8215674 0.48627171 0
4.9630003 1.8141556 0.4863078 0
4.9640002 1.8063307 0.4863258 0
4.9650002 1.7985021 0.48634386 0
4.9670005 1.7910724 0.48637995 0
4.9680004 1.7832347 0.48639798 0
4.9690003 1.7753935 0.48641601 0
4.9710002 1.7679455 0.48645207 0
4.9720001 1.7600954 0.48647013 0
4.9730005 1.7522418 0.48648816 0
4.9750004 1.7447758 0.48652425 0
4.9760003 1.7369128 0.48654228 0
4.9770002 1.7290465 0.48656031 0
4.9780002 1.7211764 0.48657835 0
4.9800005 1.7136872 0.48661444 0
4.9810004 1.705808 0.48663247 0
4.9820004 1.6979254 0.48665053 0
4.9840002 1.6904179 0.48668659 0
4.9850001 1.6825262 0.48670462 0
4.9860005 1.674631 0.48672265 0
4.9880004 1.6671056 0.48675874 0
4.9890003 1.6592013 0.48677677 0
4.9900002 1.6512933 0.48679483 0
4.9920001 1.6437497 0.48683089 0
4.9930005 1.635833 0.48684892 0
4.9940004 1.6279125 0.48686695 0
4.9960003 1.6203508 0.48690304 0
4.9970002 1.6124213 0.48692107 0
4.9980001 1.6044881 0.4869391 0
5.0000005 1.5969086 0.48697519 0
5.0010004 1.5889664 0.48699322 0
5.0020003 1.5810206 0.48701128 0
5.0040002 1.5734229 0.48704734 0
5.0050001 1.5654681 0.48706537 0
5.0060005 1.5575098 0.48708344 0
5.0080004 1.5498941 0.4871195 0
5.0090003 1.5419266 0.48713756 0
5.0100002 1.5339556 0.48715556 0
5.0120001 1.5263218 0.48719165 0
5.0130005 1.5183419 0.48720968 0
5.0140004 1.5103582 0.48722774 0
5.0160003 1.5027065 0.4872638 0
5.0170002 1.4947138 0.48728183 0
5.0180001 1.4867175 0.48729986 0
5.0200005 1.4790478 0.48733595 0
5.0210004 1.4710424 0.48735398 0
5.0350003 1.4672779 0.48760653 0
4.9560003 1.8523927 0.47796336 0
4.9570003 1.8445894 0.4779796 0
4.9590001 1.8371955 0.47801206 0
4.9600005 1.8293834 0.4780283 0
4.9610004 1.8215674 0.47804454 0
4.9630003 1.8141556 0.47807699 0
4.9640002 1.8063307 0.47809324 0
4.9650002 1.7985021 0.47810948 0
4.9670005 1.7910724 0.47814196 0
4.9680004 1.7832347 0.47815818 0
4.9690003 1.7753935 0.47817442 0
4.9710002 1.7679455 0.47820687 0
4.9720001 1.7600954 0.47822312 0
4.9730005 1.7522418 0.47823936 0
4.9750004 1.7447758 0.47827181 0
4.9760003 1.7369128 0.47828805 0
4.9770002 1.7290465 0.47830427 0
4.9780002 1.7211764 0.47832051 0
4.9800005 1.7136872 0.47835299 0
4.9810004 1.705808 0.47836924 0
4.9820004 1.6979254 0.47838545 0
4.9840002 1.6904179 0.47841793 0
4.9850001 1.6825262 0.47843415 0
4.9860005 1.674631 0.47845039 0
4.9880004 1.6671056 0.47848287 0
4.9890003 1.6592013 0.47849911 0
4.9900002 1.6512933 0.47851533 0
4.9920001 1.6437497 0.47854781 0
4.9930005 1.635833 0.47856402 0
4.9940004 1.6279125 0.47858027 0
4.9960003 1.6203508 0.47861272 0
4.9970002 1.6124213 0.47862896 0
4.9980001 1.6044881 0.47864521 0
5.0000005 1.5969086 0.47867769 0
5.0010004 1.5889664 0.4786939 0
5.0020003 1.5810206 0.47871014 0
5.0040002 1.5734229 0.4787426 0
5.0050001 1.5654681 0.47875884 0
5.0060005 1.5575098 0.47877508 0
5.0080004 1.5498941 0.47880757 0
5.0090003 1.5419266 0.47882378 0
5.0100002 1.5339556 0.47884002 0
5.0120001 1.5263218 0.47887248 0
5.0130005 1.5183419 0.47888872 0
5.0140004 1.5103582 0.47890496 0
5.0160003 1.5027065 0.47893742 0
5.0170002 1.4947138 0.47895366 0
5.0180001 1.4867175 0.47896987 0
5.0200005 1.4790478 0.47900236 0
5.0210004 1.4710424 0.4790186 0
5.0350003 1.4672779 0.47924587 0
4.9560003 1.8523927 0.46974522 0
4.9570003 1.8445894 0.46975964 0
4.9590001 1.8371955 0.46978849 0
4.9600005 1.8293834 0.46980295 0
4.9610004 1.8215674 0.46981737 0
4.9630003 1.8141556 0.46984622 0
4.9640002 1.8063307 0.46986067 0
4.9650002 1.7985021 0.4698751 0
4.9670005 1.7910724 0.46990395 0
4.9680004 1.7832347 0.46991837 0
4.9690003 1.7753935 0.46993279 0
4.9710002 1.7679455 0.46996167 0
4.9720001 1.7600954 0.4699761 0
4.9730005 1.7522418 0.46999055 0
4.9750004 1.7447758 0.4700194 0
4.9760003 1.7369128 0.47003382 0
4.9770002 1.7290465 0.47004825 0
4.9780002 1.7211764 0.47006267 0
4.9800005 1.7136872 0.47009155 0
4.9810004 1.705808 0.47010598 0
4.9820004 1.6979254 0.4701204 0
4.9840002 1.6904179 0.47014928 0
4.9850001 1.6825262 0.4701637 0
4.9860005 1.674631 0.47017813 0
4.9880004 1.6671056 0.47020698 0
4.9890003 1.6592013 0.47022143 0
4.9900002 1.6512933 0.47023585 0
4.9920001 1.6437497 0.4702647 0
4.9930005 1.635833 0.47027916 0
4.9940004 1.6279125 0.47029358 0
4.9960003 1.6203508 0.47032243 0
4.9970002 1.6124213 0.47033685 0
4.9980001 1.6044881 0.47035128 0
5.0000005 1.5969086 0.47038016 0
5.0010004 1.5889664 0.47039458 0
5.0020003 1.5810206 0.47040904 0
5.0040002 1.5734229 0.47043788 0
5.0050001 1.5654681 0.47045231 0
5.0060005 1.5575098 0.47046673 0
5.0080004 1.5498941 0.47049561 0
5.0090003 1.5419266 0.47051004 0
5.0100002 1.5339556 0.47052446 0
5.0120001 1.5263218 0.47055331 0
5.0130005 1.5183419 0.47056776 0
5.0140004 1.5103582 0.47058219 0
5.0160003 1.5027065 0.47061104 0
5.0170002 1.4947138 0.47062546 0
5.0180001 1.4867175 0.47063988 0
5.0200005 1.4790478 0.47066876 0
5.0210004 1.4710424 0.47068319 0
5.0350003 1.4672779 0.47088522 0
4.9560003 1.8523927 0.46152708 0
4.9570003 1.8445894 0.46153969 0
4.9590001 1.8371955 0.46156496 0
4.9600005 1.8293834 0.46157756 0
4.9610004 1.8215674 0.4615902 0
4.9630003 1.8141556 0.46161544 0
4.9640002 1.8063307 0.46162808 0
4.9650002 1.7985021 0.46164072 0
4.9670005 1.7910724 0.46166596 0
4.9680004 1.7832347 0.46167859 0
4.9690003 1.7753935 0.4616912 0
4.9710002 1.7679455 0.46171647 0
4.9720001 1.7600954 0.46172911 0
4.9730005 1.7522418 0.46174172 0
4.9750004 1.7447758 0.46176696 0
4.9760003 1.7369128 0.46177959 0
4.9770002 1.7290465 0.46179223 0
4.9780002 1.7211764 0.46180487 0
4.9800005 1.7136872 0.46183011 0
4.9810004 1.705808 0.46184272 0
4.9820004 1.6979254 0.46185535 0
4.9840002 1.6904179 0.46188062 0
4.9850001 1.6825262 0.46189323 0
4.9860005 1.674631 0.46190587 0
4.9880004 1.6671056 0.46193111 0
4.9890003 1.6592013 0.46194375 0
4.9900002 1.6512933 0.46195638 0
4.9920001 1.6437497 0.46198162 0
4.9930005 1.635833 0.46199426 0
4.9940004 1.6279125 0.46200687 0
4.9960003 1.6203508 0.46203214 0
4.9970002 1.6124213 0.46204475 0
4.9980001 1.6044881 0.46205738 0
