# .PCD v0.7 - Point Cloud Data file format
VERSION 0.7
FIELDS x y z intensity
SIZE 4 4 4 4
TYPE F F F F
COUNT 1 1 1 1
WIDTH 1412
HEIGHT 1
VIEWPOINT 0 0 0 1 0 0 0
POINTS 1412
DATA ascii
5.3520002 -1.2429494 0.47545969 0
5.3490005 -1.2511513 0.47541639 0
5.3450003 -1.2590971 0.47535866 0
5.3420005 -1.2672757 0.47531539 0
5.3380003 -1.2751943 0.47525766 0
5.3350005 -1.2833494 0.47521436 0
5.3310003 -1.2912409 0.47515664 0
5.3280005 -1.2993727 0.47511336 0
5.3240004 -1.3072371 0.47505563 0
5.3210001 -1.3153452 0.47501233 0
5.3170004 -1.3231828 0.47495461 0
5.3140001 -1.3312675 0.47491133 0
5.3100004 -1.3390779 0.47485361 0
5.3070002 -1.3471391 0.4748103 0
5.3030005 -1.3549227 0.4747526 0
5.3000002 -1.3629603 0.4747093 0
5.2970004 -1.3709874 0.474666 0
5.2930002 -1.378731 0.47460827 0
5.2900004 -1.3867346 0.474565 0
5.2860003 -1.3944513 0.47450727 0
5.3040004 -1.4348025 0.47476703 0
5.2830005 -1.4376633 0.474464 0
5.2730002 -1.4436032 0.47431967 0
5.2650003 -1.4500843 0.47420424 0
5.2590003 -1.4571173 0.47411764 0
5.2550001 -1.4647132 0.47405994 0
5.2520003 -1.4725887 0.47401664 0
5.2510004 -1.4810449 0.47400221 0
5.2510004 -1.4897952 0.47400221 0
5.2530003 -1.4991443 0.47403106 0
5.2580004 -1.5094044 0.47410321 0
5.2670002 -1.5208945 0.47423309 0
5.1680002 -1.6027008 0.47280449 0
5.1650004 -1.6103166 0.47276118 0
5.1610003 -1.6175913 0.47270346 0
5.1580005 -1.6251836 0.47266018 0
5.1550002 -1.6327651 0.47261688 0
5.4120002 -1.1399231 0.46728483 0
5.4000001 -1.146323 0.46713328 0
5.3930001 -1.1537889 0.46704492 0
5.3870006 -1.1614535 0.46696916 0
5.3830004 -1.1695471 0.46691865 0
5.3810005 -1.1780809 0.4668934 0
5.3790002 -1.1866075 0.46686813 0
5.3750005 -1.1946651 0.46681765 0
5.3720002 -1.2029409 0.46677977 0
5.3680005 -1.2109715 0.46672925 0
5.3650002 -1.219224 0.46669137 0
5.3610005 -1.2272274 0.46664086 0
5.3580003 -1.2354563 0.46660298 0
5.3540006 -1.2434329 0.46655247 0
5.3510003 -1.2516383 0.46651459 0
5.3470001 -1.2595876 0.4664641 0
5.3440003 -1.2677698 0.46642619 0
5.3400002 -1.2756921 0.46637571 0
5.3370004 -1.2838508 0.46633783 0
5.3330002 -1.291746 0.46628731 0
5.3300004 -1.2998813 0.46624944 0
5.3270001 -1.3080056 0.46621156 0
5.3230004 -1.3158612 0.46616104 0
5.3200002 -1.323962 0.46612316 0
5.3160005 -1.3317907 0.46607268 0
5.3130002 -1.3398681 0.46603477 0
5.3090005 -1.3476695 0.46598428 0
5.3060002 -1.3557235 0.46594641 0
5.3020005 -1.363498 0.46589589 0
5.2990003 -1.3715285 0.46585801 0
5.2960005 -1.3795483 0.46582013 0
5.2920003 -1.387283 0.46576962 0
5.2890005 -1.3952793 0.46573174 0
5.3040004 -1.4348025 0.46592113 0
5.2830005 -1.4376633 0.46565598 0
5.2730002 -1.4436032 0.46552971 0
5.2650003 -1.4500843 0.46542871 0
5.2590003 -1.4571173 0.46535295 0
5.2550001 -1.4647132 0.46530244 0
5.2520003 -1.4725887 0.46526456 0
5.2510004 -1.4810449 0.46525192 0
5.2510004 -1.4897952 0.46525192 0
5.2530003 -1.4991443 0.46527719 0
5.2580004 -1.5094044 0.46534032 0
5.2670002 -1.5208945 0.46545395 0
5.1680002 -1.6027008 0.46420392 0
5.1650004 -1.6103166 0.46416605 0
5.1610003 -1.6175913 0.46411553 0
5.1580005 -1.6251836 0.46407765 0
5.1550002 -1.6327651 0.46403977 0
5.4120002 -1.1399231 0.45824414 0
5.4000001 -1.146323 0.45811427 0
5.3930001 -1.1537889 0.45803851 0
5.3870006 -1.1614535 0.45797357 0
5.3830004 -1.1695471 0.45793027 0
5.3810005 -1.1780809 0.45790863 0
5.3800001 -1.1868366 0.45789781 0
5.3800001 -1.1958195 0.45789781 0
5.3760004 -1.2038717 0.45785451 0
5.3730001 -1.2121439 0.45782205 0
5.3690004 -1.2201691 0.45777875 0
5.3660002 -1.228418 0.4577463 0
5.3620005 -1.2364161 0.45770299 0
5.3590002 -1.2446414 0.45767051 0
5.3550005 -1.2526125 0.45762724 0
5.3520002 -1.2608143 0.45759475 0
5.3480005 -1.2687583 0.45755148 0
5.3450003 -1.2769368 0.45751899 0
5.3410006 -1.2848538 0.45747572 0
5.3380003 -1.2930087 0.45744324 0
5.3340001 -1.3008986 0.45739996 0
5.3310003 -1.3090302 0.45736748 0
5.3270001 -1.316893 0.45732421 0
5.3240004 -1.325001 0.45729172 0
5.3200002 -1.3328367 0.45724842 0
5.3170004 -1.3409214 0.45721596 0
5.3140001 -1.3489953 0.45718348 0
5.3100004 -1.3567914 0.45714021 0
5.3070002 -1.3648417 0.45710772 0
5.3030005 -1.3726108 0.45706445 0
5.3000002 -1.3806376 0.45703197 0
5.2960005 -1.3883797 0.45698869 0
5.2930002 -1.3963832 0.45695621 0
5.3040004 -1.4348025 0.45707527 0
5.2830005 -1.4376633 0.456848 0
5.2730002 -1.4436032 0.45673975 0
5.2650003 -1.4500843 0.45665318 0
5.2590003 -1.4571173 0.45658824 0
5.2550001 -1.4647132 0.45654494 0
5.2520003 -1.4725887 0.45651248 0
5.2510004 -1.4810449 0.45650166 0
5.2510004 -1.4897952 0.45650166 0
5.2530003 -1.4991443 0.4565233 0
5.2580004 -1.5094044 0.45657742 0
5.1680002 -1.6027008 0.45560336 0
5.1650004 -1.6103166 0.45557088 0
5.1610003 -1.6175913 0.4555276 0
5.1580005 -1.6251836 0.45549512 0
5.1550002 -1.6327651 0.45546266 0
5.4120002 -1.1399231 0.44920346 0
5.4000001 -1.146323 0.44909522 0
5.3930001 -1.1537889 0.44903207 0
5.3870006 -1.1614535 0.44897798 0
5.3830004 -1.1695471 0.44894189 0
5.3810005 -1.1780809 0.44892386 0
5.3800001 -1.1868366 0.44891483 0
5.3810005 -1.1960504 0.44892386 0
5.3830004 -1.2055005 0.44894189 0
5.3790002 -1.2135509 0.44890583 0
5.3760004 -1.2218232 0.44887877 0
5.3720002 -1.2298465 0.44884267 0
5.3690004 -1.2380954 0.44881564 0
5.3650002 -1.2460916 0.44877955 0
5.3620005 -1.254317 0.44875249 0
5.3580003 -1.2622862 0.44871643 0
5.3550005 -1.2704883 0.44868937 0
5.3510003 -1.2784303 0.44865328 0
5.3480005 -1.2866088 0.44862622 0
5.3440003 -1.294524 0.44859016 0
5.3410006 -1.3026791 0.4485631 0
5.3370004 -1.3105669 0.44852701 0
5.3340001 -1.3186985 0.44849998 0
5.3310003 -1.3268193 0.44847292 0
5.3270001 -1.3346676 0.44843683 0
5.3240004 -1.342765 0.44840977 0
5.3200002 -1.3505862 0.44837371 0
5.3170004 -1.3586602 0.44834664 0
5.3130002 -1.3664542 0.44831055 0
5.3100004 -1.3745048 0.44828349 0
5.3060002 -1.382272 0.44824743 0
5.3030005 -1.390299 0.44822037 0
5.3000002 -1.398315 0.44819331 0
5.2830005 -1.4376633 0.44803998 0
5.2730002 -1.4436032 0.4479498 0
5.2650003 -1.4500843 0.44787765 0
5.2590003 -1.4571173 0.44782352 0
5.2550001 -1.4647132 0.44778746 0
5.2520003 -1.4725887 0.4477604 0
5.2510004 -1.4810449 0.44775137 0
5.2510004 -1.4897952 0.44775137 0
5.2530003 -1.4991443 0.44776943 0
5.2580004 -1.5094044 0.44781452 0
5.1680002 -1.6027008 0.4470028 0
5.1650004 -1.6103166 0.44697574 0
5.1610003 -1.6175913 0.44693968 0
5.1580005 -1.6251836 0.44691262 0
5.1550002 -1.6327651 0.44688556 0
5.4120002 -1.1399231 0.44016275 0
5.4000001 -1.146323 0.44007617 0
5.3930001 -1.1537889 0.44002569 0
5.3870006 -1.1614535 0.43998238 0
5.3830004 -1.1695471 0.43995351 0
5.3810005 -1.1780809 0.43993908 0
5.3800001 -1.1868366 0.43993187 0
5.3810005 -1.1960504 0.43993908 0
5.3840003 -1.2057333 0.43996072 0
5.3900003 -1.2161304 0.44000402 0
5.3870006 -1.2244226 0.43998238 0
5.3840003 -1.2327037 0.43996072 0
5.3800001 -1.2407343 0.43993187 0
5.3770003 -1.2489922 0.43991023 0
5.3730001 -1.2569956 0.43988135 0
5.3700004 -1.2652301 0.43985972 0
5.3670001 -1.2734536 0.43983808 0
5.3630004 -1.2814175 0.4398092 0
5.3600001 -1.2896175 0.43978757 0
5.3560004 -1.2975543 0.43975872 0
5.3530002 -1.3057309 0.43973705 0
5.3490005 -1.3136407 0.4397082 0
5.3460002 -1.3217938 0.43968657 0
5.3420005 -1.3296766 0.43965769 0
5.3390002 -1.3378062 0.43963605 0
5.3360004 -1.3459253 0.43961442 0
5.3320003 -1.3537682 0.43958554 0
5.3290005 -1.3618637 0.4395639 0
5.3250003 -1.3696796 0.43953502 0
5.3220005 -1.3777516 0.43951339 0
5.3180003 -1.3855405 0.43948454 0
5.3150005 -1.3935891 0.4394629 0
5.2830005 -1.4376633 0.43923199 0
5.2730002 -1.4436032 0.43915984 0
5.2650003 -1.4500843 0.43910211 0
5.2590003 -1.4571173 0.43905884 0
5.2550001 -1.4647132 0.43902996 0
5.2520003 -1.4725887 0.43900833 0
5.2510004 -1.4810449 0.43900111 0
5.2510004 -1.4897952 0.43900111 0
5.2530003 -1.4991443 0.43901554 0
5.2580004 -1.5094044 0.43905163 0
5.1680002 -1.6027008 0.43840224 0
5.1650004 -1.6103166 0.4383806 0
5.1610003 -1.6175913 0.43835175 0
5.1580005 -1.6251836 0.43833008 0
5.1550002 -1.6327651 0.43830845 0
5.4120002 -1.1399231 0.43112206 0
5.4000001 -1.146323 0.43105713 0
5.3930001 -1.1537889 0.43101925 0
5.3870006 -1.1614535 0.43098679 0
5.3830004 -1.1695471 0.43096516 0
5.3810005 -1.1780809 0.43095431 0
5.3800001 -1.1868366 0.43094891 0
5.3810005 -1.1960504 0.43095431 0
5.3840003 -1.2057333 0.43097055 0
5.3900003 -1.2161304 0.43100303 0
5.4030004 -1.2282033 0.43107337 0
5.2830005 -1.4376633 0.430424 0
5.2730002 -1.4436032 0.43036988 0
5.2650003 -1.4500843 0.43032658 0
5.2590003 -1.4571173 0.43029413 0
5.2550001 -1.4647132 0.43027249 0
5.2520003 -1.4725887 0.43025625 0
5.2510004 -1.4810449 0.43025082 0
5.2510004 -1.4897952 0.43025082 0
5.2530003 -1.4991443 0.43026167 0
5.2580004 -1.5094044 0.43028873 0
5.1680002 -1.6027008 0.4298017 0
5.1650004 -1.6103166 0.42978546 0
5.1610003 -1.6175913 0.42976379 0
5.1580005 -1.6251836 0.42974758 0
5.1550002 -1.6327651 0.42973134 0
5.1760001 -1.6483877 0.42984498 0
5.4120002 -1.1399231 0.42208138 0
5.4000001 -1.146323 0.42203811 0
5.3930001 -1.1537889 0.42201284 0
5.3870006 -1.1614535 0.4219912 0
5.3830004 -1.1695471 0.42197677 0
5.3810005 -1.1780809 0.42196956 0
5.3800001 -1.1868366 0.42196596 0
5.3810005 -1.1960504 0.42196956 0
5.3840003 -1.2057333 0.42198038 0
5.3900003 -1.2161304 0.42200202 0
5.3020005 -1.2927599 0.42168456 0
5.2990003 -1.3008336 0.42167372 0
5.2950006 -1.3086387 0.42165929 0
5.2920003 -1.316689 0.42164847 0
5.2880001 -1.3244671 0.42163405 0
5.2850003 -1.332494 0.42162323 0
5.2820005 -1.3405102 0.42161241 0
5.2780004 -1.3482485 0.42159796 0
5.2750001 -1.3562411 0.42158714 0
5.2710004 -1.3639525 0.42157272 0
5.2680001 -1.3719217 0.4215619 0
5.2650003 -1.3798801 0.42155108 0
5.2610002 -1.3875517 0.42153662 0
5.2580004 -1.3954866 0.42152581 0
5.2540002 -1.4031311 0.42151138 0
5.2510004 -1.4110427 0.42150056 0
5.2480001 -1.4189433 0.42148975 0
5.2440004 -1.4265482 0.42147532 0
5.2410002 -1.4344254 0.42146447 0
5.2370005 -1.4420033 0.42145005 0
5.2340002 -1.4498571 0.42143923 0
5.2310004 -1.4577 0.42142841 0
5.2270002 -1.4652381 0.42141399 0
5.2240005 -1.4730576 0.42140317 0
5.2210002 -1.4808663 0.42139232 0
5.2170005 -1.4883648 0.4213779 0
5.2140002 -1.49615 0.42136708 0
5.2110004 -1.5039244 0.42135626 0
5.2070003 -1.5113832 0.42134184 0
5.2040005 -1.5191342 0.42133099 0
5.1910005 -1.5497159 0.42128411 0
5.1880002 -1.5574108 0.42127329 0
5.1840005 -1.5647777 0.42125887 0
5.1810002 -1.5724492 0.42124802 0
5.1780005 -1.5801101 0.4212372 0
5.1740003 -1.587437 0.42122278 0
5.1710005 -1.5950745 0.42121196 0
5.1680002 -1.6027008 0.42120114 0
5.1650004 -1.6103166 0.42119032 0
5.1610003 -1.6175913 0.42117587 0
5.1580005 -1.6251836 0.42116505 0
5.1550002 -1.6327651 0.42115423 0
5.1760001 -1.6483877 0.42122999 0
5.4120002 -1.1399231 0.4130407 0
5.4000001 -1.146323 0.41301906 0
5.3930001 -1.1537889 0.41300642 0
5.3870006 -1.1614535 0.41299561 0
5.3830004 -1.1695471 0.41298839 0
5.3810005 -1.1780809 0.41298479 0
5.3800001 -1.1868366 0.41298297 0
5.3810005 -1.1960504 0.41298479 0
5.3840003 -1.2057333 0.41299018 0
5.3900003 -1.2161304 0.41300103 0
5.3020005 -1.2927599 0.41284227 0
5.2990003 -1.3008336 0.41283688 0
5.2950006 -1.3086387 0.41282967 0
5.2920003 -1.316689 0.41282424 0
5.2880001 -1.3244671 0.41281703 0
5.2850003 -1.332494 0.41281161 0
5.2820005 -1.3405102 0.41280621 0
5.2780004 -1.3482485 0.412799 0
5.2750001 -1.3562411 0.41279358 0
5.2710004 -1.3639525 0.41278636 0
5.2680001 -1.3719217 0.41278094 0
5.2650003 -1.3798801 0.41277555 0
5.2610002 -1.3875517 0.41276833 0
5.2580004 -1.3954866 0.41276291 0
5.2540002 -1.4031311 0.4127557 0
5.2510004 -1.4110427 0.41275027 0
5.2480001 -1.4189433 0.41274488 0
5.2440004 -1.4265482 0.41273767 0
5.2410002 -1.4344254 0.41273224 0
5.2370005 -1.4420033 0.41272503 0
5.2340002 -1.4498571 0.41271964 0
5.2310004 -1.4577 0.41271421 0
5.2270002 -1.4652381 0.412707 0
5.2240005 -1.4730576 0.41270158 0
5.2210002 -1.4808663 0.41269618 0
5.2170005 -1.4883648 0.41268897 0
5.2140002 -1.49615 0.41268355 0
5.2110004 -1.5039244 0.41267812 0
5.2070003 -1.5113832 0.41267091 0
5.2040005 -1.5191342 0.41266552 0
5.2010002 -1.5268742 0.41266009 0
5.1970005 -1.5342933 0.41265288 0
5.1940002 -1.5420099 0.41264749 0
5.1910005 -1.5497159 0.41264206 0
5.1880002 -1.5574108 0.41263664 0
5.1840005 -1.5647777 0.41262943 0
5.1810002 -1.5724492 0.41262403 0
5.1780005 -1.5801101 0.41261861 0
5.1740003 -1.587437 0.4126114 0
5.1710005 -1.5950745 0.41260597 0
5.1680002 -1.6027008 0.41260058 0
5.1650004 -1.6103166 0.41259515 0
5.1610003 -1.6175913 0.41258794 0
5.1580005 -1.6251836 0.41258255 0
5.1550002 -1.6327651 0.41257712 0
5.1760001 -1.6483877 0.412615 0
5.4120002 -1.1399231 0.40400001 0
5.4000001 -1.146323 0.40400001 0
5.3930001 -1.1537889 0.40400001 0
5.3870006 -1.1614535 0.40400001 0
5.3830004 -1.1695471 0.40400001 0
5.3810005 -1.1780809 0.40400001 0
5.3800001 -1.1868366 0.40400001 0
5.3810005 -1.1960504 0.40400001 0
5.3840003 -1.2057333 0.40400001 0
5.3900003 -1.2161304 0.40400001 0
5.3020005 -1.2927599 0.40400001 0
5.2990003 -1.3008336 0.40400001 0
5.2950006 -1.3086387 0.40400001 0
5.2920003 -1.316689 0.40400001 0
5.2880001 -1.3244671 0.40400001 0
5.2850003 -1.332494 0.40400001 0
5.2820005 -1.3405102 0.40400001 0
5.2780004 -1.3482485 0.40400001 0
5.2750001 -1.3562411 0.40400001 0
5.2710004 -1.3639525 0.40400001 0
5.2680001 -1.3719217 0.40400001 0
5.2650003 -1.3798801 0.40400001 0
5.2610002 -1.3875517 0.40400001 0
5.2580004 -1.3954866 0.40400001 0
5.2540002 -1.4031311 0.40400001 0
5.2510004 -1.4110427 0.40400001 0
5.2480001 -1.4189433 0.40400001 0
5.2440004 -1.4265482 0.40400001 0
5.2410002 -1.4344254 0.40400001 0
5.2370005 -1.4420033 0.40400001 0
5.2340002 -1.4498571 0.40400001 0
5.2310004 -1.4577 0.40400001 0
5.2270002 -1.4652381 0.40400001 0
5.2240005 -1.4730576 0.40400001 0
5.2210002 -1.4808663 0.40400001 0
5.2170005 -1.4883648 0.40400001 0
5.2140002 -1.49615 0.40400001 0
5.2110004 -1.5039244 0.40400001 0
5.2070003 -1.5113832 0.40400001 0
5.2040005 -1.5191342 0.40400001 0
5.2010002 -1.5268742 0.40400001 0
5.1970005 -1.5342933 0.40400001 0
5.1940002 -1.5420099 0.40400001 0
5.1910005 -1.5497159 0.40400001 0
5.1880002 -1.5574108 0.40400001 0
5.1840005 -1.5647777 0.40400001 0
5.1810002 -1.5724492 0.40400001 0
5.1780005 -1.5801101 0.40400001 0
5.1740003 -1.587437 0.40400001 0
5.1710005 -1.5950745 0.40400001 0
5.1680002 -1.6027008 0.40400001 0
5.1650004 -1.6103166 0.40400001 0
5.1610003 -1.6175913 0.40400001 0
5.1580005 -1.6251836 0.40400001 0
5.1550002 -1.6327651 0.40400001 0
5.1760001 -1.6483877 0.40400001 0
5.4120002 -1.1399231 0.39495933 0
5.4000001 -1.146323 0.39498097 0
5.3930001 -1.1537889 0.3949936 0
5.3870006 -1.1614535 0.39500442 0
5.3830004 -1.1695471 0.39501163 0
5.3810005 -1.1780809 0.39501524 0
5.3800001 -1.1868366 0.39501706 0
5.3810005 -1.1960504 0.39501524 0
5.3840003 -1.2057333 0.39500985 0
5.3900003 -1.2161304 0.394999 0
5.3020005 -1.2927599 0.39515775 0
5.2990003 -1.3008336 0.39516315 0
5.2950006 -1.3086387 0.39517036 0
5.2920003 -1.316689 0.39517578 0
5.2880001 -1.3244671 0.395183 0
5.2850003 -1.332494 0.39518842 0
5.2820005 -1.3405102 0.39519382 0
5.2780004 -1.3482485 0.39520103 0
5.2750001 -1.3562411 0.39520645 0
5.2710004 -1.3639525 0.39521366 0
5.2680001 -1.3719217 0.39521909 0
5.2440004 -1.4265482 0.39526236 0
5.2410002 -1.4344254 0.39526778 0
5.2370005 -1.4420033 0.395275 0
5.2340002 -1.4498571 0.39528039 0
5.2310004 -1.4577 0.39528582 0
5.2270002 -1.4652381 0.39529303 0
5.2240005 -1.4730576 0.39529845 0
5.2210002 -1.4808663 0.39530385 0
5.2170005 -1.4883648 0.39531106 0
5.2140002 -1.49615 0.39531648 0
5.1940002 -1.5420099 0.39535254 0
5.1910005 -1.5497159 0.39535797 0
5.1880002 -1.5574108 0.39536339 0
5.1840005 -1.5647777 0.3953706 0
5.1810002 -1.5724492 0.395376 0
5.1780005 -1.5801101 0.39538142 0
5.1740003 -1.587437 0.39538863 0
5.1710005 -1.5950745 0.39539406 0
5.1680002 -1.6027008 0.39539945 0
5.1650004 -1.6103166 0.39540488 0
5.1610003 -1.6175913 0.39541209 0
5.1580005 -1.6251836 0.39541748 0
5.1550002 -1.6327651 0.39542291 0
5.1760001 -1.6483877 0.39538503 0
5.4120002 -1.1399231 0.38591865 0
5.4000001 -1.146323 0.38596192 0
5.3930001 -1.1537889 0.38598719 0
5.3870006 -1.1614535 0.38600883 0
5.3830004 -1.1695471 0.38602325 0
5.3810005 -1.1780809 0.38603047 0
5.3800001 -1.1868366 0.38603407 0
5.3810005 -1.1960504 0.38603047 0
5.3840003 -1.2057333 0.38601965 0
5.3900003 -1.2161304 0.38599801 0
5.3290005 -1.3085178 0.38621807 0
5.3180003 -1.3145715 0.38625777 0
5.3120003 -1.321884 0.3862794 0
5.3080006 -1.3296983 0.38629383 0
5.3080006 -1.3385513 0.38629383 0
5.3100004 -1.3479346 0.38628662 0
5.3170004 -1.3586602 0.38626137 0
5.2130003 -1.582666 0.38663656 0
5.2010002 -1.5874947 0.38667986 0
5.1940002 -1.5938947 0.3867051 0
5.1900005 -1.6012435 0.38671952 0
5.1680002 -1.6027008 0.38679889 0
5.1650004 -1.6103166 0.38680971 0
5.1610003 -1.6175913 0.38682416 0
5.1580005 -1.6251836 0.38683498 0
5.1550002 -1.6327651 0.3868458 0
5.4120002 -1.1399231 0.37687796 0
5.4000001 -1.146323 0.3769429 0
5.3930001 -1.1537889 0.37698078 0
5.3870006 -1.1614535 0.37701324 0
5.3830004 -1.1695471 0.37703487 0
5.3810005 -1.1780809 0.37704572 0
5.3800001 -1.1868366 0.37705112 0
5.3810005 -1.1960504 0.37704572 0
5.3840003 -1.2057333 0.37702948 0
5.3900003 -1.2161304 0.37699699 0
5.3290005 -1.3085178 0.37732711 0
5.3180003 -1.3145715 0.37738663 0
5.3120003 -1.321884 0.37741908 0
5.3080006 -1.3296983 0.37744075 0
5.3080006 -1.3385513 0.37744075 0
5.3100004 -1.3479346 0.3774299 0
5.3170004 -1.3586602 0.37739202 0
5.2130003 -1.582666 0.37795484 0
5.2010002 -1.5874947 0.37801975 0
5.1940002 -1.5938947 0.37805766 0
5.1900005 -1.6012435 0.3780793 0
5.1680002 -1.6027008 0.37819833 0
5.1650004 -1.6103166 0.37821457 0
5.1610003 -1.6175913 0.37823623 0
5.1580005 -1.6251836 0.37825245 0
5.1550002 -1.6327651 0.37826869 0
5.4120002 -1.1399231 0.36783728 0
5.4000001 -1.146323 0.36792386 0
5.3930001 -1.1537889 0.36797434 0
5.3870006 -1.1614535 0.36801764 0
5.3830004 -1.1695471 0.36804652 0
5.3810005 -1.1780809 0.36806095 0
5.3800001 -1.1868366 0.36806816 0
5.3810005 -1.1960504 0.36806095 0
5.3840003 -1.2057333 0.36803931 0
5.3900003 -1.2161304 0.36799601 0
5.3290005 -1.3085178 0.36843613 0
5.3180003 -1.3145715 0.36851549 0
5.3120003 -1.321884 0.36855879 0
5.3080006 -1.3296983 0.36858764 0
5.3080006 -1.3385513 0.36858764 0
5.3100004 -1.3479346 0.36857322 0
5.3170004 -1.3586602 0.3685227 0
5.2130003 -1.582666 0.3692731 0
5.2010002 -1.5874947 0.36935967 0
5.1940002 -1.5938947 0.36941019 0
5.1900005 -1.6012435 0.36943904 0
5.1680002 -1.6027008 0.36959779 0
5.1650004 -1.6103166 0.36961943 0
5.1610003 -1.6175913 0.36964828 0
5.1580005 -1.6251836 0.36966994 0
5.1550002 -1.6327651 0.36969158 0
5.4120002 -1.1399231 0.35879657 0
5.4000001 -1.146323 0.35890481 0
5.3930001 -1.1537889 0.35896796 0
5.3870006 -1.1614535 0.35902205 0
5.3830004 -1.1695471 0.35905814 0
5.3810005 -1.1780809 0.35907617 0
5.3800001 -1.1868366 0.3590852 0
5.3810005 -1.1960504 0.35907617 0
5.3840003 -1.2057333 0.35904911 0
5.3900003 -1.2161304 0.35899499 0
5.3290005 -1.3085178 0.35954517 0
5.3180003 -1.3145715 0.35964438 0
5.3120003 -1.321884 0.35969847 0
5.3080006 -1.3296983 0.35973457 0
5.3080006 -1.3385513 0.35973457 0
5.3100004 -1.3479346 0.35971653 0
5.3170004 -1.3586602 0.35965338 0
5.2130003 -1.582666 0.36059138 0
5.2010002 -1.5874947 0.36069959 0
5.1940002 -1.5938947 0.36076272 0
5.1900005 -1.6012435 0.36079881 0
5.1680002 -1.6027008 0.36099723 0
5.1650004 -1.6103166 0.36102429 0
5.1610003 -1.6175913 0.36106035 0
5.1580005 -1.6251836 0.36108741 0
5.1550002 -1.6327651 0.36111447 0
5.4120002 -1.1399231 0.34975588 0
5.4000001 -1.146323 0.34988576 0
5.3930001 -1.1537889 0.34996152 0
5.3870006 -1.1614535 0.35002646 0
5.3830004 -1.1695471 0.35006976 0
5.3810005 -1.1780809 0.3500914 0
5.3800001 -1.1868366 0.35010222 0
5.3810005 -1.1960504 0.3500914 0
5.3840003 -1.2057333 0.35005894 0
5.3900003 -1.2161304 0.349994 0
5.3290005 -1.3085178 0.35065418 0
5.3180003 -1.3145715 0.35077325 0
5.3120003 -1.321884 0.35083818 0
5.3080006 -1.3296983 0.35088146 0
5.3080006 -1.3385513 0.35088146 0
5.3100004 -1.3479346 0.35085982 0
5.3170004 -1.3586602 0.35078406 0
5.2130003 -1.582666 0.35190964 0
5.2010002 -1.5874947 0.35203952 0
5.1940002 -1.5938947 0.35211527 0
5.1900005 -1.6012435 0.35215858 0
5.1880002 -1.6092306 0.35218021 0
5.1890001 -1.6181957 0.35216939 0
5.1930003 -1.6281544 0.35212609 0
5.4120002 -1.1399231 0.3407152 0
5.4000001 -1.146323 0.34086674 0
5.3930001 -1.1537889 0.34095511 0
5.3870006 -1.1614535 0.34103087 0
5.3830004 -1.1695471 0.34108138 0
5.3810005 -1.1780809 0.34110662 0
5.3800001 -1.1868366 0.34111926 0
5.3810005 -1.1960504 0.34110662 0
5.3840003 -1.2057333 0.34106874 0
5.3900003 -1.2161304 0.34099299 0
5.3290005 -1.3085178 0.34176323 0
5.3180003 -1.3145715 0.34190211 0
5.3120003 -1.321884 0.34197786 0
5.3080006 -1.3296983 0.34202838 0
5.3080006 -1.3385513 0.34202838 0
5.3100004 -1.3479346 0.34200311 0
5.3170004 -1.3586602 0.34191474 0
5.2130003 -1.582666 0.34322792 0
5.2010002 -1.5874947 0.34337944 0
5.1940002 -1.5938947 0.34346783 0
5.1900005 -1.6012435 0.34351832 0
5.1880002 -1.6092306 0.34354359 0
5.1890001 -1.6181957 0.34353095 0
5.1930003 -1.6281544 0.34348044 0
5.4120002 -1.1399231 0.33167452 0
5.4000001 -1.146323 0.3318477 0
5.3930001 -1.1537889 0.3319487 0
5.3870006 -1.1614535 0.33203527 0
5.3830004 -1.1695471 0.332093 0
5.3810005 -1.1780809 0.33212185 0
5.3800001 -1.1868366 0.3321363 0
5.3810005 -1.1960504 0.33212185 0
5.3840003 -1.2057333 0.33207858 0
5.3900003 -1.2161304 0.331992 0
5.3290005 -1.3085178 0.33287224 0
5.3180003 -1.3145715 0.333031 0
5.3120003 -1.321884 0.33311757 0
5.3080006 -1.3296983 0.3331753 0
5.3080006 -1.3385513 0.3331753 0
5.3100004 -1.3479346 0.33314642 0
5.3170004 -1.3586602 0.33304542 0
5.2130003 -1.582666 0.33454618 0
5.2010002 -1.5874947 0.33471936 0
5.1940002 -1.5938947 0.33482036 0
5.1900005 -1.6012435 0.33487809 0
5.1880002 -1.6092306 0.33490694 0
5.1890001 -1.6181957 0.33489251 0
5.1930003 -1.6281544 0.33483478 0
5.4120002 -1.1399231 0.32263383 0
5.4000001 -1.146323 0.32282865 0
5.3930001 -1.1537889 0.32294229 0
5.3870006 -1.1614535 0.32303968 0
5.3830004 -1.1695471 0.32310462 0
5.3810005 -1.1780809 0.3231371 0
5.3800001 -1.1868366 0.32315332 0
5.3810005 -1.1960504 0.3231371 0
5.3840003 -1.2057333 0.32308841 0
5.3900003 -1.2161304 0.32299098 0
5.3290005 -1.3085178 0.32398129 0
5.3180003 -1.3145715 0.32415986 0
5.3120003 -1.321884 0.32425725 0
5.3080006 -1.3296983 0.32432219 0
5.3080006 -1.3385513 0.32432219 0
5.3100004 -1.3479346 0.32428974 0
5.3170004 -1.3586602 0.32417607 0
5.2130003 -1.582666 0.32586446 0
5.2010002 -1.5874947 0.32605928 0
5.1940002 -1.5938947 0.32617292 0
5.1900005 -1.6012435 0.32623783 0
5.1880002 -1.6092306 0.32627031 0
5.1890001 -1.6181957 0.32625407 0
5.1930003 -1.6281544 0.32618913 0
5.4120002 -1.1399231 0.31359315 0
5.4000001 -1.146323 0.3138096 0
5.3930001 -1.1537889 0.31393588 0
5.3870006 -1.1614535 0.31404409 0
5.3830004 -1.1695471 0.31411624 0
5.3810005 -1.1780809 0.31415233 0
5.3800001 -1.1868366 0.31417036 0
5.3810005 -1.1960504 0.31415233 0
5.3840003 -1.2057333 0.31409821 0
5.3900003 -1.2161304 0.31399 0
5.3290005 -1.3085178 0.3150903 0
5.3180003 -1.3145715 0.31528872 0
5.3120003 -1.321884 0.31539696 0
5.3080006 -1.3296983 0.31546909 0
5.3080006 -1.3385513 0.31546909 0
5.3100004 -1.3479346 0.31543303 0
5.3170004 -1.3586602 0.31530675 0
5.2130003 -1.582666 0.31718272 0
5.2010002 -1.5874947 0.31739917 0
5.1940002 -1.5938947 0.31752545 0
5.1900005 -1.6012435 0.3175976 0
5.1880002 -1.6092306 0.31763369 0
5.1890001 -1.6181957 0.31761563 0
5.1930003 -1.6281544 0.31754351 0
5.4120002 -1.1399231 0.30455247 0
5.4000001 -1.146323 0.30479056 0
5.3930001 -1.1537889 0.30492947 0
5.3870006 -1.1614535 0.3050485 0
5.3830004 -1.1695471 0.30512786 0
5.3810005 -1.1780809 0.30516756 0
5.3800001 -1.1868366 0.3051874 0
5.3810005 -1.1960504 0.30516756 0
5.3840003 -1.2057333 0.30510804 0
5.3900003 -1.2161304 0.30498898 0
5.3290005 -1.3085178 0.30619931 0
5.3180003 -1.3145715 0.30641758 0
5.3120003 -1.321884 0.30653664 0
5.3080006 -1.3296983 0.30661601 0
5.3080006 -1.3385513 0.30661601 0
5.3100004 -1.3479346 0.30657634 0
5.3170004 -1.3586602 0.30643743 0
5.2130003 -1.582666 0.30850101 0
5.2010002 -1.5874947 0.3087391 0
5.1940002 -1.5938947 0.308878 0
5.1900005 -1.6012435 0.30895734 0
5.1880002 -1.6092306 0.30899704 0
5.1890001 -1.6181957 0.30897719 0
5.1930003 -1.6281544 0.30889782 0
5.4120002 -1.1399231 0.29551178 0
5.4000001 -1.146323 0.29577154 0
5.3930001 -1.1537889 0.29592305 0
5.3870006 -1.1614535 0.2960529 0
5.3830004 -1.1695471 0.29613948 0
5.3810005 -1.1780809 0.29618278 0
5.3800001 -1.1868366 0.29620445 0
5.3810005 -1.1960504 0.29618278 0
5.3840003 -1.2057333 0.29611784 0
5.3900003 -1.2161304 0.29598796 0
5.3290005 -1.3085178 0.29730836 0
5.3180003 -1.3145715 0.29754648 0
5.3120003 -1.321884 0.29767635 0
5.3080006 -1.3296983 0.29776293 0
5.3080006 -1.3385513 0.29776293 0
5.3100004 -1.3479346 0.29771963 0
5.3170004 -1.3586602 0.29756811 0
5.2130003 -1.582666 0.29981926 0
5.2010002 -1.5874947 0.30007902 0
5.1940002 -1.5938947 0.30023053 0
5.1900005 -1.6012435 0.30031711 0
5.1880002 -1.6092306 0.30036041 0
5.1890001 -1.6181957 0.30033875 0
5.1930003 -1.6281544 0.30025217 0
5.4120002 -1.1399231 0.2864711 0
5.4000001 -1.146323 0.28675249 0
5.3930001 -1.1537889 0.28691664 0
5.3870006 -1.1614535 0.28705731 0
5.3830004 -1.1695471 0.2871511 0
5.3810005 -1.1780809 0.28719801 0
5.3800001 -1.1868366 0.28722149 0
5.3810005 -1.1960504 0.28719801 0
5.3840003 -1.2057333 0.28712767 0
5.3900003 -1.2161304 0.28698698 0
5.3290005 -1.3085178 0.2884174 0
5.3180003 -1.3145715 0.28867534 0
5.3120003 -1.321884 0.28881603 0
5.3080006 -1.3296983 0.28890982 0
5.3080006 -1.3385513 0.28890982 0
5.3100004 -1.3479346 0.28886294 0
5.3170004 -1.3586602 0.28869879 0
5.2130003 -1.582666 0.29113752 0
5.2010002 -1.5874947 0.29141894 0
5.1940002 -1.5938947 0.29158306 0
5.1900005 -1.6012435 0.29167688 0
5.1880002 -1.6092306 0.29172379 0
5.1890001 -1.6181957 0.29170033 0
5.1930003 -1.6281544 0.29160655 0
5.4120002 -1.1399231 0.27743042 0
5.4000001 -1.146323 0.27773345 0
5.3930001 -1.1537889 0.27791023 0
5.3870006 -1.1614535 0.27806172 0
5.3830004 -1.1695471 0.27816275 0
5.3810005 -1.1780809 0.27821326 0
5.3800001 -1.1868366 0.27823851 0
5.3810005 -1.1960504 0.27821326 0
5.3840003 -1.2057333 0.27813751 0
5.3900003 -1.2161304 0.27798599 0
5.3290005 -1.3085178 0.27952641 0
5.3180003 -1.3145715 0.2798042 0
5.3120003 -1.321884 0.27995571 0
5.3080006 -1.3296983 0.28005674 0
5.3080006 -1.3385513 0.28005674 0
5.3100004 -1.3479346 0.28000623 0
5.3170004 -1.3586602 0.27982944 0
5.2130003 -1.582666 0.2824558 0
5.2010002 -1.5874947 0.28275883 0
5.1940002 -1.5938947 0.28293562 0
5.1900005 -1.6012435 0.28303662 0
5.1880002 -1.6092306 0.28308713 0
5.1890001 -1.6181957 0.28306189 0
5.1930003 -1.6281544 0.28296086 0
5.4120002 -1.1399231 0.2683897 0
5.4000001 -1.146323 0.2687144 0
5.3930001 -1.1537889 0.26890379 0
5.3870006 -1.1614535 0.26906613 0
5.3830004 -1.1695471 0.26917437 0
5.3810005 -1.1780809 0.26922849 0
5.3800001 -1.1868366 0.26925555 0
5.3810005 -1.1960504 0.26922849 0
5.3840003 -1.2057333 0.26914731 0
5.3900003 -1.2161304 0.26898497 0
5.3290005 -1.3085178 0.27063546 0
5.3180003 -1.3145715 0.27093309 0
5.3120003 -1.321884 0.27109542 0
5.3080006 -1.3296983 0.27120364 0
5.3080006 -1.3385513 0.27120364 0
5.3100004 -1.3479346 0.27114955 0
5.3170004 -1.3586602 0.27096015 0
5.2130003 -1.582666 0.27377409 0
5.2010002 -1.5874947 0.27409875 0
5.1940002 -1.5938947 0.27428818 0
5.1900005 -1.6012435 0.27439639 0
5.1880002 -1.6092306 0.27445051 0
5.1890001 -1.6181957 0.27442345 0
5.1930003 -1.6281544 0.27431524 0
5.4120002 -1.1399231 0.25934905 0
5.4000001 -1.146323 0.25969535 0
5.3930001 -1.1537889 0.25989738 0
5.3870006 -1.1614535 0.26007056 0
5.3830004 -1.1695471 0.26018599 0
5.3810005 -1.1780809 0.26024371 0
5.3800001 -1.1868366 0.26027256 0
5.3810005 -1.1960504 0.26024371 0
5.3840003 -1.2057333 0.26015714 0
5.3900003 -1.2161304 0.25998396 0
5.3290005 -1.3085178 0.2617445 0
5.3180003 -1.3145715 0.26206195 0
5.3120003 -1.321884 0.26223511 0
5.3080006 -1.3296983 0.26235056 0
5.3080006 -1.3385513 0.26235056 0
5.3100004 -1.3479346 0.26229283 0
5.3170004 -1.3586602 0.2620908 0
5.2130003 -1.582666 0.26509234 0
5.2010002 -1.5874947 0.26543868 0
5.1940002 -1.5938947 0.26564071 0
5.1900005 -1.6012435 0.26575613 0
5.1880002 -1.6092306 0.26581389 0
5.1890001 -1.6181957 0.26578504 0
5.1930003 -1.6281544 0.26566958 0
5.4120002 -1.1399231 0.25030833 0
5.4000001 -1.146323 0.25067633 0
5.3930001 -1.1537889 0.25089097 0
5.3870006 -1.1614535 0.25107497 0
5.3830004 -1.1695471 0.25119761 0
5.3810005 -1.1780809 0.25125894 0
5.3800001 -1.1868366 0.25128961 0
5.3810005 -1.1960504 0.25125894 0
5.3840003 -1.2057333 0.25116694 0
5.3900003 -1.2161304 0.25098297 0
5.3290005 -1.3085178 0.25285351 0
5.3180003 -1.3145715 0.25319082 0
5.3120003 -1.321884 0.25337481 0
5.3080006 -1.3296983 0.25349748 0
5.3080006 -1.3385513 0.25349748 0
5.3100004 -1.3479346 0.25343615 0
5.3170004 -1.3586602 0.25322148 0
5.2130003 -1.582666 0.2564106 0
5.2010002 -1.5874947 0.2567786 0
5.1940002 -1.5938947 0.25699323 0
5.1900005 -1.6012435 0.2571159 0
5.1880002 -1.6092306 0.25717723 0
5.1890001 -1.6181957 0.2571466 0
5.1930003 -1.6281544 0.25702393 0
5.4120002 -1.1399231 0.24126765 0
5.4000001 -1.146323 0.24165729 0
5.3930001 -1.1537889 0.24188456 0
5.3870006 -1.1614535 0.24207936 0
5.3830004 -1.1695471 0.24220923 0
5.3810005 -1.1780809 0.24227418 0
5.3800001 -1.1868366 0.24230665 0
5.3810005 -1.1960504 0.24227418 0
5.3840003 -1.2057333 0.24217677 0
5.3900003 -1.2161304 0.24198195 0
5.3290005 -1.3085178 0.24396253 0
5.3180003 -1.3145715 0.24431969 0
5.3120003 -1.321884 0.24451451 0
5.3080006 -1.3296983 0.24464437 0
5.3080006 -1.3385513 0.24464437 0
5.3100004 -1.3479346 0.24457943 0
5.3170004 -1.3586602 0.24435216 0
5.2130003 -1.582666 0.2477289 0
5.2010002 -1.5874947 0.24811852 0
5.1940002 -1.5938947 0.24834581 0
5.1900005 -1.6012435 0.24847566 0
5.1880002 -1.6092306 0.2485406 0
5.1890001 -1.6181957 0.24850814 0
5.1930003 -1.6281544 0.24837826 0
5.4120002 -1.1399231 0.23222697 0
5.4000001 -1.146323 0.23263824 0
5.3930001 -1.1537889 0.23287813 0
5.3870006 -1.1614535 0.23308377 0
5.3830004 -1.1695471 0.23322086 0
5.3810005 -1.1780809 0.23328941 0
5.3800001 -1.1868366 0.23332368 0
5.3810005 -1.1960504 0.23328941 0
5.3840003 -1.2057333 0.23318659 0
5.3900003 -1.2161304 0.23298095 0
5.3290005 -1.3085178 0.23507155 0
5.3180003 -1.3145715 0.23544857 0
5.3120003 -1.321884 0.23565421 0
5.3080006 -1.3296983 0.23579128 0
5.3080006 -1.3385513 0.23579128 0
5.3100004 -1.3479346 0.23572274 0
5.3170004 -1.3586602 0.23548284 0
5.2130003 -1.582666 0.23904715 0
5.2010002 -1.5874947 0.23945844 0
5.1940002 -1.5938947 0.23969834 0
5.1900005 -1.6012435 0.23983541 0
5.1880002 -1.6092306 0.23990399 0
5.1890001 -1.6181957 0.23986971 0
5.1930003 -1.6281544 0.23973261 0
5.4120002 -1.1399231 0.22318627 0
5.4000001 -1.146323 0.22361919 0
5.3930001 -1.1537889 0.22387174 0
5.3870006 -1.1614535 0.22408818 0
5.3830004 -1.1695471 0.22423249 0
5.3810005 -1.1780809 0.22430463 0
5.3800001 -1.1868366 0.22434072 0
5.3810005 -1.1960504 0.22430463 0
5.3840003 -1.2057333 0.2241964 0
5.3900003 -1.2161304 0.22397995 0
5.3290005 -1.3085178 0.22618058 0
5.3180003 -1.3145715 0.22657745 0
5.3120003 -1.321884 0.22679389 0
5.3080006 -1.3296983 0.22693819 0
5.3080006 -1.3385513 0.22693819 0
5.3100004 -1.3479346 0.22686605 0
5.3170004 -1.3586602 0.22661351 0
5.2130003 -1.582666 0.23036544 0
5.2010002 -1.5874947 0.23079835 0
5.1940002 -1.5938947 0.23105088 0
5.1900005 -1.6012435 0.23119518 0
5.1880002 -1.6092306 0.23126735 0
5.1890001 -1.6181957 0.23123127 0
5.1930003 -1.6281544 0.23108697 0
5.4120002 -1.1399231 0.2141456 0
5.4000001 -1.146323 0.21460016 0
5.3930001 -1.1537889 0.21486533 0
5.3870006 -1.1614535 0.21509257 0
5.3830004 -1.1695471 0.21524411 0
5.3810005 -1.1780809 0.21531987 0
5.3800001 -1.1868366 0.21535775 0
5.3810005 -1.1960504 0.21531987 0
5.3840003 -1.2057333 0.21520624 0
5.3900003 -1.2161304 0.21497895 0
5.3290005 -1.3085178 0.21728961 0
5.3180003 -1.3145715 0.21770631 0
5.3120003 -1.321884 0.2179336 0
5.3080006 -1.3296983 0.2180851 0
5.3080006 -1.3385513 0.2180851 0
5.3100004 -1.3479346 0.21800934 0
5.3170004 -1.3586602 0.21774419 0
5.2130003 -1.582666 0.2216837 0
5.2010002 -1.5874947 0.22213827 0
5.1940002 -1.5938947 0.22240342 0
5.1900005 -1.6012435 0.22255494 0
5.1880002 -1.6092306 0.22263071 0
5.1890001 -1.6181957 0.22259283 0
5.1930003 -1.6281544 0.2224413 0
5.4120002 -1.1399231 0.20510492 0
5.4000001 -1.146323 0.20558111 0
5.3930001 -1.1537889 0.2058589 0
5.3870006 -1.1614535 0.20609699 0
5.3830004 -1.1695471 0.20625573 0
5.3810005 -1.1780809 0.2063351 0
5.3800001 -1.1868366 0.20637479 0
5.3810005 -1.1960504 0.2063351 0
5.3840003 -1.2057333 0.20621605 0
5.3900003 -1.2161304 0.20597795 0
5.3290005 -1.3085178 0.20839864 0
5.3180003 -1.3145715 0.20883517 0
5.3120003 -1.321884 0.20907329 0
5.3080006 -1.3296983 0.209232 0
5.3080006 -1.3385513 0.209232 0
5.3100004 -1.3479346 0.20915265 0
5.3170004 -1.3586602 0.20887487 0
5.2130003 -1.582666 0.21300198 0
5.2010002 -1.5874947 0.21347819 0
5.1940002 -1.5938947 0.21375597 0
5.1900005 -1.6012435 0.21391469 0
5.1880002 -1.6092306 0.21399409 0
5.1890001 -1.6181957 0.21395439 0
5.1930003 -1.6281544 0.21379565 0
5.4120002 -1.1399231 0.19606422 0
5.4000001 -1.146323 0.19656208 0
5.3930001 -1.1537889 0.19685248 0
5.3870006 -1.1614535 0.1971014 0
5.3830004 -1.1695471 0.19726735 0
5.3810005 -1.1780809 0.19735032 0
5.3800001 -1.1868366 0.19739182 0
5.3810005 -1.1960504 0.19735032 0
5.3840003 -1.2057333 0.19722587 0
5.3900003 -1.2161304 0.19697694 0
5.3290005 -1.3085178 0.19950767 0
5.3180003 -1.3145715 0.19996405 0
5.3120003 -1.321884 0.20021297 0
5.3080006 -1.3296983 0.20037891 0
5.3080006 -1.3385513 0.20037891 0
5.3100004 -1.3479346 0.20029594 0
5.3170004 -1.3586602 0.20000555 0
5.2130003 -1.582666 0.20432025 0
5.2010002 -1.5874947 0.2048181 0
5.1940002 -1.5938947 0.20510852 0
5.1900005 -1.6012435 0.20527445 0
5.1880002 -1.6092306 0.20535745 0
5.1890001 -1.6181957 0.20531595 0
5.1930003 -1.6281544 0.20514999 0
5.4120002 -1.1399231 0.18702354 0
5.4000001 -1.146323 0.18754303 0
5.3930001 -1.1537889 0.18784608 0
5.3870006 -1.1614535 0.18810581 0
5.3830004 -1.1695471 0.18827897 0
5.3810005 -1.1780809 0.18836556 0
5.3800001 -1.1868366 0.18840885 0
5.3810005 -1.1960504 0.18836556 0
5.3840003 -1.2057333 0.18823569 0
5.3900003 -1.2161304 0.18797593 0
5.3290005 -1.3085178 0.19061671 0
5.3180003 -1.3145715 0.19109292 0
5.3120003 -1.321884 0.19135268 0
5.3080006 -1.3296983 0.19152583 0
5.3080006 -1.3385513 0.19152583 0
5.3100004 -1.3479346 0.19143924 0
5.3170004 -1.3586602 0.1911362 0
5.2130003 -1.582666 0.19563851 0
5.2010002 -1.5874947 0.19615802 0
5.1940002 -1.5938947 0.19646107 0
5.1900005 -1.6012435 0.19663422 0
5.1880002 -1.6092306 0.19672081 0
5.1890001 -1.6181957 0.19667751 0
5.1930003 -1.6281544 0.19650434 0
5.4120002 -1.1399231 0.17798285 0
5.4000001 -1.146323 0.178524 0
5.3930001 -1.1537889 0.17883967 0
5.3870006 -1.1614535 0.17911021 0
5.3830004 -1.1695471 0.17929061 0
5.3810005 -1.1780809 0.17938079 0
5.3800001 -1.1868366 0.1794259 0
5.3810005 -1.1960504 0.17938079 0
5.3840003 -1.2057333 0.1792455 0
5.3900003 -1.2161304 0.17897494 0
5.3290005 -1.3085178 0.18172574 0
5.3180003 -1.3145715 0.1822218 0
5.3120003 -1.321884 0.18249238 0
5.3080006 -1.3296983 0.18267274 0
5.3080006 -1.3385513 0.18267274 0
5.3100004 -1.3479346 0.18258256 0
5.3170004 -1.3586602 0.18226688 0
5.2130003 -1.582666 0.18695679 0
5.2010002 -1.5874947 0.18749794 0
5.1940002 -1.5938947 0.18781359 0
5.1900005 -1.6012435 0.18799397 0
5.1880002 -1.6092306 0.18808417 0
5.1890001 -1.6181957 0.18803908 0
5.1930003 -1.6281544 0.1878587 0
5.4120002 -1.1399231 0.16894217 0
5.4000001 -1.146323 0.16950496 0
5.3930001 -1.1537889 0.16983326 0
5.3870006 -1.1614535 0.17011461 0
5.3830004 -1.1695471 0.17030221 0
5.3810005 -1.1780809 0.17039602 0
5.3800001 -1.1868366 0.17044294 0
5.3810005 -1.1960504 0.17039602 0
5.3840003 -1.2057333 0.17025533 0
5.3900003 -1.2161304 0.16997394 0
5.3290005 -1.3085178 0.17283477 0
5.3180003 -1.3145715 0.17335066 0
5.3120003 -1.321884 0.17363206 0
5.3080006 -1.3296983 0.17381965 0
5.3080006 -1.3385513 0.17381965 0
5.3100004 -1.3479346 0.17372584 0
5.3170004 -1.3586602 0.17339756 0
5.2130003 -1.582666 0.17827505 0
5.2010002 -1.5874947 0.17883785 0
5.1940002 -1.5938947 0.17916614 0
5.1900005 -1.6012435 0.17935373 0
5.1880002 -1.6092306 0.17944753 0
5.1890001 -1.6181957 0.17940065 0
5.1930003 -1.6281544 0.17921305 0
5.4120002 -1.1399231 0.15990147 0
5.4000001 -1.146323 0.16048591 0
5.3930001 -1.1537889 0.16082683 0
5.3870006 -1.1614535 0.16111901 0
5.3830004 -1.1695471 0.16131386 0
5.3810005 -1.1780809 0.16141124 0
5.3800001 -1.1868366 0.16145995 0
5.3810005 -1.1960504 0.16141124 0
5.3840003 -1.2057333 0.16126515 0
5.3900003 -1.2161304 0.16097292 0
5.3290005 -1.3085178 0.1639438 0
5.3180003 -1.3145715 0.16447952 0
5.3120003 -1.321884 0.16477175 0
5.3080006 -1.3296983 0.16496657 0
5.3080006 -1.3385513 0.16496657 0
5.3100004 -1.3479346 0.16486916 0
5.3170004 -1.3586602 0.16452825 0
5.2130003 -1.582666 0.16959333 0
5.2010002 -1.5874947 0.17017777 0
5.1940002 -1.5938947 0.17051868 0
5.1900005 -1.6012435 0.17071347 0
5.1880002 -1.6092306 0.17081091 0
5.1890001 -1.6181957 0.17076223 0
5.1930003 -1.6281544 0.17056738 0
5.4120002 -1.1399231 0.15086079 0
5.4000001 -1.146323 0.15146688 0
5.3930001 -1.1537889 0.15182042 0
5.3870006 -1.1614535 0.15212342 0
5.3830004 -1.1695471 0.15232548 0
5.3810005 -1.1780809 0.15242648 0
5.3800001 -1.1868366 0.152477 0
5.3810005 -1.1960504 0.15242648 0
5.3840003 -1.2057333 0.15227497 0
5.3900003 -1.2161304 0.15197194 0
5.3290005 -1.3085178 0.15505283 0
5.3180003 -1.3145715 0.1556084 0
5.3120003 -1.321884 0.15591143 0
5.3080006 -1.3296983 0.15611346 0
5.3080006 -1.3385513 0.15611346 0
5.3100004 -1.3479346 0.15601245 0
5.3170004 -1.3586602 0.1556589 0
5.2130003 -1.582666 0.1609116 0
5.2010002 -1.5874947 0.16151768 0
5.1940002 -1.5938947 0.16187122 0
5.1900005 -1.6012435 0.16207324 0
5.1880002 -1.6092306 0.16217428 0
5.1890001 -1.6181957 0.16212378 0
5.1930003 -1.6281544 0.16192172 0
5.4120002 -1.1399231 0.1418201 0
5.4000001 -1.146323 0.14244783 0
5.3930001 -1.1537889 0.14281401 0
5.3870006 -1.1614535 0.14312783 0
5.3830004 -1.1695471 0.1433371 0
5.3810005 -1.1780809 0.14344171 0
5.3800001 -1.1868366 0.14349404 0
5.3810005 -1.1960504 0.14344171 0
5.3840003 -1.2057333 0.14328477 0
5.3900003 -1.2161304 0.14297092 0
5.3290005 -1.3085178 0.14616185 0
5.3180003 -1.3145715 0.14673728 0
5.3120003 -1.321884 0.14705116 0
5.3080006 -1.3296983 0.14726037 0
5.3080006 -1.3385513 0.14726037 0
5.3100004 -1.3479346 0.14715573 0
5.3170004 -1.3586602 0.14678958 0
5.2130003 -1.582666 0.15222988 0
5.2010002 -1.5874947 0.1528576 0
5.1940002 -1.5938947 0.15322378 0
5.1900005 -1.6012435 0.153433 0
5.1880002 -1.6092306 0.15353763 0
5.1890001 -1.6181957 0.15348533 0
5.1930003 -1.6281544 0.15327609 0
5.4120002 -1.1399231 0.13277942 0
5.4000001 -1.146323 0.13342878 0
5.3930001 -1.1537889 0.13380757 0
5.3870006 -1.1614535 0.13413224 0
5.3830004 -1.1695471 0.13434872 0
5.3810005 -1.1780809 0.13445696 0
5.3800001 -1.1868366 0.13451108 0
5.3810005 -1.1960504 0.13445696 0
5.3840003 -1.2057333 0.1342946 0
5.3900003 -1.2161304 0.1339699 0
5.3290005 -1.3085178 0.1372709 0
5.3180003 -1.3145715 0.13786614 0
5.3120003 -1.321884 0.13819084 0
5.3080006 -1.3296983 0.13840726 0
5.3080006 -1.3385513 0.13840726 0
5.3100004 -1.3479346 0.13829908 0
5.3170004 -1.3586602 0.13792026 0
5.2130003 -1.582666 0.14354816 0
5.2010002 -1.5874947 0.14419752 0
5.1940002 -1.5938947 0.14457631 0
5.1900005 -1.6012435 0.14479277 0
5.1880002 -1.6092306 0.14490101 0
5.1890001 -1.6181957 0.14484689 0
5.1930003 -1.6281544 0.14463043 0
5.4120002 -1.1399231 0.12373871 0
5.4000001 -1.146323 0.12440977 0
5.3930001 -1.1537889 0.12480116 0
5.3870006 -1.1614535 0.12513664 0
5.3830004 -1.1695471 0.12536034 0
5.3810005 -1.1780809 0.12547219 0
5.3800001 -1.1868366 0.1255281 0
5.3810005 -1.1960504 0.12547219 0
5.3840003 -1.2057333 0.12530443 0
5.3900003 -1.2161304 0.12496892 0
5.3290005 -1.3085178 0.12837991 0
5.3180003 -1.3145715 0.12899503 0
5.3120003 -1.321884 0.12933055 0
5.3080006 -1.3296983 0.12955418 0
5.3080006 -1.3385513 0.12955418 0
5.3100004 -1.3479346 0.12944236 0
5.3170004 -1.3586602 0.12905094 0
5.2130003 -1.582666 0.13486642 0
5.2010002 -1.5874947 0.13553742 0
5.1940002 -1.5938947 0.13592887 0
5.1900005 -1.6012435 0.13615251 0
5.1880002 -1.6092306 0.13626435 0
5.1890001 -1.6181957 0.13620847 0
5.1930003 -1.6281544 0.13598478 0
5.4120002 -1.1399231 0.11469805 0
5.4000001 -1.146323 0.11539072 0
5.3930001 -1.1537889 0.11579475 0
5.3870006 -1.1614535 0.11614108 0
5.3830004 -1.1695471 0.11637196 0
5.3810005 -1.1780809 0.11648741 0
5.3800001 -1.1868366 0.11654514 0
5.3810005 -1.1960504 0.11648741 0
5.3840003 -1.2057333 0.11631426 0
5.3900003 -1.2161304 0.11596793 0
5.3290005 -1.3085178 0.11948895 0
5.3180003 -1.3145715 0.12012389 0
5.3120003 -1.321884 0.12047023 0
5.3080006 -1.3296983 0.1207011 0
5.3080006 -1.3385513 0.1207011 0
5.3100004 -1.3479346 0.12058565 0
5.3170004 -1.3586602 0.12018162 0
5.2130003 -1.582666 0.12618467 0
5.2010002 -1.5874947 0.12687737 0
5.1940002 -1.5938947 0.1272814 0
5.1900005 -1.6012435 0.12751228 0
5.1880002 -1.6092306 0.12762773 0
5.1890001 -1.6181957 0.12757003 0
5.1930003 -1.6281544 0.12733912 0
5.4120002 -1.1399231 0.10565737 0
5.4000001 -1.146323 0.10637167 0
5.3930001 -1.1537889 0.10678837 0
5.3870006 -1.1614535 0.10714549 0
5.3830004 -1.1695471 0.10738358 0
5.3810005 -1.1780809 0.10750264 0
5.3800001 -1.1868366 0.10756218 0
5.3810005 -1.1960504 0.10750264 0
5.3840003 -1.2057333 0.10732409 0
5.3900003 -1.2161304 0.10696691 0
5.3290005 -1.3085178 0.11059797 0
5.3180003 -1.3145715 0.11125275 0
5.3120003 -1.321884 0.11160991 0
5.3080006 -1.3296983 0.111848 0
5.3080006 -1.3385513 0.111848 0
5.3100004 -1.3479346 0.11172897 0
5.3170004 -1.3586602 0.11131227 0
5.2130003 -1.582666 0.11750296 0
5.2010002 -1.5874947 0.11821729 0
5.1940002 -1.5938947 0.11863393 0
5.1900005 -1.6012435 0.11887205 0
5.1880002 -1.6092306 0.11899111 0
5.1890001 -1.6181957 0.11893159 0
5.1930003 -1.6281544 0.11869347 0
5.4120002 -1.1399231 0.096616656 0
5.4000001 -1.146323 0.097352624 0
5.3930001 -1.1537889 0.097781956 0
5.3870006 -1.1614535 0.098149896 0
5.3830004 -1.1695471 0.098395199 0
5.3810005 -1.1780809 0.098517865 0
5.3800001 -1.1868366 0.098579198 0
5.3810005 -1.1960504 0.098517865 0
5.3840003 -1.2057333 0.098333895 0
5.3900003 -1.2161304 0.097965926 0
5.3290005 -1.3085178 0.10170701 0
5.3180003 -1.3145715 0.10238165 0
5.3120003 -1.321884 0.10274962 0
5.3080006 -1.3296983 0.10299492 0
5.3080006 -1.3385513 0.10299492 0
5.3100004 -1.3479346 0.10287225 0
5.3170004 -1.3586602 0.10244295 0
5.2130003 -1.582666 0.10882121 0
5.2010002 -1.5874947 0.10955718 0
5.1940002 -1.5938947 0.10998648 0
5.1900005 -1.6012435 0.11023179 0
5.1880002 -1.6092306 0.11035445 0
5.1890001 -1.6181957 0.11029315 0
5.1930003 -1.6281544 0.11004782 0
5.4120002 -1.1399231 0.087576002 0
5.4000001 -1.146323 0.088333577 0
5.3930001 -1.1537889 0.088775516 0
5.3870006 -1.1614535 0.089154303 0
5.3830004 -1.1695471 0.089406818 0
5.3810005 -1.1780809 0.089533091 0
5.3800001 -1.1868366 0.089596242 0
5.3810005 -1.1960504 0.089533091 0
5.3840003 -1.2057333 0.089343727 0
5.3900003 -1.2161304 0.088964909 0
5.3290005 -1.3085178 0.092816025 0
5.3180003 -1.3145715 0.093510509 0
5.3120003 -1.321884 0.093889296 0
5.3080006 -1.3296983 0.094141811 0
5.3080006 -1.3385513 0.094141811 0
5.3100004 -1.3479346 0.094015568 0
5.3170004 -1.3586602 0.09357363 0
5.2130003 -1.582666 0.1001395 0
5.2010002 -1.5874947 0.1008971 0
5.1940002 -1.5938947 0.10133904 0
5.1900005 -1.6012435 0.10159156 0
5.1880002 -1.6092306 0.10171783 0
5.1890001 -1.6181957 0.10165471 0
5.1930003 -1.6281544 0.10140216 0
5.4120002 -1.1399231 0.078535289 0
5.4000001 -1.146323 0.07931456 0
5.3930001 -1.1537889 0.079769105 0
5.3870006 -1.1614535 0.08015871 0
5.3830004 -1.1695471 0.080418438 0
5.3810005 -1.1780809 0.080548346 0
5.3800001 -1.1868366 0.080613285 0
5.3810005 -1.1960504 0.080548346 0
5.3840003 -1.2057333 0.080353528 0
5.3900003 -1.2161304 0.079963893 0
5.3290005 -1.3085178 0.083925039 0
5.3180003 -1.3145715 0.08463937 0
5.3120003 -1.321884 0.085029006 0
5.3080006 -1.3296983 0.085288733 0
5.3080006 -1.3385513 0.085288733 0
5.3100004 -1.3479346 0.085158855 0
5.3170004 -1.3586602 0.08470431 0
5.2130003 -1.582666 0.091457784 0
5.2010002 -1.5874947 0.092237025 0
5.1940002 -1.5938947 0.0926916 0
5.1900005 -1.6012435 0.092951298 0
5.1880002 -1.6092306 0.093081176 0
5.1890001 -1.6181957 0.093016267 0
5.1930003 -1.6281544 0.09275651 0
5.4260001 -1.0704511 0.068560243 0
5.4220004 -1.0786947 0.068827182 0
5.4190001 -1.087131 0.069027424 0
5.4150004 -1.0953474 0.069294393 0
5.4120002 -1.1037602 0.069494605 0
5.4080005 -1.1119497 0.069761544 0
5.4040003 -1.1201245 0.070028514 0
5.4010005 -1.1285014 0.070228726 0
5.3970003 -1.1366493 0.070495725 0
5.3940005 -1.1450027 0.070695937 0
5.3900003 -1.1531234 0.070962906 0
5.3870006 -1.1614535 0.071163118 0
5.3830004 -1.1695471 0.071430057 0
5.3790002 -1.1776263 0.071697056 0
5.3760004 -1.1859202 0.071897268 0
5.3720002 -1.1939723 0.072164237 0
5.3690004 -1.2022429 0.07236445 0
5.3650002 -1.210268 0.072631449 0
5.3290005 -1.3085178 0.075034082 0
5.3180003 -1.3145715 0.075768262 0
5.3120003 -1.321884 0.076168686 0
5.3080006 -1.3296983 0.076435626 0
5.3080006 -1.3385513 0.076435626 0
5.3100004 -1.3479346 0.076302171 0
5.3170004 -1.3586602 0.07583496 0
5.2130003 -1.582666 0.08277604 0
5.2010002 -1.5874947 0.083576918 0
5.1940002 -1.5938947 0.084044129 0
5.1900005 -1.6012435 0.084311068 0
5.1880002 -1.6092306 0.084444553 0
5.1890001 -1.6181957 0.084377825 0
5.1930003 -1.6281544 0.084110856 0
5.4300003 -1.0621934 0.059220105 0
5.4260001 -1.0704511 0.059494287 0
5.4220004 -1.0786947 0.059768468 0
5.4190001 -1.087131 0.059974104 0
5.4150004 -1.0953474 0.060248286 0
5.4120002 -1.1037602 0.060453922 0
5.4080005 -1.1119497 0.060728073 0
5.4040003 -1.1201245 0.061002284 0
5.4010005 -1.1285014 0.061207891 0
5.3970003 -1.1366493 0.061482102 0
5.3940005 -1.1450027 0.061687708 0
5.3900003 -1.1531234 0.061961889 0
5.3870006 -1.1614535 0.062167525 0
5.3830004 -1.1695471 0.062441707 0
5.3790002 -1.1776263 0.062715918 0
5.3760004 -1.1859202 0.062921524 0
5.3720002 -1.1939723 0.063195705 0
5.3690004 -1.2022429 0.063401341 0
5.3650002 -1.210268 0.063675493 0
5.3290005 -1.3085178 0.066143095 0
5.3180003 -1.3145715 0.066897124 0
5.3120003 -1.321884 0.067308396 0
5.3080006 -1.3296983 0.067582548 0
5.3080006 -1.3385513 0.067582548 0
5.3100004 -1.3479346 0.067445457 0
5.3170004 -1.3586602 0.066965669 0
5.2130003 -1.582666 0.074094296 0
5.2010002 -1.5874947 0.074916869 0
5.1940002 -1.5938947 0.075396657 0
5.1900005 -1.6012435 0.075670809 0
5.1880002 -1.6092306 0.075807959 0
5.1890001 -1.6181957 0.075739413 0
5.1930003 -1.6281544 0.075465202 0
5.4300003 -1.0621934 0.050146937 0
5.4260001 -1.0704511 0.050428361 0
5.4220004 -1.0786947 0.050709724 0
5.4190001 -1.087131 0.050920814 0
5.4150004 -1.0953474 0.051202178 0
5.4120002 -1.1037602 0.051413238 0
5.4080005 -1.1119497 0.051694602 0
5.4040003 -1.1201245 0.051976025 0
5.4010005 -1.1285014 0.052187055 0
5.3970003 -1.1366493 0.052468449 0
5.3940005 -1.1450027 0.052679479 0
5.3900003 -1.1531234 0.052960873 0
5.3870006 -1.1614535 0.053171933 0
5.3830004 -1.1695471 0.053453326 0
5.3790002 -1.1776263 0.05373475 0
5.3760004 -1.1859202 0.05394578 0
5.3720002 -1.1939723 0.054227173 0
5.3690004 -1.2022429 0.054438204 0
5.3650002 -1.210268 0.054719597 0
5.3290005 -1.3085178 0.057252139 0
5.3180003 -1.3145715 0.058025986 0
5.3120003 -1.321884 0.058448076 0
5.3080006 -1.3296983 0.05872947 0
5.3080006 -1.3385513 0.05872947 0
5.3100004 -1.3479346 0.058588773 0
5.3170004 -1.3586602 0.058096319 0
5.2130003 -1.582666 0.065412611 0
5.2010002 -1.5874947 0.066256791 0
5.1940002 -1.5938947 0.066749215 0
5.1900005 -1.6012435 0.067030579 0
5.1880002 -1.6092306 0.067171305 0
