# .PCD v0.7 - Point Cloud Data file format
VERSION 0.7
FIELDS x y z intensity
SIZE 4 4 4 4
TYPE F F F F
COUNT 1 1 1 1
WIDTH 694
HEIGHT 1
VIEWPOINT 0 0 0 1 0 0 0
POINTS 694
DATA ascii
5.3880005 2.6262267 2.4644036 0
5.3890004 2.617763 2.4648168 0
5.3900003 2.6092958 2.4652297 0
5.3890004 2.5997646 2.4648168 0
5.3880005 2.6262267 2.4554062 0
5.3890004 2.617763 2.4558175 0
5.3900003 2.6092958 2.4562287 0
5.3890004 2.5997646 2.4558175 0
5.3880005 2.6262267 2.446409 0
5.3890004 2.617763 2.4468184 0
5.3900003 2.6092958 2.4472277 0
5.3890004 2.5997646 2.4468184 0
5.3880005 2.6262267 2.4374115 0
5.3890004 2.617763 2.437819 0
5.3900003 2.6092958 2.4382269 0
5.3890004 2.5997646 2.437819 0
5.3880005 2.6262267 2.4284141 0
5.3890004 2.617763 2.4288199 0
5.3900003 2.6092958 2.4292257 0
5.3890004 2.5997646 2.4288199 0
5.3880005 2.6262267 2.4194167 0
5.3890004 2.617763 2.4198208 0
5.3900003 2.6092958 2.4202247 0
5.3890004 2.5997646 2.4198208 0
5.3880005 2.6262267 2.4104192 0
5.3890004 2.617763 2.4108217 0
5.3900003 2.6092958 2.4112236 0
5.3890004 2.5997646 2.4108217 0
5.3880005 2.6262267 2.4014218 0
5.3890004 2.617763 2.4018223 0
5.3900003 2.6092958 2.4022226 0
5.3890004 2.5997646 2.4018223 0
5.3880005 2.6262267 2.3924246 0
5.3890004 2.617763 2.392823 0
5.3900003 2.6092958 2.3932216 0
5.3890004 2.5997646 2.392823 0
5.3880005 2.6262267 2.3834271 0
5.3890004 2.617763 2.3838239 0
5.3900003 2.6092958 2.3842206 0
5.3890004 2.5997646 2.3838239 0
5.3880005 2.6262267 2.3744297 0
5.3890004 2.617763 2.3748248 0
5.3900003 2.6092958 2.3752196 0
5.3890004 2.5997646 2.3748248 0
5.3880005 2.6262267 2.3654323 0
5.3890004 2.617763 2.3658254 0
5.3900003 2.6092958 2.3662188 0
5.3890004 2.5997646 2.3658254 0
5.3880005 2.6262267 2.3564348 0
5.3890004 2.617763 2.3568263 0
5.3900003 2.6092958 2.3572178 0
5.3890004 2.5997646 2.3568263 0
5.3880005 2.6262267 2.3474374 0
5.3890004 2.617763 2.347827 0
5.3900003 2.6092958 2.3482168 0
5.3890004 2.5997646 2.347827 0
5.3880005 2.6262267 2.3384399 0
5.3890004 2.617763 2.3388278 0
5.3900003 2.6092958 2.3392158 0
5.3890004 2.5997646 2.3388278 0
5.3880005 2.6262267 2.3294427 0
5.3890004 2.617763 2.3298287 0
5.3900003 2.6092958 2.3302147 0
5.3890004 2.5997646 2.3298287 0
5.3880005 2.6262267 2.3204453 0
5.3890004 2.617763 2.3208296 0
5.3900003 2.6092958 2.3212135 0
5.3890004 2.5997646 2.3208296 0
5.3880005 2.6262267 2.3114479 0
5.3890004 2.617763 2.3118303 0
5.3900003 2.6092958 2.3122125 0
5.3890004 2.5997646 2.3118303 0
5.3880005 2.6262267 2.3024507 0
5.3890004 2.617763 2.3028312 0
5.3900003 2.6092958 2.3032117 0
5.3890004 2.5997646 2.3028312 0
5.3880005 2.6262267 2.2934532 0
5.3890004 2.617763 2.2938318 0
5.3900003 2.6092958 2.2942107 0
5.3890004 2.5997646 2.2938318 0
5.3880005 2.6262267 2.2844558 0
5.3890004 2.617763 2.2848327 0
5.3900003 2.6092958 2.2852097 0
5.3890004 2.5997646 2.2848327 0
5.3880005 2.6262267 2.2754581 0
5.3890004 2.617763 2.2758334 0
5.3900003 2.6092958 2.2762086 0
5.3890004 2.5997646 2.2758334 0
5.3880005 2.6262267 2.2664609 0
5.3890004 2.617763 2.2668343 0
5.3900003 2.6092958 2.2672076 0
5.3890004 2.5997646 2.2668343 0
5.3880005 2.6262267 2.2574635 0
5.3890004 2.617763 2.2578349 0
5.3900003 2.6092958 2.2582066 0
5.3890004 2.5997646 2.2578349 0
5.3880005 2.6262267 2.2484663 0
5.3890004 2.617763 2.2488358 0
5.3900003 2.6092958 2.2492056 0
5.3890004 2.5997646 2.2488358 0
5.3880005 2.6262267 2.2394686 0
5.3890004 2.617763 2.2398367 0
5.3900003 2.6092958 2.2402046 0
5.3890004 2.5997646 2.2398367 0
5.3880005 2.6262267 2.2304714 0
5.3890004 2.617763 2.2308376 0
5.3900003 2.6092958 2.2312036 0
5.3890004 2.5997646 2.2308376 0
5.3880005 2.6262267 2.2214739 0
5.3890004 2.617763 2.2218382 0
5.3900003 2.6092958 2.2222025 0
5.3890004 2.5997646 2.2218382 0
5.3880005 2.6262267 2.2124765 0
5.3890004 2.617763 2.2128391 0
5.3900003 2.6092958 2.2132015 0
5.3890004 2.5997646 2.2128391 0
5.3880005 2.6262267 2.2034791 0
5.3890004 2.617763 2.2038398 0
5.3900003 2.6092958 2.2042005 0
5.3890004 2.5997646 2.2038398 0
5.3880005 2.6262267 2.1944816 0
5.3890004 2.617763 2.1948407 0
5.3900003 2.6092958 2.1951997 0
5.3890004 2.5997646 2.1948407 0
5.3880005 2.6262267 2.1854844 0
5.3890004 2.617763 2.1858416 0
5.3900003 2.6092958 2.1861985 0
5.3890004 2.5997646 2.1858416 0
5.3880005 2.6262267 2.176487 0
5.3890004 2.617763 2.1768422 0
5.3900003 2.6092958 2.1771975 0
5.3890004 2.5997646 2.1768422 0
5.3880005 2.6262267 2.1674895 0
5.3890004 2.617763 2.1678431 0
5.3900003 2.6092958 2.1681967 0
5.3890004 2.5997646 2.1678431 0
5.3880005 2.6262267 2.1584921 0
5.3890004 2.617763 2.1588438 0
5.3900003 2.6092958 2.1591957 0
5.3890004 2.5997646 2.1588438 0
5.3880005 2.6262267 2.1494946 0
5.3890004 2.617763 2.1498446 0
5.3900003 2.6092958 2.1501946 0
5.3890004 2.5997646 2.1498446 0
5.3880005 2.6262267 2.1404974 0
5.3890004 2.617763 2.1408455 0
5.3900003 2.6092958 2.1411936 0
5.3890004 2.5997646 2.1408455 0
5.3880005 2.6262267 2.1315 0
5.3890004 2.617763 2.1318462 0
5.3900003 2.6092958 2.1321926 0
5.3890004 2.5997646 2.1318462 0
5.3880005 2.6262267 2.1225026 0
5.3890004 2.617763 2.1228471 0
5.3900003 2.6092958 2.1231916 0
5.3890004 2.5997646 2.1228471 0
5.3880005 2.6262267 2.1135051 0
5.3890004 2.617763 2.1138477 0
5.3900003 2.6092958 2.1141906 0
5.3890004 2.5997646 2.1138477 0
5.3880005 2.6262267 2.1045077 0
5.3890004 2.617763 2.1048486 0
5.3900003 2.6092958 2.1051896 0
5.3890004 2.5997646 2.1048486 0
5.3880005 2.6262267 2.0955105 0
5.3890004 2.617763 2.0958495 0
5.3900003 2.6092958 2.0961885 0
5.3890004 2.5997646 2.0958495 0
5.3880005 2.6262267 2.086513 0
5.3890004 2.617763 2.0868502 0
5.3900003 2.6092958 2.0871875 0
5.3890004 2.5997646 2.0868502 0
5.3880005 2.6262267 2.0775156 0
5.3890004 2.617763 2.0778511 0
5.3900003 2.6092958 2.0781865 0
5.3890004 2.5997646 2.0778511 0
5.3880005 2.6262267 2.0685182 0
5.3890004 2.617763 2.0688519 0
5.3900003 2.6092958 2.0691855 0
5.3890004 2.5997646 2.0688519 0
5.3880005 2.6262267 2.0595207 0
5.3890004 2.617763 2.0598526 0
5.3900003 2.6092958 2.0601845 0
5.3890004 2.5997646 2.0598526 0
5.3880005 2.6262267 2.0505235 0
5.3890004 2.617763 2.0508535 0
5.3900003 2.6092958 2.0511835 0
5.3890004 2.5997646 2.0508535 0
5.3880005 2.6262267 2.0415261 0
5.3890004 2.617763 2.0418541 0
5.3900003 2.6092958 2.0421824 0
5.3890004 2.5997646 2.0418541 0
5.3880005 2.6262267 2.0325286 0
5.3890004 2.617763 2.032855 0
5.3900003 2.6092958 2.0331817 0
5.3890004 2.5997646 2.032855 0
5.3880005 2.6262267 2.0235312 0
5.3890004 2.617763 2.0238559 0
5.3900003 2.6092958 2.0241807 0
5.3890004 2.5997646 2.0238559 0
5.3880005 2.6262267 2.0145338 0
5.3890004 2.617763 2.0148568 0
5.3900003 2.6092958 2.0151794 0
5.3890004 2.5997646 2.0148568 0
5.3880005 2.6262267 2.0055363 0
5.3890004 2.617763 2.0058575 0
5.3900003 2.6092958 2.0061786 0
5.3890004 2.5997646 2.0058575 0
5.3880005 2.6262267 1.9965391 0
5.3890004 2.617763 1.9968584 0
5.3900003 2.6092958 1.9971776 0
5.3890004 2.5997646 1.9968584 0
5.3880005 2.6262267 1.9875417 0
5.3890004 2.617763 1.9878592 0
5.3900003 2.6092958 1.9881766 0
5.3890004 2.5997646 1.9878592 0
5.3880005 2.6262267 1.9785444 0
5.3890004 2.617763 1.97886 0
5.3900003 2.6092958 1.9791756 0
5.3890004 2.5997646 1.97886 0
5.3880005 2.6262267 1.9695469 0
5.3890004 2.617763 1.9698608 0
5.3900003 2.6092958 1.9701747 0
5.3890004 2.5997646 1.9698608 0
5.3880005 2.6262267 1.9605495 0
5.3890004 2.617763 1.9608616 0
5.3900003 2.6092958 1.9611735 0
5.3890004 2.5997646 1.9608616 0
5.3880005 2.6262267 1.9515522 0
5.3890004 2.617763 1.9518623 0
5.3900003 2.6092958 1.9521725 0
5.3890004 2.5997646 1.9518623 0
5.3880005 2.6262267 1.9425547 0
5.3890004 2.617763 1.9428632 0
5.3900003 2.6092958 1.9431716 0
5.3890004 2.5997646 1.9428632 0
5.3880005 2.6262267 1.9335574 0
5.3890004 2.617763 1.933864 0
5.3900003 2.6092958 1.9341706 0
5.3890004 2.5997646 1.933864 0
5.3880005 2.6262267 1.9245598 0
5.3890004 2.617763 1.9248648 0
5.3900003 2.6092958 1.9251696 0
5.3890004 2.5997646 1.9248648 0
5.3880005 2.6262267 1.9155625 0
5.3890004 2.617763 1.9158655 0
5.3900003 2.6092958 1.9161686 0
5.3890004 2.5997646 1.9158655 0
5.3880005 2.6262267 1.9065652 0
5.3890004 2.617763 1.9068663 0
5.3900003 2.6092958 1.9071676 0
5.3890004 2.5997646 1.9068663 0
5.3880005 2.6262267 1.8975677 0
5.3890004 2.617763 1.8978672 0
5.3900003 2.6092958 1.8981665 0
5.3890004 2.5997646 1.8978672 0
5.3880005 2.6262267 1.8885704 0
5.3890004 2.617763 1.888868 0
5.3900003 2.6092958 1.8891655 0
5.3890004 2.5997646 1.888868 0
5.3880005 2.6262267 1.8795729 0
5.3890004 2.617763 1.8798687 0
5.3900003 2.6092958 1.8801645 0
5.3890004 2.5997646 1.8798687 0
5.3880005 2.6262267 1.8705755 0
5.3890004 2.617763 1.8708695 0
5.3900003 2.6092958 1.8711636 0
5.3890004 2.5997646 1.8708695 0
5.3880005 2.6262267 1.8615782 0
5.3890004 2.617763 1.8618704 0
5.3900003 2.6092958 1.8621626 0
5.3890004 2.5997646 1.8618704 0
5.3880005 2.6262267 1.8525808 0
5.3890004 2.617763 1.8528712 0
5.3900003 2.6092958 1.8531615 0
5.3890004 2.5997646 1.8528712 0
5.3880005 2.6262267 1.8435833 0
5.3890004 2.617763 1.843872 0
5.3900003 2.6092958 1.8441606 0
5.3890004 2.5997646 1.843872 0
5.3880005 2.6262267 1.8345859 0
5.3890004 2.617763 1.8348727 0
5.3900003 2.6092958 1.8351595 0
5.3890004 2.5997646 1.8348727 0
5.3880005 2.6262267 1.8255886 0
5.3890004 2.617763 1.8258735 0
5.3900003 2.6092958 1.8261585 0
5.3890004 2.5997646 1.8258735 0
5.3880005 2.6262267 1.8165913 0
5.3890004 2.617763 1.8168744 0
5.3900003 2.6092958 1.8171575 0
5.3890004 2.5997646 1.8168744 0
5.3880005 2.6262267 1.8075938 0
5.3890004 2.617763 1.8078752 0
5.3900003 2.6092958 1.8081566 0
5.3890004 2.5997646 1.8078752 0
5.3880005 2.6262267 1.7985964 0
5.3890004 2.617763 1.7988759 0
5.3900003 2.6092958 1.7991555 0
5.3890004 2.5997646 1.7988759 0
5.3880005 2.6262267 1.7895989 0
5.3890004 2.617763 1.7898767 0
5.3900003 2.6092958 1.7901545 0
5.3890004 2.5997646 1.7898767 0
5.3880005 2.6262267 1.7806016 0
5.3890004 2.617763 1.7808776 0
5.3900003 2.6092958 1.7811536 0
5.3890004 2.5997646 1.7808776 0
5.3880005 2.6262267 1.7716043 0
5.3890004 2.617763 1.7718784 0
5.3900003 2.6092958 1.7721525 0
5.3890004 2.5997646 1.7718784 0
5.3880005 2.6262267 1.7626067 0
5.3890004 2.617763 1.7628791 0
5.3900003 2.6092958 1.7631515 0
5.3890004 2.5997646 1.7628791 0
5.3880005 2.6262267 1.7536094 0
5.3890004 2.617763 1.7538799 0
5.3900003 2.6092958 1.7541505 0
5.3890004 2.5997646 1.7538799 0
5.3880005 2.6262267 1.744612 0
5.3890004 2.617763 1.7448807 0
5.3900003 2.6092958 1.7451495 0
5.3890004 2.5997646 1.7448807 0
5.3880005 2.6262267 1.7356147 0
5.3890004 2.617763 1.7358816 0
5.3900003 2.6092958 1.7361485 0
5.3890004 2.5997646 1.7358816 0
5.3880005 2.6262267 1.7266172 0
5.3890004 2.617763 1.7268823 0
5.3900003 2.6092958 1.7271475 0
5.3890004 2.5997646 1.7268823 0
5.3880005 2.6262267 1.7176198 0
5.3890004 2.617763 1.7178831 0
5.3900003 2.6092958 1.7181464 0
5.3890004 2.5997646 1.7178831 0
5.3880005 2.6262267 1.7086225 0
5.3890004 2.617763 1.7088839 0
5.3900003 2.6092958 1.7091455 0
5.3890004 2.5997646 1.7088839 0
5.3880005 2.6262267 1.699625 0
5.3890004 2.617763 1.6998847 0
5.3900003 2.6092958 1.7001445 0
5.3890004 2.5997646 1.6998847 0
5.3880005 2.6262267 1.6906277 0
5.3890004 2.617763 1.6908855 0
5.3900003 2.6092958 1.6911434 0
5.3890004 2.5997646 1.6908855 0
5.3880005 2.6262267 1.6816303 0
5.3890004 2.617763 1.6818863 0
5.3900003 2.6092958 1.6821425 0
5.3890004 2.5997646 1.6818863 0
5.3880005 2.6262267 1.6726328 0
5.3890004 2.617763 1.6728871 0
5.3900003 2.6092958 1.6731415 0
5.3890004 2.5997646 1.6728871 0
5.3880005 2.6262267 1.6636355 0
5.3890004 2.617763 1.663888 0
5.3900003 2.6092958 1.6641405 0
5.3890004 2.5997646 1.663888 0
5.3880005 2.6262267 1.6546381 0
5.3890004 2.617763 1.6548887 0
5.3900003 2.6092958 1.6551394 0
5.3890004 2.5997646 1.6548887 0
5.3880005 2.6262267 1.6456406 0
5.3890004 2.617763 1.6458896 0
5.3900003 2.6092958 1.6461385 0
5.3890004 2.5997646 1.6458896 0
5.3880005 2.6262267 1.6366433 0
5.3890004 2.617763 1.6368904 0
5.3900003 2.6092958 1.6371374 0
5.3890004 2.5997646 1.6368904 0
5.3880005 2.6262267 1.6276459 0
5.3890004 2.617763 1.6278912 0
5.3900003 2.6092958 1.6281364 0
5.3890004 2.5997646 1.6278912 0
5.3880005 2.6262267 1.6186485 0
5.3890004 2.617763 1.618892 0
5.3900003 2.6092958 1.6191355 0
5.3890004 2.5997646 1.618892 0
5.3880005 2.6262267 1.6096511 0
5.3890004 2.617763 1.6098928 0
5.3900003 2.6092958 1.6101345 0
5.3890004 2.5997646 1.6098928 0
5.3880005 2.6262267 1.6006536 0
5.3890004 2.617763 1.6008936 0
5.3900003 2.6092958 1.6011335 0
5.3890004 2.5997646 1.6008936 0
5.3880005 2.6262267 1.5916563 0
5.3890004 2.617763 1.5918944 0
5.3900003 2.6092958 1.5921324 0
5.3890004 2.5997646 1.5918944 0
5.3880005 2.6262267 1.5826589 0
5.3890004 2.617763 1.5828952 0
5.3900003 2.6092958 1.5831314 0
5.3890004 2.5997646 1.5828952 0
5.3880005 2.6262267 1.5736616 0
5.3890004 2.617763 1.5738961 0
5.3900003 2.6092958 1.5741304 0
5.3890004 2.5997646 1.5738961 0
5.3880005 2.6262267 1.564664 0
5.3890004 2.617763 1.5648968 0
5.3900003 2.6092958 1.5651294 0
5.3890004 2.5997646 1.5648968 0
5.3880005 2.6262267 1.5556667 0
5.3890004 2.617763 1.5558976 0
5.3900003 2.6092958 1.5561284 0
5.3890004 2.5997646 1.5558976 0
5.3880005 2.6262267 1.5466694 0
5.3890004 2.617763 1.5468984 0
5.3900003 2.6092958 1.5471275 0
5.3890004 2.5997646 1.5468984 0
5.3880005 2.6262267 1.5376719 0
5.3890004 2.617763 1.5378991 0
5.3900003 2.6092958 1.5381265 0
5.3890004 2.5997646 1.5378991 0
5.3880005 2.6262267 1.5286745 0
5.3890004 2.617763 1.5289 0
5.3900003 2.6092958 1.5291255 0
5.3890004 2.5997646 1.5289 0
5.3880005 2.6262267 1.519677 0
5.3890004 2.617763 1.5199008 0
5.3900003 2.6092958 1.5201244 0
5.3890004 2.5997646 1.5199008 0
5.3880005 2.6262267 1.5106797 0
5.3890004 2.617763 1.5109016 0
5.3900003 2.6092958 1.5111234 0
5.3890004 2.5997646 1.5109016 0
5.3880005 2.6262267 1.5016824 0
5.3890004 2.617763 1.5019023 0
5.3900003 2.6092958 1.5021224 0
5.3890004 2.5997646 1.5019023 0
5.3880005 2.6262267 1.492685 0
5.3890004 2.617763 1.4929032 0
5.3900003 2.6092958 1.4931214 0
5.3890004 2.5997646 1.4929032 0
5.3880005 2.6262267 1.4836875 0
5.3890004 2.617763 1.483904 0
5.3900003 2.6092958 1.4841205 0
5.3890004 2.5997646 1.483904 0
5.3880005 2.6262267 1.4746901 0
5.3890004 2.617763 1.4749048 0
5.3900003 2.6092958 1.4751195 0
5.3890004 2.5997646 1.4749048 0
5.3880005 2.6262267 1.4656928 0
5.3890004 2.617763 1.4659055 0
5.3900003 2.6092958 1.4661183 0
5.3890004 2.5997646 1.4659055 0
5.3880005 2.6262267 1.4566954 0
5.3890004 2.617763 1.4569063 0
5.3900003 2.6092958 1.4571174 0
5.3890004 2.5997646 1.4569063 0
5.3880005 2.6262267 1.4476979 0
5.3890004 2.617763 1.4479072 0
5.3900003 2.6092958 1.4481164 0
5.3890004 2.5997646 1.4479072 0
5.3880005 2.6262267 1.4387006 0
5.3890004 2.617763 1.438908 0
5.3900003 2.6092958 1.4391154 0
5.3890004 2.5997646 1.438908 0
5.3880005 2.6262267 1.4297031 0
5.3890004 2.617763 1.4299088 0
5.3900003 2.6092958 1.4301144 0
5.3890004 2.5997646 1.4299088 0
5.3880005 2.6262267 1.4207058 0
5.3890004 2.617763 1.4209095 0
5.3900003 2.6092958 1.4211135 0
5.3890004 2.5997646 1.4209095 0
5.3880005 2.6262267 1.4117084 0
5.3890004 2.617763 1.4119104 0
5.3900003 2.6092958 1.4121124 0
5.3890004 2.5997646 1.4119104 0
5.3880005 2.6262267 1.4027109 0
5.3890004 2.617763 1.4029112 0
5.3900003 2.6092958 1.4031113 0
5.3890004 2.5997646 1.4029112 0
5.3880005 2.6262267 1.3937136 0
5.3890004 2.617763 1.393912 0
5.3900003 2.6092958 1.3941103 0
5.3890004 2.5997646 1.393912 0
5.3880005 2.6262267 1.3847162 0
5.3890004 2.617763 1.3849127 0
5.3900003 2.6092958 1.3851094 0
5.3890004 2.5997646 1.3849127 0
5.3880005 2.6262267 1.3757187 0
5.3890004 2.617763 1.3759135 0
5.3900003 2.6092958 1.3761084 0
5.3890004 2.5997646 1.3759135 0
5.3880005 2.6262267 1.3667214 0
5.3890004 2.617763 1.3669144 0
5.3900003 2.6092958 1.3671074 0
5.3890004 2.5997646 1.3669144 0
5.3880005 2.6262267 1.357724 0
5.3890004 2.617763 1.3579152 0
5.3900003 2.6092958 1.3581063 0
5.3890004 2.5997646 1.3579152 0
5.3880005 2.6262267 1.3487266 0
5.3890004 2.617763 1.3489159 0
5.3900003 2.6092958 1.3491054 0
5.3890004 2.5997646 1.3489159 0
5.3880005 2.6262267 1.3397291 0
5.3890004 2.617763 1.3399167 0
5.3900003 2.6092958 1.3401043 0
5.3890004 2.5997646 1.3399167 0
5.3880005 2.6262267 1.3307317 0
5.3890004 2.617763 1.3309175 0
5.3900003 2.6092958 1.3311033 0
5.3890004 2.5997646 1.3309175 0
5.3880005 2.6262267 1.3217343 0
5.3890004 2.617763 1.3219184 0
5.3900003 2.6092958 1.3221023 0
5.3890004 2.5997646 1.3219184 0
5.3880005 2.6262267 1.312737 0
5.3890004 2.617763 1.3129191 0
5.3900003 2.6092958 1.3131013 0
5.3890004 2.5997646 1.3129191 0
5.3880005 2.6262267 1.3037395 0
5.3890004 2.617763 1.3039199 0
5.3900003 2.6092958 1.3041003 0
5.3890004 2.5997646 1.3039199 0
5.3880005 2.6262267 1.2947422 0
5.3890004 2.617763 1.2949208 0
5.3900003 2.6092958 1.2950993 0
5.3890004 2.5997646 1.2949208 0
5.3880005 2.6262267 1.2857448 0
5.3890004 2.617763 1.2859216 0
5.3900003 2.6092958 1.2860984 0
5.3890004 2.5997646 1.2859216 0
5.3880005 2.6262267 1.2767473 0
5.3890004 2.617763 1.2769223 0
5.3900003 2.6092958 1.2770973 0
5.3890004 2.5997646 1.2769223 0
5.3880005 2.6262267 1.26775 0
5.3890004 2.617763 1.2679231 0
5.3900003 2.6092958 1.2680963 0
5.3890004 2.5997646 1.2679231 0
5.3880005 2.6262267 1.2587526 0
5.3890004 2.617763 1.2589239 0
5.3900003 2.6092958 1.2590953 0
5.3890004 2.5997646 1.2589239 0
5.3880005 2.6262267 1.2497553 0
5.3890004 2.617763 1.2499248 0
5.3900003 2.6092958 1.2500943 0
5.3890004 2.5997646 1.2499248 0
5.3880005 2.6262267 1.2407578 0
5.3890004 2.617763 1.2409256 0
5.3900003 2.6092958 1.2410933 0
5.3890004 2.5997646 1.2409256 0
5.3880005 2.6262267 1.2317604 0
5.3890004 2.617763 1.2319263 0
5.3900003 2.6092958 1.2320923 0
5.3890004 2.5997646 1.2319263 0
5.3880005 2.6262267 1.2227631 0
5.3890004 2.617763 1.2229271 0
5.3900003 2.6092958 1.2230912 0
5.3890004 2.5997646 1.2229271 0
5.3880005 2.6262267 1.2137656 0
5.3890004 2.617763 1.213928 0
5.3900003 2.6092958 1.2140903 0
5.3890004 2.5997646 1.213928 0
5.3880005 2.6262267 1.2047682 0
5.3890004 2.617763 1.2049288 0
5.3900003 2.6092958 1.2050893 0
5.3890004 2.5997646 1.2049288 0
5.3880005 2.6262267 1.1957709 0
5.3890004 2.617763 1.1959296 0
5.3900003 2.6092958 1.1960883 0
5.3890004 2.5997646 1.1959296 0
5.3880005 2.6262267 1.1867734 0
5.3890004 2.617763 1.1869304 0
5.3900003 2.6092958 1.1870873 0
5.3890004 2.5997646 1.1869304 0
5.3880005 2.6262267 1.1777761 0
5.3890004 2.617763 1.1779312 0
5.3900003 2.6092958 1.1780863 0
5.3890004 2.5997646 1.1779312 0
5.3880005 2.6262267 1.1687787 0
5.3890004 2.617763 1.168932 0
5.3900003 2.6092958 1.1690853 0
5.3890004 2.5997646 1.168932 0
5.3880005 2.6262267 1.1597812 0
5.3890004 2.617763 1.1599327 0
5.3900003 2.6092958 1.1600842 0
5.3890004 2.5997646 1.1599327 0
5.3880005 2.6262267 1.1507839 0
5.3890004 2.617763 1.1509336 0
5.3900003 2.6092958 1.1510832 0
5.3890004 2.5997646 1.1509336 0
5.3880005 2.6262267 1.1417865 0
5.3890004 2.617763 1.1419344 0
5.3900003 2.6092958 1.1420822 0
5.3890004 2.5997646 1.1419344 0
5.3880005 2.6262267 1.1327891 0
5.3890004 2.617763 1.1329352 0
5.3900003 2.6092958 1.1330813 0
5.3890004 2.5997646 1.1329352 0
5.3880005 2.6262267 1.1237917 0
5.3890004 2.617763 1.1239359 0
5.3900003 2.6092958 1.1240803 0
5.3890004 2.5997646 1.1239359 0
5.3880005 2.6262267 1.1147943 0
5.3890004 2.617763 1.1149367 0
5.3900003 2.6092958 1.1150793 0
5.3890004 2.5997646 1.1149367 0
5.3880005 2.6262267 1.1057969 0
5.3890004 2.617763 1.1059376 0
5.3900003 2.6092958 1.1060783 0
5.3890004 2.5997646 1.1059376 0
5.3880005 2.6262267 1.0967995 0
5.3890004 2.617763 1.0969384 0
5.3900003 2.6092958 1.0970773 0
5.3890004 2.5997646 1.0969384 0
5.3880005 2.6262267 1.0878022 0
5.3890004 2.617763 1.0879391 0
5.3900003 2.6092958 1.0880762 0
5.3890004 2.5997646 1.0879391 0
5.3880005 2.6262267 1.0788047 0
5.3890004 2.617763 1.0789399 0
5.3900003 2.6092958 1.0790752 0
5.3890004 2.5997646 1.0789399 0
5.3880005 2.6262267 1.0698073 0
5.3890004 2.617763 1.0699408 0
5.3900003 2.6092958 1.0700742 0
5.3890004 2.5997646 1.0699408 0
5.3880005 2.6262267 1.0608099 0
5.3890004 2.617763 1.0609416 0
5.3900003 2.6092958 1.0610732 0
5.3890004 2.5997646 1.0609416 0
5.3880005 2.6262267 1.0518125 0
5.3890004 2.617763 1.0519423 0
5.3900003 2.6092958 1.0520723 0
5.3890004 2.5997646 1.0519423 0
5.3880005 2.6262267 1.0428151 0
5.3890004 2.617763 1.0429431 0
5.3900003 2.6092958 1.0430713 0
5.3890004 2.5997646 1.0429431 0
5.3880005 2.6262267 1.0338178 0
5.3890004 2.617763 1.033944 0
5.3900003 2.6092958 1.0340703 0
5.3890004 2.5997646 1.033944 0
5.3880005 2.6262267 1.0248203 0
5.3890004 2.617763 1.0249448 0
5.3900003 2.6092958 1.0250692 0
5.3890004 2.5997646 1.0249448 0
5.3880005 2.6262267 1.0158229 0
5.3890004 2.617763 1.0159456 0
5.3900003 2.6092958 1.0160682 0
5.3890004 2.5997646 1.0159456 0
5.3880005 2.6262267 1.0068256 0
5.3890004 2.617763 1.0069464 0
5.3900003 2.6092958 1.0070672 0
5.3890004 2.5997646 1.0069464 0
5.3880005 2.6262267 0.99782813 0
5.3890004 2.617763 0.99794722 0
5.3900003 2.6092958 0.99806619 0
5.3890004 2.5997646 0.99794722 0
5.3880005 2.6262267 0.9888308 0
5.3890004 2.617763 0.98894799 0
5.3900003 2.6092958 0.98906517 0
5.3890004 2.5997646 0.98894799 0
5.3880005 2.6262267 0.97983336 0
5.3890004 2.617763 0.97994876 0
5.3900003 2.6092958 0.98006415 0
5.3890004 2.5997646 0.97994876 0
5.3880005 2.6262267 0.97083592 0
5.3890004 2.617763 0.97094953 0
5.3900003 2.6092958 0.97106326 0
5.3890004 2.5997646 0.97094953 0
5.3880005 2.6262267 0.96183848 0
5.3890004 2.617763 0.96195042 0
5.3900003 2.6092958 0.96206224 0
5.3890004 2.5997646 0.96195042 0
5.3880005 2.6262267 0.95284116 0
5.3890004 2.617763 0.95295119 0
5.3900003 2.6092958 0.95306122 0
5.3890004 2.5997646 0.95295119 0
5.3880005 2.6262267 0.94384372 0
5.3890004 2.617763 0.94395196 0
5.3900003 2.6092958 0.94406021 0
5.3890004 2.5997646 0.94395196 0
5.3880005 2.6262267 0.9348464 0
5.3890004 2.617763 0.93495274 0
5.3900003 2.6092958 0.93505919 0
5.3890004 2.5997646 0.93495274 0
5.3880005 2.6262267 0.92584896 0
5.3890004 2.617763 0.92595363 0
5.3900003 2.6092958 0.92605817 0
5.3890004 2.5997646 0.92595363 0
5.3890004 2.617763 0.9169544 0
5.3900003 2.6092958 0.91705716 0
5.3890004 2.5997646 0.9169544 0
5.3890004 2.617763 0.90795517 0
5.3900003 2.6092958 0.90805614 0
5.3890004 2.5997646 0.90795517 0
