# .PCD v0.7 - Point Cloud Data file format
VERSION 0.7
FIELDS x y z intensity
SIZE 4 4 4 4
TYPE F F F F
COUNT 1 1 1 1
WIDTH 1459
HEIGHT 1
VIEWPOINT 0 0 0 1 0 0 0
POINTS 1459
DATA ascii
3.0010002 1.2958277 0.33831614 0
3.0010002 1.291136 0.33831614 0
3.0010002 1.2864443 0.33831614 0
3.0010002 1.2817525 0.33831614 0
3.0010002 1.2770607 0.33831614 0
3.0000002 1.2718623 0.33834139 0
3.0000002 1.2671725 0.33834139 0
3.0000002 1.2624825 0.33834139 0
3.0060003 1.4394288 0.33348915 0
3.0060003 1.4347281 0.33348915 0
3.0060003 1.4300275 0.33348915 0
3.0060003 1.4253267 0.33348915 0
3.0060003 1.420626 0.33348915 0
3.0050001 1.4153643 0.33351621 0
3.0050001 1.4106653 0.33351621 0
3.0050001 1.4059664 0.33351621 0
3.0050001 1.4012675 0.33351621 0
3.0050001 1.3965685 0.33351621 0
3.0050001 1.3918695 0.33351621 0
3.0040002 1.3866205 0.33354327 0
3.0040002 1.3819234 0.33354327 0
3.0040002 1.3772264 0.33354327 0
3.0040002 1.3725291 0.33354327 0
3.0040002 1.3678321 0.33354327 0
3.0040002 1.363135 0.33354327 0
3.0030003 1.3578986 0.33357033 0
3.0030003 1.3532032 0.33357033 0
3.0030003 1.348508 0.33357033 0
3.0030003 1.3438126 0.33357033 0
3.0030003 1.3391173 0.33357033 0
3.0030003 1.334422 0.33357033 0
3.0020003 1.3291981 0.33359736 0
3.0020003 1.3245046 0.33359736 0
3.0020003 1.3198112 0.33359736 0
3.0020003 1.3151177 0.33359736 0
3.0020003 1.3104242 0.33359736 0
3.0020003 1.3057307 0.33359736 0
3.0010002 1.3005193 0.33362442 0
3.0010002 1.2958277 0.33362442 0
3.0010002 1.291136 0.33362442 0
3.0010002 1.2864443 0.33362442 0
3.0010002 1.2817525 0.33362442 0
3.0010002 1.2770607 0.33362442 0
3.0000002 1.2718623 0.33365148 0
3.0000002 1.2671725 0.33365148 0
3.0000002 1.2624825 0.33365148 0
3.0060003 1.4394288 0.32878843 0
3.0060003 1.4347281 0.32878843 0
3.0060003 1.4300275 0.32878843 0
3.0060003 1.4253267 0.32878843 0
3.0060003 1.420626 0.32878843 0
3.0050001 1.4153643 0.32881731 0
3.0050001 1.4106653 0.32881731 0
3.0050001 1.4059664 0.32881731 0
3.0050001 1.4012675 0.32881731 0
3.0050001 1.3965685 0.32881731 0
3.0050001 1.3918695 0.32881731 0
3.0040002 1.3866205 0.32884616 0
3.0040002 1.3819234 0.32884616 0
3.0040002 1.3772264 0.32884616 0
3.0040002 1.3725291 0.32884616 0
3.0040002 1.3678321 0.32884616 0
3.0040002 1.363135 0.32884616 0
3.0030003 1.3578986 0.32887501 0
3.0030003 1.3532032 0.32887501 0
3.0030003 1.348508 0.32887501 0
3.0030003 1.3438126 0.32887501 0
3.0030003 1.3391173 0.32887501 0
3.0030003 1.334422 0.32887501 0
3.0020003 1.3291981 0.32890385 0
3.0020003 1.3245046 0.32890385 0
3.0020003 1.3198112 0.32890385 0
3.0020003 1.3151177 0.32890385 0
3.0020003 1.3104242 0.32890385 0
3.0020003 1.3057307 0.32890385 0
3.0010002 1.3005193 0.32893273 0
3.0010002 1.2958277 0.32893273 0
3.0010002 1.291136 0.32893273 0
3.0010002 1.2864443 0.32893273 0
3.0010002 1.2817525 0.32893273 0
3.0010002 1.2770607 0.32893273 0
3.0000002 1.2718623 0.32896158 0
3.0000002 1.2671725 0.32896158 0
3.0000002 1.2624825 0.32896158 0
3.0060003 1.4394288 0.32408771 0
3.0060003 1.4347281 0.32408771 0
3.0060003 1.4300275 0.32408771 0
3.0060003 1.4253267 0.32408771 0
3.0060003 1.420626 0.32408771 0
3.0050001 1.4153643 0.32411838 0
3.0050001 1.4106653 0.32411838 0
3.0050001 1.4059664 0.32411838 0
3.0050001 1.4012675 0.32411838 0
3.0050001 1.3965685 0.32411838 0
3.0050001 1.3918695 0.32411838 0
3.0040002 1.3866205 0.32414904 0
3.0040002 1.3819234 0.32414904 0
3.0040002 1.3772264 0.32414904 0
3.0040002 1.3725291 0.32414904 0
3.0040002 1.3678321 0.32414904 0
3.0040002 1.363135 0.32414904 0
3.0030003 1.3578986 0.32417971 0
3.0030003 1.3532032 0.32417971 0
3.0030003 1.348508 0.32417971 0
3.0030003 1.3438126 0.32417971 0
3.0030003 1.3391173 0.32417971 0
3.0030003 1.334422 0.32417971 0
3.0020003 1.3291981 0.32421035 0
3.0020003 1.3245046 0.32421035 0
3.0020003 1.3198112 0.32421035 0
3.0020003 1.3151177 0.32421035 0
3.0020003 1.3104242 0.32421035 0
3.0020003 1.3057307 0.32421035 0
3.0010002 1.3005193 0.32424104 0
3.0010002 1.2958277 0.32424104 0
3.0010002 1.291136 0.32424104 0
3.0010002 1.2864443 0.32424104 0
3.0010002 1.2817525 0.32424104 0
3.0010002 1.2770607 0.32424104 0
3.0000002 1.2718623 0.32427168 0
3.0000002 1.2671725 0.32427168 0
3.0000002 1.2624825 0.32427168 0
3.0060003 1.4394288 0.31938696 0
3.0060003 1.4347281 0.31938696 0
3.0060003 1.4300275 0.31938696 0
3.0060003 1.4253267 0.31938696 0
3.0060003 1.420626 0.31938696 0
3.0050001 1.4153643 0.31941944 0
3.0050001 1.4106653 0.31941944 0
3.0050001 1.4059664 0.31941944 0
3.0050001 1.4012675 0.31941944 0
3.0050001 1.3965685 0.31941944 0
3.0050001 1.3918695 0.31941944 0
3.0040002 1.3866205 0.31945193 0
3.0040002 1.3819234 0.31945193 0
3.0040002 1.3772264 0.31945193 0
3.0040002 1.3725291 0.31945193 0
3.0040002 1.3678321 0.31945193 0
3.0040002 1.363135 0.31945193 0
3.0030003 1.3578986 0.31948438 0
3.0030003 1.3532032 0.31948438 0
3.0030003 1.348508 0.31948438 0
3.0030003 1.3438126 0.31948438 0
3.0030003 1.3391173 0.31948438 0
3.0030003 1.334422 0.31948438 0
3.0020003 1.3291981 0.31951684 0
3.0020003 1.3245046 0.31951684 0
3.0020003 1.3198112 0.31951684 0
3.0020003 1.3151177 0.31951684 0
3.0020003 1.3104242 0.31951684 0
3.0020003 1.3057307 0.31951684 0
3.0010002 1.3005193 0.31954932 0
3.0010002 1.2958277 0.31954932 0
3.0010002 1.291136 0.31954932 0
3.0010002 1.2864443 0.31954932 0
3.0010002 1.2817525 0.31954932 0
3.0010002 1.2770607 0.31954932 0
3.0000002 1.2718623 0.31958178 0
3.0000002 1.2671725 0.31958178 0
3.0000002 1.2624825 0.31958178 0
3.0060003 1.4394288 0.31468624 0
3.0060003 1.4347281 0.31468624 0
3.0060003 1.4300275 0.31468624 0
3.0060003 1.4253267 0.31468624 0
3.0060003 1.420626 0.31468624 0
3.0050001 1.4153643 0.31472054 0
3.0050001 1.4106653 0.31472054 0
3.0050001 1.4059664 0.31472054 0
3.0050001 1.4012675 0.31472054 0
3.0050001 1.3965685 0.31472054 0
3.0050001 1.3918695 0.31472054 0
3.0040002 1.3866205 0.31475478 0
3.0040002 1.3819234 0.31475478 0
3.0040002 1.3772264 0.31475478 0
3.0040002 1.3725291 0.31475478 0
3.0040002 1.3678321 0.31475478 0
3.0040002 1.363135 0.31475478 0
3.0030003 1.3578986 0.31478906 0
3.0030003 1.3532032 0.31478906 0
3.0030003 1.348508 0.31478906 0
3.0030003 1.3438126 0.31478906 0
3.0030003 1.3391173 0.31478906 0
3.0030003 1.334422 0.31478906 0
3.0020003 1.3291981 0.31482333 0
3.0020003 1.3245046 0.31482333 0
3.0020003 1.3198112 0.31482333 0
3.0020003 1.3151177 0.31482333 0
3.0020003 1.3104242 0.31482333 0
3.0020003 1.3057307 0.31482333 0
3.0010002 1.3005193 0.3148576 0
3.0010002 1.2958277 0.3148576 0
3.0010002 1.291136 0.3148576 0
3.0010002 1.2864443 0.3148576 0
3.0010002 1.2817525 0.3148576 0
3.0010002 1.2770607 0.3148576 0
3.0000002 1.2718623 0.31489187 0
3.0000002 1.2671725 0.31489187 0
3.0000002 1.2624825 0.31489187 0
3.0060003 1.4394288 0.30998552 0
3.0060003 1.4347281 0.30998552 0
3.0060003 1.4300275 0.30998552 0
3.0060003 1.4253267 0.30998552 0
3.0060003 1.420626 0.30998552 0
3.0050001 1.4153643 0.31002161 0
3.0050001 1.4106653 0.31002161 0
3.0050001 1.4059664 0.31002161 0
3.0050001 1.4012675 0.31002161 0
3.0050001 1.3965685 0.31002161 0
3.0050001 1.3918695 0.31002161 0
3.0040002 1.3866205 0.3100577 0
3.0040002 1.3819234 0.3100577 0
3.0040002 1.3772264 0.3100577 0
3.0040002 1.3725291 0.3100577 0
3.0040002 1.3678321 0.3100577 0
3.0040002 1.363135 0.3100577 0
3.0030003 1.3578986 0.31009376 0
3.0030003 1.3532032 0.31009376 0
3.0030003 1.348508 0.31009376 0
3.0030003 1.3438126 0.31009376 0
3.0030003 1.3391173 0.31009376 0
3.0030003 1.334422 0.31009376 0
3.0020003 1.3291981 0.31012982 0
3.0020003 1.3245046 0.31012982 0
3.0020003 1.3198112 0.31012982 0
3.0020003 1.3151177 0.31012982 0
3.0020003 1.3104242 0.31012982 0
3.0020003 1.3057307 0.31012982 0
3.0010002 1.3005193 0.31016591 0
3.0010002 1.2958277 0.31016591 0
3.0010002 1.291136 0.31016591 0
3.0010002 1.2864443 0.31016591 0
3.0010002 1.2817525 0.31016591 0
3.0010002 1.2770607 0.31016591 0
3.0000002 1.2718623 0.31020197 0
3.0000002 1.2671725 0.31020197 0
3.0000002 1.2624825 0.31020197 0
3.0060003 1.4394288 0.3052848 0
3.0060003 1.4347281 0.3052848 0
3.0060003 1.4300275 0.3052848 0
3.0060003 1.4253267 0.3052848 0
3.0060003 1.420626 0.3052848 0
3.0050001 1.4153643 0.30532268 0
3.0050001 1.4106653 0.30532268 0
3.0050001 1.4059664 0.30532268 0
3.0050001 1.4012675 0.30532268 0
3.0050001 1.3965685 0.30532268 0
3.0050001 1.3918695 0.30532268 0
3.0040002 1.3866205 0.30536056 0
3.0040002 1.3819234 0.30536056 0
3.0040002 1.3772264 0.30536056 0
3.0040002 1.3725291 0.30536056 0
3.0040002 1.3678321 0.30536056 0
3.0040002 1.363135 0.30536056 0
3.0030003 1.3578986 0.30539846 0
3.0030003 1.3532032 0.30539846 0
3.0030003 1.348508 0.30539846 0
3.0030003 1.3438126 0.30539846 0
3.0030003 1.3391173 0.30539846 0
3.0030003 1.334422 0.30539846 0
3.0020003 1.3291981 0.30543631 0
3.0020003 1.3245046 0.30543631 0
3.0020003 1.3198112 0.30543631 0
3.0020003 1.3151177 0.30543631 0
3.0020003 1.3104242 0.30543631 0
3.0020003 1.3057307 0.30543631 0
3.0010002 1.3005193 0.30547422 0
3.0010002 1.2958277 0.30547422 0
3.0010002 1.291136 0.30547422 0
3.0010002 1.2864443 0.30547422 0
3.0010002 1.2817525 0.30547422 0
3.0010002 1.2770607 0.30547422 0
3.0000002 1.2718623 0.30551207 0
3.0000002 1.2671725 0.30551207 0
3.0000002 1.2624825 0.30551207 0
3.0060003 1.4394288 0.30058408 0
3.0060003 1.4347281 0.30058408 0
3.0060003 1.4300275 0.30058408 0
3.0060003 1.4253267 0.30058408 0
3.0060003 1.420626 0.30058408 0
3.0050001 1.4153643 0.30062377 0
3.0050001 1.4106653 0.30062377 0
3.0050001 1.4059664 0.30062377 0
3.0050001 1.4012675 0.30062377 0
3.0050001 1.3965685 0.30062377 0
3.0050001 1.3918695 0.30062377 0
3.0040002 1.3866205 0.30066344 0
3.0040002 1.3819234 0.30066344 0
3.0040002 1.3772264 0.30066344 0
3.0040002 1.3725291 0.30066344 0
3.0040002 1.3678321 0.30066344 0
3.0040002 1.363135 0.30066344 0
3.0030003 1.3578986 0.30070314 0
3.0030003 1.3532032 0.30070314 0
3.0030003 1.348508 0.30070314 0
3.0030003 1.3438126 0.30070314 0
3.0030003 1.3391173 0.30070314 0
3.0030003 1.334422 0.30070314 0
3.0020003 1.3291981 0.30074281 0
3.0020003 1.3245046 0.30074281 0
3.0020003 1.3198112 0.30074281 0
3.0020003 1.3151177 0.30074281 0
3.0020003 1.3104242 0.30074281 0
3.0020003 1.3057307 0.30074281 0
3.0010002 1.3005193 0.3007825 0
3.0010002 1.2958277 0.3007825 0
3.0010002 1.291136 0.3007825 0
3.0010002 1.2864443 0.3007825 0
3.0010002 1.2817525 0.3007825 0
3.0010002 1.2770607 0.3007825 0
3.0000002 1.2718623 0.3008222 0
3.0000002 1.2671725 0.3008222 0
3.0000002 1.2624825 0.3008222 0
3.0060003 1.4394288 0.29588336 0
3.0060003 1.4347281 0.29588336 0
3.0060003 1.4300275 0.29588336 0
3.0060003 1.4253267 0.29588336 0
3.0060003 1.420626 0.29588336 0
3.0050001 1.4153643 0.29592484 0
3.0050001 1.4106653 0.29592484 0
3.0050001 1.4059664 0.29592484 0
3.0050001 1.4012675 0.29592484 0
3.0050001 1.3965685 0.29592484 0
3.0050001 1.3918695 0.29592484 0
3.0040002 1.3866205 0.29596633 0
3.0040002 1.3819234 0.29596633 0
3.0040002 1.3772264 0.29596633 0
3.0040002 1.3725291 0.29596633 0
3.0040002 1.3678321 0.29596633 0
3.0040002 1.363135 0.29596633 0
3.0030003 1.3578986 0.29600781 0
3.0030003 1.3532032 0.29600781 0
3.0030003 1.348508 0.29600781 0
3.0030003 1.3438126 0.29600781 0
3.0030003 1.3391173 0.29600781 0
3.0030003 1.334422 0.29600781 0
3.0020003 1.3291981 0.2960493 0
3.0020003 1.3245046 0.2960493 0
3.0020003 1.3198112 0.2960493 0
3.0020003 1.3151177 0.2960493 0
3.0020003 1.3104242 0.2960493 0
3.0020003 1.3057307 0.2960493 0
3.0010002 1.3005193 0.29609078 0
3.0010002 1.2958277 0.29609078 0
3.0010002 1.291136 0.29609078 0
3.0010002 1.2864443 0.29609078 0
3.0010002 1.2817525 0.29609078 0
3.0010002 1.2770607 0.29609078 0
3.0000002 1.2718623 0.29613227 0
3.0000002 1.2671725 0.29613227 0
3.0000002 1.2624825 0.29613227 0
3.0060003 1.4394288 0.29118264 0
3.0060003 1.4347281 0.29118264 0
3.0060003 1.4300275 0.29118264 0
3.0060003 1.4253267 0.29118264 0
3.0060003 1.420626 0.29118264 0
3.0050001 1.4153643 0.29122591 0
3.0050001 1.4106653 0.29122591 0
3.0050001 1.4059664 0.29122591 0
3.0050001 1.4012675 0.29122591 0
3.0050001 1.3965685 0.29122591 0
3.0050001 1.3918695 0.29122591 0
3.0040002 1.3866205 0.29126921 0
3.0040002 1.3819234 0.29126921 0
3.0040002 1.3772264 0.29126921 0
3.0040002 1.3725291 0.29126921 0
3.0040002 1.3678321 0.29126921 0
3.0040002 1.363135 0.29126921 0
3.0030003 1.3578986 0.29131252 0
3.0030003 1.3532032 0.29131252 0
3.0030003 1.348508 0.29131252 0
3.0030003 1.3438126 0.29131252 0
3.0030003 1.3391173 0.29131252 0
3.0030003 1.334422 0.29131252 0
3.0020003 1.3291981 0.29135579 0
3.0020003 1.3245046 0.29135579 0
3.0020003 1.3198112 0.29135579 0
3.0020003 1.3151177 0.29135579 0
3.0020003 1.3104242 0.29135579 0
3.0020003 1.3057307 0.29135579 0
3.0010002 1.3005193 0.29139909 0
3.0010002 1.2958277 0.29139909 0
3.0010002 1.291136 0.29139909 0
3.0010002 1.2864443 0.29139909 0
3.0010002 1.2817525 0.29139909 0
3.0010002 1.2770607 0.29139909 0
3.0000002 1.2718623 0.29144239 0
3.0000002 1.2671725 0.29144239 0
3.0000002 1.2624825 0.29144239 0
3.0060003 1.4394288 0.28648192 0
3.0060003 1.4347281 0.28648192 0
3.0060003 1.4300275 0.28648192 0
3.0060003 1.4253267 0.28648192 0
3.0060003 1.420626 0.28648192 0
3.0050001 1.4153643 0.28652701 0
3.0050001 1.4106653 0.28652701 0
3.0050001 1.4059664 0.28652701 0
3.0050001 1.4012675 0.28652701 0
3.0050001 1.3965685 0.28652701 0
3.0050001 1.3918695 0.28652701 0
3.0040002 1.3866205 0.2865721 0
3.0040002 1.3819234 0.2865721 0
3.0040002 1.3772264 0.2865721 0
3.0040002 1.3725291 0.2865721 0
3.0040002 1.3678321 0.2865721 0
3.0040002 1.363135 0.2865721 0
3.0030003 1.3578986 0.28661719 0
3.0030003 1.3532032 0.28661719 0
3.0030003 1.348508 0.28661719 0
3.0030003 1.3438126 0.28661719 0
3.0030003 1.3391173 0.28661719 0
3.0030003 1.334422 0.28661719 0
3.0020003 1.3291981 0.28666228 0
3.0020003 1.3245046 0.28666228 0
3.0020003 1.3198112 0.28666228 0
3.0020003 1.3151177 0.28666228 0
3.0020003 1.3104242 0.28666228 0
3.0020003 1.3057307 0.28666228 0
3.0010002 1.3005193 0.2867074 0
3.0010002 1.2958277 0.2867074 0
3.0010002 1.291136 0.2867074 0
3.0010002 1.2864443 0.2867074 0
3.0010002 1.2817525 0.2867074 0
3.0010002 1.2770607 0.2867074 0
3.0000002 1.2718623 0.28675249 0
3.0000002 1.2671725 0.28675249 0
3.0000002 1.2624825 0.28675249 0
3.0060003 1.4394288 0.2817812 0
3.0060003 1.4347281 0.2817812 0
3.0060003 1.4300275 0.2817812 0
3.0060003 1.4253267 0.2817812 0
3.0060003 1.420626 0.2817812 0
3.0050001 1.4153643 0.28182808 0
3.0050001 1.4106653 0.28182808 0
3.0050001 1.4059664 0.28182808 0
3.0050001 1.4012675 0.28182808 0
3.0050001 1.3965685 0.28182808 0
3.0050001 1.3918695 0.28182808 0
3.0040002 1.3866205 0.28187498 0
3.0040002 1.3819234 0.28187498 0
3.0040002 1.3772264 0.28187498 0
3.0040002 1.3725291 0.28187498 0
3.0040002 1.3678321 0.28187498 0
3.0040002 1.363135 0.28187498 0
3.0030003 1.3578986 0.28192189 0
3.0030003 1.3532032 0.28192189 0
3.0030003 1.348508 0.28192189 0
3.0030003 1.3438126 0.28192189 0
3.0030003 1.3391173 0.28192189 0
3.0030003 1.334422 0.28192189 0
3.0020003 1.3291981 0.28196877 0
3.0020003 1.3245046 0.28196877 0
3.0020003 1.3198112 0.28196877 0
3.0020003 1.3151177 0.28196877 0
3.0020003 1.3104242 0.28196877 0
3.0020003 1.3057307 0.28196877 0
3.0010002 1.3005193 0.28201568 0
3.0010002 1.2958277 0.28201568 0
3.0010002 1.291136 0.28201568 0
3.0010002 1.2864443 0.28201568 0
3.0010002 1.2817525 0.28201568 0
3.0010002 1.2770607 0.28201568 0
3.0000002 1.2718623 0.28206259 0
3.0000002 1.2671725 0.28206259 0
3.0000002 1.2624825 0.28206259 0
3.0060003 1.4394288 0.27708045 0
3.0060003 1.4347281 0.27708045 0
3.0060003 1.4300275 0.27708045 0
3.0060003 1.4253267 0.27708045 0
3.0060003 1.420626 0.27708045 0
3.0050001 1.4153643 0.27712917 0
3.0050001 1.4106653 0.27712917 0
3.0050001 1.4059664 0.27712917 0
3.0050001 1.4012675 0.27712917 0
3.0050001 1.3965685 0.27712917 0
3.0050001 1.3918695 0.27712917 0
3.0040002 1.3866205 0.27717787 0
3.0040002 1.3819234 0.27717787 0
3.0040002 1.3772264 0.27717787 0
3.0040002 1.3725291 0.27717787 0
3.0040002 1.3678321 0.27717787 0
3.0040002 1.363135 0.27717787 0
3.0030003 1.3578986 0.27722657 0
3.0030003 1.3532032 0.27722657 0
3.0030003 1.348508 0.27722657 0
3.0030003 1.3438126 0.27722657 0
3.0030003 1.3391173 0.27722657 0
3.0030003 1.334422 0.27722657 0
3.0020003 1.3291981 0.27727526 0
3.0020003 1.3245046 0.27727526 0
3.0020003 1.3198112 0.27727526 0
3.0020003 1.3151177 0.27727526 0
3.0020003 1.3104242 0.27727526 0
3.0020003 1.3057307 0.27727526 0
3.0010002 1.3005193 0.27732396 0
3.0010002 1.2958277 0.27732396 0
3.0010002 1.291136 0.27732396 0
3.0010002 1.2864443 0.27732396 0
3.0010002 1.2817525 0.27732396 0
3.0010002 1.2770607 0.27732396 0
3.0000002 1.2718623 0.27737266 0
3.0000002 1.2671725 0.27737266 0
3.0000002 1.2624825 0.27737266 0
3.0060003 1.4394288 0.27237976 0
3.0060003 1.4347281 0.27237976 0
3.0060003 1.4300275 0.27237976 0
3.0060003 1.4253267 0.27237976 0
3.0060003 1.420626 0.27237976 0
3.0050001 1.4153643 0.27243024 0
3.0050001 1.4106653 0.27243024 0
3.0050001 1.4059664 0.27243024 0
3.0050001 1.4012675 0.27243024 0
3.0050001 1.3965685 0.27243024 0
3.0050001 1.3918695 0.27243024 0
3.0040002 1.3866205 0.27248076 0
3.0040002 1.3819234 0.27248076 0
3.0040002 1.3772264 0.27248076 0
3.0040002 1.3725291 0.27248076 0
3.0040002 1.3678321 0.27248076 0
3.0040002 1.363135 0.27248076 0
3.0030003 1.3578986 0.27253127 0
3.0030003 1.3532032 0.27253127 0
3.0030003 1.348508 0.27253127 0
3.0030003 1.3438126 0.27253127 0
3.0030003 1.3391173 0.27253127 0
3.0030003 1.334422 0.27253127 0
3.0020003 1.3291981 0.27258176 0
3.0020003 1.3245046 0.27258176 0
3.0020003 1.3198112 0.27258176 0
3.0020003 1.3151177 0.27258176 0
3.0020003 1.3104242 0.27258176 0
3.0020003 1.3057307 0.27258176 0
3.0010002 1.3005193 0.27263227 0
3.0010002 1.2958277 0.27263227 0
3.0010002 1.291136 0.27263227 0
3.0010002 1.2864443 0.27263227 0
3.0010002 1.2817525 0.27263227 0
3.0010002 1.2770607 0.27263227 0
3.0000002 1.2718623 0.27268279 0
3.0000002 1.2671725 0.27268279 0
3.0000002 1.2624825 0.27268279 0
3.0060003 1.4394288 0.26767901 0
3.0060003 1.4347281 0.26767901 0
3.0060003 1.4300275 0.26767901 0
3.0060003 1.4253267 0.26767901 0
3.0060003 1.420626 0.26767901 0
3.0050001 1.4153643 0.26773131 0
3.0050001 1.4106653 0.26773131 0
3.0050001 1.4059664 0.26773131 0
3.0050001 1.4012675 0.26773131 0
3.0050001 1.3965685 0.26773131 0
3.0050001 1.3918695 0.26773131 0
3.0040002 1.3866205 0.26778364 0
3.0040002 1.3819234 0.26778364 0
3.0040002 1.3772264 0.26778364 0
3.0040002 1.3725291 0.26778364 0
3.0040002 1.3678321 0.26778364 0
3.0040002 1.363135 0.26778364 0
3.0030003 1.3578986 0.26783592 0
3.0030003 1.3532032 0.26783592 0
3.0030003 1.348508 0.26783592 0
3.0030003 1.3438126 0.26783592 0
3.0030003 1.3391173 0.26783592 0
3.0030003 1.334422 0.26783592 0
3.0020003 1.3291981 0.26788825 0
3.0020003 1.3245046 0.26788825 0
3.0020003 1.3198112 0.26788825 0
3.0020003 1.3151177 0.26788825 0
3.0020003 1.3104242 0.26788825 0
3.0020003 1.3057307 0.26788825 0
3.0010002 1.3005193 0.26794058 0
3.0010002 1.2958277 0.26794058 0
3.0010002 1.291136 0.26794058 0
3.0010002 1.2864443 0.26794058 0
3.0010002 1.2817525 0.26794058 0
3.0010002 1.2770607 0.26794058 0
3.0000002 1.2718623 0.26799288 0
3.0000002 1.2671725 0.26799288 0
3.0000002 1.2624825 0.26799288 0
3.0060003 1.4394288 0.26297829 0
3.0060003 1.4347281 0.26297829 0
3.0060003 1.4300275 0.26297829 0
3.0060003 1.4253267 0.26297829 0
3.0060003 1.420626 0.26297829 0
3.0050001 1.4153643 0.26303241 0
3.0050001 1.4106653 0.26303241 0
3.0050001 1.4059664 0.26303241 0
3.0050001 1.4012675 0.26303241 0
3.0050001 1.3965685 0.26303241 0
3.0050001 1.3918695 0.26303241 0
3.0040002 1.3866205 0.2630865 0
3.0040002 1.3819234 0.2630865 0
3.0040002 1.3772264 0.2630865 0
3.0040002 1.3725291 0.2630865 0
3.0040002 1.3678321 0.2630865 0
3.0040002 1.363135 0.2630865 0
3.0030003 1.3578986 0.26314062 0
3.0030003 1.3532032 0.26314062 0
3.0030003 1.348508 0.26314062 0
3.0030003 1.3438126 0.26314062 0
3.0030003 1.3391173 0.26314062 0
3.0030003 1.334422 0.26314062 0
3.0020003 1.3291981 0.26319474 0
3.0020003 1.3245046 0.26319474 0
3.0020003 1.3198112 0.26319474 0
3.0020003 1.3151177 0.26319474 0
3.0020003 1.3104242 0.26319474 0
3.0020003 1.3057307 0.26319474 0
3.0010002 1.3005193 0.26324886 0
3.0010002 1.2958277 0.26324886 0
3.0010002 1.291136 0.26324886 0
3.0010002 1.2864443 0.26324886 0
3.0010002 1.2817525 0.26324886 0
3.0010002 1.2770607 0.26324886 0
3.0000002 1.2718623 0.26330298 0
3.0000002 1.2671725 0.26330298 0
3.0000002 1.2624825 0.26330298 0
3.0060003 1.4394288 0.25827757 0
3.0060003 1.4347281 0.25827757 0
3.0060003 1.4300275 0.25827757 0
3.0060003 1.4253267 0.25827757 0
3.0060003 1.420626 0.25827757 0
3.0050001 1.4153643 0.2583335 0
3.0050001 1.4106653 0.2583335 0
3.0050001 1.4059664 0.2583335 0
3.0050001 1.4012675 0.2583335 0
3.0050001 1.3965685 0.2583335 0
3.0050001 1.3918695 0.2583335 0
3.0040002 1.3866205 0.25838941 0
3.0040002 1.3819234 0.25838941 0
3.0040002 1.3772264 0.25838941 0
3.0040002 1.3725291 0.25838941 0
3.0040002 1.3678321 0.25838941 0
3.0040002 1.363135 0.25838941 0
3.0030003 1.3578986 0.25844532 0
3.0030003 1.3532032 0.25844532 0
3.0030003 1.348508 0.25844532 0
3.0030003 1.3438126 0.25844532 0
3.0030003 1.3391173 0.25844532 0
3.0030003 1.334422 0.25844532 0
3.0020003 1.3291981 0.25850123 0
3.0020003 1.3245046 0.25850123 0
3.0020003 1.3198112 0.25850123 0
3.0020003 1.3151177 0.25850123 0
3.0020003 1.3104242 0.25850123 0
3.0020003 1.3057307 0.25850123 0
3.0010002 1.3005193 0.25855714 0
3.0010002 1.2958277 0.25855714 0
3.0010002 1.291136 0.25855714 0
3.0010002 1.2864443 0.25855714 0
3.0010002 1.2817525 0.25855714 0
3.0010002 1.2770607 0.25855714 0
3.0000002 1.2718623 0.25861305 0
3.0000002 1.2671725 0.25861305 0
3.0000002 1.2624825 0.25861305 0
3.0060003 1.4394288 0.25357682 0
3.0060003 1.4347281 0.25357682 0
3.0060003 1.4300275 0.25357682 0
3.0060003 1.4253267 0.25357682 0
3.0060003 1.420626 0.25357682 0
3.0050001 1.4153643 0.25363457 0
3.0050001 1.4106653 0.25363457 0
3.0050001 1.4059664 0.25363457 0
3.0050001 1.4012675 0.25363457 0
3.0050001 1.3965685 0.25363457 0
3.0050001 1.3918695 0.25363457 0
3.0040002 1.3866205 0.25369227 0
3.0040002 1.3819234 0.25369227 0
3.0040002 1.3772264 0.25369227 0
3.0040002 1.3725291 0.25369227 0
3.0040002 1.3678321 0.25369227 0
3.0040002 1.363135 0.25369227 0
3.0030003 1.3578986 0.25375 0
3.0030003 1.3532032 0.25375 0
3.0030003 1.348508 0.25375 0
3.0030003 1.3438126 0.25375 0
3.0030003 1.3391173 0.25375 0
3.0030003 1.334422 0.25375 0
3.0020003 1.3291981 0.25380772 0
3.0020003 1.3245046 0.25380772 0
3.0020003 1.3198112 0.25380772 0
3.0020003 1.3151177 0.25380772 0
3.0020003 1.3104242 0.25380772 0
3.0020003 1.3057307 0.25380772 0
3.0010002 1.3005193 0.25386545 0
3.0010002 1.2958277 0.25386545 0
3.0010002 1.291136 0.25386545 0
3.0010002 1.2864443 0.25386545 0
3.0010002 1.2817525 0.25386545 0
3.0010002 1.2770607 0.25386545 0
3.0000002 1.2718623 0.25392318 0
3.0000002 1.2671725 0.25392318 0
3.0000002 1.2624825 0.25392318 0
3.0060003 1.4394288 0.24887611 0
3.0060003 1.4347281 0.24887611 0
3.0060003 1.4300275 0.24887611 0
3.0060003 1.4253267 0.24887611 0
3.0060003 1.420626 0.24887611 0
3.0050001 1.4153643 0.24893564 0
3.0050001 1.4106653 0.24893564 0
3.0050001 1.4059664 0.24893564 0
3.0050001 1.4012675 0.24893564 0
3.0050001 1.3965685 0.24893564 0
3.0050001 1.3918695 0.24893564 0
3.0040002 1.3866205 0.24899516 0
3.0040002 1.3819234 0.24899516 0
3.0040002 1.3772264 0.24899516 0
3.0040002 1.3725291 0.24899516 0
3.0040002 1.3678321 0.24899516 0
3.0040002 1.363135 0.24899516 0
3.0030003 1.3578986 0.2490547 0
3.0030003 1.3532032 0.2490547 0
3.0030003 1.348508 0.2490547 0
3.0030003 1.3438126 0.2490547 0
3.0030003 1.3391173 0.2490547 0
3.0030003 1.334422 0.2490547 0
3.0020003 1.3291981 0.24911422 0
3.0020003 1.3245046 0.24911422 0
3.0020003 1.3198112 0.24911422 0
3.0020003 1.3151177 0.24911422 0
3.0020003 1.3104242 0.24911422 0
3.0020003 1.3057307 0.24911422 0
3.0010002 1.3005193 0.24917375 0
3.0010002 1.2958277 0.24917375 0
3.0010002 1.291136 0.24917375 0
3.0010002 1.2864443 0.24917375 0
3.0010002 1.2817525 0.24917375 0
3.0010002 1.2770607 0.24917375 0
3.0000002 1.2718623 0.24923328 0
3.0000002 1.2671725 0.24923328 0
3.0000002 1.2624825 0.24923328 0
3.0060003 1.4394288 0.24417539 0
3.0060003 1.4347281 0.24417539 0
3.0060003 1.4300275 0.24417539 0
3.0060003 1.4253267 0.24417539 0
3.0060003 1.420626 0.24417539 0
3.0050001 1.4153643 0.24423672 0
3.0050001 1.4106653 0.24423672 0
3.0050001 1.4059664 0.24423672 0
3.0050001 1.4012675 0.24423672 0
3.0050001 1.3965685 0.24423672 0
3.0050001 1.3918695 0.24423672 0
3.0040002 1.3866205 0.24429806 0
3.0040002 1.3819234 0.24429806 0
3.0040002 1.3772264 0.24429806 0
3.0040002 1.3725291 0.24429806 0
3.0040002 1.3678321 0.24429806 0
3.0040002 1.363135 0.24429806 0
3.0030003 1.3578986 0.24435937 0
3.0030003 1.3532032 0.24435937 0
3.0030003 1.348508 0.24435937 0
3.0030003 1.3438126 0.24435937 0
3.0030003 1.3391173 0.24435937 0
3.0030003 1.334422 0.24435937 0
3.0020003 1.3291981 0.24442069 0
3.0020003 1.3245046 0.24442069 0
3.0020003 1.3198112 0.24442069 0
3.0020003 1.3151177 0.24442069 0
3.0020003 1.3104242 0.24442069 0
3.0020003 1.3057307 0.24442069 0
3.0010002 1.3005193 0.24448204 0
3.0010002 1.2958277 0.24448204 0
3.0010002 1.291136 0.24448204 0
3.0010002 1.2864443 0.24448204 0
3.0010002 1.2817525 0.24448204 0
3.0010002 1.2770607 0.24448204 0
3.0000002 1.2718623 0.24454337 0
3.0000002 1.2671725 0.24454337 0
3.0000002 1.2624825 0.24454337 0
3.0060003 1.4394288 0.23947465 0
3.0060003 1.4347281 0.23947465 0
3.0060003 1.4300275 0.23947465 0
3.0060003 1.4253267 0.23947465 0
3.0060003 1.420626 0.23947465 0
3.0050001 1.4153643 0.23953781 0
3.0050001 1.4106653 0.23953781 0
3.0050001 1.4059664 0.23953781 0
3.0050001 1.4012675 0.23953781 0
3.0050001 1.3965685 0.23953781 0
3.0050001 1.3918695 0.23953781 0
3.0040002 1.3866205 0.23960094 0
3.0040002 1.3819234 0.23960094 0
3.0040002 1.3772264 0.23960094 0
3.0040002 1.3725291 0.23960094 0
3.0040002 1.3678321 0.23960094 0
3.0040002 1.363135 0.23960094 0
3.0030003 1.3578986 0.23966406 0
3.0030003 1.3532032 0.23966406 0
3.0030003 1.348508 0.23966406 0
3.0030003 1.3438126 0.23966406 0
3.0030003 1.3391173 0.23966406 0
3.0030003 1.334422 0.23966406 0
3.0020003 1.3291981 0.2397272 0
3.0020003 1.3245046 0.2397272 0
3.0020003 1.3198112 0.2397272 0
3.0020003 1.3151177 0.2397272 0
3.0020003 1.3104242 0.2397272 0
3.0020003 1.3057307 0.2397272 0
3.0010002 1.3005193 0.23979034 0
3.0010002 1.2958277 0.23979034 0
3.0010002 1.291136 0.23979034 0
3.0010002 1.2864443 0.23979034 0
3.0010002 1.2817525 0.23979034 0
3.0010002 1.2770607 0.23979034 0
3.0000002 1.2718623 0.23985346 0
3.0000002 1.2671725 0.23985346 0
3.0000002 1.2624825 0.23985346 0
3.0060003 1.4394288 0.23477393 0
3.0060003 1.4347281 0.23477393 0
3.0060003 1.4300275 0.23477393 0
3.0060003 1.4253267 0.23477393 0
3.0060003 1.420626 0.23477393 0
3.0050001 1.4153643 0.23483889 0
3.0050001 1.4106653 0.23483889 0
3.0050001 1.4059664 0.23483889 0
3.0050001 1.4012675 0.23483889 0
3.0050001 1.3965685 0.23483889 0
3.0050001 1.3918695 0.23483889 0
3.0040002 1.3866205 0.23490381 0
3.0040002 1.3819234 0.23490381 0
3.0040002 1.3772264 0.23490381 0
3.0040002 1.3725291 0.23490381 0
3.0040002 1.3678321 0.23490381 0
3.0040002 1.363135 0.23490381 0
3.0030003 1.3578986 0.23496875 0
3.0030003 1.3532032 0.23496875 0
3.0030003 1.348508 0.23496875 0
3.0030003 1.3438126 0.23496875 0
3.0030003 1.3391173 0.23496875 0
3.0030003 1.334422 0.23496875 0
3.0020003 1.3291981 0.23503368 0
3.0020003 1.3245046 0.23503368 0
3.0020003 1.3198112 0.23503368 0
3.0020003 1.3151177 0.23503368 0
3.0020003 1.3104242 0.23503368 0
3.0020003 1.3057307 0.23503368 0
3.0010002 1.3005193 0.23509863 0
3.0010002 1.2958277 0.23509863 0
3.0010002 1.291136 0.23509863 0
3.0010002 1.2864443 0.23509863 0
3.0010002 1.2817525 0.23509863 0
3.0010002 1.2770607 0.23509863 0
3.0000002 1.2718623 0.23516355 0
3.0000002 1.2671725 0.23516355 0
3.0000002 1.2624825 0.23516355 0
3.0060003 1.4394288 0.23007321 0
3.0060003 1.4347281 0.23007321 0
3.0060003 1.4300275 0.23007321 0
3.0060003 1.4253267 0.23007321 0
3.0060003 1.420626 0.23007321 0
3.0050001 1.4153643 0.23013996 0
3.0050001 1.4106653 0.23013996 0
3.0050001 1.4059664 0.23013996 0
3.0050001 1.4012675 0.23013996 0
3.0050001 1.3965685 0.23013996 0
3.0050001 1.3918695 0.23013996 0
3.0040002 1.3866205 0.2302067 0
3.0040002 1.3819234 0.2302067 0
3.0040002 1.3772264 0.2302067 0
3.0040002 1.3725291 0.2302067 0
3.0040002 1.3678321 0.2302067 0
3.0040002 1.363135 0.2302067 0
3.0030003 1.3578986 0.23027344 0
3.0030003 1.3532032 0.23027344 0
3.0030003 1.348508 0.23027344 0
3.0030003 1.3438126 0.23027344 0
3.0030003 1.3391173 0.23027344 0
3.0030003 1.334422 0.23027344 0
3.0020003 1.3291981 0.23034017 0
3.0020003 1.3245046 0.23034017 0
3.0020003 1.3198112 0.23034017 0
3.0020003 1.3151177 0.23034017 0
3.0020003 1.3104242 0.23034017 0
3.0020003 1.3057307 0.23034017 0
3.0010002 1.3005193 0.23040693 0
3.0010002 1.2958277 0.23040693 0
3.0010002 1.291136 0.23040693 0
3.0010002 1.2864443 0.23040693 0
3.0010002 1.2817525 0.23040693 0
3.0010002 1.2770607 0.23040693 0
3.0000002 1.2718623 0.23047367 0
3.0000002 1.2671725 0.23047367 0
3.0000002 1.2624825 0.23047367 0
3.0060003 1.4394288 0.22537249 0
3.0060003 1.4347281 0.22537249 0
3.0060003 1.4300275 0.22537249 0
3.0060003 1.4253267 0.22537249 0
3.0060003 1.420626 0.22537249 0
3.0050001 1.4153643 0.22544105 0
3.0050001 1.4106653 0.22544105 0
3.0050001 1.4059664 0.22544105 0
3.0050001 1.4012675 0.22544105 0
3.0050001 1.3965685 0.22544105 0
3.0050001 1.3918695 0.22544105 0
3.0040002 1.3866205 0.22550958 0
3.0040002 1.3819234 0.22550958 0
3.0040002 1.3772264 0.22550958 0
3.0040002 1.3725291 0.22550958 0
3.0040002 1.3678321 0.22550958 0
3.0040002 1.363135 0.22550958 0
3.0030003 1.3578986 0.22557811 0
3.0030003 1.3532032 0.22557811 0
3.0030003 1.348508 0.22557811 0
3.0030003 1.3438126 0.22557811 0
3.0030003 1.3391173 0.22557811 0
3.0030003 1.334422 0.22557811 0
3.0020003 1.3291981 0.22564666 0
3.0020003 1.3245046 0.22564666 0
3.0020003 1.3198112 0.22564666 0
3.0020003 1.3151177 0.22564666 0
3.0020003 1.3104242 0.22564666 0
3.0020003 1.3057307 0.22564666 0
3.0010002 1.3005193 0.22571522 0
3.0010002 1.2958277 0.22571522 0
3.0010002 1.291136 0.22571522 0
3.0010002 1.2864443 0.22571522 0
3.0010002 1.2817525 0.22571522 0
3.0010002 1.2770607 0.22571522 0
3.0000002 1.2718623 0.22578377 0
3.0000002 1.2671725 0.22578377 0
3.0000002 1.2624825 0.22578377 0
3.0060003 1.4394288 0.22067176 0
3.0060003 1.4347281 0.22067176 0
3.0060003 1.4300275 0.22067176 0
3.0060003 1.4253267 0.22067176 0
3.0060003 1.420626 0.22067176 0
3.0050001 1.4153643 0.22074212 0
3.0050001 1.4106653 0.22074212 0
3.0050001 1.4059664 0.22074212 0
3.0050001 1.4012675 0.22074212 0
3.0050001 1.3965685 0.22074212 0
3.0050001 1.3918695 0.22074212 0
3.0040002 1.3866205 0.22081247 0
3.0040002 1.3819234 0.22081247 0
3.0040002 1.3772264 0.22081247 0
3.0040002 1.3725291 0.22081247 0
3.0040002 1.3678321 0.22081247 0
3.0040002 1.363135 0.22081247 0
3.0030003 1.3578986 0.22088282 0
3.0030003 1.3532032 0.22088282 0
3.0030003 1.348508 0.22088282 0
3.0030003 1.3438126 0.22088282 0
3.0030003 1.3391173 0.22088282 0
3.0030003 1.334422 0.22088282 0
3.0020003 1.3291981 0.22095315 0
3.0020003 1.3245046 0.22095315 0
3.0020003 1.3198112 0.22095315 0
3.0020003 1.3151177 0.22095315 0
3.0020003 1.3104242 0.22095315 0
3.0020003 1.3057307 0.22095315 0
3.0010002 1.3005193 0.22102351 0
3.0010002 1.2958277 0.22102351 0
3.0010002 1.291136 0.22102351 0
3.0010002 1.2864443 0.22102351 0
3.0010002 1.2817525 0.22102351 0
3.0010002 1.2770607 0.22102351 0
3.0000002 1.2718623 0.22109385 0
3.0000002 1.2671725 0.22109385 0
3.0000002 1.2624825 0.22109385 0
3.0060003 1.4394288 0.21597104 0
3.0060003 1.4347281 0.21597104 0
3.0060003 1.4300275 0.21597104 0
3.0060003 1.4253267 0.21597104 0
3.0060003 1.420626 0.21597104 0
3.0050001 1.4153643 0.2160432 0
3.0050001 1.4106653 0.2160432 0
3.0050001 1.4059664 0.2160432 0
3.0050001 1.4012675 0.2160432 0
3.0050001 1.3965685 0.2160432 0
3.0050001 1.3918695 0.2160432 0
3.0040002 1.3866205 0.21611536 0
3.0040002 1.3819234 0.21611536 0
3.0040002 1.3772264 0.21611536 0
3.0040002 1.3725291 0.21611536 0
3.0040002 1.3678321 0.21611536 0
3.0040002 1.363135 0.21611536 0
3.0030003 1.3578986 0.21618749 0
3.0030003 1.3532032 0.21618749 0
3.0030003 1.348508 0.21618749 0
3.0030003 1.3438126 0.21618749 0
3.0030003 1.3391173 0.21618749 0
3.0030003 1.334422 0.21618749 0
3.0020003 1.3291981 0.21625964 0
3.0020003 1.3245046 0.21625964 0
3.0020003 1.3198112 0.21625964 0
3.0020003 1.3151177 0.21625964 0
3.0020003 1.3104242 0.21625964 0
3.0020003 1.3057307 0.21625964 0
3.0010002 1.3005193 0.21633181 0
3.0010002 1.2958277 0.21633181 0
3.0010002 1.291136 0.21633181 0
3.0010002 1.2864443 0.21633181 0
3.0010002 1.2817525 0.21633181 0
3.0010002 1.2770607 0.21633181 0
3.0000002 1.2718623 0.21640395 0
3.0000002 1.2671725 0.21640395 0
3.0000002 1.2624825 0.21640395 0
3.0060003 1.4394288 0.21127032 0
3.0060003 1.4347281 0.21127032 0
3.0060003 1.4300275 0.21127032 0
3.0060003 1.4253267 0.21127032 0
3.0060003 1.420626 0.21127032 0
3.0050001 1.4153643 0.21134429 0
3.0050001 1.4106653 0.21134429 0
3.0050001 1.4059664 0.21134429 0
3.0050001 1.4012675 0.21134429 0
3.0050001 1.3965685 0.21134429 0
3.0050001 1.3918695 0.21134429 0
3.0040002 1.3866205 0.21141823 0
3.0040002 1.3819234 0.21141823 0
3.0040002 1.3772264 0.21141823 0
3.0040002 1.3725291 0.21141823 0
3.0040002 1.3678321 0.21141823 0
3.0040002 1.363135 0.21141823 0
3.0030003 1.3578986 0.21149218 0
3.0030003 1.3532032 0.21149218 0
3.0030003 1.348508 0.21149218 0
3.0030003 1.3438126 0.21149218 0
3.0030003 1.3391173 0.21149218 0
3.0030003 1.334422 0.21149218 0
3.0020003 1.3291981 0.21156614 0
3.0020003 1.3245046 0.21156614 0
3.0020003 1.3198112 0.21156614 0
3.0020003 1.3151177 0.21156614 0
3.0020003 1.3104242 0.21156614 0
3.0020003 1.3057307 0.21156614 0
3.0010002 1.3005193 0.2116401 0
3.0010002 1.2958277 0.2116401 0
3.0010002 1.291136 0.2116401 0
3.0010002 1.2864443 0.2116401 0
3.0010002 1.2817525 0.2116401 0
3.0010002 1.2770607 0.2116401 0
3.0000002 1.2718623 0.21171406 0
3.0000002 1.2671725 0.21171406 0
3.0000002 1.2624825 0.21171406 0
3.0060003 1.4394288 0.20656958 0
3.0060003 1.4347281 0.20656958 0
3.0060003 1.4300275 0.20656958 0
3.0060003 1.4253267 0.20656958 0
3.0060003 1.420626 0.20656958 0
3.0050001 1.4153643 0.20664535 0
3.0050001 1.4106653 0.20664535 0
3.0050001 1.4059664 0.20664535 0
3.0050001 1.4012675 0.20664535 0
3.0050001 1.3965685 0.20664535 0
3.0050001 1.3918695 0.20664535 0
3.0040002 1.3866205 0.20672111 0
3.0040002 1.3819234 0.20672111 0
3.0040002 1.3772264 0.20672111 0
3.0040002 1.3725291 0.20672111 0
3.0040002 1.3678321 0.20672111 0
3.0040002 1.363135 0.20672111 0
3.0030003 1.3578986 0.20679688 0
3.0030003 1.3532032 0.20679688 0
3.0030003 1.348508 0.20679688 0
3.0030003 1.3438126 0.20679688 0
3.0030003 1.3391173 0.20679688 0
3.0030003 1.334422 0.20679688 0
3.0020003 1.3291981 0.20687263 0
3.0020003 1.3245046 0.20687263 0
3.0020003 1.3198112 0.20687263 0
3.0020003 1.3151177 0.20687263 0
3.0020003 1.3104242 0.20687263 0
3.0020003 1.3057307 0.20687263 0
3.0010002 1.3005193 0.2069484 0
3.0010002 1.2958277 0.2069484 0
3.0010002 1.291136 0.2069484 0
3.0010002 1.2864443 0.2069484 0
3.0010002 1.2817525 0.2069484 0
3.0010002 1.2770607 0.2069484 0
3.0000002 1.2718623 0.20702416 0
3.0000002 1.2671725 0.20702416 0
3.0000002 1.2624825 0.20702416 0
3.0060003 1.4394288 0.20186888 0
3.0060003 1.4347281 0.20186888 0
3.0060003 1.4300275 0.20186888 0
3.0060003 1.4253267 0.20186888 0
3.0060003 1.420626 0.20186888 0
3.0050001 1.4153643 0.20194645 0
3.0050001 1.4106653 0.20194645 0
3.0050001 1.4059664 0.20194645 0
3.0050001 1.4012675 0.20194645 0
3.0050001 1.3965685 0.20194645 0
3.0050001 1.3918695 0.20194645 0
3.0040002 1.3866205 0.20202401 0
3.0040002 1.3819234 0.20202401 0
3.0040002 1.3772264 0.20202401 0
3.0040002 1.3725291 0.20202401 0
3.0040002 1.3678321 0.20202401 0
3.0040002 1.363135 0.20202401 0
3.0030003 1.3578986 0.20210156 0
3.0030003 1.3532032 0.20210156 0
3.0030003 1.348508 0.20210156 0
3.0030003 1.3438126 0.20210156 0
3.0030003 1.3391173 0.20210156 0
3.0030003 1.334422 0.20210156 0
3.0020003 1.3291981 0.20217912 0
3.0020003 1.3245046 0.20217912 0
3.0020003 1.3198112 0.20217912 0
3.0020003 1.3151177 0.20217912 0
3.0020003 1.3104242 0.20217912 0
3.0020003 1.3057307 0.20217912 0
3.0010002 1.3005193 0.20225669 0
3.0010002 1.2958277 0.20225669 0
3.0010002 1.291136 0.20225669 0
3.0010002 1.2864443 0.20225669 0
3.0010002 1.2817525 0.20225669 0
3.0010002 1.2770607 0.20225669 0
3.0000002 1.2718623 0.20233425 0
3.0000002 1.2671725 0.20233425 0
3.0000002 1.2624825 0.20233425 0
3.0060003 1.4394288 0.19716814 0
3.0060003 1.4347281 0.19716814 0
3.0060003 1.4300275 0.19716814 0
3.0060003 1.4253267 0.19716814 0
3.0060003 1.420626 0.19716814 0
3.0050001 1.4153643 0.19724752 0
3.0050001 1.4106653 0.19724752 0
3.0050001 1.4059664 0.19724752 0
3.0050001 1.4012675 0.19724752 0
3.0050001 1.3965685 0.19724752 0
3.0050001 1.3918695 0.19724752 0
3.0040002 1.3866205 0.19732688 0
3.0040002 1.3819234 0.19732688 0
3.0040002 1.3772264 0.19732688 0
3.0040002 1.3725291 0.19732688 0
3.0040002 1.3678321 0.19732688 0
3.0040002 1.363135 0.19732688 0
3.0030003 1.3578986 0.19740625 0
3.0030003 1.3532032 0.19740625 0
3.0030003 1.348508 0.19740625 0
3.0030003 1.3438126 0.19740625 0
3.0030003 1.3391173 0.19740625 0
3.0030003 1.334422 0.19740625 0
3.0020003 1.3291981 0.19748561 0
3.0020003 1.3245046 0.19748561 0
3.0020003 1.3198112 0.19748561 0
3.0020003 1.3151177 0.19748561 0
3.0020003 1.3104242 0.19748561 0
3.0020003 1.3057307 0.19748561 0
3.0010002 1.3005193 0.19756499 0
3.0010002 1.2958277 0.19756499 0
3.0010002 1.291136 0.19756499 0
3.0010002 1.2864443 0.19756499 0
3.0010002 1.2817525 0.19756499 0
3.0010002 1.2770607 0.19756499 0
3.0000002 1.2718623 0.19764435 0
3.0000002 1.2671725 0.19764435 0
3.0000002 1.2624825 0.19764435 0
3.0060003 1.4394288 0.19246741 0
3.0060003 1.4347281 0.19246741 0
3.0060003 1.4300275 0.19246741 0
3.0060003 1.4253267 0.19246741 0
3.0060003 1.420626 0.19246741 0
3.0050001 1.4153643 0.1925486 0
3.0050001 1.4106653 0.1925486 0
3.0050001 1.4059664 0.1925486 0
3.0050001 1.4012675 0.1925486 0
3.0050001 1.3965685 0.1925486 0
3.0050001 1.3918695 0.1925486 0
3.0040002 1.3866205 0.19262975 0
3.0040002 1.3819234 0.19262975 0
3.0040002 1.3772264 0.19262975 0
3.0040002 1.3725291 0.19262975 0
3.0040002 1.3678321 0.19262975 0
3.0040002 1.363135 0.19262975 0
3.0030003 1.3578986 0.19271094 0
3.0030003 1.3532032 0.19271094 0
3.0030003 1.348508 0.19271094 0
3.0030003 1.3438126 0.19271094 0
3.0030003 1.3391173 0.19271094 0
3.0030003 1.334422 0.19271094 0
3.0020003 1.3291981 0.1927921 0
3.0020003 1.3245046 0.1927921 0
3.0020003 1.3198112 0.1927921 0
3.0020003 1.3151177 0.1927921 0
3.0020003 1.3104242 0.1927921 0
3.0020003 1.3057307 0.1927921 0
3.0010002 1.3005193 0.19287328 0
3.0010002 1.2958277 0.19287328 0
3.0010002 1.291136 0.19287328 0
3.0010002 1.2864443 0.19287328 0
3.0010002 1.2817525 0.19287328 0
3.0010002 1.2770607 0.19287328 0
3.0000002 1.2718623 0.19295445 0
3.0000002 1.2671725 0.19295445 0
3.0000002 1.2624825 0.19295445 0
3.0060003 1.4394288 0.1877667 0
3.0060003 1.4347281 0.1877667 0
3.0060003 1.4300275 0.1877667 0
3.0060003 1.4253267 0.1877667 0
3.0060003 1.420626 0.1877667 0
3.0050001 1.4153643 0.18784969 0
3.0050001 1.4106653 0.18784969 0
3.0050001 1.4059664 0.18784969 0
3.0050001 1.4012675 0.18784969 0
3.0050001 1.3965685 0.18784969 0
3.0050001 1.3918695 0.18784969 0
3.0040002 1.3866205 0.18793266 0
3.0040002 1.3819234 0.18793266 0
3.0040002 1.3772264 0.18793266 0
3.0040002 1.3725291 0.18793266 0
3.0040002 1.3678321 0.18793266 0
3.0040002 1.363135 0.18793266 0
3.0030003 1.3578986 0.18801562 0
3.0030003 1.3532032 0.18801562 0
3.0030003 1.348508 0.18801562 0
3.0030003 1.3438126 0.18801562 0
3.0030003 1.3391173 0.18801562 0
3.0030003 1.334422 0.18801562 0
3.0020003 1.3291981 0.18809859 0
3.0020003 1.3245046 0.18809859 0
3.0020003 1.3198112 0.18809859 0
3.0020003 1.3151177 0.18809859 0
3.0020003 1.3104242 0.18809859 0
3.0020003 1.3057307 0.18809859 0
3.0010002 1.3005193 0.18818158 0
3.0010002 1.2958277 0.18818158 0
3.0010002 1.291136 0.18818158 0
3.0010002 1.2864443 0.18818158 0
3.0010002 1.2817525 0.18818158 0
3.0010002 1.2770607 0.18818158 0
3.0000002 1.2718623 0.18826455 0
3.0000002 1.2671725 0.18826455 0
3.0000002 1.2624825 0.18826455 0
3.0060003 1.4394288 0.18306597 0
3.0060003 1.4347281 0.18306597 0
3.0060003 1.4300275 0.18306597 0
3.0060003 1.4253267 0.18306597 0
3.0060003 1.420626 0.18306597 0
3.0050001 1.4153643 0.18315077 0
3.0050001 1.4106653 0.18315077 0
3.0050001 1.4059664 0.18315077 0
3.0050001 1.4012675 0.18315077 0
3.0050001 1.3965685 0.18315077 0
3.0050001 1.3918695 0.18315077 0
3.0040002 1.3866205 0.18323554 0
3.0040002 1.3819234 0.18323554 0
3.0040002 1.3772264 0.18323554 0
3.0040002 1.3725291 0.18323554 0
3.0040002 1.3678321 0.18323554 0
3.0040002 1.363135 0.18323554 0
3.0030003 1.3578986 0.1833203 0
3.0030003 1.3532032 0.1833203 0
3.0030003 1.348508 0.1833203 0
3.0030003 1.3438126 0.1833203 0
3.0030003 1.3391173 0.1833203 0
3.0030003 1.334422 0.1833203 0
3.0020003 1.3291981 0.18340507 0
3.0020003 1.3245046 0.18340507 0
3.0020003 1.3198112 0.18340507 0
3.0020003 1.3151177 0.18340507 0
3.0020003 1.3104242 0.18340507 0
3.0020003 1.3057307 0.18340507 0
3.0010002 1.3005193 0.18348987 0
3.0010002 1.2958277 0.18348987 0
3.0010002 1.291136 0.18348987 0
3.0010002 1.2864443 0.18348987 0
3.0010002 1.2817525 0.18348987 0
3.0010002 1.2770607 0.18348987 0
3.0000002 1.2718623 0.18357465 0
3.0000002 1.2671725 0.18357465 0
3.0000002 1.2624825 0.18357465 0
3.0060003 1.4394288 0.17836523 0
3.0060003 1.4347281 0.17836523 0
3.0060003 1.4300275 0.17836523 0
3.0060003 1.4253267 0.17836523 0
3.0060003 1.420626 0.17836523 0
3.0050001 1.4153643 0.17845184 0
3.0050001 1.4106653 0.17845184 0
3.0050001 1.4059664 0.17845184 0
3.0050001 1.4012675 0.17845184 0
3.0050001 1.3965685 0.17845184 0
3.0050001 1.3918695 0.17845184 0
3.0040002 1.3866205 0.17853841 0
3.0040002 1.3819234 0.17853841 0
3.0040002 1.3772264 0.17853841 0
3.0040002 1.3725291 0.17853841 0
3.0040002 1.3678321 0.17853841 0
3.0040002 1.363135 0.17853841 0
3.0030003 1.3578986 0.17862499 0
3.0030003 1.3532032 0.17862499 0
3.0030003 1.348508 0.17862499 0
3.0030003 1.3438126 0.17862499 0
3.0030003 1.3391173 0.17862499 0
3.0030003 1.334422 0.17862499 0
3.0020003 1.3291981 0.17871158 0
3.0020003 1.3245046 0.17871158 0
3.0020003 1.3198112 0.17871158 0
3.0020003 1.3151177 0.17871158 0
3.0020003 1.3104242 0.17871158 0
3.0020003 1.3057307 0.17871158 0
3.0010002 1.3005193 0.17879817 0
3.0010002 1.2958277 0.17879817 0
3.0010002 1.291136 0.17879817 0
3.0010002 1.2864443 0.17879817 0
3.0010002 1.2817525 0.17879817 0
3.0010002 1.2770607 0.17879817 0
3.0000002 1.2718623 0.17888474 0
3.0000002 1.2671725 0.17888474 0
3.0000002 1.2624825 0.17888474 0
3.0060003 1.4394288 0.17366453 0
3.0060003 1.4347281 0.17366453 0
3.0060003 1.4300275 0.17366453 0
3.0060003 1.4253267 0.17366453 0
3.0060003 1.420626 0.17366453 0
3.0050001 1.4153643 0.17375292 0
3.0050001 1.4106653 0.17375292 0
3.0050001 1.4059664 0.17375292 0
3.0050001 1.4012675 0.17375292 0
3.0050001 1.3965685 0.17375292 0
3.0050001 1.3918695 0.17375292 0
3.0040002 1.3866205 0.1738413 0
3.0040002 1.3819234 0.1738413 0
3.0040002 1.3772264 0.1738413 0
3.0040002 1.3725291 0.1738413 0
3.0040002 1.3678321 0.1738413 0
3.0040002 1.363135 0.1738413 0
3.0030003 1.3578986 0.17392969 0
3.0030003 1.3532032 0.17392969 0
3.0030003 1.348508 0.17392969 0
3.0030003 1.3438126 0.17392969 0
3.0030003 1.3391173 0.17392969 0
3.0030003 1.334422 0.17392969 0
3.0020003 1.3291981 0.17401807 0
3.0020003 1.3245046 0.17401807 0
3.0020003 1.3198112 0.17401807 0
3.0020003 1.3151177 0.17401807 0
3.0020003 1.3104242 0.17401807 0
3.0020003 1.3057307 0.17401807 0
3.0010002 1.3005193 0.17410646 0
3.0010002 1.2958277 0.17410646 0
3.0010002 1.291136 0.17410646 0
3.0010002 1.2864443 0.17410646 0
3.0010002 1.2817525 0.17410646 0
3.0010002 1.2770607 0.17410646 0
3.0000002 1.2718623 0.17419484 0
3.0000002 1.2671725 0.17419484 0
3.0000002 1.2624825 0.17419484 0
3.0060003 1.4394288 0.1689638 0
3.0060003 1.4347281 0.1689638 0
3.0060003 1.4300275 0.1689638 0
3.0060003 1.4253267 0.1689638 0
3.0060003 1.420626 0.1689638 0
3.0050001 1.4153643 0.169054 0
3.0050001 1.4106653 0.169054 0
3.0050001 1.4059664 0.169054 0
3.0050001 1.4012675 0.169054 0
3.0050001 1.3965685 0.169054 0
3.0050001 1.3918695 0.169054 0
3.0040002 1.3866205 0.16914417 0
3.0040002 1.3819234 0.16914417 0
3.0040002 1.3772264 0.16914417 0
3.0040002 1.3725291 0.16914417 0
3.0040002 1.3678321 0.16914417 0
3.0040002 1.363135 0.16914417 0
3.0030003 1.3578986 0.16923437 0
3.0030003 1.3532032 0.16923437 0
3.0030003 1.348508 0.16923437 0
3.0030003 1.3438126 0.16923437 0
3.0030003 1.3391173 0.16923437 0
3.0030003 1.334422 0.16923437 0
3.0020003 1.3291981 0.16932456 0
3.0020003 1.3245046 0.16932456 0
3.0020003 1.3198112 0.16932456 0
3.0020003 1.3151177 0.16932456 0
3.0020003 1.3104242 0.16932456 0
3.0020003 1.3057307 0.16932456 0
3.0010002 1.3005193 0.16941476 0
3.0010002 1.2958277 0.16941476 0
3.0010002 1.291136 0.16941476 0
3.0010002 1.2864443 0.16941476 0
3.0010002 1.2817525 0.16941476 0
3.0010002 1.2770607 0.16941476 0
3.0000002 1.2718623 0.16950496 0
3.0000002 1.2671725 0.16950496 0
3.0000002 1.2624825 0.16950496 0
3.0060003 1.4394288 0.16426308 0
3.0060003 1.4347281 0.16426308 0
3.0060003 1.4300275 0.16426308 0
3.0060003 1.4253267 0.16426308 0
3.0060003 1.420626 0.16426308 0
3.0050001 1.4153643 0.16435508 0
3.0050001 1.4106653 0.16435508 0
3.0050001 1.4059664 0.16435508 0
3.0050001 1.4012675 0.16435508 0
3.0050001 1.3965685 0.16435508 0
3.0050001 1.3918695 0.16435508 0
3.0040002 1.3866205 0.16444707 0
3.0040002 1.3819234 0.16444707 0
3.0040002 1.3772264 0.16444707 0
3.0040002 1.3725291 0.16444707 0
3.0040002 1.3678321 0.16444707 0
3.0040002 1.363135 0.16444707 0
3.0030003 1.3578986 0.16453905 0
3.0030003 1.3532032 0.16453905 0
3.0030003 1.348508 0.16453905 0
3.0030003 1.3438126 0.16453905 0
3.0030003 1.3391173 0.16453905 0
3.0030003 1.334422 0.16453905 0
3.0020003 1.3291981 0.16463104 0
3.0020003 1.3245046 0.16463104 0
3.0020003 1.3198112 0.16463104 0
3.0020003 1.3151177 0.16463104 0
3.0020003 1.3104242 0.16463104 0
3.0020003 1.3057307 0.16463104 0
3.0010002 1.3005193 0.16472305 0
3.0010002 1.2958277 0.16472305 0
3.0010002 1.291136 0.16472305 0
3.0010002 1.2864443 0.16472305 0
3.0010002 1.2817525 0.16472305 0
3.0010002 1.2770607 0.16472305 0
3.0000002 1.2718623 0.16481504 0
3.0000002 1.2671725 0.16481504 0
3.0000002 1.2624825 0.16481504 0
3.0060003 1.4394288 0.15956235 0
3.0060003 1.4347281 0.15956235 0
3.0060003 1.4300275 0.15956235 0
3.0060003 1.4253267 0.15956235 0
3.0060003 1.420626 0.15956235 0
3.0050001 1.4153643 0.15965615 0
3.0050001 1.4106653 0.15965615 0
3.0050001 1.4059664 0.15965615 0
3.0050001 1.4012675 0.15965615 0
3.0050001 1.3965685 0.15965615 0
3.0050001 1.3918695 0.15965615 0
3.0040002 1.3866205 0.15974995 0
3.0040002 1.3819234 0.15974995 0
3.0040002 1.3772264 0.15974995 0
3.0040002 1.3725291 0.15974995 0
3.0040002 1.3678321 0.15974995 0
3.0040002 1.363135 0.15974995 0
3.0030003 1.3578986 0.15984376 0
3.0030003 1.3532032 0.15984376 0
3.0030003 1.348508 0.15984376 0
3.0030003 1.3438126 0.15984376 0
3.0030003 1.3391173 0.15984376 0
3.0030003 1.334422 0.15984376 0
3.0020003 1.3291981 0.15993753 0
3.0020003 1.3245046 0.15993753 0
3.0020003 1.3198112 0.15993753 0
3.0020003 1.3151177 0.15993753 0
3.0020003 1.3104242 0.15993753 0
3.0020003 1.3057307 0.15993753 0
3.0010002 1.3005193 0.16003136 0
3.0010002 1.2958277 0.16003136 0
3.0010002 1.291136 0.16003136 0
3.0010002 1.2864443 0.16003136 0
3.0010002 1.2817525 0.16003136 0
3.0010002 1.2770607 0.16003136 0
3.0000002 1.2718623 0.16012514 0
3.0000002 1.2671725 0.16012514 0
3.0000002 1.2624825 0.16012514 0
3.0060003 1.4394288 0.15486161 0
3.0060003 1.4347281 0.15486161 0
3.0060003 1.4300275 0.15486161 0
3.0060003 1.4253267 0.15486161 0
3.0060003 1.420626 0.15486161 0
3.0050001 1.4153643 0.15495723 0
3.0050001 1.4106653 0.15495723 0
