# .PCD v0.7 - Point Cloud Data file format
VERSION 0.7
FIELDS x y z intensity
SIZE 4 4 4 4
TYPE F F F F
COUNT 1 1 1 1
WIDTH 482
HEIGHT 1
VIEWPOINT 0 0 0 1 0 0 0
POINTS 482
DATA ascii
4.9110003 2.5252852 1.0875062 0
4.9010005 2.5277045 1.0778722 0
4.9090004 2.5241454 1.0790699 0
4.9190001 2.5216937 1.080567 0
4.8990002 2.5265605 1.0694573 0
4.9080005 2.5235753 1.0707886 0
4.9180002 2.5211258 1.0722677 0
4.8910003 2.530087 1.0601732 0
4.8990002 2.5265605 1.061342 0
4.9070005 2.5230055 1.062511 0
4.9170003 2.5205576 1.063972 0
4.8910003 2.530087 1.0520723 0
4.8990002 2.5265605 1.0532267 0
4.9070005 2.5230055 1.0543811 0
4.9170003 2.5205576 1.0558242 0
4.9270005 2.5180738 1.0572672 0
4.8920002 2.5306606 1.0441139 0
4.9000001 2.5271323 1.0452538 0
4.9080005 2.5235753 1.0463939 0
4.9170003 2.5205576 1.0476763 0
4.9280005 2.5186403 1.0492439 0
4.8930001 2.5312343 1.0361518 0
4.9010005 2.5277045 1.0372775 0
4.9090004 2.5241454 1.038403 0
4.9180002 2.5211258 1.0396693 0
4.9290004 2.5192065 1.041217 0
4.8950005 2.5323818 1.0283251 0
4.9020004 2.5282762 1.0292974 0
4.9110003 2.5252852 1.0305474 0
4.9200001 2.5222621 1.0317974 0
4.9050002 2.5299914 1.0215878 0
4.9130001 2.5264254 1.0226846 0
4.9230003 2.5239668 1.0240555 0
4.9080005 2.531707 1.0138676 0
4.9160004 2.5281353 1.0149498 0
4.9260001 2.5256712 1.0163027 0
4.9200001 2.5304151 1.0073378 0
4.8220005 2.4027672 0.79484558 0
4.8250003 2.3964465 0.7951107 0
4.8220005 2.4027672 0.78686917 0
4.8250003 2.3964465 0.78712893 0
4.8220005 2.4027672 0.7788927 0
4.8250003 2.3964465 0.77914703 0
4.8220005 2.4027672 0.77091628 0
4.8250003 2.3964465 0.77116513 0
4.8220005 2.4027672 0.76293981 0
4.8250003 2.3964465 0.76318336 0
4.8220005 2.4027672 0.7549634 0
4.8250003 2.3964465 0.75520146 0
4.8220005 2.4027672 0.74698693 0
4.8250003 2.3964465 0.74721962 0
4.8220005 2.4027672 0.73901051 0
4.8250003 2.3964465 0.73923779 0
4.8220005 2.4027672 0.73103404 0
4.8250003 2.3964465 0.73125589 0
4.8220005 2.4027672 0.72305763 0
4.8250003 2.3964465 0.72327405 0
4.8220005 2.4027672 0.71508121 0
4.8250003 2.3964465 0.71529222 0
4.8220005 2.4027672 0.70710474 0
4.8250003 2.3964465 0.70731038 0
4.8220005 2.4027672 0.69912827 0
4.8250003 2.3964465 0.69932854 0
4.8220005 2.4027672 0.69115186 0
4.8250003 2.3964465 0.69134665 0
4.8220005 2.4027672 0.68317544 0
4.8250003 2.3964465 0.68336481 0
4.8220005 2.4027672 0.67519897 0
4.8250003 2.3964465 0.67538297 0
4.8220005 2.4027672 0.6672225 0
4.8250003 2.3964465 0.66740108 0
4.8220005 2.4027672 0.65924609 0
4.8250003 2.3964465 0.6594193 0
4.8220005 2.4027672 0.65126967 0
4.8250003 2.3964465 0.6514374 0
4.8220005 2.4027672 0.64329326 0
4.8250003 2.3964465 0.64345556 0
4.8220005 2.4027672 0.63531679 0
4.8250003 2.3964465 0.63547373 0
4.8220005 2.4027672 0.62734032 0
4.8250003 2.3964465 0.62749183 0
4.8220005 2.4027672 0.6193639 0
4.8250003 2.3964465 0.61950999 0
4.8220005 2.4027672 0.61138749 0
4.8250003 2.3964465 0.61152816 0
4.8220005 2.4027672 0.60341102 0
4.8250003 2.3964465 0.60354632 0
4.8220005 2.4027672 0.59543455 0
4.8250003 2.3964465 0.59556448 0
4.8220005 2.4027672 0.58745813 0
4.8250003 2.3964465 0.58758259 0
4.8220005 2.4027672 0.57948172 0
4.8250003 2.3964465 0.57960075 0
4.8220005 2.4027672 0.57150525 0
4.8250003 2.3964465 0.57161891 0
4.8220005 2.4027672 0.56352884 0
4.8250003 2.3964465 0.56363702 0
4.8220005 2.4027672 0.55555236 0
4.8250003 2.3964465 0.55565518 0
4.8220005 2.4027672 0.54757595 0
4.8250003 2.3964465 0.54767334 0
4.8220005 2.4027672 0.53959948 0
4.8250003 2.3964465 0.53969151 0
4.8220005 2.4027672 0.53162307 0
4.8250003 2.3964465 0.53170967 0
4.8220005 2.4027672 0.52364659 0
4.8250003 2.3964465 0.52372777 0
4.8220005 2.4027672 0.51567018 0
4.8250003 2.3964465 0.51574594 0
4.8220005 2.4027672 0.50769377 0
4.8250003 2.3964465 0.5077641 0
4.8220005 2.4027672 0.4997173 0
4.8250003 2.3964465 0.49978223 0
4.8220005 2.4027672 0.49174085 0
4.8250003 2.3964465 0.49180037 0
4.8220005 2.4027672 0.48376441 0
4.8250003 2.3964465 0.48381853 0
4.8220005 2.4027672 0.47578797 0
4.8250003 2.3964465 0.47583666 0
4.8220005 2.4027672 0.46781152 0
4.8250003 2.3964465 0.46785483 0
4.8200002 2.4096322 0.45980984 0
4.8220005 2.4027672 0.45983511 0
4.8250003 2.3964465 0.45987296 0
4.8200002 2.4096322 0.451837 0
4.8220005 2.4027672 0.45185864 0
4.8250003 2.3964465 0.45189112 0
4.8180003 2.4164906 0.44384614 0
4.8200002 2.4096322 0.44386417 0
4.8220005 2.4027672 0.44388223 0
4.8250003 2.3964465 0.44390926 0
4.8270001 2.3895648 0.44392732 0
4.8180003 2.4164906 0.43587691 0
4.8200002 2.4096322 0.43589133 0
4.8220005 2.4027672 0.43590578 0
4.8250003 2.3964465 0.43592742 0
4.8270001 2.3895648 0.43594185 0
4.8180003 2.4164906 0.42790768 0
4.8200002 2.4096322 0.42791852 0
4.8220005 2.4027672 0.42792934 0
4.8250003 2.3964465 0.42794555 0
4.8270001 2.3895648 0.4279564 0
4.8080001 2.4427214 0.41990238 0
4.8100004 2.4358957 0.4199096 0
4.8130002 2.4296238 0.41992041 0
4.8150005 2.4227822 0.41992766 0
4.8180003 2.4164906 0.41993847 0
4.8200002 2.4096322 0.41994569 0
4.8220005 2.4027672 0.4199529 0
4.8250003 2.3964465 0.41996372 0
4.8270001 2.3895648 0.41997093 0
4.8050003 2.4489734 0.41194579 0
4.8080001 2.4427214 0.41195121 0
4.8100004 2.4358957 0.41195482 0
4.8130002 2.4296238 0.41196021 0
4.8150005 2.4227822 0.41196382 0
4.8180003 2.4164906 0.41196924 0
4.8200002 2.4096322 0.41197285 0
4.8220005 2.4027672 0.41197646 0
4.8250003 2.3964465 0.41198188 0
4.8270001 2.3895648 0.41198549 0
4.8030005 2.4557829 0.40400001 0
4.8050003 2.4489734 0.40400001 0
4.8080001 2.4427214 0.40400001 0
4.8100004 2.4358957 0.40400001 0
4.8130002 2.4296238 0.40400001 0
4.8150005 2.4227822 0.40400001 0
4.8180003 2.4164906 0.40400001 0
4.8200002 2.4096322 0.40400001 0
4.8220005 2.4027672 0.40400001 0
4.8250003 2.3964465 0.40400001 0
4.8270001 2.3895648 0.40400001 0
4.8030005 2.4557829 0.39605784 0
4.8050003 2.4489734 0.39605424 0
4.8080001 2.4427214 0.39604881 0
4.8100004 2.4358957 0.39604521 0
4.8130002 2.4296238 0.39603981 0
4.8150005 2.4227822 0.39603621 0
4.8180003 2.4164906 0.39603078 0
4.8200002 2.4096322 0.39602718 0
4.8220005 2.4027672 0.39602357 0
4.8250003 2.3964465 0.39601815 0
4.8270001 2.3895648 0.39601454 0
4.8030005 2.4557829 0.38811567 0
4.8050003 2.4489734 0.38810846 0
4.8080001 2.4427214 0.38809764 0
4.8100004 2.4358957 0.38809043 0
4.8130002 2.4296238 0.38807961 0
4.8150005 2.4227822 0.38807237 0
4.8180003 2.4164906 0.38806155 0
4.8200002 2.4096322 0.38805434 0
4.8220005 2.4027672 0.38804713 0
4.8250003 2.3964465 0.38803631 0
4.8290005 2.446589 0.38003281 0
4.8300004 2.4391608 0.38002741 0
4.8330002 2.4328473 0.38001117 0
4.8180003 2.4164906 0.38009235 0
4.8200002 2.4096322 0.3800815 0
4.8220005 2.4027672 0.38007069 0
4.8250003 2.3964465 0.38005447 0
4.8290005 2.446589 0.37204376 0
4.8300004 2.4391608 0.37203652 0
4.8330002 2.4328473 0.37201488 0
4.8180003 2.4164906 0.37212312 0
4.8200002 2.4096322 0.3721087 0
4.8220005 2.4027672 0.37209424 0
4.8290005 2.446589 0.36405468 0
4.8300004 2.4391608 0.36404565 0
4.8330002 2.4328473 0.36401862 0
4.8180003 2.4164906 0.36415389 0
4.8200002 2.4096322 0.36413586 0
4.8300004 2.4551425 0.35605478 0
4.8290005 2.446589 0.3560656 0
4.8300004 2.4391608 0.35605478 0
4.8330002 2.4328473 0.35602233 0
4.8380003 2.4276381 0.35596821 0
4.8440003 2.4229662 0.35590327 0
4.8300004 2.4551425 0.34806392 0
4.8290005 2.446589 0.34807655 0
4.8300004 2.4391608 0.34806392 0
4.8330002 2.4328473 0.34802604 0
4.8380003 2.4276381 0.34796292 0
4.8440003 2.4229662 0.34788716 0
4.8300004 2.4551425 0.34007305 0
4.8290005 2.446589 0.34008747 0
4.8300004 2.4391608 0.34007305 0
4.8330002 2.4328473 0.34002978 0
4.8380003 2.4276381 0.33995759 0
4.8440003 2.4229662 0.33987102 0
4.8520002 2.4193802 0.33975559 0
4.8300004 2.4551425 0.33208218 0
4.8290005 2.446589 0.33209842 0
4.8300004 2.4391608 0.33208218 0
4.8330002 2.4328473 0.33203349 0
4.8380003 2.4276381 0.3319523 0
4.8440003 2.4229662 0.33185491 0
4.8520002 2.4193802 0.33172503 0
4.8300004 2.4551425 0.32409132 0
4.8290005 2.446589 0.32410935 0
4.8300004 2.4391608 0.32409132 0
4.8330002 2.4328473 0.32403719 0
4.8380003 2.4276381 0.32394701 0
4.8440003 2.4229662 0.32383877 0
4.8520002 2.4193802 0.32369447 0
4.8300004 2.4551425 0.31610042 0
4.8290005 2.446589 0.31612027 0
4.8300004 2.4391608 0.31610042 0
4.8330002 2.4328473 0.31604093 0
4.8380003 2.4276381 0.31594169 0
4.8440003 2.4229662 0.31582266 0
4.8520002 2.4193802 0.31566393 0
4.8300004 2.4551425 0.30810958 0
4.8290005 2.446589 0.30813122 0
4.8300004 2.4391608 0.30810958 0
4.8330002 2.4328473 0.30804464 0
4.8380003 2.4276381 0.3079364 0
4.8440003 2.4229662 0.30780652 0
4.8520002 2.4193802 0.30763337 0
4.8300004 2.4551425 0.30011868 0
4.8290005 2.446589 0.30014214 0
4.8300004 2.4391608 0.30011868 0
4.8330002 2.4328473 0.30004835 0
4.8380003 2.4276381 0.29993111 0
4.8440003 2.4229662 0.29979041 0
4.8520002 2.4193802 0.29960281 0
4.8300004 2.4551425 0.29212782 0
4.8290005 2.446589 0.29215306 0
4.8300004 2.4391608 0.29212782 0
4.8330002 2.4328473 0.29205209 0
4.8380003 2.4276381 0.29192579 0
4.8440003 2.4229662 0.29177427 0
4.8520002 2.4193802 0.29157227 0
4.8300004 2.4551425 0.28413695 0
4.8290005 2.446589 0.28416401 0
4.8300004 2.4391608 0.28413695 0
4.8330002 2.4328473 0.28405577 0
4.8380003 2.4276381 0.2839205 0
4.8440003 2.4229662 0.28375816 0
4.8520002 2.4193802 0.28354171 0
4.8300004 2.4551425 0.27614608 0
4.8290005 2.446589 0.27617496 0
4.8300004 2.4391608 0.27614608 0
4.8330002 2.4328473 0.27605951 0
4.8380003 2.4276381 0.27591521 0
4.8440003 2.4229662 0.27574205 0
4.8520002 2.4193802 0.27551115 0
4.8300004 2.4551425 0.26815522 0
4.8290005 2.446589 0.26818585 0
4.8300004 2.4391608 0.26815522 0
4.8330002 2.4328473 0.26806325 0
4.8380003 2.4276381 0.26790988 0
4.8440003 2.4229662 0.26772591 0
4.8520002 2.4193802 0.26748058 0
4.8300004 2.4551425 0.26016432 0
4.8290005 2.446589 0.26019681 0
4.8300004 2.4391608 0.26016432 0
4.8330002 2.4328473 0.26006696 0
4.8380003 2.4276381 0.25990459 0
4.8440003 2.4229662 0.25970978 0
4.8520002 2.4193802 0.25945005 0
4.8300004 2.4551425 0.25217348 0
4.8290005 2.446589 0.25220776 0
4.8300004 2.4391608 0.25217348 0
4.8330002 2.4328473 0.25207067 0
4.8380003 2.4276381 0.2518993 0
4.8440003 2.4229662 0.25169367 0
4.8520002 2.4193802 0.25141948 0
4.8300004 2.4551425 0.2441826 0
4.8290005 2.446589 0.24421868 0
4.8300004 2.4391608 0.2441826 0
4.8330002 2.4328473 0.24407437 0
4.8380003 2.4276381 0.243894 0
4.8440003 2.4229662 0.24367754 0
4.8520002 2.4193802 0.24338894 0
4.8300004 2.4551425 0.23619173 0
4.8290005 2.446589 0.2362296 0
4.8300004 2.4391608 0.23619173 0
4.8330002 2.4328473 0.2360781 0
4.8380003 2.4276381 0.23588869 0
4.8440003 2.4229662 0.23566142 0
4.8520002 2.4193802 0.23535837 0
4.8300004 2.4551425 0.22820085 0
4.8290005 2.446589 0.22824053 0
4.8300004 2.4391608 0.22820085 0
4.8330002 2.4328473 0.22808182 0
4.8380003 2.4276381 0.2278834 0
4.8440003 2.4229662 0.22764529 0
4.8520002 2.4193802 0.22732782 0
4.8300004 2.4551425 0.22020999 0
4.8290005 2.446589 0.22025147 0
4.8300004 2.4391608 0.22020999 0
4.8330002 2.4328473 0.22008555 0
4.8380003 2.4276381 0.21987809 0
4.8440003 2.4229662 0.21962917 0
4.8520002 2.4193802 0.21929727 0
4.8300004 2.4551425 0.21221912 0
4.8290005 2.446589 0.21226241 0
4.8300004 2.4391608 0.21221912 0
4.8330002 2.4328473 0.21208926 0
4.8380003 2.4276381 0.21187279 0
4.8440003 2.4229662 0.21161304 0
4.8520002 2.4193802 0.21126671 0
4.8300004 2.4551425 0.20422825 0
4.8290005 2.446589 0.20427334 0
4.8300004 2.4391608 0.20422825 0
4.8330002 2.4328473 0.20409296 0
4.8380003 2.4276381 0.2038675 0
4.8440003 2.4229662 0.20359692 0
4.8520002 2.4193802 0.20323616 0
4.8300004 2.4551425 0.19623737 0
4.8290005 2.446589 0.19628428 0
4.8300004 2.4391608 0.19623737 0
4.8330002 2.4328473 0.19609669 0
4.8380003 2.4276381 0.19586219 0
4.8440003 2.4229662 0.1955808 0
4.8520002 2.4193802 0.1952056 0
4.8300004 2.4551425 0.1882465 0
4.8290005 2.446589 0.18829522 0
4.8300004 2.4391608 0.1882465 0
4.8330002 2.4328473 0.18810041 0
4.8380003 2.4276381 0.1878569 0
4.8440003 2.4229662 0.18756467 0
4.8520002 2.4193802 0.18717505 0
4.8300004 2.4551425 0.18025564 0
4.8290005 2.446589 0.18030614 0
4.8300004 2.4391608 0.18025564 0
4.8330002 2.4328473 0.18010414 0
4.8380003 2.4276381 0.17985159 0
4.8440003 2.4229662 0.17954855 0
4.8520002 2.4193802 0.1791445 0
4.8300004 2.4551425 0.17226478 0
4.8290005 2.446589 0.17231707 0
4.8300004 2.4391608 0.17226478 0
4.8330002 2.4328473 0.17210783 0
4.8380003 2.4276381 0.17184627 0
4.8440003 2.4229662 0.17153242 0
4.8520002 2.4193802 0.17111395 0
4.8300004 2.4551425 0.16427389 0
4.8290005 2.446589 0.16432801 0
4.8300004 2.4391608 0.16427389 0
4.8330002 2.4328473 0.16411155 0
4.8380003 2.4276381 0.16384099 0
4.8440003 2.4229662 0.1635163 0
4.8520002 2.4193802 0.1630834 0
4.8300004 2.4551425 0.15628301 0
4.8290005 2.446589 0.15633895 0
4.8300004 2.4391608 0.15628301 0
4.8330002 2.4328473 0.15611528 0
4.8380003 2.4276381 0.15583569 0
4.8440003 2.4229662 0.15550017 0
4.8520002 2.4193802 0.15505283 0
4.8300004 2.4551425 0.14829215 0
4.8290005 2.446589 0.14834988 0
4.8300004 2.4391608 0.14829215 0
4.8330002 2.4328473 0.148119 0
4.8380003 2.4276381 0.1478304 0
4.8440003 2.4229662 0.14748406 0
4.8520002 2.4193802 0.14702228 0
4.8300004 2.4551425 0.14030129 0
4.8290005 2.446589 0.1403608 0
4.8300004 2.4391608 0.14030129 0
4.8330002 2.4328473 0.14012271 0
4.8380003 2.4276381 0.13982508 0
4.8440003 2.4229662 0.13946792 0
4.8520002 2.4193802 0.13899174 0
4.8300004 2.4551425 0.13231042 0
4.8290005 2.446589 0.13237172 0
4.8300004 2.4391608 0.13231042 0
4.8330002 2.4328473 0.13212645 0
4.8380003 2.4276381 0.13181978 0
4.8440003 2.4229662 0.13145182 0
4.8520002 2.4193802 0.13096115 0
4.8300004 2.4551425 0.12431952 0
4.8290005 2.446589 0.12438267 0
4.8300004 2.4391608 0.12431952 0
4.8330002 2.4328473 0.12413016 0
4.8380003 2.4276381 0.12381449 0
4.8440003 2.4229662 0.12343568 0
4.8520002 2.4193802 0.12293062 0
4.8300004 2.4551425 0.11632866 0
4.8290005 2.446589 0.1163936 0
4.8300004 2.4391608 0.11632866 0
4.8330002 2.4328473 0.1161339 0
4.8380003 2.4276381 0.11580917 0
4.8440003 2.4229662 0.11541957 0
4.8520002 2.4193802 0.11490008 0
4.8300004 2.4551425 0.10833782 0
4.8290005 2.446589 0.10840452 0
4.8300004 2.4391608 0.10833782 0
4.8330002 2.4328473 0.10813761 0
4.8380003 2.4276381 0.10780388 0
4.8440003 2.4229662 0.10740343 0
4.8520002 2.4193802 0.10686952 0
4.8300004 2.4551425 0.10034692 0
4.8290005 2.446589 0.10041547 0
4.8300004 2.4391608 0.10034692 0
4.8330002 2.4328473 0.10014129 0
4.8380003 2.4276381 0.09979856 0
4.8440003 2.4229662 0.099387318 0
4.8520002 2.4193802 0.098838955 0
4.8300004 2.4551425 0.092356056 0
4.8290005 2.446589 0.092426389 0
4.8300004 2.4391608 0.092356056 0
4.8330002 2.4328473 0.092145026 0
4.8380003 2.4276381 0.091793299 0
4.8440003 2.4229662 0.091371179 0
4.8520002 2.4193802 0.090808392 0
4.8300004 2.4551425 0.084365189 0
4.8290005 2.446589 0.08443734 0
4.8300004 2.4391608 0.084365189 0
4.8330002 2.4328473 0.084148735 0
4.8380003 2.4276381 0.083787978 0
4.8440003 2.4229662 0.083355069 0
4.8520002 2.4193802 0.082777858 0
4.8300004 2.4551425 0.076374322 0
4.8290005 2.446589 0.076448262 0
4.8300004 2.4391608 0.076374322 0
4.8330002 2.4328473 0.076152474 0
4.8380003 2.4276381 0.075782686 0
4.8440003 2.4229662 0.07533893 0
4.8520002 2.4193802 0.074747294 0
4.8300004 2.4551425 0.068383455 0
4.8290005 2.446589 0.068459183 0
4.8300004 2.4391608 0.068383455 0
4.8330002 2.4328473 0.068156183 0
4.8380003 2.4276381 0.067777365 0
4.8440003 2.4229662 0.06732282 0
4.8520002 2.4193802 0.066716731 0
4.8300004 2.4551425 0.060392559 0
4.8290005 2.446589 0.060470134 0
4.8300004 2.4391608 0.060392559 0
4.8330002 2.4328473 0.060159892 0
4.8380003 2.4276381 0.059772074 0
4.8440003 2.4229662 0.059306681 0
4.8520002 2.4193802 0.058686197 0
4.8300004 2.4551425 0.052401692 0
4.8290005 2.446589 0.052481055 0
4.8300004 2.4391608 0.052401692 0
4.8330002 2.4328473 0.052163631 0
4.8380003 2.4276381 0.051766783 0
4.8440003 2.4229662 0.051290572 0
4.8520002 2.4193802 0.050655633 0
