# .PCD v0.7 - Point Cloud Data file format
VERSION 0.7
FIELDS x y z intensity
SIZE 4 4 4 4
TYPE F F F F
COUNT 1 1 1 1
WIDTH 1155
HEIGHT 1
VIEWPOINT 0 0 0 1 0 0 0
POINTS 1155
DATA ascii
6.4340005 1.1403755 1.13324 0
6.4340005 1.1294913 1.13324 0
6.4360003 1.1189932 1.1334817 0
6.4400005 1.1088703 1.1339651 0
6.4300003 1.17222 1.1218796 0
6.4270005 1.1607424 1.1215225 0
6.4250002 1.1494738 1.1212844 0
6.4250002 1.138606 1.1212844 0
6.4270005 1.1281276 1.1215225 0
6.4290004 1.117642 1.1217606 0
6.4330006 1.1075318 1.1222368 0
6.4370003 1.097407 1.122713 0
6.4430003 1.087643 1.1234273 0
6.4270005 1.1824853 1.1106509 0
6.4230003 1.1708058 1.1101819 0
6.4210005 1.159541 1.1099474 0
6.4200006 1.1484818 1.1098301 0
6.4200006 1.137623 1.1098301 0
6.4210005 1.1269588 1.1099474 0
6.4230003 1.116484 1.1101819 0
6.4260006 1.1061933 1.1105337 0
6.4310002 1.0962706 1.1111199 0
6.4360003 1.0863298 1.1117061 0
6.4430003 1.0767425 1.1125269 0
6.4270005 1.193357 1.0997794 0
6.4220004 1.1814662 1.0992022 0
6.4180002 1.1697955 1.0987403 0
6.4160004 1.1585398 1.0985094 0
6.4150004 1.1474897 1.098394 0
6.4160004 1.1368364 1.0985094 0
6.4170003 1.1261795 1.0986249 0
6.4190001 1.115712 1.0988557 0
6.4220004 1.1054285 1.0992022 0
6.4260006 1.0953236 1.099664 0
6.4320002 1.0855794 1.1003566 0
6.4380002 1.0758135 1.1010492 0
6.4460006 1.0663942 1.1019728 0
6.4220004 1.1923288 1.0883396 0
6.4180002 1.1806508 1.087885 0
6.4150004 1.1691896 1.0875441 0
6.4130006 1.1579392 1.0873169 0
6.4120002 1.1468945 1.0872031 0
6.4130006 1.1362466 1.0873169 0
6.4140005 1.1255951 1.0874305 0
6.4160004 1.115133 1.0876578 0
6.4190001 1.1048548 1.0879986 0
6.4230003 1.0947554 1.0884532 0
6.4280005 1.0848291 1.0890214 0
6.4340005 1.0750704 1.0897033 0
6.4420004 1.0656582 1.0906124 0
6.4510002 1.0563991 1.0916351 0
6.4260006 1.2040211 1.0779245 0
6.4200006 1.1919175 1.0772535 0
6.4160004 1.1802433 1.0768061 0
6.4130006 1.1687856 1.0764706 0
6.4110003 1.1575387 1.0762469 0
6.4100003 1.1464976 1.076135 0
6.4100003 1.1356567 1.076135 0
6.4120002 1.1252054 1.0763587 0
6.4140005 1.114747 1.0765823 0
6.4170003 1.1044724 1.0769179 0
6.4210005 1.0943766 1.0773653 0
6.4260006 1.0844538 1.0779245 0
6.4320002 1.0746988 1.0785954 0
6.4390006 1.0651062 1.0793782 0
6.4480004 1.0558527 1.0803849 0
6.4250002 1.2038136 1.0669446 0
6.4190001 1.1917119 1.0662844 0
6.4150004 1.1800395 1.0658443 0
6.4120002 1.1685834 1.0655142 0
6.4100003 1.1573385 1.0652941 0
6.4090004 1.1462992 1.0651841 0
6.4100003 1.1356567 1.0652941 0
6.4110003 1.1250106 1.0654042 0
6.4130006 1.114554 1.0656242 0
6.4160004 1.1042813 1.0659543 0
6.4200006 1.0941871 1.0663944 0
6.4250002 1.0842663 1.0669446 0
6.4310002 1.074513 1.0676048 0
6.4380002 1.0649222 1.068375 0
6.4470005 1.0556705 1.0693654 0
6.4570003 1.0465666 1.0704657 0
6.4240003 1.2036061 1.0559684 0
6.4190001 1.1917119 1.0554273 0
6.4140005 1.1798356 1.0548862 0
6.4120002 1.1685834 1.0546697 0
6.4100003 1.1573385 1.0544533 0
6.4090004 1.1462992 1.054345 0
6.4090004 1.1354601 1.054345 0
6.4110003 1.1250106 1.0545615 0
6.4130006 1.114554 1.054778 0
6.4160004 1.1042813 1.0551026 0
6.4200006 1.0941871 1.0555356 0
6.4250002 1.0842663 1.0560766 0
6.4300003 1.0743272 1.0566179 0
6.4380002 1.0649222 1.0574837 0
6.4460006 1.0554883 1.0583495 0
6.4560003 1.0463862 1.0594318 0
6.4250002 1.2038136 1.0452087 0
6.4200006 1.1919175 1.0446767 0
6.4160004 1.1802433 1.044251 0
6.4130006 1.1687856 1.0439317 0
6.4110003 1.1575387 1.0437188 0
6.4100003 1.1464976 1.0436124 0
6.4100003 1.1356567 1.0436124 0
6.4120002 1.1252054 1.0438251 0
6.4140005 1.114747 1.0440381 0
6.4170003 1.1044724 1.0443573 0
6.4200006 1.0941871 1.0446767 0
6.4250002 1.0842663 1.0452087 0
6.4310002 1.074513 1.0458473 0
6.4380002 1.0649222 1.0465922 0
6.4470005 1.0556705 1.0475501 0
6.4570003 1.0465666 1.0486143 0
6.4270005 1.2042285 1.0345501 0
6.4210005 1.1921232 1.0339223 0
6.4170003 1.1804471 1.0335039 0
6.4140005 1.1689875 1.03319 0
6.4130006 1.1579392 1.0330853 0
6.4120002 1.1468945 1.0329807 0
6.4120002 1.1360499 1.0329807 0
6.4140005 1.1255951 1.03319 0
6.4160004 1.115133 1.0333992 0
6.4180002 1.1046637 1.0336084 0
6.4220004 1.094566 1.034027 0
6.4270005 1.0846415 1.0345501 0
6.4330006 1.0748847 1.0351778 0
6.4400005 1.0652901 1.0359101 0
6.4490004 1.0560348 1.0368516 0
6.4590006 1.0469275 1.0378979 0
6.4310002 1.2050582 1.0240897 0
6.4250002 1.1929457 1.0234729 0
6.4210005 1.1812625 1.0230616 0
6.4180002 1.1697955 1.0227531 0
6.4160004 1.1585398 1.0225475 0
6.4150004 1.1474897 1.0224447 0
6.4150004 1.1366397 1.0224447 0
6.4160004 1.1259847 1.0225475 0
6.4180002 1.115519 1.0227531 0
6.4210005 1.1052372 1.0230616 0
6.4250002 1.0951341 1.0234729 0
6.4300003 1.0852041 1.0239869 0
6.4360003 1.075442 1.0246038 0
6.4430003 1.0658422 1.0253235 0
6.4520006 1.0565815 1.0262489 0
6.4620004 1.0474685 1.0272771 0
6.4350004 1.205888 1.013615 0
6.4290004 1.1937683 1.013009 0
6.4240003 1.1818739 1.0125039 0
6.4210005 1.1704017 1.0122008 0
6.4190001 1.1591405 1.0119988 0
6.4190001 1.1482834 1.0119988 0
6.4190001 1.1374261 1.0119988 0
6.4200006 1.1267639 1.0120999 0
6.4220004 1.116291 1.0123019 0
6.4250002 1.1060021 1.0126048 0
6.4290004 1.0958918 1.013009 0
6.4340005 1.0859545 1.013514 0
6.4400005 1.0761852 1.0141201 0
6.4470005 1.0665781 1.0148273 0
6.4560003 1.0573101 1.0157363 0
6.4350004 1.1950021 1.0027291 0
6.4300003 1.1830969 1.002233 0
6.4270005 1.1716139 1.0019354 0
6.4250002 1.1603419 1.0017369 0
6.4240003 1.1492754 1.0016377 0
6.4230003 1.1382127 1.0015385 0
6.4240003 1.1275432 1.0016377 0
6.4270005 1.117256 1.0019354 0
6.4300003 1.106958 1.002233 0
6.4340005 1.0968388 1.0026299 0
6.4380002 1.086705 1.0030266 0
6.4450002 1.0771141 1.0037211 0
6.4520006 1.0674981 1.0044156 0
6.4610004 1.058221 1.0053085 0
6.4420004 1.1964414 0.99252486 0
6.4370003 1.1845237 0.99203789 0
6.4330006 1.1728261 0.99164832 0
6.4310002 1.1615433 0.99145341 0
6.4300003 1.1504661 0.99135602 0
6.4300003 1.1395891 0.99135602 0
6.4310002 1.1289068 0.99145341 0
6.4330006 1.1184142 0.99164832 0
6.4350004 1.1079141 0.9918431 0
6.4400005 1.0979753 0.99233019 0
6.4450002 1.0880181 0.99281704 0
6.4510002 1.0782288 0.99340153 0
6.4590006 1.068786 0.9941808 0
6.4460006 1.1863582 0.9820087 0
6.4420004 1.1746442 0.98162627 0
6.4390006 1.1631449 0.98133945 0
6.4370003 1.1518549 0.98114824 0
6.4370003 1.1409653 0.98114824 0
6.4370003 1.1300757 0.98114824 0
6.4400005 1.1197652 0.98143518 0
6.4430003 1.1094438 0.98172188 0
6.4470005 1.099301 0.9821043 0
6.4520006 1.0893314 0.98258233 0
6.4590006 1.0797153 0.98325157 0
6.4510002 1.1764625 0.97157192 0
6.4480004 1.164947 0.97129047 0
6.4460006 1.1536407 0.97110295 0
6.4460006 1.1427349 0.97110295 0
6.4470005 1.1320239 0.97119677 0
6.4490004 1.1215023 0.97138429 0
6.4520006 1.1111647 0.97166574 0
6.4560003 1.1010056 0.97204089 0
6.4620004 1.0912073 0.97260368 0
6.4580002 1.1560217 0.96130097 0
6.4570003 1.1448976 0.96120906 0
6.4580002 1.1341668 0.96130097 0
6.4600005 1.1236254 0.96148503 0
6.4630003 1.1132679 0.961761 0
6.4680004 1.1032784 0.96222091 0
6.4380002 1.1629447 0.94856966 0
6.4550004 1.1554265 0.95010293 0
6.4720006 1.1368942 0.9516362 0
6.4730005 1.1261344 0.95172644 0
6.4780002 1.1161358 0.95217729 0
6.4360003 1.1516565 0.93750155 0
6.4530005 1.1441112 0.93900418 0
6.4690003 1.1363097 0.94041836 0
6.3760004 1.2044288 0.92141879 0
6.3780003 1.194064 0.921592 0
6.3820004 1.1841035 0.9219383 0
6.3880005 1.174536 0.92245781 0
6.4430003 1.142145 0.92721987 0
6.4580002 1.1341668 0.92851853 0
6.4730005 1.1261344 0.92981732 0
6.3760004 1.2152083 0.91063929 0
6.3750005 1.2042195 0.91055441 0
6.3760004 1.1936492 0.91063929 0
6.3800006 1.1836921 0.91097844 0
6.3860002 1.1741283 0.91148698 0
6.3960004 1.1653509 0.9123348 0
6.3800006 1.2268393 0.90019155 0
6.3760004 1.2152083 0.89985967 0
6.3750005 1.2042195 0.8997767 0
6.3760004 1.1936492 0.89985967 0
6.3800006 1.1836921 0.90019155 0
6.3860002 1.1741283 0.90068948 0
6.3960004 1.1653509 0.90151918 0
6.4090004 1.1571382 0.90259784 0
6.3860002 1.2389139 0.8898918 0
6.3800006 1.2268393 0.88940489 0
6.3760004 1.2152083 0.88908017 0
6.3750005 1.2042195 0.88899899 0
6.3760004 1.1936492 0.88908017 0
6.3800006 1.1836921 0.88940489 0
6.3860002 1.1741283 0.8898918 0
6.3960004 1.1653509 0.89070356 0
6.4090004 1.1571382 0.89175874 0
6.3870006 1.2391286 0.87917364 0
6.3800006 1.2268393 0.87861806 0
6.3760004 1.2152083 0.87830055 0
6.3750005 1.2042195 0.87822121 0
6.3760004 1.1936492 0.87830055 0
6.3800006 1.1836921 0.87861806 0
6.3860002 1.1741283 0.87909424 0
6.3960004 1.1653509 0.87988794 0
6.4090004 1.1571382 0.88091969 0
6.3880005 1.2393432 0.86845177 0
6.3800006 1.2268393 0.86783123 0
6.3760004 1.2152083 0.86752105 0
6.3750005 1.2042195 0.86744344 0
6.3760004 1.1936492 0.86752105 0
6.3800006 1.1836921 0.86783123 0
6.3860002 1.1741283 0.86829662 0
6.3960004 1.1653509 0.86907226 0
6.4090004 1.1571382 0.87008059 0
6.3880005 1.2393432 0.85765058 0
6.3800006 1.2268393 0.85704446 0
6.3760004 1.2152083 0.85674143 0
6.3750005 1.2042195 0.85666573 0
6.3760004 1.1936492 0.85674143 0
6.3800006 1.1836921 0.85704446 0
6.3860002 1.1741283 0.857499 0
6.3960004 1.1653509 0.8582567 0
6.4090004 1.1571382 0.85924149 0
6.3950005 1.2516596 0.84736705 0
6.3880005 1.2393432 0.84684932 0
6.3800006 1.2268393 0.84625775 0
6.3760004 1.2152083 0.84596187 0
6.3750005 1.2042195 0.84588796 0
6.3760004 1.1936492 0.84596187 0
6.3800006 1.1836921 0.84625775 0
6.3860002 1.1741283 0.84670138 0
6.3960004 1.1653509 0.84744102 0
6.4090004 1.1571382 0.8484025 0
6.3960004 1.2518761 0.83662534 0
6.3880005 1.2393432 0.83604819 0
6.3800006 1.2268393 0.83547091 0
6.3760004 1.2152083 0.83518231 0
6.3750005 1.2042195 0.83511019 0
6.3760004 1.1936492 0.83518231 0
6.3800006 1.1836921 0.83547091 0
6.3860002 1.1741283 0.83590388 0
6.3960004 1.1653509 0.83662534 0
6.4090004 1.1571382 0.8375634 0
6.3980002 1.252309 0.82595044 0
6.3880005 1.2393432 0.82524693 0
6.3800006 1.2268393 0.82468414 0
6.3760004 1.2152083 0.82440281 0
6.3750005 1.2042195 0.82433242 0
6.3760004 1.1936492 0.82440281 0
6.3800006 1.1836921 0.82468414 0
6.3860002 1.1741283 0.82510626 0
6.3960004 1.1653509 0.82580972 0
6.4090004 1.1571382 0.82672429 0
6.2810001 1.0572524 0.8177197 0
6.2950006 1.0492454 0.81870455 0
6.4030004 1.2642195 0.81547391 0
6.4010005 1.2529584 0.81533682 0
6.3880005 1.2393432 0.81444573 0
6.3800006 1.2268393 0.81389737 0
6.3760004 1.2152083 0.81362319 0
6.3750005 1.2042195 0.81355464 0
6.3760004 1.1936492 0.81362319 0
6.3800006 1.1836921 0.81389737 0
6.3860002 1.1741283 0.81430864 0
6.3960004 1.1653509 0.8149941 0
6.4090004 1.1571382 0.81588519 0
6.2670002 1.065209 0.80615187 0
6.2810001 1.0572524 0.80711144 0
6.2950006 1.0492454 0.80807114 0
6.3090005 1.0411876 0.80903077 0
6.4040003 1.2644378 0.80471241 0
6.4030004 1.2533913 0.80464566 0
6.3880005 1.2393432 0.80364454 0
6.3800006 1.2268393 0.80311066 0
6.3760004 1.2152083 0.80284369 0
6.3750005 1.2042195 0.80277693 0
6.3760004 1.1936492 0.80284369 0
6.3800006 1.1836921 0.80311066 0
6.3860002 1.1741283 0.80351102 0
6.3960004 1.1653509 0.80417848 0
6.4090004 1.1571382 0.80504608 0
6.2650003 1.0754095 0.79543543 0
6.2670002 1.065209 0.79556894 0
6.2810001 1.0572524 0.79650325 0
6.2950006 1.0492454 0.79743767 0
6.3090005 1.0411876 0.79837203 0
6.4070005 1.2650926 0.79407716 0
6.4070005 1.2542571 0.79407716 0
6.3880005 1.2393432 0.79284334 0
6.3800006 1.2268393 0.79232383 0
6.3760004 1.2152083 0.79206407 0
6.3750005 1.2042195 0.79199916 0
6.3760004 1.1936492 0.79206407 0
6.3800006 1.1836921 0.79232383 0
6.3860002 1.1741283 0.79271346 0
6.3960004 1.1653509 0.79336286 0
6.4090004 1.1571382 0.79420698 0
6.2650003 1.0754095 0.78485608 0
6.2670002 1.065209 0.78498596 0
6.2810001 1.0572524 0.78589511 0
6.2950006 1.0492454 0.7868042 0
6.3090005 1.0411876 0.78771329 0
6.4110003 1.2768084 0.78349423 0
6.4090004 1.2655292 0.78336799 0
6.4100003 1.2549064 0.78343105 0
6.3880005 1.2393432 0.78204215 0
6.3800006 1.2268393 0.78153706 0
6.3760004 1.2152083 0.78128457 0
6.3750005 1.2042195 0.78122139 0
6.3760004 1.1936492 0.78128457 0
6.3800006 1.1836921 0.78153706 0
6.3860002 1.1741283 0.7819159 0
6.3960004 1.1653509 0.78254724 0
6.4090004 1.1571382 0.78336799 0
6.2650003 1.0754095 0.77427673 0
6.2670002 1.065209 0.77440298 0
6.2810001 1.0572524 0.77528691 0
6.2950006 1.0492454 0.77617073 0
6.3090005 1.0411876 0.77705467 0
6.4160004 1.2887603 0.77295816 0
6.4130006 1.2772485 0.77277422 0
6.4120002 1.2661839 0.77271283 0
6.4140005 1.2557724 0.77283549 0
6.3880005 1.2393432 0.77124095 0
6.3800006 1.2268393 0.77075028 0
6.3760004 1.2152083 0.77050495 0
6.3750005 1.2042195 0.77044368 0
6.3760004 1.1936492 0.77050495 0
6.3800006 1.1836921 0.77075028 0
6.3860002 1.1741283 0.77111828 0
6.3960004 1.1653509 0.77173162 0
6.4090004 1.1571382 0.77252889 0
6.2650003 1.0754095 0.76369739 0
6.2670002 1.065209 0.76382005 0
6.2810001 1.0572524 0.76467866 0
6.2950006 1.0492454 0.76553732 0
6.3090005 1.0411876 0.76639593 0
6.4170003 1.2889822 0.76216596 0
6.4160004 1.2779087 0.76210648 0
6.4160004 1.2670569 0.76210648 0
6.4180002 1.2566382 0.76222551 0
6.3880005 1.2393432 0.76043975 0
6.3800006 1.2268393 0.75996351 0
6.3760004 1.2152083 0.75972545 0
6.3750005 1.2042195 0.75966591 0
6.3760004 1.1936492 0.75972545 0
6.3800006 1.1836921 0.75996351 0
6.3860002 1.1741283 0.76032066 0
6.3960004 1.1653509 0.76091594 0
6.4090004 1.1571382 0.76168978 0
6.2650003 1.0754095 0.7531181 0
6.2670002 1.065209 0.75323713 0
6.2810001 1.0572524 0.75407046 0
6.2950006 1.0492454 0.75490385 0
6.3090005 1.0411876 0.75573719 0
6.4220004 1.3009541 0.7516011 0
6.4190001 1.289426 0.75142789 0
6.4180002 1.2783488 0.75137019 0
6.4200006 1.26793 0.75148565 0
6.3880005 1.2393432 0.74963856 0
6.3800006 1.2268393 0.74917674 0
6.3760004 1.2152083 0.74894583 0
6.3750005 1.2042195 0.74888813 0
6.3760004 1.1936492 0.74894583 0
6.3800006 1.1836921 0.74917674 0
6.3860002 1.1741283 0.74952304 0
6.3960004 1.1653509 0.75010031 0
6.4090004 1.1571382 0.75085068 0
6.2650003 1.0754095 0.74253875 0
6.2670002 1.065209 0.7426542 0
6.2810001 1.0572524 0.74346226 0
6.2950006 1.0492454 0.74427044 0
6.3090005 1.0411876 0.7450785 0
6.4240003 1.3014014 0.74085033 0
6.4220004 1.2900916 0.74073851 0
6.4220004 1.279229 0.74073851 0
6.4240003 1.268803 0.74085033 0
6.3880005 1.2393432 0.73883736 0
6.3800006 1.2268393 0.73838997 0
6.3760004 1.2152083 0.73816633 0
6.3750005 1.2042195 0.73811042 0
6.3760004 1.1936492 0.73816633 0
6.3800006 1.1836921 0.73838997 0
6.3860002 1.1741283 0.73872548 0
6.3960004 1.1653509 0.73928463 0
6.4090004 1.1571382 0.74001157 0
6.2650003 1.0754095 0.7319594 0
6.2670002 1.065209 0.73207122 0
6.2810001 1.0572524 0.73285413 0
6.2950006 1.0492454 0.73363698 0
6.3090005 1.0411876 0.73441982 0
6.4290004 1.313395 0.73025477 0
6.4250002 1.3016251 0.73003834 0
6.4240003 1.2905353 0.72998422 0
6.4250002 1.2798891 0.73003834 0
6.4280005 1.2696761 0.73020071 0
6.3800006 1.2268393 0.7276032 0
6.3760004 1.2152083 0.72738677 0
6.3750005 1.2042195 0.72733265 0
6.3760004 1.1936492 0.72738677 0
6.3800006 1.1836921 0.7276032 0
6.3860002 1.1741283 0.72792792 0
6.3960004 1.1653509 0.72846901 0
6.4090004 1.1571382 0.72917253 0
6.2650003 1.0754095 0.72138011 0
6.2670002 1.065209 0.7214883 0
6.2810001 1.0572524 0.72224593 0
6.2950006 1.0492454 0.72300351 0
6.3090005 1.0411876 0.72376108 0
6.4350004 1.3256338 0.71969354 0
6.4300003 1.3136203 0.719432 0
6.4280005 1.3022962 0.71932733 0
6.4280005 1.2914227 0.71932733 0
6.4300003 1.2809895 0.719432 0
6.4330006 1.2707675 0.71958888 0
6.3800006 1.2268393 0.71681643 0
6.3760004 1.2152083 0.71660721 0
6.3750005 1.2042195 0.71655488 0
6.3760004 1.1936492 0.71660721 0
6.3800006 1.1836921 0.71681643 0
6.3860002 1.1741283 0.7171303 0
6.3960004 1.1653509 0.71765339 0
6.4090004 1.1571382 0.71833342 0
6.2650003 1.0754095 0.71080077 0
6.2670002 1.065209 0.71090531 0
6.2810001 1.0572524 0.71163768 0
6.2950006 1.0492454 0.71237004 0
6.3090005 1.0411876 0.7131024 0
6.4360003 1.3258611 0.70885801 0
6.4320002 1.3140713 0.70865595 0
6.4310002 1.3029671 0.70860553 0
6.4310002 1.2920883 0.70860553 0
6.4340005 1.2818699 0.70875704 0
6.3800006 1.2268393 0.70602965 0
6.3760004 1.2152083 0.70582759 0
6.3750005 1.2042195 0.70577717 0
6.3760004 1.1936492 0.70582759 0
6.3800006 1.1836921 0.70602965 0
6.3860002 1.1741283 0.70633268 0
6.3960004 1.1653509 0.70683777 0
6.4090004 1.1571382 0.70749438 0
6.2650003 1.0754095 0.70022142 0
6.2670002 1.065209 0.70032239 0
6.2810001 1.0572524 0.70102948 0
6.2950006 1.0492454 0.70173657 0
6.3090005 1.0411876 0.70244372 0
6.4420004 1.3381234 0.69826245 0
6.4370003 1.3260884 0.69801891 0
6.4340005 1.3145224 0.69787288 0
6.4340005 1.3036382 0.69787288 0
6.4350004 1.2929759 0.69792151 0
6.4390006 1.2829702 0.69811636 0
6.3800006 1.2268393 0.69524288 0
6.3760004 1.2152083 0.69504809 0
6.3750005 1.2042195 0.6949994 0
6.3760004 1.1936492 0.69504809 0
6.3800006 1.1836921 0.69524288 0
6.3860002 1.1741283 0.69553512 0
6.3960004 1.1653509 0.69602215 0
6.4090004 1.1571382 0.69665527 0
6.2650003 1.0754095 0.68964207 0
6.2670002 1.065209 0.68973947 0
6.2810001 1.0572524 0.69042134 0
6.2950006 1.0492454 0.69110316 0
6.3090005 1.0411876 0.69178498 0
6.4420004 1.3381234 0.68736386 0
6.4380002 1.3263156 0.68717623 0
6.4370003 1.3151987 0.68712938 0
6.4370003 1.3043091 0.68712938 0
6.4400005 1.2940853 0.68727005 0
6.3800006 1.2268393 0.68445611 0
6.3760004 1.2152083 0.68426853 0
6.3750005 1.2042195 0.68422163 0
6.3760004 1.1936492 0.68426853 0
6.3800006 1.1836921 0.68445611 0
6.3860002 1.1741283 0.6847375 0
6.3960004 1.1653509 0.68520653 0
6.4090004 1.1571382 0.68581617 0
6.2650003 1.0754095 0.67906272 0
6.2670002 1.065209 0.67915654 0
6.2810001 1.0572524 0.67981315 0
6.2950006 1.0492454 0.68046975 0
6.3090005 1.0411876 0.68112624 0
6.4550004 1.3520235 0.67705148 0
6.4450002 1.3388106 0.67660052 0
6.4410005 1.3269974 0.67642015 0
6.4400005 1.3158753 0.67637503 0
6.4410005 1.3052039 0.67642015 0
6.3800006 1.2268393 0.67366934 0
6.3760004 1.2152083 0.67348897 0
6.3750005 1.2042195 0.67344391 0
6.3760004 1.1936492 0.67348897 0
6.3800006 1.1836921 0.67366934 0
6.3860002 1.1741283 0.67393988 0
6.3960004 1.1653509 0.67439091 0
6.4090004 1.1571382 0.67497706 0
6.2650003 1.0754095 0.66848338 0
6.2670002 1.065209 0.66857362 0
6.2810001 1.0572524 0.66920489 0
6.2950006 1.0492454 0.66983628 0
6.3090005 1.0411876 0.67046762 0
6.4570003 1.3634109 0.66621602 0
6.4590006 1.3529471 0.66630262 0
6.4510002 1.340185 0.66595626 0
6.4460006 1.3281339 0.66573977 0
6.4450002 1.3170025 0.6656965 0
6.3800006 1.2268393 0.66288257 0
6.3760004 1.2152083 0.66270941 0
6.3750005 1.2042195 0.66266608 0
6.3760004 1.1936492 0.66270941 0
6.3800006 1.1836921 0.66288257 0
6.3860002 1.1741283 0.66314232 0
6.3960004 1.1653509 0.66357523 0
6.4090004 1.1571382 0.66413802 0
6.2650003 1.0754095 0.65790403 0
6.2670002 1.065209 0.65799063 0
6.2810001 1.0572524 0.65859669 0
6.2950006 1.0492454 0.65920281 0
6.3090005 1.0411876 0.65980887 0
6.4650002 1.3762126 0.65562224 0
6.4610004 1.3643417 0.6554563 0
6.4580002 1.3527161 0.65533185 0
6.4640002 1.3431631 0.65558076 0
6.4560003 1.3304067 0.65524888 0
6.3800006 1.2268393 0.65209579 0
6.3760004 1.2152083 0.65192986 0
6.3750005 1.2042195 0.65188837 0
6.3760004 1.1936492 0.65192986 0
6.3800006 1.1836921 0.65209579 0
6.3860002 1.1741283 0.6523447 0
6.3960004 1.1653509 0.65275961 0
6.4090004 1.1571382 0.65329891 0
6.2650003 1.0754095 0.64732474 0
6.2670002 1.065209 0.64740771 0
6.2810001 1.0572524 0.6479885 0
6.2950006 1.0492454 0.64856935 0
6.3090005 1.0411876 0.64915019 0
6.4730005 1.3890431 0.64499962 0
6.4690003 1.3771505 0.6448409 0
6.4660006 1.3655052 0.64472187 0
6.4640002 1.3541015 0.64464247 0
6.4630003 1.3429341 0.64460278 0
6.3800006 1.2268393 0.64130902 0
6.3760004 1.2152083 0.6411503 0
6.3750005 1.2042195 0.6411106 0
6.3760004 1.1936492 0.6411503 0
6.3800006 1.1836921 0.64130902 0
6.3860002 1.1741283 0.64154708 0
6.3960004 1.1653509 0.64194393 0
6.4090004 1.1571382 0.64245987 0
6.2650003 1.0754095 0.63674539 0
6.2670002 1.065209 0.63682473 0
6.2810001 1.0572524 0.63738036 0
6.2950006 1.0492454 0.63793588 0
6.3090005 1.0411876 0.63849151 0
6.4810004 1.4019024 0.63434815 0
6.4770002 1.3899883 0.63419664 0
6.4740005 1.3783231 0.63408297 0
6.4720006 1.3669014 0.63400722 0
6.3800006 1.2268393 0.63052225 0
6.3760004 1.2152083 0.63037074 0
6.3750005 1.2042195 0.63033283 0
6.3760004 1.1936492 0.63037074 0
6.3800006 1.1836921 0.63052225 0
6.3860002 1.1741283 0.63074952 0
6.3960004 1.1653509 0.63112831 0
6.4090004 1.1571382 0.63162076 0
6.2650003 1.0754095 0.62616605 0
6.2670002 1.065209 0.6262418 0
6.2810001 1.0572524 0.62677211 0
6.2950006 1.0492454 0.62730247 0
6.3090005 1.0411876 0.62783277 0
6.4890003 1.4147906 0.62366778 0
6.4850006 1.4028549 0.62352347 0
6.4820004 1.3911697 0.62341523 0
6.3800006 1.2268393 0.61973548 0
6.3760004 1.2152083 0.61959118 0
6.3750005 1.2042195 0.61955512 0
6.3760004 1.1936492 0.61959118 0
6.3800006 1.1836921 0.61973548 0
6.3860002 1.1741283 0.61995196 0
6.3960004 1.1653509 0.62031269 0
6.4090004 1.1571382 0.62078166 0
6.2650003 1.0754095 0.6155867 0
6.2670002 1.065209 0.61565888 0
6.2810001 1.0572524 0.61616397 0
6.2950006 1.0492454 0.616669 0
6.3090005 1.0411876 0.61717409 0
6.5070004 1.4521565 0.61330128 0
6.5010004 1.4396796 0.61309564 0
6.4960003 1.4274659 0.61292428 0
6.4930005 1.4157504 0.61282146 0
6.4910002 1.4042834 0.61275291 0
6.3800006 1.2268393 0.60894871 0
6.3760004 1.2152083 0.60881162 0
6.3750005 1.2042195 0.60877734 0
6.3760004 1.1936492 0.60881162 0
6.3800006 1.1836921 0.60894871 0
6.3860002 1.1741283 0.60915434 0
6.3960004 1.1653509 0.60949707 0
6.4090004 1.1571382 0.60994262 0
6.2650003 1.0754095 0.60500741 0
6.2670002 1.065209 0.60507596 0
6.2810001 1.0572524 0.60555571 0
6.2950006 1.0492454 0.60603559 0
6.3090005 1.0411876 0.60651541 0
6.5240002 1.4894664 0.60283738 0
6.5200005 1.4774243 0.60270751 0
6.5140004 1.4649023 0.60251272 0
6.5090003 1.4526472 0.60235035 0
6.5050006 1.4406537 0.60222054 0
6.5020003 1.4289162 0.60212308 0
6.5000005 1.4174297 0.60205817 0
6.3800006 1.2268393 0.59816194 0
6.3760004 1.2152083 0.59803206 0
6.3750005 1.2042195 0.59799957 0
6.3760004 1.1936492 0.59803206 0
6.3800006 1.1836921 0.59816194 0
6.3860002 1.1741283 0.59835672 0
6.3960004 1.1653509 0.59868145 0
6.4090004 1.1571382 0.59910351 0
6.2650003 1.0754095 0.59442806 0
6.2670002 1.065209 0.59449297 0
6.2810001 1.0572524 0.59494758 0
6.2950006 1.0492454 0.59540212 0
6.3090005 1.0411876 0.59585667 0
6.5220003 1.5000079 0.59172952 0
6.5210004 1.4887143 0.59169888 0
6.5210004 1.4776733 0.59169888 0
6.5170002 1.4656435 0.59157622 0
6.5130005 1.4536284 0.59145355 0
6.5100002 1.4418712 0.59136158 0
6.5090003 1.4306082 0.59133089 0
6.3800006 1.2268393 0.58737516 0
6.3760004 1.2152083 0.5872525 0
6.3750005 1.2042195 0.58722186 0
6.3760004 1.1936492 0.5872525 0
6.3800006 1.1836921 0.58737516 0
6.3860002 1.1741283 0.5875591 0
6.3960004 1.1653509 0.58786583 0
6.4090004 1.1571382 0.58826447 0
6.2650003 1.0754095 0.58384871 0
6.2670002 1.065209 0.58391005 0
6.2810001 1.0572524 0.58433932 0
6.2950006 1.0492454 0.58476865 0
6.3090005 1.0411876 0.58519793 0
6.5200005 1.4995029 0.58062893 0
6.5200005 1.4884636 0.58062893 0
6.5210004 1.4776733 0.58065778 0
6.5210004 1.4666321 0.58065778 0
6.5190005 1.4551004 0.58060002 0
6.5170002 1.4435759 0.58054233 0
6.5180006 1.4327837 0.58057117 0
6.3800006 1.2268393 0.57658839 0
6.3760004 1.2152083 0.57647294 0
6.3750005 1.2042195 0.57644409 0
6.3760004 1.1936492 0.57647294 0
6.3800006 1.1836921 0.57658839 0
6.3860002 1.1741283 0.57676154 0
6.3960004 1.1653509 0.57705015 0
6.4090004 1.1571382 0.57742536 0
6.2650003 1.0754095 0.57326937 0
6.2670002 1.065209 0.57332706 0
6.2810001 1.0572524 0.57373112 0
6.2950006 1.0492454 0.57413518 0
6.3090005 1.0411876 0.57453924 0
6.5210004 1.4997555 0.56961668 0
6.5200005 1.4884636 0.56958961 0
6.5210004 1.4776733 0.56961668 0
6.5240002 1.4673735 0.56969786 0
6.5260005 1.4568176 0.56975198 0
6.5270004 1.4460109 0.56977904 0
6.5290003 1.4354424 0.56983316 0
6.3800006 1.2268393 0.56580162 0
6.3760004 1.2152083 0.56569338 0
6.3750005 1.2042195 0.56566632 0
6.3760004 1.1936492 0.56569338 0
6.3800006 1.1836921 0.56580162 0
6.3860002 1.1741283 0.56596398 0
6.3960004 1.1653509 0.56623453 0
6.4090004 1.1571382 0.56658626 0
6.2650003 1.0754095 0.56269002 0
6.2670002 1.065209 0.56274414 0
6.2810001 1.0572524 0.56312299 0
6.2950006 1.0492454 0.56350178 0
6.3090005 1.0411876 0.56388056 0
6.5240002 1.500513 0.55865133 0
6.5230002 1.4892157 0.55862606 0
6.5240002 1.4784199 0.55865133 0
6.5270004 1.4681149 0.55872709 0
6.5310006 1.4580442 0.55882812 0
6.5380006 1.4486897 0.5590049 0
6.3800006 1.2268393 0.55501485 0
6.3760004 1.2152083 0.55491382 0
6.3750005 1.2042195 0.55488861 0
6.3760004 1.1936492 0.55491382 0
6.3800006 1.1836921 0.55501485 0
6.3860002 1.1741283 0.55516636 0
6.3960004 1.1653509 0.55541885 0
6.4090004 1.1571382 0.55574721 0
6.2650003 1.0754095 0.55211067 0
6.2670002 1.065209 0.55216122 0
6.2810001 1.0572524 0.55251473 0
6.2950006 1.0492454 0.55286831 0
6.3090005 1.0411876 0.55322182 0
6.5290003 1.5017756 0.54772204 0
6.5270004 1.4902188 0.54767513 0
6.5280004 1.4794158 0.54769862 0
6.5310006 1.4691033 0.54776895 0
6.5360003 1.4592707 0.54788619 0
6.3800006 1.2268393 0.54422808 0
6.3760004 1.2152083 0.54413426 0
6.3750005 1.2042195 0.54411083 0
6.3760004 1.1936492 0.54413426 0
6.3800006 1.1836921 0.54422808 0
6.3860002 1.1741283 0.54436874 0
6.3960004 1.1653509 0.54460323 0
6.4090004 1.1571382 0.54490811 0
6.2650003 1.0754095 0.54153138 0
6.2670002 1.065209 0.54157829 0
6.2810001 1.0572524 0.5419066 0
6.2950006 1.0492454 0.5422349 0
6.3090005 1.0411876 0.54256314 0
6.5370002 1.5037959 0.53683966 0
6.5350003 1.4922245 0.53679639 0
6.5360003 1.481407 0.53681803 0
6.5380006 1.4708332 0.5368613 0
6.5440001 1.4612331 0.53699118 0
6.3800006 1.2268393 0.53344131 0
6.3760004 1.2152083 0.5333547 0
6.3750005 1.2042195 0.53333306 0
6.3760004 1.1936492 0.5333547 0
6.3800006 1.1836921 0.53344131 0
6.3860002 1.1741283 0.53357118 0
6.3960004 1.1653509 0.53378761 0
6.4090004 1.1571382 0.534069 0
6.2650003 1.0754095 0.53095204 0
6.2670002 1.065209 0.53099531 0
6.2810001 1.0572524 0.53129834 0
6.2950006 1.0492454 0.53160143 0
6.3090005 1.0411876 0.53190446 0
6.5470004 1.4841453 0.52596813 0
6.5420003 1.4718217 0.52586889 0
6.5350003 1.4590255 0.52573001 0
6.3800006 1.2268393 0.52265453 0
6.3760004 1.2152083 0.52257514 0
6.3750005 1.2042195 0.52255529 0
6.3760004 1.1936492 0.52257514 0
6.3800006 1.1836921 0.52265453 0
6.3860002 1.1741283 0.52277356 0
6.3960004 1.1653509 0.52297199 0
6.4090004 1.1571382 0.52322996 0
6.2650003 1.0754095 0.52037269 0
6.2670002 1.065209 0.52041239 0
6.2810001 1.0572524 0.5206902 0
6.2950006 1.0492454 0.52096796 0
6.3090005 1.0411876 0.52124578 0
6.5410004 1.4937289 0.51477188 0
6.5340004 1.4809092 0.51464564 0
6.5270004 1.4681149 0.51451933 0
6.5190005 1.4551004 0.51437503 0
6.3800006 1.2268393 0.51186776 0
6.3760004 1.2152083 0.51179558 0
6.3750005 1.2042195 0.51177758 0
6.3760004 1.1936492 0.51179558 0
6.3800006 1.1836921 0.51186776 0
6.3860002 1.1741283 0.511976 0
6.3960004 1.1653509 0.51215637 0
6.4090004 1.1571382 0.51239085 0
6.2650003 1.0754095 0.50979334 0
6.2670002 1.065209 0.50982946 0
6.2810001 1.0572524 0.51008201 0
6.2950006 1.0492454 0.51033449 0
6.3090005 1.0411876 0.51058704 0
6.5330005 1.4917231 0.50356483 0
6.5250006 1.4786689 0.50343496 0
6.5180006 1.4658908 0.50332129 0
6.3800006 1.2268393 0.50108099 0
6.3760004 1.2152083 0.50101602 0
6.3750005 1.2042195 0.50099981 0
6.3760004 1.1936492 0.50101602 0
6.3800006 1.1836921 0.50108099 0
6.3860002 1.1741283 0.50117838 0
6.3960004 1.1653509 0.50134075 0
6.4090004 1.1571382 0.50155175 0
6.2650003 1.0754095 0.49921402 0
6.2670002 1.065209 0.49924651 0
6.2810001 1.0572524 0.49947378 0
6.2950006 1.0492454 0.49970105 0
6.3090005 1.0411876 0.49992836 0
6.5290003 1.4907202 0.49244434 0
6.5210004 1.4776733 0.49232888 0
6.5140004 1.4649023 0.49222788 0
6.4360003 1.3258611 0.49110231 0
6.3800006 1.2268393 0.49029422 0
6.3760004 1.2152083 0.49023646 0
6.3750005 1.2042195 0.49022204 0
6.3760004 1.1936492 0.49023646 0
6.3800006 1.1836921 0.49029422 0
6.3860002 1.1741283 0.49038076 0
6.3960004 1.1653509 0.4905251 0
6.4090004 1.1571382 0.4907127 0
6.2650003 1.0754095 0.48863471 0
6.2670002 1.065209 0.48866355 0
6.2810001 1.0572524 0.48886558 0
6.2950006 1.0492454 0.48906761 0
6.3090005 1.0411876 0.48926964 0
6.5280004 1.4904695 0.48137617 0
6.5210004 1.4776733 0.48128778 0
6.5140004 1.4649023 0.48119941 0
6.4420004 1.3381234 0.48029029 0
6.4350004 1.3256338 0.4802019 0
6.4280005 1.3131696 0.48011351 0
6.3760004 1.2152083 0.4794569 0
6.3750005 1.2042195 0.4794443 0
6.3760004 1.1936492 0.4794569 0
6.3800006 1.1836921 0.47950745 0
6.3860002 1.1741283 0.47958317 0
6.3960004 1.1653509 0.47970945 0
6.2720003 1.0873399 0.47814375 0
6.2650003 1.0754095 0.47805536 0
6.2670002 1.065209 0.4780806 0
6.2810001 1.0572524 0.47825739 0
6.2950006 1.0492454 0.47843415 0
6.3090005 1.0411876 0.47861093 0
6.5310006 1.4912217 0.47035491 0
6.5230002 1.478171 0.47026831 0
6.5160003 1.4653965 0.47019255 0
6.4450002 1.3388106 0.46942413 0
6.4380002 1.3263156 0.46934837 0
6.4310002 1.3138459 0.46927261 0
6.3760004 1.2152083 0.46867737 0
6.3750005 1.2042195 0.46866655 0
6.3760004 1.1936492 0.46867737 0
6.3800006 1.1836921 0.46872067 0
6.3860002 1.1741283 0.46878558 0
6.3960004 1.1653509 0.46889383 0
6.2720003 1.0873399 0.4675518 0
6.2650003 1.0754095 0.46747601 0
6.2670002 1.065209 0.46749768 0
6.2810001 1.0572524 0.46764919 0
6.2950006 1.0492454 0.46780071 0
6.3090005 1.0411876 0.46795222 0
6.5340004 1.4919738 0.45932281 0
6.5300002 1.4799135 0.45928675 0
6.5230002 1.4671263 0.4592236 0
6.5150003 1.4541191 0.45915145 0
6.4450002 1.3279065 0.45852011 0
6.4380002 1.3154242 0.45845699 0
6.4310002 1.3029671 0.45839384 0
6.3760004 1.2152083 0.45789781 0
6.3750005 1.2042195 0.45788878 0
6.3760004 1.1936492 0.45789781 0
6.3800006 1.1836921 0.45793387 0
6.3860002 1.1741283 0.45798799 0
6.2720003 1.0873399 0.45695981 0
6.2650003 1.0754095 0.45689669 0
6.2670002 1.065209 0.45691472 0
6.2810001 1.0572524 0.457041 0
6.2950006 1.0492454 0.45716727 0
6.3090005 1.0411876 0.45729354 0
6.5360003 1.5035434 0.44827268 0
6.5340004 1.4919738 0.44825825 0
6.5350003 1.4811581 0.44826546 0
6.5340004 1.4698447 0.44825825 0
6.5270004 1.4570628 0.44820774 0
6.3760004 1.2152083 0.44711825 0
6.3750005 1.2042195 0.44711104 0
6.3760004 1.1936492 0.44711825 0
6.3800006 1.1836921 0.4471471 0
6.2720003 1.0873399 0.44636786 0
6.2650003 1.0754095 0.44631734 0
6.2670002 1.065209 0.4463318 0
6.2810001 1.0572524 0.4464328 0
6.2950006 1.0492454 0.4465338 0
6.3090005 1.0411876 0.44663483 0
6.5360003 1.5035434 0.43720451 0
6.5340004 1.4919738 0.43719369 0
6.5350003 1.4811581 0.43719912 0
6.5380006 1.4708332 0.43721533 0
6.5430002 1.4609879 0.43724239 0
6.2790003 1.0992955 0.43581378 0
6.2720003 1.0873399 0.43577591 0
6.2650003 1.0754095 0.43573803 0
6.2670002 1.065209 0.43574885 0
6.2810001 1.0572524 0.4358246 0
6.2950006 1.0492454 0.43590036 0
6.3090005 1.0411876 0.43597612 0
6.5360003 1.5035434 0.42613634 0
6.5340004 1.4919738 0.42612913 0
6.5350003 1.4811581 0.42613274 0
6.5380006 1.4708332 0.42614356 0
6.5430002 1.4609879 0.42616159 0
6.2790003 1.0992955 0.42520919 0
6.2720003 1.0873399 0.42518395 0
6.2650003 1.0754095 0.42515868 0
6.2670002 1.065209 0.42516589 0
6.2810001 1.0572524 0.42521641 0
6.2950006 1.0492454 0.42526692 0
6.3090005 1.0411876 0.42531741 0
6.5360003 1.5035434 0.41506818 0
6.5340004 1.4919738 0.41506457 0
6.5350003 1.4811581 0.41506639 0
6.5380006 1.4708332 0.41507179 0
6.5430002 1.4609879 0.41508082 0
6.2790003 1.0992955 0.4146046 0
6.2720003 1.0873399 0.41459197 0
6.2650003 1.0754095 0.41457936 0
6.2670002 1.065209 0.41458297 0
6.2810001 1.0572524 0.41460821 0
6.2950006 1.0492454 0.41463345 0
6.3090005 1.0411876 0.41465873 0
6.5360003 1.5035434 0.40400001 0
6.5340004 1.4919738 0.40400001 0
6.5350003 1.4811581 0.40400001 0
6.5380006 1.4708332 0.40400001 0
6.5430002 1.4609879 0.40400001 0
6.2790003 1.0992955 0.40400001 0
6.2720003 1.0873399 0.40400001 0
6.2650003 1.0754095 0.40400001 0
6.2670002 1.065209 0.40400001 0
6.2810001 1.0572524 0.40400001 0
6.2950006 1.0492454 0.40400001 0
6.3090005 1.0411876 0.40400001 0
6.5360003 1.5035434 0.39293185 0
6.5340004 1.4919738 0.39293545 0
6.5350003 1.4811581 0.39293364 0
6.5380006 1.4708332 0.39292824 0
6.5430002 1.4609879 0.39291921 0
6.2790003 1.0992955 0.39339542 0
6.2720003 1.0873399 0.39340806 0
6.2650003 1.0754095 0.39342067 0
6.2670002 1.065209 0.39341706 0
6.2810001 1.0572524 0.39339182 0
6.2950006 1.0492454 0.39336658 0
6.3090005 1.0411876 0.3933413 0
6.5360003 1.5035434 0.38186368 0
6.5340004 1.4919738 0.3818709 0
6.5350003 1.4811581 0.38186729 0
6.5380006 1.4708332 0.38185647 0
6.5430002 1.4609879 0.38183844 0
6.2720003 1.0873399 0.38281608 0
6.2810001 1.0572524 0.38278362 0
6.2950006 1.0492454 0.38273311 0
6.5360003 1.5035434 0.37079552 0
6.5340004 1.4919738 0.37080634 0
6.5350003 1.4811581 0.37080091 0
6.5380006 1.4708332 0.3707847 0
6.5430002 1.4609879 0.37075764 0
6.5360003 1.5035434 0.35972735 0
6.5340004 1.4919738 0.35974178 0
6.5350003 1.4811581 0.35973457 0
6.5380006 1.4708332 0.3597129 0
6.5430002 1.4609879 0.35967684 0
6.5360003 1.5035434 0.34865919 0
6.5340004 1.4919738 0.34867722 0
6.5350003 1.4811581 0.34866819 0
6.5380006 1.4708332 0.34864113 0
6.5430002 1.4609879 0.34859604 0
6.5360003 1.5035434 0.33759099 0
6.5340004 1.4919738 0.33761266 0
6.5350003 1.4811581 0.33760184 0
6.5380006 1.4708332 0.33756936 0
6.5430002 1.4609879 0.33751523 0
6.5360003 1.5035434 0.32652286 0
6.5340004 1.4919738 0.3265481 0
6.5350003 1.4811581 0.32653546 0
6.5380006 1.4708332 0.32649758 0
6.5430002 1.4609879 0.32643446 0
6.5360003 1.5035434 0.31545466 0
6.5340004 1.4919738 0.31548354 0
6.5350003 1.4811581 0.31546912 0
6.5380006 1.4708332 0.31542581 0
6.5430002 1.4609879 0.31535366 0
6.5360003 1.5035434 0.3043865 0
6.5340004 1.4919738 0.30441898 0
6.5350003 1.4811581 0.30440274 0
6.5380006 1.4708332 0.30435404 0
6.5430002 1.4609879 0.30427286 0
6.5360003 1.5035434 0.29331833 0
6.5340004 1.4919738 0.29335442 0
6.5350003 1.4811581 0.29333639 0
6.5380006 1.4708332 0.29328227 0
6.5430002 1.4609879 0.29319209 0
6.5360003 1.5035434 0.28225017 0
6.5340004 1.4919738 0.28228986 0
6.5350003 1.4811581 0.28227001 0
6.5380006 1.4708332 0.28221047 0
6.5430002 1.4609879 0.28211129 0
6.5360003 1.5035434 0.271182 0
6.5340004 1.4919738 0.2712253 0
6.5350003 1.4811581 0.27120364 0
6.5380006 1.4708332 0.27113873 0
6.5430002 1.4609879 0.27103049 0
6.5360003 1.5035434 0.26011384 0
6.5340004 1.4919738 0.26016074 0
6.5350003 1.4811581 0.26013729 0
6.5380006 1.4708332 0.26006693 0
6.5430002 1.4609879 0.25994968 0
6.5360003 1.5035434 0.24904568 0
6.5340004 1.4919738 0.24909617 0
6.5350003 1.4811581 0.24907093 0
6.5380006 1.4708332 0.24899516 0
6.5430002 1.4609879 0.24886891 0
6.5360003 1.5035434 0.2379775 0
6.5340004 1.4919738 0.23803163 0
6.5350003 1.4811581 0.23800457 0
6.5380006 1.4708332 0.23792338 0
6.5430002 1.4609879 0.23778811 0
6.5360003 1.5035434 0.22690934 0
6.5340004 1.4919738 0.22696705 0
6.5350003 1.4811581 0.2269382 0
6.5380006 1.4708332 0.22685161 0
6.5430002 1.4609879 0.22670731 0
6.5360003 1.5035434 0.21584117 0
6.5340004 1.4919738 0.21590249 0
6.5350003 1.4811581 0.21587183 0
6.5380006 1.4708332 0.21577984 0
6.5430002 1.4609879 0.21562652 0
6.5360003 1.5035434 0.20477301 0
6.5340004 1.4919738 0.20483795 0
6.5350003 1.4811581 0.20480546 0
6.5380006 1.4708332 0.20470805 0
6.5430002 1.4609879 0.20454572 0
6.5360003 1.5035434 0.19370484 0
6.5340004 1.4919738 0.19377337 0
6.5350003 1.4811581 0.19373912 0
6.5380006 1.4708332 0.19363628 0
6.5430002 1.4609879 0.19346493 0
6.5360003 1.5035434 0.18263668 0
6.5340004 1.4919738 0.18270881 0
6.5350003 1.4811581 0.18267274 0
6.5380006 1.4708332 0.18256451 0
6.5430002 1.4609879 0.18238415 0
6.5360003 1.5035434 0.17156851 0
6.5340004 1.4919738 0.17164426 0
6.5350003 1.4811581 0.17160638 0
6.5380006 1.4708332 0.17149273 0
6.5430002 1.4609879 0.17130335 0
6.5360003 1.5035434 0.16050033 0
6.5340004 1.4919738 0.16057968 0
6.5350003 1.4811581 0.16054003 0
6.5380006 1.4708332 0.16042095 0
6.5430002 1.4609879 0.16022256 0
6.5360003 1.5035434 0.14943215 0
6.5340004 1.4919738 0.14951515 0
6.5350003 1.4811581 0.14947364 0
6.5380006 1.4708332 0.14934918 0
6.5430002 1.4609879 0.14914176 0
6.5360003 1.5035434 0.13836399 0
6.5340004 1.4919738 0.13845059 0
6.5350003 1.4811581 0.13840729 0
6.5380006 1.4708332 0.13827741 0
6.5430002 1.4609879 0.13806096 0
6.5360003 1.5035434 0.12729582 0
6.5340004 1.4919738 0.12738603 0
6.5350003 1.4811581 0.12734094 0
6.5380006 1.4708332 0.12720564 0
6.5430002 1.4609879 0.12698019 0
6.5360003 1.5035434 0.11622766 0
6.5340004 1.4919738 0.11632147 0
6.5350003 1.4811581 0.11627457 0
6.5380006 1.4708332 0.11613387 0
6.5430002 1.4609879 0.11589938 0
6.5360003 1.5035434 0.10515952 0
6.5340004 1.4919738 0.10525689 0
6.5350003 1.4811581 0.10520822 0
6.5380006 1.4708332 0.10506207 0
6.5430002 1.4609879 0.10481858 0
6.5510006 1.4518553 0.10442895 0
6.5360003 1.5035434 0.094091356 0
6.5340004 1.4919738 0.094192326 0
6.5350003 1.4811581 0.094141841 0
6.5380006 1.4708332 0.093990296 0
6.5430002 1.4609879 0.093737811 0
6.5510006 1.4518553 0.093333721 0
6.5420003 1.5161376 0.082709283 0
6.5360003 1.5035434 0.08302319 0
6.5340004 1.4919738 0.083127797 0
6.5350003 1.4811581 0.083075464 0
6.5380006 1.4708332 0.082918525 0
6.5430002 1.4609879 0.082657009 0
6.5510006 1.4518553 0.082238495 0
6.5420003 1.5161376 0.071630299 0
6.5350003 1.5032909 0.072009116 0
6.5280004 1.4904695 0.072387904 0
6.5200005 1.4774243 0.072820812 0
6.5220003 1.4668792 0.0727126 0
6.5350003 1.4590255 0.072009116 0
6.5490003 1.4513683 0.071251512 0
6.5420003 1.5161376 0.060551316 0
6.5350003 1.5032909 0.060942739 0
6.5280004 1.4904695 0.061334193 0
6.5200005 1.4774243 0.061781496 0
6.5220003 1.4668792 0.061669677 0
6.5350003 1.4590255 0.060942739 0
6.5490003 1.4513683 0.060159892 0
6.5280004 1.4904695 0.050280422 0
6.5200005 1.4774243 0.050742209 0
