# .PCD v0.7 - Point Cloud Data file format
VERSION 0.7
FIELDS x y z intensity
SIZE 4 4 4 4
TYPE F F F F
COUNT 1 1 1 1
WIDTH 1457
HEIGHT 1
VIEWPOINT 0 0 0 1 0 0 0
POINTS 1457
DATA ascii
3.4920003 1.5881709 0.98404706 0
3.4970002 1.585227 0.98498499 0
3.5010002 1.5817403 0.9857353 0
3.5050004 1.5782392 0.98648572 0
3.5090003 1.5747235 0.98723614 0
3.5130002 1.5711935 0.98798656 0
3.5160003 1.5671313 0.98854935 0
3.5180001 1.5625423 0.9889245 0
3.5200002 1.5579462 0.98929965 0
3.5220003 1.5533431 0.98967493 0
3.5230002 1.5482219 0.98986256 0
3.5250003 1.543606 0.99023771 0
3.5270002 1.5389827 0.99061286 0
3.4820004 1.6551572 0.97661173 0
3.4840002 1.6506981 0.97698331 0
3.4860003 1.6462319 0.97735488 0
3.4880002 1.6417583 0.97772646 0
3.4840002 1.5950686 0.97698331 0
3.4880002 1.5916269 0.97772646 0
3.4920003 1.5881709 0.97846961 0
3.4970002 1.585227 0.97939861 0
3.5010002 1.5817403 0.98014176 0
3.5050004 1.5782392 0.98088503 0
3.5090003 1.5747235 0.98162818 0
3.5130002 1.5711935 0.98237121 0
3.5160003 1.5671313 0.98292863 0
3.5180001 1.5625423 0.98330021 0
3.5200002 1.5579462 0.98367178 0
3.5220003 1.5533431 0.98404336 0
3.5230002 1.5482219 0.98422921 0
3.5250003 1.543606 0.98460078 0
3.5270002 1.5389827 0.98497236 0
3.4820004 1.6551572 0.97105241 0
3.4840002 1.6506981 0.97142041 0
3.4860003 1.6462319 0.97178841 0
3.4880002 1.6417583 0.97215629 0
3.4840002 1.5950686 0.97142041 0
3.4880002 1.5916269 0.97215629 0
3.4920003 1.5881709 0.97289228 0
3.4970002 1.585227 0.97381222 0
3.5010002 1.5817403 0.9745481 0
3.5050004 1.5782392 0.9752841 0
3.5090003 1.5747235 0.9760201 0
3.5130002 1.5711935 0.97675598 0
3.5160003 1.5671313 0.97730803 0
3.5180001 1.5625423 0.97767591 0
3.5200002 1.5579462 0.97804391 0
3.5220003 1.5533431 0.97841191 0
3.5230002 1.5482219 0.97859597 0
3.5250003 1.543606 0.97896397 0
3.5270002 1.5389827 0.97933185 0
3.4820004 1.6551572 0.96549308 0
3.4840002 1.6506981 0.96585739 0
3.4860003 1.6462319 0.96622181 0
3.4880002 1.6417583 0.96658611 0
3.4840002 1.5950686 0.96585739 0
3.4880002 1.5916269 0.96658611 0
3.4920003 1.5881709 0.96731496 0
3.4970002 1.585227 0.96822584 0
3.5010002 1.5817403 0.96895456 0
3.5050004 1.5782392 0.96968329 0
3.5090003 1.5747235 0.97041202 0
3.5130002 1.5711935 0.97114074 0
3.5160003 1.5671313 0.97168732 0
3.5180001 1.5625423 0.97205162 0
3.5200002 1.5579462 0.97241604 0
3.5220003 1.5533431 0.97278047 0
3.5230002 1.5482219 0.97296262 0
3.5250003 1.543606 0.97332704 0
3.5270002 1.5389827 0.97369134 0
3.4820004 1.6551572 0.95993376 0
3.4840002 1.6506981 0.96029449 0
3.4860003 1.6462319 0.96065521 0
3.4880002 1.6417583 0.96101606 0
3.4840002 1.5950686 0.96029449 0
3.4880002 1.5916269 0.96101606 0
3.4920003 1.5881709 0.96173751 0
3.4970002 1.585227 0.96263945 0
3.5010002 1.5817403 0.96336091 0
3.5050004 1.5782392 0.96408248 0
3.5090003 1.5747235 0.96480405 0
3.5130002 1.5711935 0.96552551 0
3.5160003 1.5671313 0.9660666 0
3.5180001 1.5625423 0.96642733 0
3.5200002 1.5579462 0.96678817 0
3.5220003 1.5533431 0.9671489 0
3.5230002 1.5482219 0.96732938 0
3.5250003 1.543606 0.96769011 0
3.5270002 1.5389827 0.96805084 0
3.4820004 1.6551572 0.95437431 0
3.4840002 1.6506981 0.95473146 0
3.4860003 1.6462319 0.95508862 0
3.4880002 1.6417583 0.95544577 0
3.4840002 1.5950686 0.95473146 0
3.4880002 1.5916269 0.95544577 0
3.4920003 1.5881709 0.95616019 0
3.4970002 1.585227 0.95705307 0
3.5010002 1.5817403 0.95776725 0
3.5050004 1.5782392 0.95848167 0
3.5090003 1.5747235 0.95919597 0
3.5130002 1.5711935 0.95991027 0
3.5160003 1.5671313 0.960446 0
3.5180001 1.5625423 0.96080315 0
3.5200002 1.5579462 0.9611603 0
3.5220003 1.5533431 0.96151745 0
3.5230002 1.5482219 0.96169603 0
3.5250003 1.543606 0.96205318 0
3.5270002 1.5389827 0.96241033 0
3.4820004 1.6551572 0.94881499 0
3.4840002 1.6506981 0.94916856 0
3.4860003 1.6462319 0.94952214 0
3.4880002 1.6417583 0.94987559 0
3.4840002 1.5950686 0.94916856 0
3.4880002 1.5916269 0.94987559 0
3.4920003 1.5881709 0.95058274 0
3.4970002 1.585227 0.95146668 0
3.5010002 1.5817403 0.95217371 0
3.5050004 1.5782392 0.95288086 0
3.5090003 1.5747235 0.95358789 0
3.5130002 1.5711935 0.95429504 0
3.5160003 1.5671313 0.95482528 0
3.5180001 1.5625423 0.95517886 0
3.5200002 1.5579462 0.95553243 0
3.5220003 1.5533431 0.95588601 0
3.5230002 1.5482219 0.95606279 0
3.5250003 1.543606 0.95641637 0
3.5270002 1.5389827 0.95676982 0
3.4820004 1.6551572 0.94325566 0
3.4840002 1.6506981 0.94360566 0
3.4860003 1.6462319 0.94395554 0
3.4880002 1.6417583 0.94430554 0
3.4840002 1.5950686 0.94360566 0
3.4880002 1.5916269 0.94430554 0
3.4920003 1.5881709 0.94500542 0
3.4970002 1.585227 0.94588017 0
3.5010002 1.5817403 0.94658005 0
3.5050004 1.5782392 0.94728005 0
3.5090003 1.5747235 0.94797993 0
3.5130002 1.5711935 0.9486798 0
3.5160003 1.5671313 0.94920468 0
3.5180001 1.5625423 0.94955456 0
3.5200002 1.5579462 0.94990456 0
3.5220003 1.5533431 0.95025444 0
3.5230002 1.5482219 0.95042944 0
3.5250003 1.543606 0.95077944 0
3.5270002 1.5389827 0.95112932 0
3.4820004 1.6551572 0.93769634 0
3.4840002 1.6506981 0.93804276 0
3.4860003 1.6462319 0.93838906 0
3.4880002 1.6417583 0.93873537 0
3.4840002 1.5950686 0.93804276 0
3.4880002 1.5916269 0.93873537 0
3.4920003 1.5881709 0.93942809 0
3.4970002 1.585227 0.94029379 0
3.5010002 1.5817403 0.94098651 0
3.5050004 1.5782392 0.94167912 0
3.5090003 1.5747235 0.94237185 0
3.5130002 1.5711935 0.94306457 0
3.5160003 1.5671313 0.94358397 0
3.5180001 1.5625423 0.94393027 0
3.5200002 1.5579462 0.94427669 0
3.5220003 1.5533431 0.94462299 0
3.5230002 1.5482219 0.9447962 0
3.5250003 1.543606 0.94514251 0
3.5270002 1.5389827 0.94548881 0
3.4820004 1.6551572 0.93213701 0
3.4840002 1.6506981 0.93247974 0
3.4860003 1.6462319 0.93282247 0
3.4880002 1.6417583 0.93316519 0
3.4840002 1.5950686 0.93247974 0
3.4880002 1.5916269 0.93316519 0
3.4920003 1.5881709 0.93385065 0
3.4970002 1.585227 0.93470752 0
3.5010002 1.5817403 0.93539286 0
3.5050004 1.5782392 0.93607843 0
3.5090003 1.5747235 0.93676376 0
3.5130002 1.5711935 0.93744922 0
3.5160003 1.5671313 0.93796337 0
3.5180001 1.5625423 0.93830597 0
3.5200002 1.5579462 0.93864882 0
3.5220003 1.5533431 0.93899155 0
3.5230002 1.5482219 0.93916285 0
3.5250003 1.543606 0.93950558 0
3.5270002 1.5389827 0.9398483 0
3.4820004 1.6551572 0.92657769 0
3.4840002 1.6506981 0.92691672 0
3.4860003 1.6462319 0.92725587 0
3.4880002 1.6417583 0.92759502 0
3.4840002 1.5950686 0.92691672 0
3.4880002 1.5916269 0.92759502 0
3.4920003 1.5881709 0.92827332 0
3.4970002 1.585227 0.92912102 0
3.5010002 1.5817403 0.92979932 0
3.5050004 1.5782392 0.9304775 0
3.5090003 1.5747235 0.9311558 0
3.5130002 1.5711935 0.93183398 0
3.5160003 1.5671313 0.93234265 0
3.5180001 1.5625423 0.9326818 0
3.5200002 1.5579462 0.93302083 0
3.5220003 1.5533431 0.93335998 0
3.5230002 1.5482219 0.93352962 0
3.5250003 1.543606 0.93386877 0
3.5270002 1.5389827 0.9342078 0
3.4820004 1.6551572 0.92101836 0
3.4840002 1.6506981 0.92135382 0
3.4860003 1.6462319 0.92168939 0
3.4880002 1.6417583 0.92202485 0
3.4840002 1.5950686 0.92135382 0
3.4880002 1.5916269 0.92202485 0
3.4920003 1.5881709 0.92269588 0
3.4970002 1.585227 0.92353463 0
3.5010002 1.5817403 0.92420566 0
3.5050004 1.5782392 0.92487669 0
3.5090003 1.5747235 0.92554772 0
3.5130002 1.5711935 0.92621875 0
3.5160003 1.5671313 0.92672205 0
3.5180001 1.5625423 0.9270575 0
3.5200002 1.5579462 0.92739296 0
3.5220003 1.5533431 0.92772853 0
3.5230002 1.5482219 0.92789626 0
3.5250003 1.543606 0.92823184 0
3.5270002 1.5389827 0.92856729 0
3.4820004 1.6551572 0.91545904 0
3.4840002 1.6506981 0.91579092 0
3.4860003 1.6462319 0.91612279 0
3.4880002 1.6417583 0.91645467 0
3.4840002 1.5950686 0.91579092 0
3.4880002 1.5916269 0.91645467 0
3.4920003 1.5881709 0.91711855 0
3.4970002 1.585227 0.91794825 0
3.5010002 1.5817403 0.918612 0
3.5050004 1.5782392 0.91927588 0
3.5090003 1.5747235 0.91993964 0
3.5130002 1.5711935 0.92060351 0
3.5160003 1.5671313 0.92110133 0
3.5180001 1.5625423 0.92143321 0
3.5200002 1.5579462 0.92176509 0
3.5220003 1.5533431 0.92209709 0
3.5230002 1.5482219 0.92226303 0
3.5250003 1.543606 0.9225949 0
3.5270002 1.5389827 0.92292678 0
3.4820004 1.6551572 0.90989971 0
3.4840002 1.6506981 0.91022801 0
3.4860003 1.6462319 0.91055632 0
3.4880002 1.6417583 0.9108845 0
3.4840002 1.5950686 0.91022801 0
3.4880002 1.5916269 0.9108845 0
3.4920003 1.5881709 0.9115411 0
3.4970002 1.585227 0.91236186 0
3.5010002 1.5817403 0.91301847 0
3.5050004 1.5782392 0.91367507 0
3.5090003 1.5747235 0.91433167 0
3.5130002 1.5711935 0.91498828 0
3.5160003 1.5671313 0.91548073 0
3.5180001 1.5625423 0.91580892 0
3.5200002 1.5579462 0.91613722 0
3.5220003 1.5533431 0.91646552 0
3.5230002 1.5482219 0.91662967 0
3.5250003 1.543606 0.91695797 0
3.5270002 1.5389827 0.91728628 0
3.4820004 1.6551572 0.90434039 0
3.4840002 1.6506981 0.90466499 0
3.4860003 1.6462319 0.90498972 0
3.4880002 1.6417583 0.90531445 0
3.4840002 1.5950686 0.90466499 0
3.4880002 1.5916269 0.90531445 0
3.4920003 1.5881709 0.90596378 0
3.4970002 1.585227 0.90677547 0
3.5010002 1.5817403 0.90742481 0
3.5050004 1.5782392 0.90807426 0
3.5090003 1.5747235 0.90872359 0
3.5130002 1.5711935 0.90937293 0
3.5160003 1.5671313 0.90986001 0
3.5180001 1.5625423 0.91018462 0
3.5200002 1.5579462 0.91050935 0
3.5220003 1.5533431 0.91083407 0
3.5230002 1.5482219 0.91099644 0
3.5250003 1.543606 0.91132116 0
3.5270002 1.5389827 0.91164577 0
3.4820004 1.6551572 0.89878106 0
3.4840002 1.6506981 0.89910209 0
3.4860003 1.6462319 0.89942318 0
3.4880002 1.6417583 0.89974421 0
3.4840002 1.5950686 0.89910209 0
3.4880002 1.5916269 0.89974421 0
3.4920003 1.5881709 0.90038639 0
3.4970002 1.585227 0.90118909 0
3.5010002 1.5817403 0.90183127 0
3.5050004 1.5782392 0.90247345 0
3.5090003 1.5747235 0.90311557 0
3.5130002 1.5711935 0.90375769 0
3.5160003 1.5671313 0.9042393 0
3.5180001 1.5625423 0.90456045 0
3.5200002 1.5579462 0.90488148 0
3.5220003 1.5533431 0.90520263 0
3.5230002 1.5482219 0.90536308 0
3.5250003 1.543606 0.90568423 0
3.5270002 1.5389827 0.90600526 0
3.4820004 1.6551572 0.89322174 0
3.4840002 1.6506981 0.89353907 0
3.4860003 1.6462319 0.89385664 0
3.4880002 1.6417583 0.8941741 0
3.4840002 1.5950686 0.89353907 0
3.4880002 1.5916269 0.8941741 0
3.4920003 1.5881709 0.89480901 0
3.4970002 1.585227 0.8956027 0
3.5010002 1.5817403 0.89623761 0
3.5050004 1.5782392 0.89687258 0
3.5090003 1.5747235 0.89750755 0
3.5130002 1.5711935 0.89814246 0
3.5160003 1.5671313 0.89861864 0
3.5180001 1.5625423 0.89893615 0
3.5200002 1.5579462 0.89925361 0
3.5220003 1.5533431 0.89957106 0
3.5230002 1.5482219 0.89972979 0
3.5250003 1.543606 0.9000473 0
3.5270002 1.5389827 0.90036476 0
3.4820004 1.6551572 0.88766241 0
3.4840002 1.6506981 0.88797617 0
3.4860003 1.6462319 0.88829005 0
3.4880002 1.6417583 0.88860393 0
3.4840002 1.5950686 0.88797617 0
3.4880002 1.5916269 0.88860393 0
3.4920003 1.5881709 0.88923168 0
3.4970002 1.585227 0.89001632 0
3.5010002 1.5817403 0.89064407 0
3.5050004 1.5782392 0.89127171 0
3.5090003 1.5747235 0.89189953 0
3.5130002 1.5711935 0.89252722 0
3.5160003 1.5671313 0.89299798 0
3.5180001 1.5625423 0.89331186 0
3.5200002 1.5579462 0.89362574 0
3.5220003 1.5533431 0.89393961 0
3.5230002 1.5482219 0.89409649 0
3.5250003 1.543606 0.89441037 0
3.5270002 1.5389827 0.89472425 0
3.4820004 1.6551572 0.88210303 0
3.4840002 1.6506981 0.88241327 0
3.4860003 1.6462319 0.88272357 0
3.4880002 1.6417583 0.88303375 0
3.4840002 1.5950686 0.88241327 0
3.4880002 1.5916269 0.88303375 0
3.4920003 1.5881709 0.88365424 0
3.4970002 1.585227 0.88442993 0
3.5010002 1.5817403 0.88505042 0
3.5050004 1.5782392 0.88567096 0
3.5090003 1.5747235 0.88629144 0
3.5130002 1.5711935 0.88691199 0
3.5160003 1.5671313 0.88737732 0
3.5180001 1.5625423 0.88768756 0
3.5200002 1.5579462 0.88799787 0
3.5220003 1.5533431 0.88830805 0
3.5230002 1.5482219 0.8884632 0
3.5250003 1.543606 0.8887735 0
3.5270002 1.5389827 0.88908374 0
3.4820004 1.6551572 0.8765437 0
3.4840002 1.6506981 0.87685031 0
3.4860003 1.6462319 0.87715697 0
3.4880002 1.6417583 0.87746358 0
3.4840002 1.5950686 0.87685031 0
3.4880002 1.5916269 0.87746358 0
3.4920003 1.5881709 0.87807691 0
3.4970002 1.585227 0.87884349 0
3.5010002 1.5817403 0.87945676 0
3.5050004 1.5782392 0.88007009 0
3.5090003 1.5747235 0.88068342 0
3.5130002 1.5711935 0.88129669 0
3.5160003 1.5671313 0.88175666 0
3.5180001 1.5625423 0.88206327 0
3.5200002 1.5579462 0.88237 0
3.5220003 1.5533431 0.8826766 0
3.5230002 1.5482219 0.8828299 0
3.5250003 1.543606 0.88313663 0
3.5270002 1.5389827 0.88344324 0
3.4820004 1.6551572 0.87098432 0
3.4840002 1.6506981 0.87128735 0
3.4860003 1.6462319 0.87159044 0
3.4880002 1.6417583 0.87189341 0
3.4840002 1.5950686 0.87128735 0
3.4880002 1.5916269 0.87189341 0
3.4920003 1.5881709 0.87249959 0
3.4970002 1.585227 0.8732571 0
3.5010002 1.5817403 0.87386322 0
3.5050004 1.5782392 0.87446928 0
3.5090003 1.5747235 0.87507534 0
3.5130002 1.5711935 0.8756814 0
3.5160003 1.5671313 0.876136 0
3.5180001 1.5625423 0.87643898 0
3.5200002 1.5579462 0.87674212 0
3.5220003 1.5533431 0.87704515 0
3.5230002 1.5482219 0.87719661 0
3.5250003 1.543606 0.8774997 0
3.5270002 1.5389827 0.87780273 0
3.4820004 1.6551572 0.86542499 0
3.4840002 1.6506981 0.86572444 0
3.4860003 1.6462319 0.8660239 0
3.4880002 1.6417583 0.86632329 0
3.4840002 1.5950686 0.86572444 0
3.4880002 1.5916269 0.86632329 0
3.4920003 1.5881709 0.86692214 0
3.4970002 1.585227 0.86767077 0
3.5010002 1.5817403 0.86826956 0
3.5050004 1.5782392 0.86886847 0
3.5090003 1.5747235 0.86946738 0
3.5130002 1.5711935 0.87006617 0
3.5160003 1.5671313 0.87051535 0
3.5180001 1.5625423 0.87081474 0
3.5200002 1.5579462 0.87111425 0
3.5220003 1.5533431 0.87141359 0
3.5230002 1.5482219 0.87156332 0
3.5250003 1.543606 0.87186277 0
3.5270002 1.5389827 0.87216222 0
3.4820004 1.6551572 0.85986567 0
3.4840002 1.6506981 0.86016148 0
3.4860003 1.6462319 0.8604573 0
3.4880002 1.6417583 0.86075306 0
3.4840002 1.5950686 0.86016148 0
3.4880002 1.5916269 0.86075306 0
3.4920003 1.5881709 0.86134481 0
3.4970002 1.585227 0.86208433 0
3.5010002 1.5817403 0.86267602 0
3.5050004 1.5782392 0.86326766 0
3.5090003 1.5747235 0.8638593 0
3.5130002 1.5711935 0.86445093 0
3.5160003 1.5671313 0.86489463 0
3.5180001 1.5625423 0.86519045 0
3.5200002 1.5579462 0.86548632 0
3.5220003 1.5533431 0.86578214 0
3.5230002 1.5482219 0.86593002 0
3.5250003 1.543606 0.8662259 0
3.5270002 1.5389827 0.86652172 0
3.4820004 1.6551572 0.85430634 0
3.4840002 1.6506981 0.85459852 0
3.4860003 1.6462319 0.85489076 0
3.4880002 1.6417583 0.85518295 0
3.4840002 1.5950686 0.85459852 0
3.4880002 1.5916269 0.85518295 0
3.4920003 1.5881709 0.85576743 0
3.4970002 1.585227 0.85649794 0
3.5010002 1.5817403 0.85708237 0
3.5050004 1.5782392 0.85766685 0
3.5090003 1.5747235 0.85825121 0
3.5130002 1.5711935 0.8588357 0
3.5160003 1.5671313 0.85927403 0
3.5180001 1.5625423 0.85956621 0
3.5200002 1.5579462 0.85985845 0
3.5220003 1.5533431 0.86015069 0
3.5230002 1.5482219 0.86029673 0
3.5250003 1.543606 0.86058897 0
3.5270002 1.5389827 0.86088121 0
3.4820004 1.6551572 0.84874701 0
3.4840002 1.6506981 0.84903556 0
3.4860003 1.6462319 0.84932423 0
3.4880002 1.6417583 0.84961283 0
3.4840002 1.5950686 0.84903556 0
3.4880002 1.5916269 0.84961283 0
3.4920003 1.5881709 0.85019004 0
3.4970002 1.585227 0.8509115 0
3.5010002 1.5817403 0.85148871 0
3.5050004 1.5782392 0.85206604 0
3.5090003 1.5747235 0.85264319 0
3.5130002 1.5711935 0.8532204 0
3.5160003 1.5671313 0.85365331 0
3.5180001 1.5625423 0.85394192 0
3.5200002 1.5579462 0.85423052 0
3.5220003 1.5533431 0.85451913 0
3.5230002 1.5482219 0.85466349 0
3.5250003 1.543606 0.8549521 0
3.5270002 1.5389827 0.8552407 0
3.4820004 1.6551572 0.84318769 0
3.4840002 1.6506981 0.8434726 0
3.4860003 1.6462319 0.84375763 0
3.4880002 1.6417583 0.84404266 0
3.4840002 1.5950686 0.8434726 0
3.4880002 1.5916269 0.84404266 0
3.4920003 1.5881709 0.84461266 0
3.4970002 1.585227 0.84532511 0
3.5010002 1.5817403 0.84589517 0
3.5050004 1.5782392 0.84646517 0
3.5090003 1.5747235 0.84703517 0
3.5130002 1.5711935 0.84760517 0
3.5160003 1.5671313 0.84803271 0
3.5180001 1.5625423 0.84831762 0
3.5200002 1.5579462 0.84860265 0
3.5220003 1.5533431 0.84888768 0
3.5230002 1.5482219 0.84903014 0
3.5250003 1.543606 0.84931517 0
3.5270002 1.5389827 0.8496002 0
3.4820004 1.6551572 0.83762836 0
3.4840002 1.6506981 0.8379097 0
3.4860003 1.6462319 0.83819115 0
3.4880002 1.6417583 0.83847249 0
3.4840002 1.5950686 0.8379097 0
3.4880002 1.5916269 0.83847249 0
3.4920003 1.5881709 0.83903527 0
3.4970002 1.585227 0.83973873 0
3.5010002 1.5817403 0.84030151 0
3.5050004 1.5782392 0.8408643 0
3.5090003 1.5747235 0.84142709 0
3.5130002 1.5711935 0.84198987 0
3.5160003 1.5671313 0.84241199 0
3.5180001 1.5625423 0.84269339 0
3.5200002 1.5579462 0.84297478 0
3.5220003 1.5533431 0.84325624 0
3.5230002 1.5482219 0.8433969 0
3.5250003 1.543606 0.84367824 0
3.5270002 1.5389827 0.84395969 0
3.4820004 1.6551572 0.83206898 0
3.4840002 1.6506981 0.83234674 0
3.4860003 1.6462319 0.83262455 0
3.4880002 1.6417583 0.83290231 0
3.4840002 1.5950686 0.83234674 0
3.4880002 1.5916269 0.83290231 0
3.4920003 1.5881709 0.83345789 0
3.4970002 1.585227 0.83415234 0
3.5010002 1.5817403 0.83470792 0
3.5050004 1.5782392 0.83526349 0
3.5090003 1.5747235 0.83581913 0
3.5130002 1.5711935 0.83637464 0
3.5160003 1.5671313 0.83679134 0
3.5180001 1.5625423 0.83706909 0
3.5200002 1.5579462 0.83734691 0
3.5220003 1.5533431 0.83762467 0
3.5230002 1.5482219 0.83776355 0
3.5250003 1.543606 0.83804137 0
3.5270002 1.5389827 0.83831918 0
3.4820004 1.6551572 0.82650965 0
3.4840002 1.6506981 0.82678378 0
3.4860003 1.6462319 0.82705796 0
3.4880002 1.6417583 0.82733214 0
3.4840002 1.5950686 0.82678378 0
3.4880002 1.5916269 0.82733214 0
3.4920003 1.5881709 0.8278805 0
3.4970002 1.585227 0.82856596 0
3.5010002 1.5817403 0.82911432 0
3.5050004 1.5782392 0.82966268 0
3.5090003 1.5747235 0.83021104 0
3.5130002 1.5711935 0.83075941 0
3.5160003 1.5671313 0.83117068 0
3.5180001 1.5625423 0.83144486 0
3.5200002 1.5579462 0.83171904 0
3.5220003 1.5533431 0.83199322 0
3.5230002 1.5482219 0.83213031 0
3.5250003 1.543606 0.83240449 0
3.5270002 1.5389827 0.83267868 0
3.4820004 1.6551572 0.82095027 0
3.4840002 1.6506981 0.82122087 0
3.4860003 1.6462319 0.82149142 0
3.4880002 1.6417583 0.82176197 0
3.4840002 1.5950686 0.82122087 0
3.4880002 1.5916269 0.82176197 0
3.4920003 1.5881709 0.82230318 0
3.4970002 1.585227 0.82297957 0
3.5010002 1.5817403 0.82352072 0
3.5050004 1.5782392 0.82406187 0
3.5090003 1.5747235 0.82460302 0
3.5130002 1.5711935 0.82514417 0
3.5160003 1.5671313 0.82554996 0
3.5180001 1.5625423 0.82582057 0
3.5200002 1.5579462 0.82609117 0
3.5220003 1.5533431 0.82636172 0
3.5230002 1.5482219 0.82649696 0
3.5250003 1.543606 0.82676756 0
3.5270002 1.5389827 0.82703817 0
3.4820004 1.6551572 0.81539094 0
3.4840002 1.6506981 0.81565791 0
3.4860003 1.6462319 0.81592488 0
3.4880002 1.6417583 0.81619179 0
3.4840002 1.5950686 0.81565791 0
3.4880002 1.5916269 0.81619179 0
3.4930003 1.5886993 0.81685925 0
3.4970002 1.585227 0.81739318 0
3.5010002 1.5817403 0.81792712 0
3.5050004 1.5782392 0.81846106 0
3.5090003 1.5747235 0.818995 0
3.5130002 1.5711935 0.81952894 0
3.5160003 1.5671313 0.81992936 0
3.5180001 1.5625423 0.82019627 0
3.5200002 1.5579462 0.82046324 0
3.5220003 1.5533431 0.82073021 0
3.5230002 1.5482219 0.82086372 0
3.5250003 1.543606 0.82113063 0
3.5270002 1.5389827 0.82139766 0
3.4820004 1.6551572 0.80983162 0
3.4840002 1.6506981 0.81009495 0
3.4860003 1.6462319 0.81035835 0
3.4880002 1.6417583 0.81062168 0
3.4840002 1.5950686 0.81009495 0
3.4880002 1.5916269 0.81062168 0
3.4930003 1.5886993 0.81128007 0
3.4970002 1.585227 0.8118068 0
3.5010002 1.5817403 0.81233346 0
3.5050004 1.5782392 0.81286025 0
3.5090003 1.5747235 0.81338692 0
3.5130002 1.5711935 0.81391358 0
3.5160003 1.5671313 0.81430864 0
3.5180001 1.5625423 0.81457198 0
3.5200002 1.5579462 0.81483537 0
3.5220003 1.5533431 0.81509876 0
3.5230002 1.5482219 0.81523037 0
3.5250003 1.543606 0.81549376 0
3.5270002 1.5389827 0.81575716 0
3.4820004 1.6551572 0.80427229 0
3.4840002 1.6506981 0.80453205 0
3.4860003 1.6462319 0.80479181 0
3.4880002 1.6417583 0.80505151 0
3.4840002 1.5950686 0.80453205 0
3.4880002 1.5916269 0.80505151 0
3.4930003 1.5886993 0.8057009 0
3.4970002 1.585227 0.80622041 0
3.5010002 1.5817403 0.80673987 0
3.5050004 1.5782392 0.80725938 0
3.5090003 1.5747235 0.80777889 0
3.5130002 1.5711935 0.80829835 0
3.5160003 1.5671313 0.80868804 0
3.5180001 1.5625423 0.80894774 0
3.5200002 1.5579462 0.8092075 0
3.5220003 1.5533431 0.80946726 0
3.5230002 1.5482219 0.80959713 0
3.5250003 1.543606 0.80985689 0
3.5270002 1.5389827 0.81011665 0
3.4820004 1.6551572 0.79871297 0
3.4840002 1.6506981 0.79896903 0
3.4860003 1.6462319 0.79922521 0
3.4880002 1.6417583 0.79948133 0
3.4840002 1.5950686 0.79896903 0
3.4880002 1.5916269 0.79948133 0
3.4930003 1.5886993 0.80012172 0
3.4970002 1.585227 0.80063403 0
3.5010002 1.5817403 0.80114627 0
3.5050004 1.5782392 0.80165857 0
3.5090003 1.5747235 0.80217087 0
3.5130002 1.5711935 0.80268312 0
3.5160003 1.5671313 0.80306733 0
3.5180001 1.5625423 0.80332351 0
3.5200002 1.5579462 0.80357957 0
3.5220003 1.5533431 0.80383575 0
3.5230002 1.5482219 0.80396384 0
3.5250003 1.543606 0.80421996 0
3.5270002 1.5389827 0.80447614 0
3.4820004 1.6551572 0.79315364 0
3.4840002 1.6506981 0.79340613 0
3.4860003 1.6462319 0.79365867 0
3.4880002 1.6417583 0.79391122 0
3.4840002 1.5950686 0.79340613 0
3.4880002 1.5916269 0.79391122 0
3.4930003 1.5886993 0.79454255 0
3.4970002 1.585227 0.79504764 0
3.5010002 1.5817403 0.79555267 0
3.5050004 1.5782392 0.79605776 0
3.5090003 1.5747235 0.79656279 0
3.5130002 1.5711935 0.79706788 0
3.5160003 1.5671313 0.79744667 0
3.5180001 1.5625423 0.79769921 0
3.5200002 1.5579462 0.7979517 0
3.5220003 1.5533431 0.7982043 0
3.5230002 1.5482219 0.79833055 0
3.5250003 1.543606 0.79858303 0
3.5270002 1.5389827 0.79883558 0
3.4820004 1.6551572 0.78759432 0
3.4840002 1.6506981 0.78784317 0
3.4860003 1.6462319 0.78809214 0
3.4880002 1.6417583 0.78834105 0
3.4840002 1.5950686 0.78784317 0
3.4880002 1.5916269 0.78834105 0
3.4930003 1.5886993 0.78896332 0
3.4970002 1.585227 0.7894612 0
3.5010002 1.5817403 0.78995907 0
3.5050004 1.5782392 0.79045689 0
3.5090003 1.5747235 0.79095477 0
3.5130002 1.5711935 0.79145265 0
3.5160003 1.5671313 0.79182601 0
3.5180001 1.5625423 0.79207492 0
3.5200002 1.5579462 0.79232383 0
3.5220003 1.5533431 0.7925728 0
3.5230002 1.5482219 0.79269725 0
3.5250003 1.543606 0.79294616 0
3.5270002 1.5389827 0.79319507 0
3.4820004 1.6551572 0.78203493 0
3.4840002 1.6506981 0.78228021 0
3.4860003 1.6462319 0.78252554 0
3.4880002 1.6417583 0.78277087 0
3.4840002 1.5950686 0.78228021 0
3.4880002 1.5916269 0.78277087 0
3.4930003 1.5886993 0.7833842 0
3.4970002 1.585227 0.78387481 0
3.5010002 1.5817403 0.78436542 0
3.5050004 1.5782392 0.78485608 0
3.5090003 1.5747235 0.78534675 0
3.5130002 1.5711935 0.78583735 0
3.5160003 1.5671313 0.78620535 0
3.5180001 1.5625423 0.78645062 0
3.5200002 1.5579462 0.78669596 0
3.5220003 1.5533431 0.78694129 0
3.5230002 1.5482219 0.78706396 0
3.5250003 1.543606 0.78730929 0
3.5270002 1.5389827 0.78755456 0
3.4820004 1.6551572 0.77647561 0
3.4840002 1.6506981 0.77671731 0
3.4860003 1.6462319 0.776959 0
3.4880002 1.6417583 0.7772007 0
3.4840002 1.5950686 0.77671731 0
3.4880002 1.5916269 0.7772007 0
3.4930003 1.5886993 0.77780497 0
3.4970002 1.585227 0.77828842 0
3.5010002 1.5817403 0.77877182 0
3.5050004 1.5782392 0.77925527 0
3.5090003 1.5747235 0.77973866 0
3.5130002 1.5711935 0.78022212 0
3.5160003 1.5671313 0.78058469 0
3.5180001 1.5625423 0.78082633 0
3.5200002 1.5579462 0.78106809 0
3.5220003 1.5533431 0.78130984 0
3.5230002 1.5482219 0.78143066 0
3.5250003 1.543606 0.78167236 0
3.5270002 1.5389827 0.78191406 0
3.4820004 1.6551572 0.77091628 0
3.4840002 1.6506981 0.77115434 0
3.4860003 1.6462319 0.77139246 0
3.4880002 1.6417583 0.77163053 0
3.4840002 1.5950686 0.77115434 0
3.4880002 1.5916269 0.77163053 0
3.4930003 1.5886993 0.77222586 0
3.4970002 1.585227 0.77270198 0
3.5010002 1.5817403 0.77317822 0
3.5050004 1.5782392 0.77365446 0
3.5090003 1.5747235 0.77413064 0
3.5130002 1.5711935 0.77460682 0
3.5160003 1.5671313 0.77496397 0
3.5180001 1.5625423 0.77520204 0
3.5200002 1.5579462 0.77544022 0
3.5220003 1.5533431 0.77567828 0
3.5230002 1.5482219 0.77579737 0
3.5250003 1.543606 0.77603543 0
3.5270002 1.5389827 0.77627355 0
3.4820004 1.6551572 0.7653569 0
3.4840002 1.6506981 0.76559138 0
3.4860003 1.6462319 0.76582587 0
3.4880002 1.6417583 0.76606035 0
3.4840002 1.5950686 0.76559138 0
3.4880002 1.5916269 0.76606035 0
3.4930003 1.5886993 0.76664662 0
3.4970002 1.585227 0.76711559 0
3.5010002 1.5817403 0.76758462 0
3.5050004 1.5782392 0.76805365 0
3.5090003 1.5747235 0.76852262 0
3.5130002 1.5711935 0.76899159 0
3.5160003 1.5671313 0.76934338 0
3.5180001 1.5625423 0.7695778 0
3.5200002 1.5579462 0.76981235 0
3.5220003 1.5533431 0.77004683 0
3.5230002 1.5482219 0.77016407 0
3.5250003 1.543606 0.77039856 0
3.5270002 1.5389827 0.77063304 0
3.4820004 1.6551572 0.75979757 0
3.4840002 1.6506981 0.76002848 0
3.4860003 1.6462319 0.76025939 0
3.4880002 1.6417583 0.76049024 0
3.4840002 1.5950686 0.76002848 0
3.4880002 1.5916269 0.76049024 0
3.4930003 1.5886993 0.76106745 0
3.4970002 1.585227 0.76152921 0
3.5010002 1.5817403 0.76199102 0
3.5050004 1.5782392 0.76245284 0
3.5090003 1.5747235 0.76291454 0
3.5130002 1.5711935 0.76337636 0
3.5160003 1.5671313 0.76372266 0
3.5180001 1.5625423 0.76395357 0
3.5200002 1.5579462 0.76418447 0
3.5220003 1.5533431 0.76441532 0
3.5230002 1.5482219 0.76453078 0
3.5250003 1.543606 0.76476169 0
3.5270002 1.5389827 0.76499254 0
3.4820004 1.6551572 0.75423825 0
3.4840002 1.6506981 0.75446552 0
3.4860003 1.6462319 0.75469279 0
3.4880002 1.6417583 0.75492007 0
3.4840002 1.5950686 0.75446552 0
3.4880002 1.5916269 0.75492007 0
3.4930003 1.5886993 0.75548828 0
3.4970002 1.585227 0.75594282 0
3.5010002 1.5817403 0.75639737 0
3.5050004 1.5782392 0.75685197 0
3.5090003 1.5747235 0.75730658 0
3.5130002 1.5711935 0.75776106 0
3.5160003 1.5671313 0.758102 0
3.5180001 1.5625423 0.75832927 0
3.5200002 1.5579462 0.7585566 0
3.5220003 1.5533431 0.75878382 0
3.5230002 1.5482219 0.75889748 0
3.5250003 1.543606 0.75912476 0
3.5270002 1.5389827 0.75935203 0
3.4820004 1.6551572 0.74867892 0
3.4840002 1.6506981 0.74890256 0
3.4860003 1.6462319 0.74912626 0
3.4880002 1.6417583 0.74934995 0
3.4840002 1.5950686 0.74890256 0
3.4880002 1.5916269 0.74934995 0
3.4930003 1.5886993 0.7499091 0
3.4970002 1.585227 0.75035644 0
3.5010002 1.5817403 0.75080383 0
3.5050004 1.5782392 0.7512511 0
3.5090003 1.5747235 0.75169849 0
3.5130002 1.5711935 0.75214583 0
3.5160003 1.5671313 0.75248134 0
3.5180001 1.5625423 0.75270498 0
3.5200002 1.5579462 0.75292867 0
3.5220003 1.5533431 0.75315237 0
3.5230002 1.5482219 0.75326419 0
3.5250003 1.543606 0.75348783 0
3.5270002 1.5389827 0.75371152 0
3.4820004 1.6551572 0.7431196 0
3.4840002 1.6506981 0.74333966 0
3.4860003 1.6462319 0.74355972 0
3.4880002 1.6417583 0.74377978 0
3.4840002 1.5950686 0.74333966 0
3.4880002 1.5916269 0.74377978 0
3.4930003 1.5886993 0.74432993 0
3.4970002 1.585227 0.74477005 0
3.5010002 1.5817403 0.74521017 0
3.5050004 1.5782392 0.74565029 0
3.5090003 1.5747235 0.74609041 0
3.5130002 1.5711935 0.74653053 0
3.5160003 1.5671313 0.74686062 0
3.5180001 1.5625423 0.74708068 0
3.5200002 1.5579462 0.7473008 0
3.5220003 1.5533431 0.74752086 0
3.5230002 1.5482219 0.74763089 0
3.5250003 1.543606 0.74785101 0
3.5270002 1.5389827 0.74807101 0
3.4820004 1.6551572 0.73756027 0
3.4840002 1.6506981 0.7377767 0
3.4860003 1.6462319 0.73799312 0
3.4880002 1.6417583 0.73820961 0
3.4840002 1.5950686 0.7377767 0
3.4880002 1.5916269 0.73820961 0
3.4930003 1.5886993 0.73875076 0
3.4970002 1.585227 0.73918366 0
3.5010002 1.5817403 0.73961651 0
3.5050004 1.5782392 0.74004948 0
3.5090003 1.5747235 0.74048239 0
3.5130002 1.5711935 0.7409153 0
3.5160003 1.5671313 0.74124002 0
3.5180001 1.5625423 0.74145645 0
3.5200002 1.5579462 0.74167293 0
3.5220003 1.5533431 0.74188936 0
3.5230002 1.5482219 0.7419976 0
3.5250003 1.543606 0.74221408 0
3.5270002 1.5389827 0.74243051 0
3.4820004 1.6551572 0.73200095 0
3.4840002 1.6506981 0.73221374 0
3.4860003 1.6462319 0.73242658 0
3.4880002 1.6417583 0.73263943 0
3.4840002 1.5950686 0.73221374 0
3.4880002 1.5916269 0.73263943 0
3.4930003 1.5886993 0.73317158 0
3.4970002 1.585227 0.73359728 0
3.5010002 1.5817403 0.73402297 0
3.5050004 1.5782392 0.73444867 0
3.5090003 1.5747235 0.73487437 0
3.5130002 1.5711935 0.73530006 0
3.5160003 1.5671313 0.73561931 0
3.5180001 1.5625423 0.73583221 0
3.5200002 1.5579462 0.736045 0
3.5220003 1.5533431 0.73625791 0
3.5230002 1.5482219 0.73636431 0
3.5250003 1.543606 0.73657715 0
3.5270002 1.5389827 0.73679 0
3.4820004 1.6551572 0.72644156 0
3.4840002 1.6506981 0.72665083 0
3.4860003 1.6462319 0.72686005 0
3.4880002 1.6417583 0.72706926 0
3.4840002 1.5950686 0.72665083 0
3.4880002 1.5916269 0.72706926 0
3.4930003 1.5886993 0.72759241 0
3.4970002 1.585227 0.72801089 0
3.5010002 1.5817403 0.72842932 0
3.5050004 1.5782392 0.72884786 0
3.5090003 1.5747235 0.72926629 0
3.5130002 1.5711935 0.72968483 0
3.5160003 1.5671313 0.72999871 0
3.5180001 1.5625423 0.73020792 0
3.5200002 1.5579462 0.73041713 0
3.5220003 1.5533431 0.7306264 0
3.5230002 1.5482219 0.73073101 0
3.5250003 1.543606 0.73094028 0
3.5270002 1.5389827 0.73114949 0
3.4820004 1.6551572 0.72088224 0
3.4840002 1.6506981 0.72108781 0
3.4860003 1.6462319 0.72129345 0
3.4880002 1.6417583 0.72149909 0
3.4840002 1.5950686 0.72108781 0
3.4880002 1.5916269 0.72149909 0
3.4930003 1.5886993 0.72201324 0
3.4970002 1.585227 0.72242451 0
3.5010002 1.5817403 0.72283578 0
3.5050004 1.5782392 0.72324705 0
3.5090003 1.5747235 0.72365832 0
3.5130002 1.5711935 0.7240696 0
3.5160003 1.5671313 0.72437799 0
3.5180001 1.5625423 0.72458363 0
3.5200002 1.5579462 0.72478926 0
3.5220003 1.5533431 0.7249949 0
3.5230002 1.5482219 0.72509772 0
3.5250003 1.543606 0.72530341 0
3.5270002 1.5389827 0.72550893 0
3.4820004 1.6551572 0.71532285 0
3.4840002 1.6506981 0.71552491 0
3.4860003 1.6462319 0.71572697 0
3.4880002 1.6417583 0.71592897 0
3.4840002 1.5950686 0.71552491 0
3.4880002 1.5916269 0.71592897 0
3.4930003 1.5886993 0.716434 0
3.4970002 1.585227 0.71683812 0
3.5010002 1.5817403 0.71724212 0
3.5050004 1.5782392 0.71764624 0
3.5090003 1.5747235 0.71805024 0
3.5130002 1.5711935 0.71845424 0
3.5160003 1.5671313 0.71875733 0
3.5180001 1.5625423 0.71895933 0
3.5200002 1.5579462 0.71916139 0
3.5220003 1.5533431 0.71936345 0
3.5230002 1.5482219 0.71946442 0
3.5250003 1.543606 0.71966648 0
3.5270002 1.5389827 0.71986842 0
3.4820004 1.6551572 0.70976353 0
3.4840002 1.6506981 0.70996201 0
3.4860003 1.6462319 0.71016037 0
3.4880002 1.6417583 0.71035874 0
3.4840002 1.5950686 0.70996201 0
3.4880002 1.5916269 0.71035874 0
3.4930003 1.5886993 0.71085489 0
3.4970002 1.585227 0.71125168 0
3.5010002 1.5817403 0.71164852 0
3.5050004 1.5782392 0.71204537 0
3.5090003 1.5747235 0.71244222 0
3.5130002 1.5711935 0.71283901 0
3.5160003 1.5671313 0.71313667 0
3.5180001 1.5625423 0.7133351 0
3.5200002 1.5579462 0.71353352 0
3.5220003 1.5533431 0.71373188 0
3.5230002 1.5482219 0.71383119 0
3.5250003 1.543606 0.71402955 0
3.5270002 1.5389827 0.71422791 0
3.4820004 1.6551572 0.7042042 0
3.4840002 1.6506981 0.70439899 0
3.4860003 1.6462319 0.70459384 0
3.4880002 1.6417583 0.70478863 0
3.4840002 1.5950686 0.70439899 0
3.4880002 1.5916269 0.70478863 0
3.4930003 1.5886993 0.70527565 0
3.4970002 1.585227 0.70566529 0
3.5010002 1.5817403 0.70605493 0
3.5050004 1.5782392 0.70644456 0
3.5090003 1.5747235 0.7068342 0
3.5130002 1.5711935 0.70722377 0
3.5160003 1.5671313 0.70751601 0
3.5180001 1.5625423 0.7077108 0
3.5200002 1.5579462 0.70790565 0
3.5220003 1.5533431 0.70810044 0
3.5230002 1.5482219 0.70819783 0
3.5250003 1.543606 0.70839268 0
3.5270002 1.5389827 0.70858747 0
3.4820004 1.6551572 0.69864488 0
3.4840002 1.6506981 0.69883609 0
3.4860003 1.6462319 0.6990273 0
3.4880002 1.6417583 0.69921851 0
3.4840002 1.5950686 0.69883609 0
3.4880002 1.5916269 0.69921851 0
3.4930003 1.5886993 0.69969654 0
3.4970002 1.585227 0.7000789 0
3.5010002 1.5817403 0.70046127 0
3.5050004 1.5782392 0.70084369 0
3.5090003 1.5747235 0.70122612 0
3.5130002 1.5711935 0.70160854 0
3.5160003 1.5671313 0.70189536 0
3.5180001 1.5625423 0.70208651 0
3.5200002 1.5579462 0.70227772 0
3.5220003 1.5533431 0.70246899 0
3.5230002 1.5482219 0.7025646 0
3.5250003 1.543606 0.70275581 0
3.5270002 1.5389827 0.70294696 0
3.4820004 1.6551572 0.69308555 0
3.4840002 1.6506981 0.69327313 0
3.4860003 1.6462319 0.6934607 0
3.4880002 1.6417583 0.69364834 0
3.4840002 1.5950686 0.69327313 0
3.4880002 1.5916269 0.69364834 0
3.4930003 1.5886993 0.69411731 0
3.4970002 1.585227 0.69449252 0
3.5010002 1.5817403 0.69486767 0
3.5050004 1.5782392 0.69524288 0
3.5090003 1.5747235 0.69561809 0
3.5130002 1.5711935 0.6959933 0
3.5160003 1.5671313 0.69627464 0
3.5180001 1.5625423 0.69646227 0
3.5200002 1.5579462 0.69664985 0
3.5220003 1.5533431 0.69683743 0
3.5230002 1.5482219 0.69693124 0
3.5250003 1.543606 0.69711888 0
3.5270002 1.5389827 0.69730645 0
3.4820004 1.6551572 0.68752623 0
3.4840002 1.6506981 0.68771017 0
3.4860003 1.6462319 0.68789423 0
3.4880002 1.6417583 0.68807817 0
3.4840002 1.5950686 0.68771017 0
3.4880002 1.5916269 0.68807817 0
3.4930003 1.5886993 0.68853813 0
3.4970002 1.585227 0.68890607 0
3.5010002 1.5817403 0.68927407 0
3.5050004 1.5782392 0.68964207 0
3.5090003 1.5747235 0.69001007 0
3.5130002 1.5711935 0.69037801 0
3.5160003 1.5671313 0.69065404 0
3.5180001 1.5625423 0.69083798 0
3.5200002 1.5579462 0.69102198 0
3.5220003 1.5533431 0.69120598 0
3.5230002 1.5482219 0.69129801 0
3.5250003 1.543606 0.69148195 0
3.5270002 1.5389827 0.69166595 0
3.4820004 1.6551572 0.6819669 0
3.4840002 1.6506981 0.68214726 0
3.4860003 1.6462319 0.68232763 0
3.4880002 1.6417583 0.68250799 0
3.4840002 1.5950686 0.68214726 0
3.4880002 1.5916269 0.68250799 0
3.4930003 1.5886993 0.68295896 0
3.4970002 1.585227 0.68331969 0
3.5010002 1.5817403 0.68368047 0
3.5050004 1.5782392 0.68404126 0
3.5090003 1.5747235 0.68440199 0
3.5130002 1.5711935 0.68476278 0
3.5160003 1.5671313 0.68503332 0
3.5180001 1.5625423 0.68521369 0
3.5200002 1.5579462 0.68539405 0
3.5220003 1.5533431 0.68557447 0
3.5230002 1.5482219 0.68566465 0
3.5250003 1.543606 0.68584508 0
3.5270002 1.5389827 0.68602544 0
3.4820004 1.6551572 0.67640752 0
3.4840002 1.6506981 0.6765843 0
3.4860003 1.6462319 0.67676103 0
3.4880002 1.6417583 0.67693782 0
3.4840002 1.5950686 0.6765843 0
3.4880002 1.5916269 0.67693782 0
3.4930003 1.5886993 0.67737979 0
3.4970002 1.585227 0.6777333 0
3.5010002 1.5817403 0.67808688 0
3.5050004 1.5782392 0.67844045 0
3.5090003 1.5747235 0.67879397 0
3.5130002 1.5711935 0.67914748 0
3.5160003 1.5671313 0.67941266 0
3.5180001 1.5625423 0.67958939 0
3.5200002 1.5579462 0.67976618 0
3.5220003 1.5533431 0.67994297 0
3.5230002 1.5482219 0.68003142 0
3.5250003 1.543606 0.68020821 0
3.5270002 1.5389827 0.68038493 0
3.4820004 1.6551572 0.67084819 0
3.4840002 1.6506981 0.67102134 0
3.4860003 1.6462319 0.67119455 0
3.4880002 1.6417583 0.67136765 0
3.4840002 1.5950686 0.67102134 0
3.4880002 1.5916269 0.67136765 0
3.4930003 1.5886993 0.67180061 0
3.4970002 1.585227 0.67214692 0
3.5010002 1.5817403 0.67249322 0
3.5050004 1.5782392 0.67283958 0
3.5090003 1.5747235 0.67318594 0
3.5130002 1.5711935 0.67353225 0
3.5160003 1.5671313 0.673792 0
3.5180001 1.5625423 0.67396516 0
3.5200002 1.5579462 0.67413831 0
3.5220003 1.5533431 0.67431152 0
3.5230002 1.5482219 0.67439806 0
3.5250003 1.543606 0.67457128 0
3.5270002 1.5389827 0.67474443 0
3.4820004 1.6551572 0.66528887 0
3.4840002 1.6506981 0.66545838 0
3.4860003 1.6462319 0.66562796 0
3.4880002 1.6417583 0.66579747 0
3.4840002 1.5950686 0.66545838 0
3.4880002 1.5916269 0.66579747 0
3.4930003 1.5886993 0.66622138 0
3.4970002 1.585227 0.66656053 0
3.5010002 1.5817403 0.66689968 0
3.5050004 1.5782392 0.66723877 0
3.5090003 1.5747235 0.66757786 0
3.5130002 1.5711935 0.66791701 0
3.5160003 1.5671313 0.66817135 0
3.5180001 1.5625423 0.66834092 0
3.5200002 1.5579462 0.66851044 0
3.5220003 1.5533431 0.66868001 0
3.5230002 1.5482219 0.66876483 0
3.5250003 1.543606 0.66893435 0
3.5270002 1.5389827 0.66910392 0
3.4820004 1.6551572 0.65972954 0
3.4840002 1.6506981 0.65989542 0
3.4860003 1.6462319 0.66006142 0
3.4880002 1.6417583 0.66022736 0
3.4840002 1.5950686 0.65989542 0
3.4880002 1.5916269 0.66022736 0
3.4930003 1.5886993 0.66064227 0
3.4970002 1.585227 0.66097414 0
3.5010002 1.5817403 0.66130602 0
3.5050004 1.5782392 0.66163796 0
3.5090003 1.5747235 0.66196984 0
3.5130002 1.5711935 0.66230178 0
3.5160003 1.5671313 0.66255069 0
3.5180001 1.5625423 0.66271663 0
3.5200002 1.5579462 0.66288257 0
3.5220003 1.5533431 0.66304851 0
3.5230002 1.5482219 0.66313148 0
3.5250003 1.543606 0.66329747 0
3.5270002 1.5389827 0.66346341 0
3.4820004 1.6551572 0.65417016 0
3.4840002 1.6506981 0.65433252 0
3.4860003 1.6462319 0.65449488 0
3.4880002 1.6417583 0.65465724 0
3.4840002 1.5950686 0.65433252 0
3.4880002 1.5916269 0.65465724 0
3.4930003 1.5886993 0.65506303 0
3.4970002 1.585227 0.65538776 0
3.5010002 1.5817403 0.65571243 0
3.5050004 1.5782392 0.65603709 0
3.5090003 1.5747235 0.65636182 0
3.5130002 1.5711935 0.65668648 0
3.5160003 1.5671313 0.65692997 0
3.5180001 1.5625423 0.65709233 0
3.5200002 1.5579462 0.6572547 0
3.5220003 1.5533431 0.65741706 0
3.5230002 1.5482219 0.65749824 0
3.5250003 1.543606 0.6576606 0
3.5270002 1.5389827 0.65782291 0
3.4820004 1.6551572 0.64861083 0
3.4840002 1.6506981 0.64876956 0
3.4860003 1.6462319 0.64892828 0
3.4880002 1.6417583 0.64908707 0
3.4840002 1.5950686 0.64876956 0
3.4880002 1.5916269 0.64908707 0
3.4930003 1.5886993 0.64948392 0
3.4970002 1.585227 0.64980137 0
3.5010002 1.5817403 0.65011883 0
3.5050004 1.5782392 0.65043628 0
3.5090003 1.5747235 0.65075374 0
3.5130002 1.5711935 0.65107119 0
3.5160003 1.5671313 0.65130931 0
3.5180001 1.5625423 0.65146804 0
3.5200002 1.5579462 0.65162683 0
3.5220003 1.5533431 0.65178555 0
3.5230002 1.5482219 0.65186489 0
3.5250003 1.543606 0.65202367 0
3.5270002 1.5389827 0.65218234 0
3.4820004 1.6551572 0.64305151 0
3.4840002 1.6506981 0.6432066 0
3.4860003 1.6462319 0.64336181 0
3.4880002 1.6417583 0.6435169 0
3.4840002 1.5950686 0.6432066 0
3.4880002 1.5916269 0.6435169 0
3.4930003 1.5886993 0.64390469 0
3.4970002 1.585227 0.64421499 0
3.5010002 1.5817403 0.64452523 0
3.5050004 1.5782392 0.64483547 0
3.5090003 1.5747235 0.64514571 0
3.5130002 1.5711935 0.64545596 0
3.5160003 1.5671313 0.64568865 0
3.5180001 1.5625423 0.6458438 0
3.5200002 1.5579462 0.64599895 0
3.5220003 1.5533431 0.64615405 0
3.5230002 1.5482219 0.64623159 0
3.5250003 1.543606 0.64638674 0
3.5270002 1.5389827 0.64654183 0
3.4820004 1.6551572 0.63749218 0
3.4840002 1.6506981 0.63764369 0
3.4860003 1.6462319 0.63779521 0
3.4880002 1.6417583 0.63794672 0
3.4840002 1.5950686 0.63764369 0
3.4880002 1.5916269 0.63794672 0
3.4930003 1.5886993 0.63832551 0
3.4970002 1.585227 0.63862854 0
3.5010002 1.5817403 0.63893163 0
3.5050004 1.5782392 0.63923466 0
3.5090003 1.5747235 0.63953769 0
3.5130002 1.5711935 0.63984072 0
3.5160003 1.5671313 0.64006799 0
3.5180001 1.5625423 0.64021951 0
3.5200002 1.5579462 0.64037108 0
3.5220003 1.5533431 0.6405226 0
3.5230002 1.5482219 0.6405983 0
3.5250003 1.543606 0.64074987 0
3.5270002 1.5389827 0.64090133 0
3.4820004 1.6551572 0.63193285 0
3.4840002 1.6506981 0.63208073 0
3.4860003 1.6462319 0.63222867 0
3.4880002 1.6417583 0.63237655 0
3.4840002 1.5950686 0.63208073 0
3.4880002 1.5916269 0.63237655 0
3.4930003 1.5886993 0.63274634 0
3.4970002 1.585227 0.63304216 0
3.5010002 1.5817403 0.63333797 0
3.5050004 1.5782392 0.63363385 0
3.5090003 1.5747235 0.63392967 0
3.5130002 1.5711935 0.63422549 0
3.5160003 1.5671313 0.63444734 0
3.5180001 1.5625423 0.63459522 0
3.5200002 1.5579462 0.63474315 0
3.5220003 1.5533431 0.63489109 0
3.5230002 1.5482219 0.634965 0
3.5250003 1.543606 0.63511294 0
3.5270002 1.5389827 0.63526082 0
3.4820004 1.6551572 0.62637353 0
3.4840002 1.6506981 0.62651777 0
3.4860003 1.6462319 0.62666214 0
3.4880002 1.6417583 0.62680638 0
3.4840002 1.5950686 0.62651777 0
3.4880002 1.5916269 0.62680638 0
3.4930003 1.5886993 0.62716717 0
3.4970002 1.585227 0.62745577 0
3.5010002 1.5817403 0.62774438 0
3.5050004 1.5782392 0.62803304 0
3.5090003 1.5747235 0.62832159 0
3.5130002 1.5711935 0.62861019 0
3.5160003 1.5671313 0.62882668 0
3.5180001 1.5625423 0.62897098 0
3.5200002 1.5579462 0.62911528 0
3.5220003 1.5533431 0.62925959 0
3.5230002 1.5482219 0.62933171 0
3.5250003 1.543606 0.62947607 0
3.5270002 1.5389827 0.62962031 0
3.4820004 1.6551572 0.6208142 0
3.4840002 1.6506981 0.62095487 0
3.4860003 1.6462319 0.62109554 0
3.4880002 1.6417583 0.62123621 0
3.4840002 1.5950686 0.62095487 0
3.4880002 1.5916269 0.62123621 0
3.4930003 1.5886993 0.62158799 0
3.4970002 1.585227 0.62186939 0
3.5010002 1.5817403 0.62215078 0
3.5050004 1.5782392 0.62243217 0
3.5090003 1.5747235 0.62271357 0
3.5130002 1.5711935 0.62299496 0
3.5160003 1.5671313 0.62320602 0
3.5180001 1.5625423 0.62334669 0
3.5200002 1.5579462 0.62348741 0
3.5220003 1.5533431 0.62362814 0
3.5230002 1.5482219 0.62369847 0
3.5250003 1.543606 0.62383914 0
3.5270002 1.5389827 0.62397981 0
3.4820004 1.6551572 0.61525482 0
3.4840002 1.6506981 0.61539191 0
3.4860003 1.6462319 0.615529 0
3.4880002 1.6417583 0.61566609 0
3.4840002 1.5950686 0.61539191 0
3.4880002 1.5916269 0.61566609 0
3.4930003 1.5886993 0.61600882 0
3.4970002 1.585227 0.616283 0
3.5010002 1.5817403 0.61655718 0
3.5050004 1.5782392 0.61683136 0
3.5090003 1.5747235 0.61710554 0
3.5130002 1.5711935 0.61737972 0
3.5160003 1.5671313 0.6175853 0
3.5180001 1.5625423 0.61772239 0
3.5200002 1.5579462 0.61785948 0
3.5220003 1.5533431 0.61799663 0
3.5230002 1.5482219 0.61806512 0
3.5250003 1.543606 0.61820221 0
3.5270002 1.5389827 0.6183393 0
3.4820004 1.6551572 0.60969549 0
3.4840002 1.6506981 0.60982895 0
3.4860003 1.6462319 0.60996246 0
3.4880002 1.6417583 0.61009592 0
3.4840002 1.5950686 0.60982895 0
3.4880002 1.5916269 0.61009592 0
3.4930003 1.5886993 0.61042964 0
3.4970002 1.585227 0.61069661 0
3.5010002 1.5817403 0.61096358 0
3.5050004 1.5782392 0.61123055 0
3.5090003 1.5747235 0.61149752 0
3.5130002 1.5711935 0.61176443 0
3.5160003 1.5671313 0.6119647 0
3.5180001 1.5625423 0.61209816 0
3.5200002 1.5579462 0.61223161 0
3.5220003 1.5533431 0.61236513 0
3.5230002 1.5482219 0.61243188 0
3.5250003 1.543606 0.61256534 0
3.5270002 1.5389827 0.61269879 0
3.4820004 1.6551572 0.60413617 0
3.4840002 1.6506981 0.60426605 0
3.4860003 1.6462319 0.60439587 0
3.4880002 1.6417583 0.60452574 0
3.4840002 1.5950686 0.60426605 0
3.4880002 1.5916269 0.60452574 0
3.4930003 1.5886993 0.60485047 0
3.4970002 1.585227 0.60511017 0
3.5010002 1.5817403 0.60536993 0
3.5050004 1.5782392 0.60562968 0
3.5090003 1.5747235 0.60588944 0
3.5130002 1.5711935 0.6061492 0
3.5160003 1.5671313 0.60634398 0
3.5180001 1.5625423 0.60647386 0
3.5200002 1.5579462 0.60660374 0
3.5220003 1.5533431 0.60673362 0
3.5230002 1.5482219 0.60679859 0
3.5250003 1.543606 0.60692847 0
3.5270002 1.5389827 0.60705829 0
3.4820004 1.6551572 0.59857678 0
3.4840002 1.6506981 0.59870309 0
3.4860003 1.6462319 0.59882933 0
3.4880002 1.6417583 0.59895563 0
3.4840002 1.5950686 0.59870309 0
3.4880002 1.5916269 0.59895563 0
3.4930003 1.5886993 0.5992713 0
3.4970002 1.585227 0.59952378 0
3.5010002 1.5817403 0.59977633 0
3.5050004 1.5782392 0.60002887 0
3.5090003 1.5747235 0.60028142 0
3.5130002 1.5711935 0.60053396 0
3.5160003 1.5671313 0.60072333 0
3.5180001 1.5625423 0.60084963 0
3.5200002 1.5579462 0.60097587 0
3.5220003 1.5533431 0.60110211 0
3.5230002 1.5482219 0.60116529 0
3.5250003 1.543606 0.60129154 0
3.5270002 1.5389827 0.60141778 0
3.4820004 1.6551572 0.59301746 0
3.4840002 1.6506981 0.59314013 0
3.4860003 1.6462319 0.59326279 0
3.4880002 1.6417583 0.59338546 0
3.4840002 1.5950686 0.59314013 0
3.4880002 1.5916269 0.59338546 0
3.4930003 1.5886993 0.59369206 0
3.4970002 1.585227 0.5939374 0
3.5010002 1.5817403 0.59418273 0
3.5050004 1.5782392 0.59442806 0
3.5090003 1.5747235 0.5946734 0
3.5130002 1.5711935 0.59491867 0
3.5160003 1.5671313 0.59510267 0
3.5180001 1.5625423 0.59522533 0
3.5200002 1.5579462 0.595348 0
3.5220003 1.5533431 0.59547067 0
3.5230002 1.5482219 0.595532 0
3.5250003 1.543606 0.59565461 0
3.5270002 1.5389827 0.59577727 0
3.4820004 1.6551572 0.58745813 0
3.4840002 1.6506981 0.58757716 0
3.4860003 1.6462319 0.58769625 0
3.4880002 1.6417583 0.58781528 0
3.4840002 1.5950686 0.58757716 0
3.4880002 1.5916269 0.58781528 0
3.4930003 1.5886993 0.58811295 0
3.4970002 1.585227 0.58835101 0
3.5010002 1.5817403 0.58858913 0
3.5050004 1.5782392 0.58882725 0
3.5090003 1.5747235 0.58906531 0
3.5130002 1.5711935 0.58930343 0
3.5160003 1.5671313 0.58948201 0
3.5180001 1.5625423 0.58960104 0
3.5200002 1.5579462 0.58972013 0
3.5220003 1.5533431 0.58983916 0
3.5230002 1.5482219 0.58989871 0
3.5250003 1.543606 0.59001774 0
3.5270002 1.5389827 0.59013677 0
3.4820004 1.6551572 0.58189881 0
3.4840002 1.6506981 0.5820142 0
3.4860003 1.6462319 0.58212972 0
3.4880002 1.6417583 0.58224511 0
3.4840002 1.5950686 0.5820142 0
3.4880002 1.5916269 0.58224511 0
3.4930003 1.5886993 0.58253372 0
3.4970002 1.585227 0.58276463 0
3.5010002 1.5817403 0.58299553 0
3.5050004 1.5782392 0.58322644 0
3.5090003 1.5747235 0.58345729 0
3.5130002 1.5711935 0.58368814 0
3.5160003 1.5671313 0.58386135 0
3.5180001 1.5625423 0.58397675 0
3.5200002 1.5579462 0.58409226 0
3.5220003 1.5533431 0.58420765 0
3.5230002 1.5482219 0.58426541 0
3.5250003 1.543606 0.58438087 0
3.5270002 1.5389827 0.58449626 0
3.4820004 1.6551572 0.57633948 0
3.4840002 1.6506981 0.5764513 0
3.4860003 1.6462319 0.57656312 0
3.4880002 1.6417583 0.57667494 0
3.4840002 1.5950686 0.5764513 0
3.4880002 1.5916269 0.57667494 0
3.4930003 1.5886993 0.57695454 0
3.4970002 1.585227 0.57717824 0
3.5010002 1.5817403 0.57740188 0
3.5050004 1.5782392 0.57762557 0
3.5090003 1.5747235 0.57784927 0
3.5130002 1.5711935 0.57807291 0
3.5160003 1.5671313 0.57824069 0
3.5180001 1.5625423 0.57835251 0
3.5200002 1.5579462 0.57846433 0
3.5220003 1.5533431 0.57857621 0
3.5230002 1.5482219 0.57863212 0
3.5250003 1.543606 0.57874393 0
3.5270002 1.5389827 0.57885575 0
3.4820004 1.6551572 0.57078016 0
3.4840002 1.6506981 0.57088834 0
3.4860003 1.6462319 0.57099658 0
3.4880002 1.6417583 0.57110476 0
3.4840002 1.5950686 0.57088834 0
3.4880002 1.5916269 0.57110476 0
3.4930003 1.5886993 0.57137537 0
3.4970002 1.585227 0.57159185 0
3.5010002 1.5817403 0.57180828 0
3.5050004 1.5782392 0.57202476 0
3.5090003 1.5747235 0.57224119 0
3.5130002 1.5711935 0.57245767 0
3.5160003 1.5671313 0.57262003 0
3.5180001 1.5625423 0.57272822 0
3.5200002 1.5579462 0.57283646 0
3.5220003 1.5533431 0.5729447 0
3.5230002 1.5482219 0.57299882 0
3.5250003 1.543606 0.57310706 0
3.5270002 1.5389827 0.57321525 0
3.4820004 1.6551572 0.56522077 0
3.4840002 1.6506981 0.56532538 0
3.4860003 1.6462319 0.56543005 0
3.4880002 1.6417583 0.56553465 0
3.4840002 1.5950686 0.56532538 0
3.4880002 1.5916269 0.56553465 0
3.4930003 1.5886993 0.5657962 0
3.4970002 1.585227 0.56600547 0
3.5010002 1.5817403 0.56621468 0
3.5050004 1.5782392 0.56642389 0
3.5090003 1.5747235 0.56663316 0
3.5130002 1.5711935 0.56684244 0
3.5160003 1.5671313 0.56699932 0
3.5180001 1.5625423 0.56710398 0
3.5200002 1.5579462 0.56720859 0
3.5220003 1.5533431 0.56731319 0
3.5230002 1.5482219 0.56736553 0
3.5250003 1.543606 0.56747013 0
3.5270002 1.5389827 0.56757474 0
3.4820004 1.6551572 0.55966145 0
3.4840002 1.6506981 0.55976248 0
3.4860003 1.6462319 0.55986345 0
3.4880002 1.6417583 0.55996448 0
3.4840002 1.5950686 0.55976248 0
3.4880002 1.5916269 0.55996448 0
3.4930003 1.5886993 0.56021702 0
3.4970002 1.585227 0.56041908 0
3.5010002 1.5817403 0.56062108 0
3.5050004 1.5782392 0.56082308 0
3.5090003 1.5747235 0.56102514 0
3.5130002 1.5711935 0.56122714 0
3.5160003 1.5671313 0.56137866 0
3.5180001 1.5625423 0.56147969 0
3.5200002 1.5579462 0.56158066 0
3.5220003 1.5533431 0.56168175 0
3.5230002 1.5482219 0.56173223 0
3.5250003 1.543606 0.56183326 0
3.5270002 1.5389827 0.56193423 0
