# .PCD v0.7 - Point Cloud Data file format
VERSION 0.7
FIELDS x y z intensity
SIZE 4 4 4 4
TYPE F F F F
COUNT 1 1 1 1
WIDTH 1457
HEIGHT 1
VIEWPOINT 0 0 0 1 0 0 0
POINTS 1457
DATA ascii
3.9440002 1.3859639 0.82591796 0
3.9490004 1.3815826 0.82651329 0
3.9180002 1.8069727 0.81647682 0
3.9160004 1.7995772 0.81624234 0
3.9160004 1.7932351 0.81624234 0
3.9160004 1.7868929 0.81624234 0
3.9170003 1.7810701 0.81635964 0
3.9190001 1.7757615 0.81659406 0
3.9210002 1.7704457 0.81682861 0
3.9240003 1.7656367 0.81718034 0
3.9270003 1.7608169 0.81753206 0
3.9300003 1.7559863 0.81788385 0
3.9350002 1.7521622 0.81847006 0
3.9390004 1.7478135 0.81893909 0
3.9370003 1.7404195 0.81870455 0
3.7490003 1.6213032 0.79666197 0
3.7480001 1.6147661 0.79654479 0
3.7470002 1.6082327 0.79642749 0
3.7480001 1.602688 0.79654479 0
3.7490003 1.5971394 0.79666197 0
3.7500002 1.5915873 0.79677927 0
3.7520003 1.5865186 0.79701376 0
3.7550004 1.5819279 0.79736549 0
3.7570002 1.5768429 0.79759997 0
3.7610002 1.572714 0.79806894 0
3.7640002 1.5680909 0.79842067 0
3.7690003 1.564413 0.79900694 0
3.7730002 1.5602407 0.79947591 0
3.7780004 1.5565286 0.80006218 0
3.7840002 1.5532708 0.80076563 0
3.7910004 1.5504624 0.80158639 0
3.7980003 1.5476285 0.80240715 0
3.8040001 1.5443022 0.8031106 0
3.8060002 1.5390929 0.80334508 0
3.8090003 1.5343398 0.80369687 0
3.8120003 1.5295759 0.8040486 0
3.8160002 1.5252613 0.80451763 0
3.8200002 1.5209321 0.8049866 0
3.8260002 1.5175012 0.80569005 0
3.8320003 1.5140487 0.80639356 0
3.8400002 1.5114801 0.80733156 0
3.9410002 1.4166882 0.81917357 0
3.9330003 1.4070108 0.81823558 0
3.9280002 1.3985906 0.8176493 0
3.9330003 1.3942652 0.81823558 0
3.9390004 1.3903275 0.81893909 0
3.9440002 1.3859639 0.8195253 0
3.9490004 1.3815826 0.82011151 0
3.9140003 1.804866 0.80966926 0
3.9130003 1.7980026 0.80955386 0
3.9130003 1.7916658 0.80955386 0
3.9140003 1.7858503 0.80966926 0
3.9150002 1.7800311 0.80978471 0
3.9170003 1.7747262 0.81001562 0
3.9200003 1.7699299 0.81036198 0
3.9230003 1.7651227 0.81070828 0
3.9260004 1.7603048 0.81105459 0
3.9300003 1.7559863 0.8115164 0
3.9340003 1.7516537 0.8119781 0
3.9390004 1.7478135 0.81255537 0
3.7470002 1.6263448 0.79039013 0
3.7450004 1.6193119 0.79015929 0
3.7440002 1.612782 0.79004383 0
3.7450004 1.6072445 0.79015929 0
3.7450004 1.6012106 0.79015929 0
3.7470002 1.5961581 0.79039013 0
3.7480001 1.5906096 0.79050559 0
3.7510002 1.5860316 0.79085195 0
3.7530003 1.5809574 0.79108286 0
3.7570002 1.5768429 0.79154456 0
3.7600002 1.5722325 0.79189092 0
3.7640002 1.5680909 0.79235268 0
3.7680004 1.563935 0.79281449 0
3.7740002 1.5607169 0.7935071 0
3.7790003 1.5570029 0.79408437 0
3.7850003 1.5537435 0.79477704 0
3.7920003 1.5509331 0.79558516 0
3.8010004 1.5490355 0.79662418 0
3.8040001 1.5443022 0.79697049 0
3.8060002 1.5390929 0.79720134 0
3.8090003 1.5343398 0.7975477 0
3.8120003 1.5295759 0.797894 0
3.8160002 1.5252613 0.79835582 0
3.8200002 1.5209321 0.79881752 0
3.8260002 1.5175012 0.79951024 0
3.8320003 1.5140487 0.80020285 0
3.8400002 1.5114801 0.80112642 0
3.9410002 1.4166882 0.81278622 0
3.9330003 1.4070108 0.81186271 0
3.9280002 1.3985906 0.8112855 0
3.9330003 1.3942652 0.81186271 0
3.9390004 1.3903275 0.81255537 0
3.9440002 1.3859639 0.81313258 0
3.9490004 1.3815826 0.81370986 0
3.9110003 1.8096189 0.80298972 0
3.9100003 1.8027592 0.80287611 0
3.9100003 1.7964278 0.80287611 0
3.9100003 1.7900965 0.80287611 0
3.9120002 1.7848076 0.80310345 0
3.9140003 1.7795117 0.80333066 0
3.9160004 1.7742085 0.80355799 0
3.9190001 1.7694138 0.80389887 0
3.9220002 1.7646085 0.80423975 0
3.9250002 1.7597924 0.80458069 0
3.9300003 1.7559863 0.80514896 0
3.9340003 1.7516537 0.8056035 0
3.9390004 1.7478135 0.80617166 0
3.7450004 1.6313794 0.78412557 0
3.7430003 1.6243463 0.78389823 0
3.7420003 1.6178184 0.78378463 0
3.7420003 1.6117899 0.78378463 0
3.7420003 1.6057616 0.78378463 0
3.7430003 1.6002257 0.78389823 0
3.7450004 1.5951769 0.78412557 0
3.7470002 1.5901208 0.78435278 0
3.7490003 1.5850575 0.78458011 0
3.7530003 1.5809574 0.78503466 0
3.7560003 1.5763595 0.7853756 0
3.7600002 1.5722325 0.78583014 0
3.7640002 1.5680909 0.78628469 0
3.7690003 1.564413 0.7868529 0
3.7740002 1.5607169 0.78742111 0
3.7800002 1.5574772 0.78810292 0
3.7860003 1.5542159 0.78878474 0
3.7940001 1.5518745 0.78969389 0
3.8030002 1.5499734 0.79071665 0
3.8040001 1.5443022 0.79083025 0
3.8060002 1.5390929 0.79105759 0
3.8090003 1.5343398 0.79139853 0
3.8120003 1.5295759 0.7917394 0
3.8160002 1.5252613 0.79219401 0
3.8200002 1.5209321 0.79264855 0
3.8260002 1.5175012 0.79333037 0
3.8320003 1.5140487 0.79401219 0
3.8400002 1.5114801 0.79492128 0
3.9410002 1.4166882 0.80639899 0
3.9330003 1.4070108 0.80548984 0
3.9280002 1.3985906 0.80492163 0
3.9330003 1.3942652 0.80548984 0
3.9390004 1.3903275 0.80617166 0
3.9440002 1.3859639 0.80673987 0
3.9490004 1.3815826 0.80730808 0
3.9090002 1.8148915 0.79643291 0
3.9070003 1.8075049 0.79620922 0
3.9070003 1.8011791 0.79620922 0
3.9070003 1.7948531 0.79620922 0
3.9080002 1.7890502 0.79632103 0
3.9100003 1.7837651 0.79654479 0
3.9120002 1.7784727 0.79676843 0
3.9150002 1.7736908 0.79710394 0
3.9180002 1.768898 0.79743946 0
3.9210002 1.7640945 0.79777491 0
3.9250002 1.7597924 0.7982223 0
3.9290004 1.755476 0.7986697 0
3.9340003 1.7516537 0.79922885 0
3.7410002 1.6293734 0.7776444 0
3.7390003 1.6223477 0.77742082 0
3.7390003 1.6163248 0.77742082 0
3.7390003 1.6103019 0.77742082 0
3.7400002 1.6047732 0.77753264 0
3.7410002 1.5992408 0.7776444 0
3.7430003 1.5941956 0.77786815 0
3.7460003 1.589632 0.77820361 0
3.7490003 1.5850575 0.77853918 0
3.7520003 1.5804722 0.77887464 0
3.7550004 1.5758762 0.77921015 0
3.7590003 1.5717508 0.77965748 0
3.7640002 1.5680909 0.78021669 0
3.7690003 1.564413 0.7807759 0
3.7750003 1.5611931 0.78144693 0
3.7810001 1.5579516 0.7821179 0
3.7880003 1.5551612 0.78290075 0
3.7970002 1.553287 0.78390729 0
3.8030002 1.5499734 0.78457832 0
3.8040001 1.5443022 0.78469014 0
3.8060002 1.5390929 0.78491378 0
3.8090003 1.5343398 0.78524935 0
3.8120003 1.5295759 0.78558481 0
3.8160002 1.5252613 0.7860322 0
3.8200002 1.5209321 0.78647947 0
3.8260002 1.5175012 0.7871505 0
3.8320003 1.5140487 0.78782153 0
3.8400002 1.5114801 0.7887162 0
3.9410002 1.4166882 0.80001163 0
3.9330003 1.4070108 0.79911697 0
3.9280002 1.3985906 0.79855782 0
3.9330003 1.3942652 0.79911697 0
3.9390004 1.3903275 0.799788 0
3.9440002 1.3859639 0.80034721 0
3.9490004 1.3815826 0.80090636 0
3.9050002 1.8127704 0.7896632 0
3.9040003 1.8059193 0.78955323 0
3.9040003 1.7995988 0.78955323 0
3.9050002 1.7938032 0.7896632 0
3.9060004 1.788004 0.78977323 0
3.9080002 1.7827224 0.78999329 0
3.9110003 1.7779531 0.79032338 0
3.9140003 1.7731731 0.79065353 0
3.9170003 1.7683822 0.79098368 0
3.9210002 1.7640945 0.79142374 0
3.9250002 1.7597924 0.79186392 0
3.9290004 1.755476 0.79230404 0
3.9350002 1.7521622 0.79296422 0
3.7390003 1.6343935 0.77139789 0
3.7370002 1.6273676 0.77117777 0
3.7360003 1.6208488 0.7710678 0
3.7360003 1.6148312 0.7710678 0
3.7370002 1.6093097 0.77117777 0
3.7380002 1.6037846 0.7712878 0
3.7400002 1.5987484 0.77150786 0
3.7420003 1.5937049 0.77172798 0
3.7440002 1.5886543 0.77194804 0
3.7480001 1.5845704 0.7723881 0
3.7510002 1.5799869 0.77271825 0
3.7550004 1.5758762 0.77315843 0
3.7590003 1.5717508 0.77359855 0
3.7640002 1.5680909 0.7741487 0
3.7690003 1.564413 0.77469885 0
3.7760003 1.5616693 0.77546906 0
3.7830002 1.5589005 0.77623928 0
3.7900002 1.5561064 0.77700949 0
3.8010004 1.5551703 0.77821988 0
3.8030002 1.5499734 0.77843994 0
3.8040001 1.5443022 0.77854991 0
3.8060002 1.5390929 0.77877003 0
3.8090003 1.5343398 0.77910012 0
3.8120003 1.5295759 0.77943021 0
3.8160002 1.5252613 0.77987039 0
3.8200002 1.5209321 0.78031051 0
3.8260002 1.5175012 0.78097069 0
3.8320003 1.5140487 0.78163087 0
3.8400002 1.5114801 0.78251112 0
3.9410002 1.4166882 0.7936244 0
3.9330003 1.4070108 0.79274416 0
3.9280002 1.3985906 0.79219401 0
3.9330003 1.3942652 0.79274416 0
3.9390004 1.3903275 0.79340434 0
3.9440002 1.3859639 0.79395449 0
3.9490004 1.3815826 0.79450464 0
3.9020002 1.8174963 0.7830162 0
3.9010003 1.810649 0.78290796 0
3.9010003 1.8043339 0.78290796 0
3.9020002 1.7985455 0.7830162 0
3.9030004 1.7927535 0.78312445 0
3.9040003 1.7869577 0.78323269 0
3.9070003 1.7822012 0.78355736 0
3.9090002 1.7769141 0.78377378 0
3.9130003 1.7726555 0.78420675 0
3.9160004 1.7678663 0.78453141 0
3.9200003 1.7635804 0.78496432 0
3.9250002 1.7597924 0.78550541 0
3.9300003 1.7559863 0.78604662 0
3.7340002 1.6318772 0.76483381 0
3.7330003 1.6253618 0.76472557 0
3.7330003 1.6193497 0.76472557 0
3.7340002 1.6138355 0.76483381 0
3.7350004 1.6083176 0.76494205 0
3.7360003 1.6027961 0.76505029 0
3.7380002 1.5977634 0.76526672 0
3.7410002 1.5932143 0.76559138 0
3.7440002 1.5886543 0.76591611 0
3.7470002 1.5840834 0.76624078 0
3.7510002 1.5799869 0.76667368 0
3.7550004 1.5758762 0.76710665 0
3.7590003 1.5717508 0.7675395 0
3.7640002 1.5680909 0.76808071 0
3.7700002 1.564891 0.76873004 0
3.7770002 1.5621455 0.76948762 0
3.7850003 1.5598494 0.77035344 0
3.7940001 1.5579967 0.7713275 0
3.8020003 1.5556411 0.77219331 0
3.8030002 1.5499734 0.77230155 0
3.8040001 1.5443022 0.7724098 0
3.8060002 1.5390929 0.77262628 0
3.8090003 1.5343398 0.77295095 0
3.8120003 1.5295759 0.77327561 0
3.8160002 1.5252613 0.77370858 0
3.8200002 1.5209321 0.77414143 0
3.8260002 1.5175012 0.77479088 0
3.8320003 1.5140487 0.77544022 0
3.8400002 1.5114801 0.77630603 0
3.9410002 1.4166882 0.78723711 0
3.9330003 1.4070108 0.78637129 0
3.9280002 1.3985906 0.78583014 0
3.9330003 1.3942652 0.78637129 0
3.9390004 1.3903275 0.78702068 0
3.9440002 1.3859639 0.78756177 0
3.9490004 1.3815826 0.78810298 0
3.9000003 1.8227454 0.7764864 0
3.8990002 1.8159 0.77638 0
3.8980002 1.809058 0.77627355 0
3.8980002 1.8027483 0.77627355 0
3.8990002 1.7969652 0.77638 0
3.9010003 1.7917036 0.77659285 0
3.9030004 1.7864347 0.7768057 0
3.9060004 1.7816799 0.777125 0
3.9090002 1.7769141 0.77744424 0
3.9120002 1.7721376 0.77776349 0
3.9160004 1.7678663 0.77818918 0
3.9200003 1.7635804 0.77861488 0
3.9250002 1.7597924 0.77914703 0
3.7330003 1.637386 0.75871348 0
3.7310002 1.6303673 0.75850064 0
3.7300003 1.6238575 0.75839424 0
3.7310002 1.6183504 0.75850064 0
3.7310002 1.6123419 0.75850064 0
3.7330003 1.6073256 0.75871348 0
3.7350004 1.6023021 0.75892639 0
3.7370002 1.5972711 0.75913918 0
3.7400002 1.5927237 0.75945848 0
3.7430003 1.5881655 0.75977778 0
3.7460003 1.5835965 0.76009703 0
3.7500002 1.5795017 0.76052272 0
3.7550004 1.5758762 0.76105487 0
3.7600002 1.5722325 0.76158696 0
3.7650003 1.5685707 0.76211905 0
3.7710001 1.5653689 0.76275766 0
3.7790003 1.563098 0.76360905 0
3.7870002 1.560798 0.76446044 0
3.7980003 1.5598872 0.76563108 0
3.8020003 1.5556411 0.76605678 0
3.8030002 1.5499734 0.76616323 0
3.8040001 1.5443022 0.76626962 0
3.8060002 1.5390929 0.76648247 0
3.8090003 1.5343398 0.76680177 0
3.8120003 1.5295759 0.76712108 0
3.8160002 1.5252613 0.76754677 0
3.8200002 1.5209321 0.76797241 0
3.8260002 1.5175012 0.76861095 0
3.8320003 1.5140487 0.76924956 0
3.8400002 1.5114801 0.77010095 0
3.9410002 1.4166882 0.78084981 0
3.9330003 1.4070108 0.77999842 0
3.9280002 1.3985906 0.77946627 0
3.9330003 1.3942652 0.77999842 0
3.9380002 1.3899215 0.78053057 0
3.9440002 1.3859639 0.78116906 0
3.9490004 1.3815826 0.78170121 0
3.8960001 1.8206096 0.76975459 0
3.8950002 1.8137714 0.76964998 0
3.8950002 1.807467 0.76964998 0
3.8960001 1.8016912 0.76975459 0
3.8970003 1.7959119 0.76985925 0
3.8990002 1.7906538 0.77006841 0
3.9020002 1.7859116 0.77038234 0
3.9040003 1.7806373 0.77059156 0
3.9080002 1.7763946 0.77101004 0
3.9110003 1.77162 0.77132392 0
3.9150002 1.7673503 0.7717424 0
3.9200003 1.7635804 0.77226555 0
3.9250002 1.7597924 0.77278864 0
3.7310002 1.6423843 0.75249213 0
3.7290003 1.6353657 0.75228292 0
3.7280002 1.6288575 0.75217831 0
3.7280002 1.6228545 0.75217831 0
3.7280002 1.6168514 0.75217831 0
3.7290003 1.6113462 0.75228292 0
3.7310002 1.6063334 0.75249213 0
3.7330003 1.6013135 0.7527014 0
3.7360003 1.5967786 0.75301528 0
3.7390003 1.5922331 0.75332916 0
3.7420003 1.5876766 0.75364304 0
3.7460003 1.5835965 0.75406146 0
3.7500002 1.5795017 0.75447994 0
3.7550004 1.5758762 0.75500309 0
3.7600002 1.5722325 0.75552619 0
3.7660003 1.5690504 0.75615388 0
3.7730002 1.5663249 0.75688624 0
3.7810001 1.5640503 0.75772321 0
3.7900002 1.5622213 0.75866479 0
3.8020003 1.5617776 0.75992024 0
3.8020003 1.5556411 0.75992024 0
3.8030002 1.5499734 0.76002485 0
3.8040001 1.5443022 0.76012945 0
3.8060002 1.5390929 0.76033872 0
3.8090003 1.5343398 0.7606526 0
3.8120003 1.5295759 0.76096642 0
3.8160002 1.5252613 0.76138496 0
3.8200002 1.5209321 0.76180339 0
3.8260002 1.5175012 0.76243114 0
3.8320003 1.5140487 0.7630589 0
3.8400002 1.5114801 0.76389581 0
3.9410002 1.4166882 0.77446252 0
3.9330003 1.4070108 0.77362561 0
3.9280002 1.3985906 0.77310246 0
3.9330003 1.3942652 0.77362561 0
3.9380002 1.3899215 0.7741487 0
3.9440002 1.3859639 0.7747764 0
3.9490004 1.3815826 0.77529955 0
3.8940003 1.8258442 0.76324284 0
3.8930004 1.8190079 0.76314008 0
3.8920002 1.8121749 0.7630372 0
3.8930004 1.8064066 0.76314008 0
3.8940003 1.8006343 0.76324284 0
3.8960001 1.7953851 0.76344848 0
3.8980002 1.7901288 0.76365411 0
3.9000003 1.7848654 0.76385975 0
3.9040003 1.7806373 0.76427102 0
3.9070003 1.7758752 0.76457953 0
3.9110003 1.77162 0.76499075 0
3.9150002 1.7673503 0.76540202 0
3.9200003 1.7635804 0.76591611 0
3.7260003 1.63985 0.74596959 0
3.7250001 1.6333454 0.74586678 0
3.7250001 1.6273477 0.74586678 0
3.7250001 1.6213502 0.74586678 0
3.7260003 1.6158521 0.74596959 0
3.7280002 1.6108483 0.74617517 0
3.7300003 1.6058375 0.74638087 0
3.7320004 1.6008192 0.7465865 0
3.7350004 1.5962863 0.74689496 0
3.7380002 1.5917424 0.74720335 0
3.7420003 1.5876766 0.74761468 0
3.7460003 1.5835965 0.74802595 0
3.7500002 1.5795017 0.74843717 0
3.7550004 1.5758762 0.74895132 0
3.7610002 1.572714 0.74956816 0
3.7670002 1.5695302 0.75018507 0
3.7750003 1.567281 0.75100768 0
3.7830002 1.5650028 0.75183016 0
3.7950003 1.5645933 0.75306398 0
3.8020003 1.5617776 0.7537837 0
3.8020003 1.5556411 0.7537837 0
3.8030002 1.5499734 0.75388646 0
3.8040001 1.5443022 0.75398934 0
3.8060002 1.5390929 0.75419497 0
3.8090003 1.5343398 0.75450337 0
3.8120003 1.5295759 0.75481188 0
3.8160002 1.5252613 0.75522316 0
3.8200002 1.5209321 0.75563437 0
3.8260002 1.5175012 0.75625134 0
3.8320003 1.5140487 0.75686818 0
3.8400002 1.5114801 0.75769073 0
3.9410002 1.4166882 0.76807523 0
3.9330003 1.4070108 0.76725268 0
3.9280002 1.3985906 0.76673865 0
3.9330003 1.3942652 0.76725268 0
3.9380002 1.3899215 0.76776677 0
3.9440002 1.3859639 0.76838374 0
3.9490004 1.3815826 0.76889777 0
3.8900003 1.8237013 0.7565363 0
3.8890002 1.8168721 0.75643528 0
3.8900003 1.8111107 0.7565363 0
3.8910003 1.8053457 0.75663733 0
3.8920002 1.7995771 0.75673831 0
3.8940003 1.7943318 0.75694036 0
3.8960001 1.789079 0.75714236 0
3.8990002 1.7843422 0.75744539 0
3.9030004 1.780116 0.75784945 0
3.9060004 1.7753557 0.75815248 0
3.9110003 1.77162 0.75865757 0
3.9150002 1.7673503 0.75906163 0
3.7250001 1.6453408 0.73986912 0
3.7230003 1.6383294 0.73966706 0
3.7220004 1.6318303 0.73956609 0
3.7220004 1.625838 0.73956609 0
3.7230003 1.6203473 0.73966706 0
3.7240002 1.6148528 0.73976809 0
3.7260003 1.6098527 0.73997009 0
3.7280002 1.6048453 0.74017215 0
3.7310002 1.6003249 0.74047518 0
3.7340002 1.5957937 0.74077821 0
3.7370002 1.5912519 0.74108124 0
3.7410002 1.5871878 0.74148536 0
3.7450004 1.5831095 0.74188936 0
3.7500002 1.5795017 0.74239445 0
3.7560003 1.5763595 0.74300051 0
3.7620003 1.5731957 0.74360663 0
3.7690003 1.57049 0.74431372 0
3.7770002 1.5682369 0.74512178 0
3.7870002 1.5669075 0.7461319 0
3.8030002 1.5683885 0.74774814 0
3.8020003 1.5617776 0.74764717 0
3.8020003 1.5556411 0.74764717 0
3.8030002 1.5499734 0.74774814 0
3.8040001 1.5443022 0.74784917 0
3.8060002 1.5390929 0.74805117 0
3.8090003 1.5343398 0.7483542 0
3.8120003 1.5295759 0.74865723 0
3.8160002 1.5252613 0.74906135 0
3.8200002 1.5209321 0.74946535 0
3.8260002 1.5175012 0.75007141 0
3.8320003 1.5140487 0.75067753 0
3.8400002 1.5114801 0.75148559 0
3.9410002 1.4166882 0.76168799 0
3.9330003 1.4070108 0.76087987 0
3.9280002 1.3985906 0.76037478 0
3.9330003 1.3942652 0.76087987 0
3.9380002 1.3899215 0.76138496 0
3.9440002 1.3859639 0.76199102 0
3.9490004 1.3815826 0.76249611 0
3.8880002 1.8289216 0.75004256 0
3.8860002 1.8215584 0.74984419 0
3.8870003 1.8158044 0.74994338 0
3.8870003 1.8095144 0.74994338 0
3.8890002 1.804285 0.7501418 0
3.8900003 1.7985202 0.75024104 0
3.8930004 1.793805 0.75053865 0
3.8950002 1.7885542 0.75073707 0
3.8990002 1.7843422 0.75113392 0
3.9020002 1.7795945 0.75143147 0
3.9060004 1.7753557 0.75182837 0
3.9100003 1.7711023 0.75222522 0
3.9160004 1.7678663 0.75282049 0
3.7200003 1.6427975 0.73337543 0
3.7190003 1.6363019 0.73327619 0
3.7190003 1.6303151 0.73327619 0
3.7200003 1.6248314 0.73337543 0
3.7210002 1.6193442 0.73347461 0
3.7220004 1.6138536 0.73357385 0
3.7250001 1.6093547 0.73387146 0
3.7270002 1.6043493 0.73406982 0
3.7300003 1.5998307 0.73436749 0
3.7330003 1.5953014 0.7346651 0
3.7370002 1.5912519 0.73506194 0
3.7410002 1.5871878 0.73545879 0
3.7460003 1.5835965 0.73595488 0
3.7510002 1.5799869 0.73645091 0
3.7570002 1.5768429 0.73704612 0
3.7630002 1.5736773 0.73764139 0
3.7710001 1.5714495 0.73843503 0
3.7800002 1.569671 0.73932797 0
3.7930002 1.5697647 0.74061769 0
3.8030002 1.5683885 0.74160981 0
3.8020003 1.5617776 0.74151063 0
3.8020003 1.5556411 0.74151063 0
3.8030002 1.5499734 0.74160981 0
3.8040001 1.5443022 0.74170899 0
3.8060002 1.5390929 0.74190736 0
3.8090003 1.5343398 0.74220502 0
3.8120003 1.5295759 0.74250269 0
3.8160002 1.5252613 0.74289954 0
3.8200002 1.5209321 0.74329633 0
3.8260002 1.5175012 0.7438916 0
3.8320003 1.5140487 0.74448687 0
3.8400002 1.5114801 0.7452805 0
3.9410002 1.4166882 0.75530064 0
3.9330003 1.4070108 0.75450706 0
3.9280002 1.3985906 0.75401098 0
3.9330003 1.3942652 0.75450706 0
3.9380002 1.3899215 0.75500309 0
3.9440002 1.3859639 0.75559831 0
3.9490004 1.3815826 0.75609434 0
3.8850002 1.8335952 0.74345869 0
3.8840003 1.8267714 0.74336129 0
3.8840003 1.8204869 0.74336129 0
3.8840003 1.8142024 0.74336129 0
3.8850002 1.8084502 0.74345869 0
3.8870003 1.8032246 0.74365354 0
3.8890002 1.7979916 0.74384832 0
3.8910003 1.7927517 0.74404311 0
3.8940003 1.7880292 0.74433529 0
3.8980002 1.7838191 0.74472499 0
3.9020002 1.7795945 0.74511456 0
3.9060004 1.7753557 0.74550426 0
3.9110003 1.77162 0.74599123 0
3.7180002 1.647765 0.72719193 0
3.7170002 1.6412714 0.72709453 0
3.7160003 1.6347814 0.72699714 0
3.7170002 1.629305 0.72709453 0
3.7180002 1.623825 0.72719193 0
3.7190003 1.6183414 0.72728932 0
3.7210002 1.6133538 0.72748411 0
3.7230003 1.6083592 0.72767901 0
3.7260003 1.6038532 0.7279712 0
3.7290003 1.5993365 0.72826338 0
3.7320004 1.5948089 0.72855562 0
3.7370002 1.5912519 0.72904265 0
3.7410002 1.5871878 0.72943223 0
3.7460003 1.5835965 0.72991931 0
3.7510002 1.5799869 0.73040634 0
3.7580004 1.5773265 0.73108816 0
3.7650003 1.5746406 0.73177004 0
3.7730002 1.5724092 0.73254925 0
3.7840002 1.571583 0.7336207 0
3.8040001 1.575003 0.73556882 0
3.8030002 1.5683885 0.73547143 0
3.8020003 1.5617776 0.73537397 0
3.8020003 1.5556411 0.73537397 0
3.8030002 1.5499734 0.73547143 0
3.8040001 1.5443022 0.73556882 0
3.8060002 1.5390929 0.73576367 0
3.8090003 1.5343398 0.73605585 0
3.8120003 1.5295759 0.73634809 0
3.8160002 1.5252613 0.73673773 0
3.8200002 1.5209321 0.7371273 0
3.8260002 1.5175012 0.73771179 0
3.8320003 1.5140487 0.73829615 0
3.8400002 1.5114801 0.73907542 0
3.9410002 1.4166882 0.74891341 0
3.9330003 1.4070108 0.74813414 0
3.9280002 1.3985906 0.74764717 0
3.9330003 1.3942652 0.74813414 0
3.9380002 1.3899215 0.74862117 0
3.9440002 1.3859639 0.74920559 0
3.9490004 1.3815826 0.74969268 0
3.8810003 1.8314379 0.73679 0
3.8800004 1.8246213 0.73669446 0
3.8810003 1.8188797 0.73679 0
3.8820002 1.8131346 0.73688561 0
3.8830004 1.807386 0.73698121 0
3.8850002 1.802164 0.73717237 0
3.8870003 1.7969346 0.73736358 0
3.8900003 1.792225 0.73765039 0
3.8940003 1.7880292 0.73803282 0
3.8970003 1.7832961 0.73831964 0
3.9010003 1.7790734 0.73870206 0
3.7150002 1.6462337 0.72092009 0
3.7140002 1.6397454 0.72082448 0
3.7140002 1.6337675 0.72082448 0
3.7140002 1.6277897 0.72082448 0
3.7160003 1.6228185 0.72101569 0
3.7170002 1.6173384 0.7211113 0
3.7200003 1.6128542 0.72139812 0
3.7220004 1.6078613 0.72158933 0
3.7250001 1.6033571 0.72187614 0
3.7280002 1.5988421 0.7221629 0
3.7320004 1.5948089 0.72254533 0
3.7360003 1.5907612 0.72292775 0
3.7410002 1.5871878 0.72340572 0
3.7460003 1.5835965 0.72388375 0
3.7520003 1.5804722 0.72445738 0
3.7590003 1.5778098 0.72512662 0
3.7670002 1.5756037 0.72589135 0
3.7770002 1.5743284 0.72684741 0
3.7900002 1.5744511 0.72809023 0
3.8040001 1.575003 0.72942865 0
3.8030002 1.5683885 0.72933304 0
3.8020003 1.5617776 0.72923744 0
3.8020003 1.5556411 0.72923744 0
3.8030002 1.5499734 0.72933304 0
3.8040001 1.5443022 0.72942865 0
3.8060002 1.5390929 0.72961986 0
3.8090003 1.5343398 0.72990668 0
3.8120003 1.5295759 0.7301935 0
3.8160002 1.5252613 0.73057592 0
3.8200002 1.5209321 0.73095828 0
3.8260002 1.5175012 0.73153186 0
3.8320003 1.5140487 0.73210549 0
3.8400002 1.5114801 0.73287034 0
3.9410002 1.4166882 0.74252611 0
3.9330003 1.4070108 0.74176133 0
3.9280002 1.3985906 0.7412833 0
3.9330003 1.3942652 0.74176133 0
3.9380002 1.3899215 0.7422393 0
3.9440002 1.3859639 0.74281287 0
3.9490004 1.3815826 0.7432909 0
3.8790002 1.8366346 0.73032331 0
3.8780003 1.8298198 0.73022956 0
3.8780003 1.8235463 0.73022956 0
3.8780003 1.8172725 0.73022956 0
3.8800004 1.8120668 0.73041713 0
3.8810003 1.8063216 0.73051095 0
3.8840003 1.8016335 0.73079234 0
3.8860002 1.796406 0.73097992 0
3.8890002 1.7916981 0.73126137 0
3.8930004 1.7875043 0.73163652 0
3.7120004 1.6506765 0.71465909 0
3.7110002 1.6441916 0.71456528 0
3.7110002 1.6382194 0.71456528 0
3.7110002 1.632247 0.71456528 0
3.7120004 1.6267797 0.71465909 0
3.7140002 1.6218119 0.71484667 0
3.7160003 1.616837 0.71503425 0
3.7180002 1.6118548 0.71522188 0
3.7210002 1.6073633 0.71550322 0
3.7240002 1.602861 0.71578467 0
3.7280002 1.5988421 0.71615982 0
3.7320004 1.5948089 0.71653503 0
3.7360003 1.5907612 0.71691024 0
3.7410002 1.5871878 0.71737921 0
3.7470002 1.5840834 0.717942 0
3.7530003 1.5809574 0.71850479 0
3.7610002 1.5787767 0.71925521 0
3.7700002 1.5770485 0.72009933 0
3.7820003 1.5767275 0.72122496 0
3.8040001 1.575003 0.72328848 0
3.8030002 1.5683885 0.72319472 0
3.8020003 1.5617776 0.7231009 0
3.8020003 1.5556411 0.7231009 0
3.8030002 1.5499734 0.72319472 0
3.8040001 1.5443022 0.72328848 0
3.8060002 1.5390929 0.72347605 0
3.8090003 1.5343398 0.72375751 0
3.8120003 1.5295759 0.7240389 0
3.8160002 1.5252613 0.72441411 0
3.8200002 1.5209321 0.72478926 0
3.8260002 1.5175012 0.72535205 0
3.8320003 1.5140487 0.72591484 0
3.8400002 1.5114801 0.72666526 0
3.9410002 1.4166882 0.73613882 0
3.9330003 1.4070108 0.73538846 0
3.9280002 1.3985906 0.73491943 0
3.9330003 1.3942652 0.73538846 0
3.9380002 1.3899215 0.73585749 0
3.9440002 1.3859639 0.73642021 0
3.9490004 1.3815826 0.73688924 0
3.8750002 1.83447 0.7236799 0
3.8750002 1.8282018 0.7236799 0
3.8750002 1.8219336 0.7236799 0
3.8760002 1.8162011 0.72377193 0
3.8780003 1.8109989 0.72395587 0
3.8800004 1.8057896 0.72413993 0
3.8820002 1.8005729 0.72432387 0
3.6940002 1.6592807 0.70702899 0
3.6950002 1.6538547 0.70712095 0
3.6970003 1.6489394 0.70730495 0
3.6990004 1.6440169 0.70748895 0
3.7080002 1.6426603 0.70831692 0
3.7080002 1.6366932 0.70831692 0
3.7090003 1.6312333 0.70840889 0
3.7100003 1.6257695 0.70850086 0
3.7120004 1.6208055 0.70868492 0
3.7150002 1.6163355 0.70896083 0
3.7170002 1.6113552 0.70914483 0
3.7200003 1.6068656 0.7094208 0
3.7240002 1.602861 0.7097888 0
3.7280002 1.5988421 0.7101568 0
3.7320004 1.5948089 0.71052474 0
3.7370002 1.5912519 0.71098471 0
3.7420003 1.5876766 0.71144474 0
3.7480001 1.5845704 0.71199667 0
3.7550004 1.5819279 0.71264064 0
3.7630002 1.5797435 0.71337652 0
3.7730002 1.5784935 0.71429652 0
3.7920003 1.5815257 0.71604443 0
3.8040001 1.575003 0.7171483 0
3.8030002 1.5683885 0.71705633 0
3.8020003 1.5617776 0.71696436 0
3.8020003 1.5556411 0.71696436 0
3.8030002 1.5499734 0.71705633 0
3.8040001 1.5443022 0.7171483 0
3.8060002 1.5390929 0.71733236 0
3.8090003 1.5343398 0.71760833 0
3.8120003 1.5295759 0.7178843 0
3.8160002 1.5252613 0.7182523 0
3.8200002 1.5209321 0.71862024 0
3.8260002 1.5175012 0.71917224 0
3.8320003 1.5140487 0.71972418 0
3.8400002 1.5114801 0.72046012 0
3.9410002 1.4166882 0.72975153 0
3.9330003 1.4070108 0.72901559 0
3.9280002 1.3985906 0.72855562 0
3.9330003 1.3942652 0.72901559 0
3.9380002 1.3899215 0.72947556 0
3.9440002 1.3859639 0.73002756 0
3.9490004 1.3815826 0.73048747 0
3.8720002 1.8328468 0.71714115 0
3.8720002 1.8265839 0.71714115 0
3.8730001 1.8208584 0.71723127 0
3.8740003 1.8151296 0.71732152 0
3.6850002 1.6664724 0.70027554 0
3.6860003 1.6610664 0.70036572 0
3.6880002 1.6561744 0.70054609 0
3.6900003 1.6512754 0.70072651 0
3.6920002 1.646369 0.70090687 0
3.6940002 1.6414554 0.70108724 0
3.6970003 1.637045 0.70135784 0
3.7060003 1.635676 0.70216954 0
3.7070003 1.6302195 0.70225966 0
3.7090003 1.6252645 0.70244008 0
3.7110002 1.6203021 0.70262045 0
3.7130003 1.6153326 0.70280087 0
3.7160003 1.6108556 0.70307148 0
3.7190003 1.6063677 0.70334196 0
3.7230003 1.6023651 0.70370275 0
3.7270002 1.5983479 0.70406353 0
3.7320004 1.5948089 0.7045145 0
3.7370002 1.5912519 0.70496541 0
3.7430003 1.5881655 0.70550656 0
3.7490003 1.5850575 0.70604771 0
3.7570002 1.5828983 0.70676923 0
3.8080003 1.5830553 0.71136892 0
3.8040001 1.575003 0.71100819 0
3.8030002 1.5683885 0.71091795 0
3.8020003 1.5617776 0.71082783 0
3.8020003 1.5556411 0.71082783 0
3.8030002 1.5499734 0.71091795 0
3.8040001 1.5443022 0.71100819 0
3.8060002 1.5390929 0.71118855 0
3.8090003 1.5343398 0.71145916 0
3.8120003 1.5295759 0.71172971 0
3.8160002 1.5252613 0.71209049 0
3.8200002 1.5209321 0.71245122 0
3.8260002 1.5175012 0.71299231 0
3.8320003 1.5140487 0.71353352 0
3.8400002 1.5114801 0.71425498 0
3.9410002 1.4166882 0.72336423 0
3.9330003 1.4070108 0.72264278 0
3.9280002 1.3985906 0.72219181 0
3.9330003 1.3942652 0.72264278 0
3.9380002 1.3899215 0.72309369 0
3.9440002 1.3859639 0.72363484 0
3.9490004 1.3815826 0.72408581 0
3.6750002 1.6789818 0.69346613 0
3.6760004 1.6735994 0.69355452 0
3.6770003 1.6682131 0.69364291 0
3.6790001 1.6633446 0.69381964 0
3.6810002 1.6584688 0.69399643 0
3.6830003 1.653586 0.69417322 0
3.6860003 1.6492119 0.6944384 0
3.6880002 1.6443126 0.69461513 0
3.6910002 1.6399186 0.69488031 0
3.6940002 1.6355137 0.69514549 0
3.6970003 1.6310979 0.69541061 0
3.7060003 1.6297127 0.69620615 0
3.7070003 1.6242542 0.69629455 0
3.7100003 1.6197989 0.69655967 0
3.7120004 1.6148312 0.69673645 0
3.7150002 1.6103559 0.69700158 0
3.7190003 1.6063677 0.69735515 0
3.7230003 1.6023651 0.69770873 0
3.7270002 1.5983479 0.69806224 0
3.7320004 1.5948089 0.69850421 0
3.7380002 1.5917424 0.69903445 0
3.7440002 1.5886543 0.69956481 0
3.7510002 1.5860316 0.70018351 0
3.7590003 1.5838689 0.7008906 0
3.8080003 1.5830553 0.70522153 0
3.8040001 1.575003 0.70486802 0
3.8030002 1.5683885 0.70477962 0
3.8020003 1.5617776 0.70469129 0
3.8020003 1.5556411 0.70469129 0
3.8030002 1.5499734 0.70477962 0
3.8040001 1.5443022 0.70486802 0
3.8060002 1.5390929 0.70504481 0
3.8090003 1.5343398 0.70530993 0
3.8120003 1.5295759 0.70557511 0
3.8160002 1.5252613 0.70592868 0
3.8200002 1.5209321 0.7062822 0
3.8260002 1.5175012 0.7068125 0
3.8320003 1.5140487 0.70734286 0
3.8400002 1.5114801 0.70804989 0
3.9410002 1.4166882 0.716977 0
3.9330003 1.4070108 0.71626985 0
3.9280002 1.3985906 0.71582794 0
3.9330003 1.3942652 0.71626985 0
3.9380002 1.3899215 0.71671176 0
3.9440002 1.3859639 0.71724212 0
3.9490004 1.3815826 0.71768409 0
3.6670003 1.6865542 0.68686604 0
3.6670003 1.6806612 0.68686604 0
3.6680002 1.6752949 0.68695259 0
3.6700003 1.6704499 0.68712574 0
3.6720002 1.6655974 0.68729889 0
3.6740003 1.6607381 0.68747211 0
3.6770003 1.6563909 0.68773186 0
3.6790001 1.6515151 0.68790495 0
3.6820002 1.6471481 0.68816471 0
3.6850002 1.6427703 0.68842447 0
3.6880002 1.6383817 0.68868423 0
3.6910002 1.6339822 0.68894398 0
3.6950002 1.6300805 0.68929029 0
3.6980002 1.6256576 0.68955004 0
3.7070003 1.6242542 0.69032931 0
3.7090003 1.6192956 0.69050252 0
3.7120004 1.6148312 0.69076228 0
3.7150002 1.6103559 0.69102192 0
3.7180002 1.6058698 0.69128174 0
3.7230003 1.6023651 0.69171464 0
3.7280002 1.5988421 0.69214755 0
3.7330003 1.5953014 0.69258046 0
3.7390003 1.5922331 0.69309998 0
3.7450004 1.5891432 0.69361949 0
3.7530003 1.5870056 0.6943121 0
3.8080003 1.5830553 0.69907415 0
3.8040001 1.575003 0.69872785 0
3.8030002 1.5683885 0.6986413 0
3.8020003 1.5617776 0.69855464 0
3.8020003 1.5556411 0.69855464 0
3.8030002 1.5499734 0.6986413 0
3.8040001 1.5443022 0.69872785 0
3.8060002 1.5390929 0.698901 0
3.8090003 1.5343398 0.69916075 0
3.8120003 1.5295759 0.69942051 0
3.8160002 1.5252613 0.69976687 0
3.8200002 1.5209321 0.70011318 0
3.8260002 1.5175012 0.70063269 0
3.8320003 1.5140487 0.70115221 0
3.8400002 1.5114801 0.70184481 0
3.9410002 1.4166882 0.71058965 0
3.9330003 1.4070108 0.70989704 0
3.9280002 1.3985906 0.70946407 0
3.9330003 1.3942652 0.70989704 0
3.9380002 1.3899215 0.71032995 0
3.9440002 1.3859639 0.7108494 0
3.9490004 1.3815826 0.71128237 0
3.6580002 1.693535 0.68020999 0
3.6590002 1.6881902 0.68029475 0
3.6600003 1.682842 0.68037951 0
3.6610003 1.67749 0.68046427 0
3.6630003 1.6726613 0.68063384 0
3.6650002 1.6678252 0.68080342 0
3.6680002 1.6635051 0.68105775 0
3.6700003 1.658653 0.68122733 0
3.6730003 1.654313 0.6814816 0
3.6760004 1.6499622 0.68173599 0
3.6790001 1.6456004 0.68199033 0
3.6830003 1.6417422 0.68232942 0
3.6860003 1.6373571 0.68258381 0
3.6900003 1.6334717 0.68292284 0
3.6930003 1.6290632 0.68317723 0
3.6970003 1.6251507 0.68351638 0
3.7070003 1.6242542 0.68436408 0
3.7090003 1.6192956 0.68453372 0
3.7120004 1.6148312 0.68478805 0
3.7150002 1.6103559 0.68504238 0
3.7180002 1.6058698 0.68529665 0
3.7230003 1.6023651 0.68572056 0
3.7280002 1.5988421 0.68614447 0
3.7340002 1.5957937 0.68665314 0
3.7400002 1.5927237 0.6871618 0
3.7470002 1.5901208 0.68775529 0
3.7560003 1.5884668 0.68851829 0
3.8080003 1.5830553 0.69292676 0
3.8040001 1.575003 0.69258767 0
3.8030002 1.5683885 0.69250292 0
3.8020003 1.5617776 0.6924181 0
3.8020003 1.5556411 0.6924181 0
3.8030002 1.5499734 0.69250292 0
3.8040001 1.5443022 0.69258767 0
3.8060002 1.5390929 0.69275725 0
3.8090003 1.5343398 0.69301158 0
3.8120003 1.5295759 0.69326591 0
3.8160002 1.5252613 0.69360507 0
3.8200002 1.5209321 0.69394416 0
3.8260002 1.5175012 0.69445282 0
3.8320003 1.5140487 0.69496149 0
3.8400002 1.5114801 0.69563973 0
3.9410002 1.4166882 0.70420241 0
3.9330003 1.4070108 0.70352417 0
3.9280002 1.3985906 0.70310032 0
3.9330003 1.3942652 0.70352417 0
3.9380002 1.3899215 0.70394808 0
3.9440002 1.3859639 0.70445675 0
3.9490004 1.3815826 0.70488065 0
3.6490002 1.7004507 0.67358637 0
3.6500003 1.6951259 0.67366934 0
3.6510003 1.6897974 0.67375231 0
3.6530004 1.6849976 0.67391825 0
3.6550002 1.6801903 0.67408419 0
3.6570003 1.6753761 0.67425013 0
3.6590002 1.6705543 0.67441612 0
3.6620002 1.6662505 0.67466503 0
3.6640003 1.6614127 0.67483103 0
3.6670003 1.6570891 0.67507994 0
3.6710002 1.6532739 0.67541182 0
3.6740003 1.6489267 0.67566073 0
3.6770003 1.6445688 0.67590964 0
3.6810002 1.6407139 0.67624158 0
3.6840003 1.6363326 0.67649055 0
3.6880002 1.6324507 0.67682242 0
3.6920002 1.6285545 0.6771543 0
3.6960003 1.6246439 0.67748618 0
3.7010002 1.6212238 0.67790109 0
3.7100003 1.6197989 0.67864788 0
3.7120004 1.6148312 0.67881382 0
3.7160003 1.6108556 0.67914569 0
3.7190003 1.6063677 0.6793946 0
3.7230003 1.6023651 0.67972648 0
3.7280002 1.5988421 0.68014139 0
3.7340002 1.5957937 0.68063927 0
3.7410002 1.5932143 0.68122005 0
3.7490003 1.5910984 0.68188393 0
3.8080003 1.5830553 0.68677938 0
3.8040001 1.575003 0.6864475 0
3.8030002 1.5683885 0.68636453 0
3.8020003 1.5617776 0.68628156 0
3.8020003 1.5556411 0.68628156 0
3.8030002 1.5499734 0.68636453 0
3.8040001 1.5443022 0.6864475 0
3.8060002 1.5390929 0.68661344 0
3.8090003 1.5343398 0.68686241 0
3.8120003 1.5295759 0.68711132 0
3.8160002 1.5252613 0.68744326 0
3.8200002 1.5209321 0.68777514 0
3.8260002 1.5175012 0.68827295 0
3.8320003 1.5140487 0.68877083 0
3.8400002 1.5114801 0.68943465 0
3.9410002 1.4166882 0.69781512 0
3.9330003 1.4070108 0.6971513 0
3.9280002 1.3985906 0.69673645 0
3.9330003 1.3942652 0.6971513 0
3.9380002 1.3899215 0.69756615 0
3.9440002 1.3859639 0.69806403 0
3.9490004 1.3815826 0.69847894 0
3.6400003 1.7073016 0.66699529 0
3.6410003 1.7019967 0.66707641 0
3.6420002 1.6966879 0.66715759 0
3.6440003 1.6919116 0.66731995 0
3.6460001 1.6871278 0.66748226 0
3.6480002 1.6823369 0.66764462 0
3.6510003 1.6780691 0.66788816 0
3.6530004 1.673262 0.66805053 0
3.6560001 1.6689743 0.66829395 0
3.6590002 1.6646757 0.6685375 0
3.6620002 1.6603665 0.66878104 0
3.6650002 1.6560464 0.66902453 0
3.6680002 1.6517154 0.66926807 0
3.6720002 1.6478913 0.66959274 0
3.6760004 1.644053 0.66991746 0
3.6790001 1.6396858 0.67016095 0
3.6830003 1.6358204 0.67048562 0
3.6870003 1.6319404 0.67081034 0
3.6920002 1.6285545 0.67121613 0
3.6960003 1.6246439 0.67154086 0
3.7000003 1.6207188 0.67186558 0
3.7110002 1.6203021 0.67275846 0
3.7140002 1.6158341 0.67300195 0
3.7170002 1.6113552 0.67324543 0
3.7210002 1.6073633 0.67357016 0
3.7250001 1.6033571 0.67389482 0
3.7300003 1.5998307 0.67430067 0
3.7360003 1.5967786 0.6747877 0
3.7430003 1.5941956 0.67535591 0
3.8080003 1.5830553 0.68063205 0
3.8040001 1.575003 0.68030739 0
3.8030002 1.5683885 0.68022621 0
3.8020003 1.5617776 0.68014503 0
3.8020003 1.5556411 0.68014503 0
3.8030002 1.5499734 0.68022621 0
3.8040001 1.5443022 0.68030739 0
3.8060002 1.5390929 0.68046969 0
3.8090003 1.5343398 0.68071324 0
3.8120003 1.5295759 0.68095672 0
3.8160002 1.5252613 0.68128145 0
3.8200002 1.5209321 0.68160611 0
3.8260002 1.5175012 0.68209314 0
3.8320003 1.5140487 0.68258011 0
3.8400002 1.5114801 0.68322951 0
3.9410002 1.4166882 0.69142783 0
3.9330003 1.4070108 0.69077849 0
3.9280002 1.3985906 0.69037259 0
3.9330003 1.3942652 0.69077849 0
3.9380002 1.3899215 0.69118428 0
3.9440002 1.3859639 0.69167137 0
3.9490004 1.3815826 0.69207722 0
3.6320002 1.7146323 0.66051596 0
3.6320002 1.7088023 0.66051596 0
3.6340003 1.7040548 0.66067469 0
3.6350002 1.6987605 0.66075408 0
3.6370003 1.6940002 0.66091281 0
3.6390002 1.6892328 0.66107154 0
3.6420002 1.6849921 0.66130966 0
3.6440003 1.6802084 0.66146839 0
3.6470003 1.6759478 0.66170651 0
3.6500003 1.6716764 0.66194463 0
3.6530004 1.6673943 0.66218269 0
3.6560001 1.6631011 0.66242081 0
3.6600003 1.6593204 0.66273826 0
3.6630003 1.6550039 0.66297638 0
3.6670003 1.651196 0.66329384 0
3.6710002 1.6473737 0.66361129 0
3.6740003 1.6430211 0.66384941 0
3.6790001 1.6396858 0.6642462 0
3.6830003 1.6358204 0.66456372 0
3.6870003 1.6319404 0.66488123 0
3.6910002 1.6280458 0.66519868 0
3.6960003 1.6246439 0.66559553 0
3.7010002 1.6212238 0.66599232 0
3.7060003 1.6177859 0.66638917 0
3.7160003 1.616837 0.66718286 0
3.7190003 1.6123545 0.66742098 0
3.7230003 1.6083592 0.66773844 0
3.7270002 1.6043493 0.66805589 0
3.7320004 1.6008192 0.66845274 0
3.7380002 1.5977634 0.66892898 0
3.7460003 1.5956676 0.66956389 0
3.8080003 1.5830553 0.67448467 0
3.8040001 1.575003 0.67416716 0
3.8030002 1.5683885 0.67408782 0
3.8020003 1.5617776 0.67400849 0
3.8020003 1.5556411 0.67400849 0
3.8030002 1.5499734 0.67408782 0
3.8040001 1.5443022 0.67416716 0
3.8060002 1.5390929 0.67432594 0
3.8090003 1.5343398 0.674564 0
3.8120003 1.5295759 0.67480212 0
3.8160002 1.5252613 0.67511964 0
3.8200002 1.5209321 0.67543709 0
3.8260002 1.5175012 0.67591327 0
3.8320003 1.5140487 0.67638946 0
3.8400002 1.5114801 0.67702442 0
3.9410002 1.4166882 0.68504053 0
3.9330003 1.4070108 0.68440562 0
3.9280002 1.3985906 0.68400878 0
3.9330003 1.3942652 0.68440562 0
3.9380002 1.3899215 0.68480241 0
3.9440002 1.3859639 0.68527865 0
3.9490004 1.3815826 0.6856755 0
3.6230001 1.7213567 0.653988 0
3.6240003 1.7160898 0.65406555 0
3.6250002 1.7108191 0.6541431 0
3.6270003 1.7060877 0.65429831 0
3.6290002 1.701349 0.6544534 0
3.6310003 1.6966032 0.65460849 0
3.6330001 1.6918502 0.65476358 0
3.6360002 1.6876256 0.65499634 0
3.6380002 1.6828564 0.65515149 0
3.6410003 1.678612 0.65538418 0
3.6450002 1.6748872 0.65569437 0
3.6480002 1.6706194 0.65592706 0
3.6510003 1.6663407 0.65615976 0
3.6550002 1.6625761 0.65647006 0
3.6580002 1.6582742 0.65670276 0
3.6620002 1.6544825 0.65701294 0
3.6660004 1.6506765 0.65732324 0
3.6700003 1.646856 0.65763354 0
3.6740003 1.6430211 0.65794373 0
3.6780002 1.6391717 0.65825403 0
3.6830003 1.6358204 0.65864182 0
3.6870003 1.6319404 0.65895206 0
3.6920002 1.6285545 0.6593399 0
3.6970003 1.6251507 0.65972769 0
3.7020001 1.6217289 0.66011554 0
3.7070003 1.618289 0.66050339 0
3.7190003 1.6183414 0.66143411 0
3.7220004 1.6138536 0.66166681 0
3.7260003 1.6098527 0.66197705 0
3.7300003 1.6058375 0.66228729 0
3.7360003 1.6027961 0.66275275 0
3.7420003 1.5997334 0.66321808 0
3.8140004 1.5920817 0.66880268 0
3.8080003 1.5830553 0.66833729 0
3.8040001 1.575003 0.66802704 0
3.8030002 1.5683885 0.66794944 0
3.8020003 1.5617776 0.66787195 0
3.8020003 1.5556411 0.66787195 0
3.8030002 1.5499734 0.66794944 0
3.8040001 1.5443022 0.66802704 0
3.8060002 1.5390929 0.66818213 0
3.8090003 1.5343398 0.66841483 0
3.8120003 1.5295759 0.66864753 0
3.8160002 1.5252613 0.66895783 0
3.8200002 1.5209321 0.66926801 0
3.8260002 1.5175012 0.66973341 0
3.8320003 1.5140487 0.6701988 0
3.8400002 1.5114801 0.67081928 0
3.9410002 1.4166882 0.67865324 0
3.9330003 1.4070108 0.67803276 0
3.9280002 1.3985906 0.67764497 0
3.9330003 1.3942652 0.67803276 0
3.9380002 1.3899215 0.67842054 0
3.9440002 1.3859639 0.67888594 0
3.9490004 1.3815826 0.67927378 0
3.6150002 1.7285684 0.64756823 0
3.6150002 1.7227693 0.64756823 0
3.6170003 1.7180668 0.64771974 0
3.6180003 1.7128105 0.6477955 0
3.6200004 1.7080953 0.64794707 0
3.6220002 1.7033728 0.64809859 0
3.6250002 1.6991845 0.64832586 0
3.6270003 1.6944458 0.64847738 0
3.6300004 1.6902376 0.64870465 0
3.6330001 1.6860183 0.64893192 0
3.6360002 1.6817884 0.64915919 0
3.6390002 1.6775477 0.64938647 0
3.6420002 1.6732961 0.64961374 0
3.6460001 1.6695622 0.64991677 0
3.6500003 1.665814 0.65021986 0
3.6530004 1.6615263 0.65044713 0
3.6570003 1.6577511 0.65075016 0
3.6610003 1.6539612 0.65105319 0
3.6650002 1.6501569 0.65135622 0
3.6690001 1.6463382 0.65165925 0
3.6740003 1.6430211 0.6520381 0
3.6780002 1.6391717 0.65234113 0
3.6830003 1.6358204 0.65271991 0
3.6880002 1.6324507 0.6530987 0
3.6930003 1.6290632 0.65347755 0
3.6980002 1.6256576 0.65385634 0
3.7030003 1.6222341 0.65423512 0
3.7090003 1.6192956 0.65468967 0
3.7150002 1.6163355 0.65514421 0
3.7260003 1.6158521 0.65597761 0
3.7300003 1.6118441 0.65628064 0
3.7350004 1.6083176 0.65665942 0
3.7410002 1.6052673 0.65711403 0
3.8140004 1.5920817 0.66264451 0
3.8080003 1.5830553 0.66218996 0
3.8040001 1.575003 0.66188687 0
3.8030002 1.5683885 0.66181111 0
3.8020003 1.5617776 0.66173536 0
3.8020003 1.5556411 0.66173536 0
3.8030002 1.5499734 0.66181111 0
3.8040001 1.5443022 0.66188687 0
3.8060002 1.5390929 0.66203839 0
3.8090003 1.5343398 0.66226566 0
3.8120003 1.5295759 0.66249293 0
3.8160002 1.5252613 0.66279602 0
3.8200002 1.5209321 0.66309905 0
3.8260002 1.5175012 0.6635536 0
3.8320003 1.5140487 0.66400814 0
3.8400002 1.5114801 0.6646142 0
3.9410002 1.4166882 0.67226601 0
3.9330003 1.4070108 0.67165995 0
3.9280002 1.3985906 0.6712811 0
3.9330003 1.3942652 0.67165995 0
3.9380002 1.3899215 0.67203867 0
3.9440002 1.3859639 0.67249322 0
3.9490004 1.3815826 0.67287207 0
3.6070004 1.7299377 0.64117736 0
3.6080003 1.7247047 0.64125133 0
3.6100001 1.7200184 0.6413992 0
3.6120002 1.715325 0.64154708 0
3.6140003 1.7106242 0.64169502 0
3.6160002 1.7059162 0.64184296 0
3.6190002 1.701744 0.64206481 0
3.6210003 1.6970199 0.64221275 0
3.6240003 1.6928279 0.6424346 0
3.6270003 1.688625 0.64265645 0
3.6300004 1.6844113 0.64287835 0
3.6340003 1.6807207 0.64317417 0
3.6370003 1.6764835 0.64339602 0
3.6410003 1.672766 0.6436919 0
3.6450002 1.6690338 0.64398766 0
3.6480002 1.6647606 0.6442095 0
3.6520002 1.6610014 0.64450538 0
3.6570003 1.6577511 0.64487517 0
3.6610003 1.6539612 0.64517099 0
3.6650002 1.6501569 0.6454668 0
3.6700003 1.646856 0.64583659 0
3.6740003 1.6430211 0.64613241 0
3.6790001 1.6396858 0.64650214 0
3.6840003 1.6363326 0.64687198 0
3.6890004 1.6329613 0.64724177 0
3.6950002 1.6300805 0.64768547 0
3.7000003 1.6266714 0.64805526 0
3.7060003 1.6237493 0.64849901 0
3.7120004 1.6208055 0.64894271 0
3.7180002 1.6178398 0.64938647 0
3.7310002 1.6183504 0.65034789 0
3.7350004 1.6143334 0.65064377 0
3.8140004 1.5920817 0.65648627 0
3.8080003 1.5830553 0.65604258 0
3.8040001 1.575003 0.6557467 0
3.8030002 1.5683885 0.65567279 0
3.8020003 1.5617776 0.65559876 0
3.8020003 1.5556411 0.65559876 0
3.8030002 1.5499734 0.65567279 0
3.8040001 1.5443022 0.6557467 0
3.8060002 1.5390929 0.65589464 0
3.8090003 1.5343398 0.65611649 0
3.8120003 1.5295759 0.65633833 0
3.8160002 1.5252613 0.65663421 0
3.8200002 1.5209321 0.65692997 0
3.8260002 1.5175012 0.65737373 0
3.8320003 1.5140487 0.65781748 0
3.8400002 1.5114801 0.65840912 0
3.9410002 1.4166882 0.66587865 0
3.9330003 1.4070108 0.66528702 0
3.9280002 1.3985906 0.66491723 0
3.9330003 1.3942652 0.66528702 0
3.9380002 1.3899215 0.66565681 0
3.9440002 1.3859639 0.66610056 0
3.9490004 1.3815826 0.66647041 0
3.5980003 1.7364908 0.63474315 0
3.6000001 1.7318333 0.63488746 0
3.6010003 1.7266151 0.63495964 0
3.6030002 1.7219449 0.63510394 0
3.6050003 1.7172676 0.63524824 0
3.6080003 1.7131315 0.63546467 0
3.6100001 1.7084379 0.63560897 0
3.6130002 1.7042819 0.63582546 0
3.6160002 1.7001152 0.63604188 0
3.6190002 1.6959375 0.63625836 0
3.6220002 1.6917492 0.63647485 0
3.6250002 1.6875499 0.63669127 0
3.6290002 1.6838754 0.63697988 0
3.6320002 1.6796528 0.6371963 0
3.6360002 1.6759514 0.63748491 0
3.6400003 1.6722356 0.63777357 0
3.6440003 1.6685053 0.63806218 0
3.6480002 1.6647606 0.63835078 0
3.6520002 1.6610014 0.63863939 0
3.6560001 1.6572278 0.638928 0
3.6610003 1.6539612 0.63928878 0
3.6660004 1.6506765 0.63964951 0
3.6700003 1.646856 0.63993812 0
3.6750002 1.6435369 0.6402989 0
3.6800003 1.6401999 0.64065969 0
3.6860003 1.6373571 0.64109254 0
3.6910002 1.6339822 0.64145333 0
3.6970003 1.6310979 0.64188623 0
3.7030003 1.6281921 0.6423192 0
3.7090003 1.6252645 0.64275211 0
3.7160003 1.6228185 0.64325714 0
3.7230003 1.6203473 0.64376223 0
3.8140004 1.5920817 0.6503281 0
3.8080003 1.5830553 0.64989513 0
3.8040001 1.575003 0.64960653 0
3.8030002 1.5683885 0.6495344 0
3.8020003 1.5617776 0.64946222 0
3.8020003 1.5556411 0.64946222 0
3.8030002 1.5499734 0.6495344 0
3.8040001 1.5443022 0.64960653 0
3.8060002 1.5390929 0.64975083 0
3.8090003 1.5343398 0.64996731 0
3.8120003 1.5295759 0.6501838 0
3.8160002 1.5252613 0.65047234 0
3.8200002 1.5209321 0.65076101 0
3.8260002 1.5175012 0.65119392 0
3.8320003 1.5140487 0.65162683 0
3.8400002 1.5114801 0.65220404 0
3.9410002 1.4166882 0.65949142 0
3.9330003 1.4070108 0.65891421 0
3.9280002 1.3985906 0.65855348 0
3.9330003 1.3942652 0.65891421 0
3.9380002 1.3899215 0.65927494 0
3.9440002 1.3859639 0.6597079 0
3.9490004 1.3815826 0.66006863 0
3.5630002 1.7569208 0.62651241 0
3.5650003 1.7523516 0.62665308 0
3.5670002 1.7477753 0.62679374 0
3.5700002 1.7437565 0.6270048 0
3.5740004 1.7402897 0.6272862 0
3.5780003 1.7368084 0.62756765 0
3.5830002 1.7338717 0.62791932 0
3.5890002 1.7314745 0.62834144 0
3.5950003 1.7290555 0.62876356 0
3.5970004 1.7243999 0.62890422 0
3.5990002 1.7197371 0.62904489 0
3.6020002 1.7156172 0.62925601 0
3.6040003 1.7109381 0.62939668 0
3.6070004 1.7067984 0.62960774 0
3.6100001 1.7026477 0.6298188 0
3.6130002 1.6984863 0.6300298 0
3.6170003 1.6948555 0.63031125 0
3.6200004 1.6906706 0.63052225 0
3.6240003 1.6870124 0.63080364 0
3.6270003 1.6828041 0.6310147 0
3.6310003 1.6791189 0.6312961 0
3.6350002 1.6754192 0.63157749 0
3.6390002 1.6717052 0.63185889 0
3.6430004 1.6679769 0.63214028 0
3.6480002 1.6647606 0.63249201 0
3.6520002 1.6610014 0.6327734 0
3.6570003 1.6577511 0.63312519 0
3.6610003 1.6539612 0.63340652 0
3.6670003 1.651196 0.63382864 0
3.6720002 1.6478913 0.63418037 0
3.6770003 1.6445688 0.63453209 0
3.6820002 1.641228 0.63488388 0
3.6880002 1.6383817 0.63530594 0
3.6940002 1.6355137 0.635728 0
3.7000003 1.6326239 0.63615012 0
3.7070003 1.6302195 0.63664258 0
3.7140002 1.6277897 0.63713503 0
3.8140004 1.5920817 0.64416987 0
3.8080003 1.5830553 0.64374775 0
3.8040001 1.575003 0.64346635 0
3.8030002 1.5683885 0.64339602 0
3.8020003 1.5617776 0.64332569 0
3.8020003 1.5556411 0.64332569 0
3.8030002 1.5499734 0.64339602 0
3.8040001 1.5443022 0.64346635 0
3.8060002 1.5390929 0.64360708 0
3.8090003 1.5343398 0.64381814 0
3.8120003 1.5295759 0.64402914 0
3.8160002 1.5252613 0.64431053 0
3.8200002 1.5209321 0.64459193 0
3.8260002 1.5175012 0.64501405 0
3.8320003 1.5140487 0.64543617 0
3.8400002 1.5114801 0.64599895 0
3.9410002 1.4166882 0.65310413 0
3.9330003 1.4070108 0.65254134 0
3.9280002 1.3985906 0.65218961 0
3.9330003 1.3942652 0.65254134 0
3.9380002 1.3899215 0.65289307 0
3.9440002 1.3859639 0.65331519 0
3.9490004 1.3815826 0.65366691 0
3.5550003 1.7637427 0.62025857 0
3.5560002 1.7586235 0.62032712 0
3.5570002 1.7535007 0.62039566 0
3.5590003 1.7489425 0.62053275 0
3.5610003 1.7443771 0.62066984 0
3.5640001 1.740369 0.62087548 0
3.5670002 1.7363501 0.62108111 0
3.5710003 1.7328814 0.6213553 0
3.5760002 1.7299575 0.62169802 0
3.5810003 1.7270155 0.62204075 0
3.5880003 1.7251666 0.62252057 0
3.5930002 1.7221848 0.62286329 0
3.5960002 1.7180811 0.62306893 0
3.5990002 1.7139666 0.62327456 0
3.6020002 1.7098414 0.6234802 0
3.6050003 1.7057053 0.62368584 0
3.6080003 1.7015582 0.62389147 0
3.6120002 1.6979433 0.62416565 0
3.6150002 1.693773 0.62437129 0
3.6190002 1.6901311 0.62464547 0
3.6230001 1.6864748 0.62491959 0
3.6270003 1.6828041 0.62519383 0
3.6310003 1.6791189 0.62546802 0
3.6350002 1.6754192 0.6257422 0
3.6390002 1.6717052 0.62601632 0
3.6440003 1.6685053 0.62635911 0
3.6480002 1.6647606 0.62663323 0
3.6530004 1.6615263 0.62697601 0
3.6580002 1.6582742 0.62731868 0
3.6630003 1.6550039 0.62766141 0
3.6680002 1.6517154 0.62800413 0
3.6730003 1.6484091 0.62834686 0
3.6790001 1.6456004 0.62875813 0
3.6850002 1.6427703 0.6291694 0
3.6910002 1.6399186 0.62958068 0
3.6980002 1.6375556 0.63006049 0
3.7050002 1.6351672 0.63054025 0
3.8140004 1.5920817 0.63801169 0
3.8080003 1.5830553 0.63760042 0
3.8040001 1.575003 0.63732624 0
3.8030002 1.5683885 0.6372577 0
3.8020003 1.5617776 0.63718915 0
3.8020003 1.5556411 0.63718915 0
3.8030002 1.5499734 0.6372577 0
3.8040001 1.5443022 0.63732624 0
3.8060002 1.5390929 0.63746333 0
3.8090003 1.5343398 0.63766897 0
3.8120003 1.5295759 0.6378746 0
3.8160002 1.5252613 0.63814873 0
3.8200002 1.5209321 0.63842297 0
3.8260002 1.5175012 0.63883418 0
3.8320003 1.5140487 0.63924545 0
3.8400002 1.5114801 0.63979381 0
3.9410002 1.4166882 0.64671683 0
3.9330003 1.4070108 0.64616847 0
3.9280002 1.3985906 0.64582574 0
3.9330003 1.3942652 0.64616847 0
3.9380002 1.3899215 0.6465112 0
3.9440002 1.3859639 0.64692247 0
3.9490004 1.3815826 0.6472652 0
3.5500002 1.7665566 0.61423385 0
3.5500002 1.7608746 0.61423385 0
3.5510004 1.7557646 0.61430061 0
3.5530002 1.7512207 0.61443406 0
3.5540001 1.7461015 0.61450082 0
3.5570002 1.7421114 0.61470103 0
3.5590003 1.737546 0.61483455 0
3.5630002 1.7340989 0.61510152 0
3.5660002 1.7300764 0.61530173 0
3.5710003 1.7271615 0.61563545 0
3.5760002 1.7242285 0.61596912 0
3.5810003 1.7212775 0.61630285 0
3.5880003 1.719416 0.61677003 0
3.5940003 1.7169772 0.61717045 0
3.5970004 1.7128664 0.61737072 0
3.6000001 1.7087445 0.61757088 0
3.6030002 1.7046121 0.61777115 0
3.6070004 1.7010136 0.61803812 0
3.6100001 1.6968575 0.61823833 0
3.6140003 1.6932319 0.6185053 0
3.6180003 1.6895919 0.61877227 0
3.6220002 1.6859372 0.61903918 0
3.6260002 1.6822683 0.61930615 0
3.6310003 1.6791189 0.61963987 0
3.6350002 1.6754192 0.61990684 0
3.6400003 1.6722356 0.62024057 0
