# .PCD v0.7 - Point Cloud Data file format
VERSION 0.7
FIELDS x y z intensity
SIZE 4 4 4 4
TYPE F F F F
COUNT 1 1 1 1
WIDTH 1456
HEIGHT 1
VIEWPOINT 0 0 0 1 0 0 0
POINTS 1456
DATA ascii
6.9830003 3.5044663 0.35650215 0
6.9920006 3.4974298 0.35643721 0
7.0000005 3.4898248 0.35637948 0
7.0090003 3.4827249 0.35631454 0
7.0170002 3.4750607 0.35625681 0
7.0260005 3.4678977 0.35619187 0
7.0340004 3.4601738 0.35613415 0
7.0430002 3.4529476 0.35606921 0
7.0520005 3.4456894 0.3560043 0
7.0600004 3.4378753 0.35594657 0
7.0690002 3.4305534 0.35588163 0
7.0780005 3.4231997 0.35581669 0
7.0860004 3.4152951 0.35575897 0
7.0950003 3.4078777 0.35569403 0
7.1040006 3.4004283 0.35562909 0
7.1130004 3.392946 0.35556415 0
7.1210003 3.3849208 0.35550642 0
7.1300006 3.3773756 0.35544151 0
7.1390004 3.3697977 0.35537657 0
7.1480002 3.3621874 0.35531163 0
7.1570005 3.3545446 0.35524669 0
7.1660004 3.3468695 0.35518175 0
7.1750002 3.3391616 0.35511681 0
7.1840005 3.3314219 0.35505188 0
7.1930003 3.3236489 0.35498694 0
7.2020006 3.3158441 0.354922 0
7.2110004 3.3080065 0.35485706 0
7.2200003 3.3001363 0.35479212 0
7.2290006 3.2922342 0.35472718 0
7.2380004 3.2842991 0.35466224 0
7.2470002 3.2763314 0.35459733 0
7.2560005 3.2683318 0.35453236 0
7.2650003 3.2602992 0.35446745 0
7.2750006 3.2527144 0.35439527 0
7.2840004 3.2446153 0.35433036 0
7.2930002 3.2364836 0.35426542 0
7.3020005 3.2283196 0.35420048 0
7.3120003 3.2205956 0.35412833 0
7.3210006 3.2123649 0.35406339 0
7.3300004 3.2041016 0.35399845 0
7.3400006 3.1962731 0.3539263 0
7.3490005 3.187943 0.35386136 0
7.3590002 3.1800442 0.35378921 0
7.3680005 3.1716475 0.35372427 0
7.3780003 3.1636782 0.35365212 0
7.3870006 3.155215 0.35358718 0
7.3970003 3.1471753 0.35351503 0
7.4060006 3.1386452 0.35345009 0
7.4160004 3.1305351 0.35337794 0
7.4250002 3.121938 0.353313 0
7.4350004 3.1137578 0.35324085 0
7.4450006 3.1055417 0.3531687 0
7.4540005 3.0968437 0.35310376 0
7.4640002 3.0885568 0.35303161 0
7.4740005 3.0802343 0.35295945 0
7.4840002 3.0718751 0.3528873 0
7.4940004 3.0634804 0.35281515 0
7.5030003 3.0546129 0.35275021 0
7.5130005 3.0461478 0.35267806 0
7.5230002 3.0376461 0.35260591 0
7.5330005 3.0291088 0.35253376 0
7.5430002 3.0205352 0.35246161 0
7.5530005 3.0119257 0.35238945 0
7.5630002 3.0032799 0.3523173 0
7.5730004 2.9945984 0.35224515 0
7.5830007 2.9858806 0.352173 0
6.8260002 3.6400242 0.34604365 0
6.8340006 3.6330075 0.34597149 0
6.8420005 3.625962 0.34589934 0
6.8510003 3.6194556 0.34581819 0
6.8590002 3.6123502 0.34574604 0
6.8670006 3.6052165 0.34567386 0
6.8750005 3.5980535 0.34560174 0
6.8830004 3.5908616 0.34552956 0
6.8910003 3.5836411 0.3454574 0
6.9000006 3.5769489 0.34537625 0
6.9080005 3.5696688 0.3453041 0
6.9160004 3.5623596 0.34523195 0
6.9240003 3.5550215 0.3451598 0
6.9330006 3.5482054 0.34507862 0
6.9410005 3.5408077 0.34500647 0
6.9490004 3.5333815 0.34493431 0
6.9580002 3.5264709 0.34485313 0
6.9660006 3.5189853 0.34478098 0
6.9750004 3.5120118 0.34469983 0
6.9830003 3.5044663 0.34462768 0
6.9920006 3.4974298 0.3445465 0
7.0000005 3.4898248 0.34447435 0
7.0090003 3.4827249 0.34439316 0
7.0170002 3.4750607 0.34432101 0
7.0260005 3.4678977 0.34423986 0
7.0340004 3.4601738 0.34416771 0
7.0430002 3.4529476 0.34408653 0
7.0520005 3.4456894 0.34400535 0
7.0600004 3.4378753 0.34393319 0
7.0690002 3.4305534 0.34385204 0
7.0780005 3.4231997 0.34377086 0
7.0860004 3.4152951 0.34369871 0
7.0950003 3.4078777 0.34361753 0
7.1040006 3.4004283 0.34353635 0
7.1130004 3.392946 0.3434552 0
7.1210003 3.3849208 0.34338304 0
7.1300006 3.3773756 0.34330186 0
7.1390004 3.3697977 0.34322071 0
7.1480002 3.3621874 0.34313953 0
7.1570005 3.3545446 0.34305835 0
7.1660004 3.3468695 0.34297717 0
7.1750002 3.3391616 0.34289601 0
7.1840005 3.3314219 0.34281483 0
7.1930003 3.3236489 0.34273368 0
7.2020006 3.3158441 0.3426525 0
7.2110004 3.3080065 0.34257132 0
7.2200003 3.3001363 0.34249014 0
7.2290006 3.2922342 0.34240898 0
7.2380004 3.2842991 0.3423278 0
7.2470002 3.2763314 0.34224665 0
7.2560005 3.2683318 0.34216547 0
7.2650003 3.2602992 0.34208429 0
7.2750006 3.2527144 0.34199411 0
7.2840004 3.2446153 0.34191293 0
7.2930002 3.2364836 0.34183177 0
7.3020005 3.2283196 0.34175059 0
7.3120003 3.2205956 0.34166041 0
7.3210006 3.2123649 0.34157923 0
7.3300004 3.2041016 0.34149808 0
7.3400006 3.1962731 0.34140787 0
7.3490005 3.187943 0.34132671 0
7.3590002 3.1800442 0.3412365 0
7.3680005 3.1716475 0.34115532 0
7.3780003 3.1636782 0.34106514 0
7.3870006 3.155215 0.34098399 0
7.3970003 3.1471753 0.34089378 0
7.4060006 3.1386452 0.34081262 0
7.4160004 3.1305351 0.34072241 0
7.4250002 3.121938 0.34064126 0
7.4350004 3.1137578 0.34055105 0
7.4450006 3.1055417 0.34046087 0
7.4540005 3.0968437 0.34037971 0
7.4640002 3.0885568 0.3402895 0
7.4740005 3.0802343 0.34019932 0
7.4840002 3.0718751 0.34010911 0
7.4940004 3.0634804 0.34001893 0
7.5030003 3.0546129 0.33993778 0
7.5130005 3.0461478 0.33984756 0
7.5230002 3.0376461 0.33975738 0
7.5330005 3.0291088 0.3396672 0
7.5430002 3.0205352 0.33957702 0
7.5530005 3.0119257 0.33948681 0
7.5630002 3.0032799 0.33939663 0
7.5730004 2.9945984 0.33930641 0
7.5830007 2.9858806 0.33921623 0
6.8260002 3.6400242 0.33445239 0
6.8340006 3.6330075 0.33436579 0
6.8420005 3.625962 0.33427924 0
6.8510003 3.6194556 0.33418182 0
6.8590002 3.6123502 0.33409524 0
6.8670006 3.6052165 0.33400863 0
6.8750005 3.5980535 0.33392206 0
6.8830004 3.5908616 0.33383548 0
6.8910003 3.5836411 0.33374891 0
6.9000006 3.5769489 0.33365148 0
6.9080005 3.5696688 0.33356491 0
6.9160004 3.5623596 0.33347833 0
6.9240003 3.5550215 0.33339176 0
6.9330006 3.5482054 0.33329433 0
6.9410005 3.5408077 0.33320776 0
6.9490004 3.5333815 0.33312118 0
6.9580002 3.5264709 0.33302379 0
6.9660006 3.5189853 0.33293718 0
6.9750004 3.5120118 0.33283979 0
6.9830003 3.5044663 0.33275318 0
6.9920006 3.4974298 0.33265579 0
7.0000005 3.4898248 0.33256921 0
7.0090003 3.4827249 0.33247182 0
7.0170002 3.4750607 0.33238524 0
7.0260005 3.4678977 0.33228782 0
7.0340004 3.4601738 0.33220124 0
7.0430002 3.4529476 0.33210382 0
7.0520005 3.4456894 0.33200642 0
7.0600004 3.4378753 0.33191985 0
7.0690002 3.4305534 0.33182243 0
7.0780005 3.4231997 0.33172503 0
7.0860004 3.4152951 0.33163846 0
7.0950003 3.4078777 0.33154103 0
7.1040006 3.4004283 0.33144364 0
7.1130004 3.392946 0.33134621 0
7.1210003 3.3849208 0.33125964 0
7.1300006 3.3773756 0.33116221 0
7.1390004 3.3697977 0.33106482 0
7.1480002 3.3621874 0.33096743 0
7.1570005 3.3545446 0.33087003 0
7.1660004 3.3468695 0.33077261 0
7.1750002 3.3391616 0.33067521 0
7.1840005 3.3314219 0.33057779 0
7.1930003 3.3236489 0.3304804 0
7.2020006 3.3158441 0.330383 0
7.2110004 3.3080065 0.33028558 0
7.2200003 3.3001363 0.33018818 0
7.2290006 3.2922342 0.33009076 0
7.2380004 3.2842991 0.32999337 0
7.2470002 3.2763314 0.32989597 0
7.2560005 3.2683318 0.32979855 0
7.2650003 3.2602992 0.32970116 0
7.2750006 3.2527144 0.32959291 0
7.2840004 3.2446153 0.32949552 0
7.2930002 3.2364836 0.3293981 0
7.3020005 3.2283196 0.3293007 0
7.3120003 3.2205956 0.32919249 0
7.3210006 3.2123649 0.32909507 0
7.3300004 3.2041016 0.32899767 0
7.3400006 3.1962731 0.32888943 0
7.3490005 3.187943 0.32879204 0
7.3590002 3.1800442 0.32868379 0
7.3680005 3.1716475 0.3285864 0
7.3780003 3.1636782 0.32847816 0
7.3870006 3.155215 0.32838076 0
7.3970003 3.1471753 0.32827252 0
7.4060006 3.1386452 0.32817513 0
7.4160004 3.1305351 0.32806692 0
7.4250002 3.121938 0.32796949 0
7.4350004 3.1137578 0.32786125 0
7.4450006 3.1055417 0.32775304 0
7.4540005 3.0968437 0.32765564 0
7.4640002 3.0885568 0.3275474 0
7.4740005 3.0802343 0.32743919 0
7.4840002 3.0718751 0.32733095 0
7.4940004 3.0634804 0.3272227 0
7.5030003 3.0546129 0.32712531 0
7.5130005 3.0461478 0.32701707 0
7.5230002 3.0376461 0.32690886 0
7.5330005 3.0291088 0.32680061 0
7.5430002 3.0205352 0.3266924 0
7.5530005 3.0119257 0.32658416 0
7.5630002 3.0032799 0.32647595 0
7.5730004 2.9945984 0.32636771 0
7.5830007 2.9858806 0.32625949 0
6.8260002 3.6400242 0.32286111 0
6.8340006 3.6330075 0.32276011 0
6.8420005 3.625962 0.32265908 0
6.8510003 3.6194556 0.32254544 0
6.8590002 3.6123502 0.32244444 0
6.8670006 3.6052165 0.32234341 0
6.8750005 3.5980535 0.32224241 0
6.8830004 3.5908616 0.32214141 0
6.8910003 3.5836411 0.32204038 0
6.9000006 3.5769489 0.32192674 0
6.9080005 3.5696688 0.32182571 0
6.9160004 3.5623596 0.32172471 0
6.9240003 3.5550215 0.32162371 0
6.9330006 3.5482054 0.32151008 0
6.9410005 3.5408077 0.32140905 0
6.9490004 3.5333815 0.32130802 0
6.9580002 3.5264709 0.32119441 0
6.9660006 3.5189853 0.32109338 0
6.9750004 3.5120118 0.32097974 0
6.9830003 3.5044663 0.32087874 0
6.9920006 3.4974298 0.32076508 0
7.0000005 3.4898248 0.32066408 0
7.0090003 3.4827249 0.32055044 0
7.0170002 3.4750607 0.32044941 0
7.0260005 3.4678977 0.32033578 0
7.0340004 3.4601738 0.32023478 0
7.0430002 3.4529476 0.32012114 0
7.0520005 3.4456894 0.3200075 0
7.0600004 3.4378753 0.31990647 0
7.0690002 3.4305534 0.31979284 0
7.0780005 3.4231997 0.3196792 0
7.0860004 3.4152951 0.31957817 0
7.0950003 3.4078777 0.31946453 0
7.1040006 3.4004283 0.3193509 0
7.1130004 3.392946 0.31923726 0
7.1210003 3.3849208 0.31913626 0
7.1300006 3.3773756 0.3190226 0
7.1390004 3.3697977 0.31890896 0
7.1480002 3.3621874 0.31879532 0
7.1570005 3.3545446 0.31868169 0
7.1660004 3.3468695 0.31856805 0
7.1750002 3.3391616 0.31845441 0
7.1840005 3.3314219 0.31834078 0
7.1930003 3.3236489 0.31822711 0
7.2020006 3.3158441 0.31811351 0
7.2110004 3.3080065 0.31799984 0
7.2200003 3.3001363 0.3178862 0
7.2290006 3.2922342 0.31777257 0
7.2380004 3.2842991 0.31765893 0
7.2470002 3.2763314 0.31754529 0
7.2560005 3.2683318 0.31743163 0
7.2650003 3.2602992 0.31731802 0
7.2750006 3.2527144 0.31719175 0
7.2840004 3.2446153 0.31707811 0
7.2930002 3.2364836 0.31696448 0
7.3020005 3.2283196 0.31685081 0
7.3120003 3.2205956 0.31672454 0
7.3210006 3.2123649 0.31661093 0
7.3300004 3.2041016 0.31649727 0
7.3400006 3.1962731 0.31637102 0
7.3490005 3.187943 0.31625736 0
7.3590002 3.1800442 0.31613111 0
7.3680005 3.1716475 0.31601745 0
7.3780003 3.1636782 0.31589121 0
7.3870006 3.155215 0.31577754 0
7.3970003 3.1471753 0.3156513 0
7.4060006 3.1386452 0.31553763 0
7.4160004 3.1305351 0.31541139 0
7.4250002 3.121938 0.31529775 0
7.4350004 3.1137578 0.31517148 0
7.4450006 3.1055417 0.31504521 0
7.4540005 3.0968437 0.31493157 0
7.4640002 3.0885568 0.3148053 0
7.4740005 3.0802343 0.31467903 0
7.4840002 3.0718751 0.31455278 0
7.4940004 3.0634804 0.31442651 0
7.5030003 3.0546129 0.31431288 0
7.5130005 3.0461478 0.3141866 0
7.5230002 3.0376461 0.31406033 0
7.5330005 3.0291088 0.31393406 0
7.5430002 3.0205352 0.31380779 0
7.5530005 3.0119257 0.31368154 0
7.5630002 3.0032799 0.31355527 0
7.5730004 2.9945984 0.313429 0
7.5830007 2.9858806 0.31330273 0
6.8260002 3.6400242 0.31126985 0
6.8340006 3.6330075 0.3111544 0
6.8420005 3.625962 0.31103894 0
6.8510003 3.6194556 0.31090909 0
6.8590002 3.6123502 0.31079364 0
6.8670006 3.6052165 0.31067818 0
6.8750005 3.5980535 0.31056273 0
6.8830004 3.5908616 0.31044731 0
6.8910003 3.5836411 0.31033185 0
6.9000006 3.5769489 0.31020197 0
6.9080005 3.5696688 0.31008655 0
6.9160004 3.5623596 0.30997109 0
6.9240003 3.5550215 0.30985564 0
6.9330006 3.5482054 0.30972576 0
6.9410005 3.5408077 0.30961034 0
6.9490004 3.5333815 0.30949488 0
6.9580002 3.5264709 0.30936503 0
6.9660006 3.5189853 0.30924958 0
6.9750004 3.5120118 0.3091197 0
6.9830003 3.5044663 0.30900425 0
6.9920006 3.4974298 0.30887437 0
7.0000005 3.4898248 0.30875894 0
7.0090003 3.4827249 0.30862907 0
7.0170002 3.4750607 0.30851364 0
7.0260005 3.4678977 0.30838376 0
7.0340004 3.4601738 0.30826831 0
7.0430002 3.4529476 0.30813843 0
7.0520005 3.4456894 0.30800855 0
7.0600004 3.4378753 0.3078931 0
7.0690002 3.4305534 0.30776325 0
7.0780005 3.4231997 0.30763337 0
7.0860004 3.4152951 0.30751792 0
7.0950003 3.4078777 0.30738804 0
7.1040006 3.4004283 0.30725816 0
7.1130004 3.392946 0.30712831 0
7.1210003 3.3849208 0.30701286 0
7.1300006 3.3773756 0.30688298 0
7.1390004 3.3697977 0.3067531 0
7.1480002 3.3621874 0.30662322 0
7.1570005 3.3545446 0.30649334 0
7.1660004 3.3468695 0.30636349 0
7.1750002 3.3391616 0.30623361 0
7.1840005 3.3314219 0.30610374 0
7.1930003 3.3236489 0.30597386 0
7.2020006 3.3158441 0.30584398 0
7.2110004 3.3080065 0.3057141 0
7.2200003 3.3001363 0.30558425 0
7.2290006 3.2922342 0.30545437 0
7.2380004 3.2842991 0.30532449 0
7.2470002 3.2763314 0.30519462 0
7.2560005 3.2683318 0.30506474 0
7.2650003 3.2602992 0.30493486 0
7.2750006 3.2527144 0.30479056 0
7.2840004 3.2446153 0.30466068 0
7.2930002 3.2364836 0.3045308 0
7.3020005 3.2283196 0.30440092 0
7.3120003 3.2205956 0.30425662 0
7.3210006 3.2123649 0.30412674 0
7.3300004 3.2041016 0.30399689 0
7.3400006 3.1962731 0.30385259 0
7.3490005 3.187943 0.30372271 0
7.3590002 3.1800442 0.30357841 0
7.3680005 3.1716475 0.30344853 0
7.3780003 3.1636782 0.30330423 0
7.3870006 3.155215 0.30317435 0
7.3970003 3.1471753 0.30303004 0
7.4060006 3.1386452 0.30290017 0
7.4160004 3.1305351 0.30275586 0
7.4250002 3.121938 0.30262598 0
7.4350004 3.1137578 0.30248168 0
7.4450006 3.1055417 0.30233738 0
7.4540005 3.0968437 0.3022075 0
7.4640002 3.0885568 0.3020632 0
7.4740005 3.0802343 0.30191889 0
7.4840002 3.0718751 0.30177459 0
7.4940004 3.0634804 0.30163029 0
7.5030003 3.0546129 0.30150041 0
7.5130005 3.0461478 0.30135611 0
7.5230002 3.0376461 0.3012118 0
7.5330005 3.0291088 0.3010675 0
7.5430002 3.0205352 0.3009232 0
7.5530005 3.0119257 0.3007789 0
7.5630002 3.0032799 0.30063459 0
7.5730004 2.9945984 0.30049029 0
7.5830007 2.9858806 0.30034596 0
6.8260002 3.6400242 0.29967856 0
6.8340006 3.6330075 0.29954869 0
6.8420005 3.625962 0.29941881 0
6.8510003 3.6194556 0.29927272 0
6.8590002 3.6123502 0.29914284 0
6.8670006 3.6052165 0.29901296 0
6.8750005 3.5980535 0.29888308 0
6.8830004 3.5908616 0.2987532 0
6.8910003 3.5836411 0.29862332 0
6.9000006 3.5769489 0.29847723 0
6.9080005 3.5696688 0.29834735 0
6.9160004 3.5623596 0.29821748 0
6.9240003 3.5550215 0.2980876 0
6.9330006 3.5482054 0.29794151 0
6.9410005 3.5408077 0.29781163 0
6.9490004 3.5333815 0.29768175 0
6.9580002 3.5264709 0.29753566 0
6.9660006 3.5189853 0.29740578 0
6.9750004 3.5120118 0.29725966 0
6.9830003 3.5044663 0.29712978 0
6.9920006 3.4974298 0.29698369 0
7.0000005 3.4898248 0.29685381 0
7.0090003 3.4827249 0.29670769 0
7.0170002 3.4750607 0.29657781 0
7.0260005 3.4678977 0.29643172 0
7.0340004 3.4601738 0.29630184 0
7.0430002 3.4529476 0.29615572 0
7.0520005 3.4456894 0.29600963 0
7.0600004 3.4378753 0.29587975 0
7.0690002 3.4305534 0.29573363 0
7.0780005 3.4231997 0.29558754 0
7.0860004 3.4152951 0.29545766 0
7.0950003 3.4078777 0.29531157 0
7.1040006 3.4004283 0.29516542 0
7.1130004 3.392946 0.29501933 0
7.1210003 3.3849208 0.29488945 0
7.1300006 3.3773756 0.29474336 0
7.1390004 3.3697977 0.29459724 0
7.1480002 3.3621874 0.29445112 0
7.1570005 3.3545446 0.29430503 0
7.1660004 3.3468695 0.29415894 0
7.1750002 3.3391616 0.29401281 0
7.1840005 3.3314219 0.29386669 0
7.1930003 3.3236489 0.2937206 0
7.2020006 3.3158441 0.29357448 0
7.2110004 3.3080065 0.29342836 0
7.2200003 3.3001363 0.29328227 0
7.2290006 3.2922342 0.29313615 0
7.2380004 3.2842991 0.29299003 0
7.2470002 3.2763314 0.29284394 0
7.2560005 3.2683318 0.29269785 0
7.2650003 3.2602992 0.29255173 0
7.2750006 3.2527144 0.29238939 0
7.2840004 3.2446153 0.29224327 0
7.2930002 3.2364836 0.29209715 0
7.3020005 3.2283196 0.29195106 0
7.3120003 3.2205956 0.29178873 0
7.3210006 3.2123649 0.29164261 0
7.3300004 3.2041016 0.29149649 0
7.3400006 3.1962731 0.29133415 0
7.3490005 3.187943 0.29118803 0
7.3590002 3.1800442 0.2910257 0
7.3680005 3.1716475 0.29087958 0
7.3780003 3.1636782 0.29071724 0
7.3870006 3.155215 0.29057115 0
7.3970003 3.1471753 0.29040879 0
7.4060006 3.1386452 0.2902627 0
7.4160004 3.1305351 0.29010034 0
7.4250002 3.121938 0.28995425 0
7.4350004 3.1137578 0.28979188 0
7.4450006 3.1055417 0.28962955 0
7.4540005 3.0968437 0.28948343 0
7.4640002 3.0885568 0.28932112 0
7.4740005 3.0802343 0.28915876 0
7.4840002 3.0718751 0.28899643 0
7.4940004 3.0634804 0.28883407 0
7.5030003 3.0546129 0.28868797 0
7.5130005 3.0461478 0.28852561 0
7.5230002 3.0376461 0.28836328 0
7.5330005 3.0291088 0.28820091 0
7.5430002 3.0205352 0.28803861 0
7.5530005 3.0119257 0.28787625 0
7.5630002 3.0032799 0.28771392 0
7.5730004 2.9945984 0.28755155 0
7.5830007 2.9858806 0.28738922 0
6.8260002 3.6400242 0.28808731 0
6.8340006 3.6330075 0.28794301 0
6.8420005 3.625962 0.28779867 0
6.8510003 3.6194556 0.28763634 0
6.8590002 3.6123502 0.28749204 0
6.8670006 3.6052165 0.28734773 0
6.8750005 3.5980535 0.28720343 0
6.8830004 3.5908616 0.28705913 0
6.8910003 3.5836411 0.28691483 0
6.9000006 3.5769489 0.28675246 0
6.9080005 3.5696688 0.28660816 0
6.9160004 3.5623596 0.28646386 0
6.9240003 3.5550215 0.28631955 0
6.9330006 3.5482054 0.28615722 0
6.9410005 3.5408077 0.28601292 0
6.9500003 3.5339279 0.28585058 0
6.9580002 3.5264709 0.28570628 0
6.9660006 3.5189853 0.28556198 0
6.9750004 3.5120118 0.28539962 0
6.9830003 3.5044663 0.28525531 0
6.9920006 3.4974298 0.28509298 0
7.0000005 3.4898248 0.28494868 0
7.0090003 3.4827249 0.28478634 0
7.0170002 3.4750607 0.28464204 0
7.0260005 3.4678977 0.28447968 0
7.0340004 3.4601738 0.28433537 0
7.0430002 3.4529476 0.28417304 0
7.0520005 3.4456894 0.28401068 0
7.0600004 3.4378753 0.28386638 0
7.0690002 3.4305534 0.28370404 0
7.0780005 3.4231997 0.28354168 0
7.0860004 3.4152951 0.28339741 0
7.0950003 3.4078777 0.28323504 0
7.1040006 3.4004283 0.28307271 0
7.1130004 3.392946 0.28291035 0
7.1210003 3.3849208 0.28276607 0
7.1300006 3.3773756 0.28260371 0
7.1390004 3.3697977 0.28244138 0
7.1480002 3.3621874 0.28227904 0
7.1570005 3.3545446 0.28211668 0
7.1660004 3.3468695 0.28195435 0
7.1750002 3.3391616 0.28179201 0
7.1840005 3.3314219 0.28162965 0
7.1930003 3.3236489 0.28146732 0
7.2020006 3.3158441 0.28130499 0
7.2110004 3.3080065 0.28114265 0
7.2200003 3.3001363 0.28098029 0
7.2290006 3.2922342 0.28081793 0
7.2380004 3.2842991 0.28065562 0
7.2470002 3.2763314 0.28049326 0
7.2560005 3.2683318 0.28033093 0
7.2650003 3.2602992 0.28016859 0
7.2750006 3.2527144 0.2799882 0
7.2840004 3.2446153 0.27982587 0
7.2930002 3.2364836 0.2796635 0
7.3020005 3.2283196 0.27950117 0
7.3120003 3.2205956 0.27932078 0
7.3210006 3.2123649 0.27915844 0
7.3300004 3.2041016 0.27899611 0
7.3400006 3.1962731 0.27881572 0
7.3490005 3.187943 0.27865338 0
7.3590002 3.1800442 0.27847302 0
7.3680005 3.1716475 0.27831066 0
7.3780003 3.1636782 0.27813029 0
7.3870006 3.155215 0.27796793 0
7.3970003 3.1471753 0.27778757 0
7.4060006 3.1386452 0.2776252 0
7.4160004 3.1305351 0.27744484 0
7.4250002 3.121938 0.27728248 0
7.4350004 3.1137578 0.27710211 0
7.4450006 3.1055417 0.27692172 0
7.4540005 3.0968437 0.27675939 0
7.4640002 3.0885568 0.27657902 0
7.4740005 3.0802343 0.2763986 0
7.4840002 3.0718751 0.27621824 0
7.4940004 3.0634804 0.27603787 0
7.5030003 3.0546129 0.27587551 0
7.5130005 3.0461478 0.27569515 0
7.5230002 3.0376461 0.27551475 0
7.5330005 3.0291088 0.27533436 0
7.5430002 3.0205352 0.27515399 0
7.5530005 3.0119257 0.2749736 0
7.5630002 3.0032799 0.27479321 0
7.5730004 2.9945984 0.27461284 0
7.5830007 2.9858806 0.27443248 0
6.8260002 3.6400242 0.27649602 0
6.8340006 3.6330075 0.2763373 0
6.8420005 3.625962 0.27617854 0
6.8510003 3.6194556 0.27599999 0
6.8590002 3.6123502 0.27584124 0
6.8670006 3.6052165 0.27568251 0
6.8750005 3.5980535 0.27552378 0
6.8830004 3.5908616 0.27536505 0
6.8910003 3.5836411 0.27520633 0
6.9000006 3.5769489 0.27502772 0
6.9080005 3.5696688 0.27486897 0
6.9160004 3.5623596 0.27471024 0
6.9240003 3.5550215 0.27455151 0
6.9330006 3.5482054 0.27437294 0
6.9410005 3.5408077 0.27421421 0
6.9500003 3.5339279 0.27403563 0
6.9580002 3.5264709 0.27387691 0
6.9660006 3.5189853 0.27371818 0
6.9750004 3.5120118 0.2735396 0
6.9830003 3.5044663 0.27338085 0
6.9920006 3.4974298 0.27320224 0
7.0000005 3.4898248 0.27304351 0
7.0090003 3.4827249 0.27286494 0
7.0170002 3.4750607 0.27270621 0
7.0260005 3.4678977 0.27252764 0
7.0340004 3.4601738 0.27236891 0
7.0430002 3.4529476 0.27219033 0
7.0520005 3.4456894 0.27201176 0
7.0600004 3.4378753 0.27185303 0
7.0690002 3.4305534 0.27167445 0
7.0780005 3.4231997 0.27149588 0
7.0860004 3.4152951 0.27133715 0
7.0950003 3.4078777 0.27115858 0
7.1040006 3.4004283 0.27098 0
7.1130004 3.392946 0.27080142 0
7.1210003 3.3849208 0.27064267 0
7.1300006 3.3773756 0.27046409 0
7.1390004 3.3697977 0.27028552 0
7.1480002 3.3621874 0.27010694 0
7.1570005 3.3545446 0.26992837 0
7.1660004 3.3468695 0.26974979 0
7.1750002 3.3391616 0.26957121 0
7.1840005 3.3314219 0.26939261 0
7.1930003 3.3236489 0.26921406 0
7.2020006 3.3158441 0.26903546 0
7.2110004 3.3080065 0.26885688 0
7.2200003 3.3001363 0.26867831 0
7.2290006 3.2922342 0.26849973 0
7.2380004 3.2842991 0.26832116 0
7.2470002 3.2763314 0.26814258 0
7.2560005 3.2683318 0.26796401 0
7.2650003 3.2602992 0.26778543 0
7.2750006 3.2527144 0.26758701 0
7.2840004 3.2446153 0.26740843 0
7.2930002 3.2364836 0.26722986 0
7.3020005 3.2283196 0.26705128 0
7.3120003 3.2205956 0.26685286 0
7.3210006 3.2123649 0.26667428 0
7.3300004 3.2041016 0.2664957 0
7.3400006 3.1962731 0.26629728 0
7.3490005 3.187943 0.26611871 0
7.3590002 3.1800442 0.26592028 0
7.3680005 3.1716475 0.26574171 0
7.3780003 3.1636782 0.26554328 0
7.3870006 3.155215 0.26536471 0
7.3970003 3.1471753 0.26516631 0
7.4060006 3.1386452 0.26498771 0
7.4160004 3.1305351 0.26478931 0
7.4250002 3.121938 0.26461074 0
7.4350004 3.1137578 0.26441231 0
7.4450006 3.1055417 0.26421389 0
7.4540005 3.0968437 0.26403531 0
7.4640002 3.0885568 0.26383692 0
7.4740005 3.0802343 0.2636385 0
7.4840002 3.0718751 0.26344007 0
7.4940004 3.0634804 0.26324165 0
7.5030003 3.0546129 0.26306307 0
7.5130005 3.0461478 0.26286465 0
7.5230002 3.0376461 0.26266623 0
7.5330005 3.0291088 0.2624678 0
7.5430002 3.0205352 0.26226938 0
7.5530005 3.0119257 0.26207095 0
7.5630002 3.0032799 0.26187256 0
7.5730004 2.9945984 0.26167414 0
7.5830007 2.9858806 0.26147571 0
6.8260002 3.6400242 0.26490477 0
6.8340006 3.6330075 0.26473159 0
6.8420005 3.625962 0.26455843 0
6.8510003 3.6194556 0.26436362 0
6.8590002 3.6123502 0.26419044 0
6.8670006 3.6052165 0.26401728 0
6.8750005 3.5980535 0.26384413 0
6.8830004 3.5908616 0.26367095 0
6.8910003 3.5836411 0.2634978 0
6.9000006 3.5769489 0.26330298 0
6.9080005 3.5696688 0.2631298 0
6.9160004 3.5623596 0.26295665 0
6.9240003 3.5550215 0.26278347 0
6.9330006 3.5482054 0.26258868 0
6.9410005 3.5408077 0.2624155 0
6.9500003 3.5339279 0.26222068 0
6.9580002 3.5264709 0.26204753 0
6.9660006 3.5189853 0.26187435 0
6.9750004 3.5120118 0.26167953 0
6.9830003 3.5044663 0.26150638 0
6.9920006 3.4974298 0.26131156 0
7.0000005 3.4898248 0.26113838 0
7.0090003 3.4827249 0.26094359 0
7.0170002 3.4750607 0.26077044 0
7.0260005 3.4678977 0.26057559 0
7.0340004 3.4601738 0.26040244 0
7.0430002 3.4529476 0.26020765 0
7.0520005 3.4456894 0.26001281 0
7.0600004 3.4378753 0.25983965 0
7.0690002 3.4305534 0.25964487 0
7.0780005 3.4231997 0.25945005 0
7.0860004 3.4152951 0.25927687 0
7.0950003 3.4078777 0.25908208 0
7.1040006 3.4004283 0.25888723 0
7.1130004 3.392946 0.25869244 0
7.1210003 3.3849208 0.25851929 0
7.1300006 3.3773756 0.25832444 0
7.1390004 3.3697977 0.25812966 0
7.1480002 3.3621874 0.25793487 0
7.1570005 3.3545446 0.25774002 0
7.1660004 3.3468695 0.25754523 0
7.1750002 3.3391616 0.25735039 0
7.1840005 3.3314219 0.2571556 0
7.1930003 3.3236489 0.25696078 0
7.2020006 3.3158441 0.25676596 0
7.2110004 3.3080065 0.25657117 0
7.2200003 3.3001363 0.25637633 0
7.2290006 3.2922342 0.25618154 0
7.2380004 3.2842991 0.25598675 0
7.2470002 3.2763314 0.2557919 0
7.2560005 3.2683318 0.25559711 0
7.2650003 3.2602992 0.2554023 0
7.2750006 3.2527144 0.25518584 0
7.2840004 3.2446153 0.25499102 0
7.2930002 3.2364836 0.25479621 0
7.3020005 3.2283196 0.25460142 0
7.3120003 3.2205956 0.25438493 0
7.3210006 3.2123649 0.25419015 0
7.3300004 3.2041016 0.25399533 0
7.3400006 3.1962731 0.25377887 0
7.3490005 3.187943 0.25358406 0
7.3590002 3.1800442 0.2533676 0
7.3680005 3.1716475 0.25317279 0
7.3780003 3.1636782 0.25295633 0
7.3870006 3.155215 0.25276151 0
7.3970003 3.1471753 0.25254506 0
7.4060006 3.1386452 0.25235024 0
7.4160004 3.1305351 0.25213379 0
7.4250002 3.121938 0.251939 0
7.4350004 3.1137578 0.25172251 0
7.4450006 3.1055417 0.25150606 0
7.4540005 3.0968437 0.25131124 0
7.4640002 3.0885568 0.25109479 0
7.4740005 3.0802343 0.25087833 0
7.4840002 3.0718751 0.25066188 0
7.4940004 3.0634804 0.25044543 0
7.5030003 3.0546129 0.25025064 0
7.5130005 3.0461478 0.25003415 0
7.5230002 3.0376461 0.24981771 0
7.5330005 3.0291088 0.24960123 0
7.5430002 3.0205352 0.24938479 0
7.5530005 3.0119257 0.24916832 0
7.5630002 3.0032799 0.24895188 0
7.5730004 2.9945984 0.24873541 0
7.5830007 2.9858806 0.24851896 0
6.8260002 3.6400242 0.25331348 0
6.8340006 3.6330075 0.25312588 0
6.8420005 3.625962 0.2529383 0
6.8510003 3.6194556 0.25272724 0
6.8590002 3.6123502 0.25253963 0
6.8670006 3.6052165 0.25235206 0
6.8750005 3.5980535 0.25216445 0
6.8830004 3.5908616 0.25197685 0
6.8910003 3.5836411 0.25178927 0
6.9000006 3.5769489 0.25157821 0
6.9080005 3.5696688 0.25139064 0
6.9160004 3.5623596 0.25120303 0
6.9240003 3.5550215 0.25101542 0
6.9330006 3.5482054 0.25080436 0
6.9410005 3.5408077 0.25061679 0
6.9500003 3.5339279 0.25040573 0
6.9580002 3.5264709 0.25021815 0
6.9660006 3.5189853 0.25003055 0
6.9750004 3.5120118 0.2498195 0
6.9830003 3.5044663 0.24963191 0
6.9920006 3.4974298 0.24942085 0
7.0000005 3.4898248 0.24923328 0
7.0090003 3.4827249 0.24902223 0
7.0170002 3.4750607 0.24883462 0
7.0260005 3.4678977 0.24862358 0
7.0340004 3.4601738 0.24843599 0
7.0430002 3.4529476 0.24822494 0
7.0520005 3.4456894 0.24801388 0
7.0600004 3.4378753 0.24782631 0
7.0690002 3.4305534 0.24761526 0
7.0780005 3.4231997 0.2474042 0
7.0860004 3.4152951 0.24721661 0
7.0950003 3.4078777 0.24700557 0
7.1040006 3.4004283 0.24679451 0
7.1130004 3.392946 0.24658348 0
7.1210003 3.3849208 0.24639589 0
7.1300006 3.3773756 0.24618483 0
7.1390004 3.3697977 0.2459738 0
7.1480002 3.3621874 0.24576275 0
7.1570005 3.3545446 0.24555169 0
7.1660004 3.3468695 0.24534066 0
7.1750002 3.3391616 0.2451296 0
7.1840005 3.3314219 0.24491857 0
7.1930003 3.3236489 0.24470751 0
7.2020006 3.3158441 0.24449645 0
7.2110004 3.3080065 0.24428542 0
7.2200003 3.3001363 0.24407437 0
7.2290006 3.2922342 0.24386333 0
7.2380004 3.2842991 0.24365228 0
7.2470002 3.2763314 0.24344124 0
7.2560005 3.2683318 0.24323019 0
7.2650003 3.2602992 0.24301915 0
7.2750006 3.2527144 0.24278465 0
7.2840004 3.2446153 0.2425736 0
7.2930002 3.2364836 0.24236257 0
7.3020005 3.2283196 0.24215151 0
7.3120003 3.2205956 0.24191703 0
7.3210006 3.2123649 0.24170597 0
7.3300004 3.2041016 0.24149492 0
7.3400006 3.1962731 0.24126042 0
7.3490005 3.187943 0.24104939 0
7.3590002 3.1800442 0.24081489 0
7.3680005 3.1716475 0.24060385 0
7.3780003 3.1636782 0.24036935 0
7.3870006 3.155215 0.2401583 0
7.3970003 3.1471753 0.2399238 0
7.4060006 3.1386452 0.23971277 0
7.4160004 3.1305351 0.23947828 0
7.4250002 3.121938 0.23926723 0
7.4350004 3.1137578 0.23903273 0
7.4450006 3.1055417 0.23879823 0
7.4540005 3.0968437 0.23858719 0
7.4640002 3.0885568 0.2383527 0
7.4740005 3.0802343 0.2381182 0
7.4840002 3.0718751 0.2378837 0
7.4940004 3.0634804 0.2376492 0
7.5030003 3.0546129 0.23743817 0
7.5130005 3.0461478 0.23720367 0
7.5230002 3.0376461 0.23696919 0
7.5330005 3.0291088 0.23673469 0
7.5430002 3.0205352 0.23650019 0
7.5530005 3.0119257 0.23626569 0
7.5630002 3.0032799 0.2360312 0
7.5730004 2.9945984 0.23579669 0
7.5830007 2.9858806 0.23556221 0
6.8260002 3.6400242 0.24172221 0
6.8340006 3.6330075 0.24152018 0
6.8420005 3.625962 0.24131815 0
6.8510003 3.6194556 0.24109088 0
6.8590002 3.6123502 0.24088885 0
6.8670006 3.6052165 0.24068682 0
6.8750005 3.5980535 0.24048479 0
6.8830004 3.5908616 0.24028277 0
6.8910003 3.5836411 0.24008076 0
6.9000006 3.5769489 0.23985346 0
6.9080005 3.5696688 0.23965143 0
6.9160004 3.5623596 0.23944941 0
6.9240003 3.5550215 0.2392474 0
6.9330006 3.5482054 0.23902011 0
6.9410005 3.5408077 0.23881808 0
6.9500003 3.5339279 0.23859079 0
6.9580002 3.5264709 0.23838878 0
6.9660006 3.5189853 0.23818675 0
6.9750004 3.5120118 0.23795947 0
6.9830003 3.5044663 0.23775744 0
6.9920006 3.4974298 0.23753016 0
7.0000005 3.4898248 0.23732813 0
7.0090003 3.4827249 0.23710085 0
7.0170002 3.4750607 0.23689884 0
7.0260005 3.4678977 0.23667154 0
7.0340004 3.4601738 0.23646952 0
7.0430002 3.4529476 0.23624225 0
7.0520005 3.4456894 0.23601496 0
7.0600004 3.4378753 0.23581293 0
7.0690002 3.4305534 0.23558566 0
7.0780005 3.4231997 0.23535837 0
7.0860004 3.4152951 0.23515634 0
7.0950003 3.4078777 0.23492907 0
7.1040006 3.4004283 0.2347018 0
7.1130004 3.392946 0.23447451 0
7.1210003 3.3849208 0.23427248 0
7.1300006 3.3773756 0.23404519 0
7.1390004 3.3697977 0.23381792 0
7.1480002 3.3621874 0.23359065 0
7.1570005 3.3545446 0.23336336 0
7.1660004 3.3468695 0.23313607 0
7.1750002 3.3391616 0.23290882 0
7.1840005 3.3314219 0.23268153 0
7.1930003 3.3236489 0.23245424 0
7.2020006 3.3158441 0.23222697 0
7.2110004 3.3080065 0.23199968 0
7.2200003 3.3001363 0.23177241 0
7.2290006 3.2922342 0.23154512 0
7.2380004 3.2842991 0.23131785 0
7.2470002 3.2763314 0.23109058 0
7.2560005 3.2683318 0.23086327 0
7.2650003 3.2602992 0.23063602 0
7.2750006 3.2527144 0.23038347 0
7.2840004 3.2446153 0.23015618 0
7.2930002 3.2364836 0.22992893 0
7.3020005 3.2283196 0.22970162 0
7.3120003 3.2205956 0.22944909 0
7.3210006 3.2123649 0.22922182 0
7.3300004 3.2041016 0.22899453 0
7.3400006 3.1962731 0.228742 0
7.3490005 3.187943 0.22851473 0
7.3590002 3.1800442 0.2282622 0
7.3680005 3.1716475 0.22803491 0
7.3780003 3.1636782 0.22778238 0
7.3870006 3.155215 0.2275551 0
7.3970003 3.1471753 0.22730258 0
7.4060006 3.1386452 0.22707528 0
7.4160004 3.1305351 0.22682275 0
7.4250002 3.121938 0.22659549 0
7.4350004 3.1137578 0.22634295 0
7.4450006 3.1055417 0.2260904 0
7.4540005 3.0968437 0.22586313 0
7.4640002 3.0885568 0.2256106 0
7.4740005 3.0802343 0.22535807 0
7.4840002 3.0718751 0.22510554 0
7.4940004 3.0634804 0.22485299 0
7.5030003 3.0546129 0.22462572 0
7.5130005 3.0461478 0.22437318 0
7.5230002 3.0376461 0.22412066 0
7.5330005 3.0291088 0.22386812 0
7.5430002 3.0205352 0.22361559 0
7.5530005 3.0119257 0.22336304 0
7.5630002 3.0032799 0.22311053 0
7.5730004 2.9945984 0.22285798 0
7.5830007 2.9858806 0.22260544 0
6.8260002 3.6400242 0.23013094 0
6.8340006 3.6330075 0.22991447 0
6.8420005 3.625962 0.22969802 0
6.8510003 3.6194556 0.22945452 0
6.8590002 3.6123502 0.22923806 0
6.8670006 3.6052165 0.22902159 0
6.8750005 3.5980535 0.22880514 0
6.8830004 3.5908616 0.22858869 0
6.8910003 3.5836411 0.22837223 0
6.9000006 3.5769489 0.2281287 0
6.9080005 3.5696688 0.22791226 0
6.9160004 3.5623596 0.22769579 0
6.9240003 3.5550215 0.22747935 0
6.9330006 3.5482054 0.22723581 0
6.9410005 3.5408077 0.22701937 0
6.9500003 3.5339279 0.22677587 0
6.9580002 3.5264709 0.2265594 0
6.9660006 3.5189853 0.22634295 0
6.9750004 3.5120118 0.22609942 0
6.9830003 3.5044663 0.22588298 0
6.9920006 3.4974298 0.22563946 0
7.0000005 3.4898248 0.22542299 0
7.0090003 3.4827249 0.22517949 0
7.0170002 3.4750607 0.22496302 0
7.0260005 3.4678977 0.22471951 0
7.0340004 3.4601738 0.22450306 0
7.0430002 3.4529476 0.22425954 0
7.0520005 3.4456894 0.22401603 0
7.0600004 3.4378753 0.22379957 0
7.0690002 3.4305534 0.22355606 0
7.0780005 3.4231997 0.22331254 0
7.0860004 3.4152951 0.22309607 0
7.0950003 3.4078777 0.22285257 0
7.1040006 3.4004283 0.22260906 0
7.1130004 3.392946 0.22236554 0
7.1210003 3.3849208 0.22214909 0
7.1300006 3.3773756 0.22190557 0
7.1390004 3.3697977 0.22166206 0
7.1480002 3.3621874 0.22141854 0
7.1570005 3.3545446 0.22117503 0
7.1660004 3.3468695 0.22093152 0
7.1750002 3.3391616 0.22068802 0
7.1840005 3.3314219 0.22044449 0
7.1930003 3.3236489 0.22020097 0
7.2020006 3.3158441 0.21995746 0
7.2110004 3.3080065 0.21971394 0
7.2200003 3.3001363 0.21947044 0
7.2290006 3.2922342 0.21922691 0
7.2380004 3.2842991 0.2189834 0
7.2470002 3.2763314 0.2187399 0
7.2560005 3.2683318 0.21849638 0
7.2650003 3.2602992 0.21825285 0
7.2750006 3.2527144 0.21798229 0
7.2840004 3.2446153 0.21773878 0
7.2930002 3.2364836 0.21749526 0
7.3020005 3.2283196 0.21725175 0
7.3120003 3.2205956 0.21698119 0
7.3210006 3.2123649 0.21673766 0
7.3300004 3.2041016 0.21649414 0
7.3400006 3.1962731 0.21622357 0
7.3490005 3.187943 0.21598005 0
7.3590002 3.1800442 0.21570949 0
7.3680005 3.1716475 0.21546598 0
7.3780003 3.1636782 0.2151954 0
7.3870006 3.155215 0.21495189 0
7.3970003 3.1471753 0.21468133 0
7.4060006 3.1386452 0.2144378 0
7.4160004 3.1305351 0.21416724 0
7.4250002 3.121938 0.21392374 0
7.4350004 3.1137578 0.21365316 0
7.4450006 3.1055417 0.21338257 0
7.4540005 3.0968437 0.21313907 0
7.4640002 3.0885568 0.21286851 0
7.4740005 3.0802343 0.21259792 0
7.4840002 3.0718751 0.21232736 0
7.4940004 3.0634804 0.21205679 0
7.5030003 3.0546129 0.21181327 0
7.5130005 3.0461478 0.2115427 0
7.5230002 3.0376461 0.21127214 0
7.5330005 3.0291088 0.21100156 0
7.5430002 3.0205352 0.21073098 0
7.5530005 3.0119257 0.21046041 0
7.5630002 3.0032799 0.21018985 0
7.5730004 2.9945984 0.20991927 0
7.5830007 2.9858806 0.20964868 0
6.8260002 3.6400242 0.21853967 0
6.8340006 3.6330075 0.21830878 0
6.8420005 3.625962 0.21807788 0
6.8510003 3.6194556 0.21781814 0
6.8590002 3.6123502 0.21758726 0
6.8670006 3.6052165 0.21735637 0
6.8750005 3.5980535 0.21712548 0
6.8830004 3.5908616 0.2168946 0
6.8910003 3.5836411 0.2166637 0
6.9000006 3.5769489 0.21640395 0
6.9080005 3.5696688 0.21617307 0
6.9160004 3.5623596 0.21594219 0
6.9240003 3.5550215 0.2157113 0
6.9330006 3.5482054 0.21545154 0
6.9410005 3.5408077 0.21522066 0
6.9500003 3.5339279 0.21496092 0
6.9580002 3.5264709 0.21473002 0
6.9660006 3.5189853 0.21449913 0
6.9750004 3.5120118 0.21423939 0
6.9830003 3.5044663 0.21400851 0
6.9920006 3.4974298 0.21374875 0
7.0000005 3.4898248 0.21351786 0
7.0090003 3.4827249 0.21325812 0
7.0170002 3.4750607 0.21302724 0
7.0260005 3.4678977 0.21276748 0
7.0340004 3.4601738 0.21253659 0
7.0430002 3.4529476 0.21227685 0
7.0520005 3.4456894 0.21201709 0
7.0600004 3.4378753 0.21178621 0
7.0690002 3.4305534 0.21152647 0
7.0780005 3.4231997 0.21126671 0
7.0860004 3.4152951 0.21103582 0
7.0950003 3.4078777 0.21077608 0
7.1040006 3.4004283 0.21051632 0
7.1130004 3.392946 0.21025658 0
7.1210003 3.3849208 0.2100257 0
7.1300006 3.3773756 0.20976594 0
7.1390004 3.3697977 0.2095062 0
7.1480002 3.3621874 0.20924646 0
7.1570005 3.3545446 0.2089867 0
7.1660004 3.3468695 0.20872696 0
7.1750002 3.3391616 0.20846722 0
7.1840005 3.3314219 0.20820746 0
7.1930003 3.3236489 0.2079477 0
7.2020006 3.3158441 0.20768794 0
7.2110004 3.3080065 0.2074282 0
7.2200003 3.3001363 0.20716846 0
7.2290006 3.2922342 0.2069087 0
7.2380004 3.2842991 0.20664896 0
7.2470002 3.2763314 0.20638922 0
7.2560005 3.2683318 0.20612946 0
7.2650003 3.2602992 0.20586972 0
7.2750006 3.2527144 0.2055811 0
7.2840004 3.2446153 0.20532136 0
7.2930002 3.2364836 0.20506161 0
7.3020005 3.2283196 0.20480186 0
7.3120003 3.2205956 0.20451325 0
7.3210006 3.2123649 0.20425349 0
7.3300004 3.2041016 0.20399375 0
7.3400006 3.1962731 0.20370515 0
7.3490005 3.187943 0.2034454 0
7.3590002 3.1800442 0.2031568 0
7.3680005 3.1716475 0.20289704 0
7.3780003 3.1636782 0.20260844 0
7.3870006 3.155215 0.20234868 0
7.3970003 3.1471753 0.20206007 0
7.4060006 3.1386452 0.20180032 0
7.4160004 3.1305351 0.20151173 0
7.4250002 3.121938 0.20125197 0
7.4350004 3.1137578 0.20096336 0
7.4450006 3.1055417 0.20067474 0
7.4540005 3.0968437 0.200415 0
7.4640002 3.0885568 0.20012639 0
7.4740005 3.0802343 0.19983779 0
7.4840002 3.0718751 0.19954918 0
7.4940004 3.0634804 0.19926056 0
7.5030003 3.0546129 0.19900082 0
7.5130005 3.0461478 0.1987122 0
7.5230002 3.0376461 0.19842361 0
7.5330005 3.0291088 0.19813499 0
7.5430002 3.0205352 0.19784638 0
7.5530005 3.0119257 0.19755776 0
7.5630002 3.0032799 0.19726917 0
7.5730004 2.9945984 0.19698055 0
7.5830007 2.9858806 0.19669193 0
6.8260002 3.6400242 0.2069484 0
6.8340006 3.6330075 0.20670308 0
6.8420005 3.625962 0.20645775 0
6.8510003 3.6194556 0.20618178 0
6.8590002 3.6123502 0.20593646 0
6.8670006 3.6052165 0.20569113 0
6.8750005 3.5980535 0.20544583 0
6.8830004 3.5908616 0.20520051 0
6.8910003 3.5836411 0.20495519 0
6.9000006 3.5769489 0.20467921 0
6.9080005 3.5696688 0.20443387 0
6.9160004 3.5623596 0.20418857 0
6.9240003 3.5550215 0.20394325 0
6.9330006 3.5482054 0.20366727 0
6.9410005 3.5408077 0.20342195 0
6.9500003 3.5339279 0.20314597 0
6.9580002 3.5264709 0.20290066 0
6.9660006 3.5189853 0.20265533 0
6.9750004 3.5120118 0.20237936 0
6.9830003 3.5044663 0.20213403 0
6.9920006 3.4974298 0.20185804 0
7.0000005 3.4898248 0.20161273 0
7.0090003 3.4827249 0.20133676 0
7.0170002 3.4750607 0.20109144 0
7.0260005 3.4678977 0.20081544 0
7.0340004 3.4601738 0.20057012 0
7.0430002 3.4529476 0.20029415 0
7.0520005 3.4456894 0.20001817 0
7.0600004 3.4378753 0.19977283 0
7.0690002 3.4305534 0.19949687 0
7.0780005 3.4231997 0.19922088 0
7.0860004 3.4152951 0.19897556 0
7.0950003 3.4078777 0.19869958 0
7.1040006 3.4004283 0.19842359 0
7.1130004 3.392946 0.19814762 0
7.1210003 3.3849208 0.19790231 0
7.1300006 3.3773756 0.19762631 0
7.1390004 3.3697977 0.19735034 0
7.1480002 3.3621874 0.19707435 0
7.1570005 3.3545446 0.19679835 0
7.1660004 3.3468695 0.19652238 0
7.1750002 3.3391616 0.1962464 0
7.1840005 3.3314219 0.19597042 0
7.1930003 3.3236489 0.19569445 0
7.2020006 3.3158441 0.19541845 0
7.2110004 3.3080065 0.19514248 0
7.2200003 3.3001363 0.19486649 0
7.2290006 3.2922342 0.19459049 0
7.2380004 3.2842991 0.19431452 0
7.2470002 3.2763314 0.19403854 0
7.2560005 3.2683318 0.19376256 0
7.2650003 3.2602992 0.19348659 0
7.2750006 3.2527144 0.19317992 0
7.2840004 3.2446153 0.19290394 0
7.2930002 3.2364836 0.19262797 0
7.3020005 3.2283196 0.19235198 0
7.3120003 3.2205956 0.19204533 0
7.3210006 3.2123649 0.19176935 0
7.3300004 3.2041016 0.19149336 0
7.3400006 3.1962731 0.19118671 0
7.3490005 3.187943 0.19091074 0
7.3590002 3.1800442 0.19060409 0
7.3680005 3.1716475 0.19032811 0
7.3780003 3.1636782 0.19002147 0
7.3870006 3.155215 0.18974547 0
7.3970003 3.1471753 0.18943883 0
7.4060006 3.1386452 0.18916285 0
7.4160004 3.1305351 0.1888562 0
7.4250002 3.121938 0.18858021 0
7.4350004 3.1137578 0.18827356 0
7.4450006 3.1055417 0.18796691 0
7.4540005 3.0968437 0.18769094 0
7.4640002 3.0885568 0.18738429 0
7.4740005 3.0802343 0.18707764 0
7.4840002 3.0718751 0.18677101 0
7.4940004 3.0634804 0.18646434 0
7.5030003 3.0546129 0.18618838 0
7.5130005 3.0461478 0.18588172 0
7.5230002 3.0376461 0.18557508 0
7.5330005 3.0291088 0.18526842 0
7.5430002 3.0205352 0.18496178 0
7.5530005 3.0119257 0.18465513 0
7.5630002 3.0032799 0.18434848 0
7.5730004 2.9945984 0.18404183 0
7.5830007 2.9858806 0.18373518 0
6.8260002 3.6400242 0.19535713 0
6.8340006 3.6330075 0.19509736 0
6.8420005 3.625962 0.19483761 0
6.8510003 3.6194556 0.19454542 0
6.8590002 3.6123502 0.19428568 0
6.8670006 3.6052165 0.19402592 0
6.8750005 3.5980535 0.19376616 0
6.8830004 3.5908616 0.1935064 0
6.8910003 3.5836411 0.19324666 0
6.9000006 3.5769489 0.19295445 0
6.9080005 3.5696688 0.19269471 0
6.9160004 3.5623596 0.19243497 0
6.9240003 3.5550215 0.19217521 0
6.9330006 3.5482054 0.19188298 0
6.9410005 3.5408077 0.19162324 0
6.9500003 3.5339279 0.19133103 0
6.9580002 3.5264709 0.19107129 0
6.9660006 3.5189853 0.19081151 0
6.9750004 3.5120118 0.1905193 0
6.9830003 3.5044663 0.19025956 0
6.9920006 3.4974298 0.18996735 0
7.0000005 3.4898248 0.18970761 0
7.0090003 3.4827249 0.18941538 0
7.0170002 3.4750607 0.18915564 0
7.0260005 3.4678977 0.18886341 0
7.0340004 3.4601738 0.18860367 0
7.0430002 3.4529476 0.18831144 0
7.0520005 3.4456894 0.18801923 0
7.0600004 3.4378753 0.18775949 0
7.0690002 3.4305534 0.18746728 0
7.0780005 3.4231997 0.18717504 0
7.0860004 3.4152951 0.18691529 0
7.0950003 3.4078777 0.1866231 0
7.1040006 3.4004283 0.18633085 0
7.1130004 3.392946 0.18603864 0
7.1210003 3.3849208 0.1857789 0
7.1300006 3.3773756 0.18548669 0
7.1390004 3.3697977 0.18519448 0
7.1480002 3.3621874 0.18490225 0
7.1570005 3.3545446 0.18461004 0
7.1660004 3.3468695 0.18431783 0
7.1750002 3.3391616 0.1840256 0
7.1840005 3.3314219 0.18373337 0
7.1930003 3.3236489 0.18344118 0
7.2020006 3.3158441 0.18314894 0
7.2110004 3.3080065 0.18285672 0
7.2200003 3.3001363 0.18256453 0
7.2290006 3.2922342 0.18227229 0
7.2380004 3.2842991 0.18198007 0
7.2470002 3.2763314 0.18168788 0
7.2560005 3.2683318 0.18139565 0
7.2650003 3.2602992 0.18110342 0
7.2750006 3.2527144 0.18077874 0
7.2840004 3.2446153 0.18048653 0
7.2930002 3.2364836 0.18019432 0
7.3020005 3.2283196 0.17990209 0
7.3120003 3.2205956 0.17957743 0
7.3210006 3.2123649 0.17928518 0
7.3300004 3.2041016 0.17899297 0
7.3400006 3.1962731 0.17866828 0
7.3490005 3.187943 0.17837606 0
7.3590002 3.1800442 0.1780514 0
7.3680005 3.1716475 0.17775916 0
7.3780003 3.1636782 0.17743449 0
7.3870006 3.155215 0.17714226 0
7.3970003 3.1471753 0.17681758 0
7.4060006 3.1386452 0.17652535 0
7.4160004 3.1305351 0.17620069 0
7.4250002 3.121938 0.17590846 0
7.4350004 3.1137578 0.17558378 0
7.4450006 3.1055417 0.17525908 0
7.4540005 3.0968437 0.17496687 0
7.4640002 3.0885568 0.17464221 0
7.4740005 3.0802343 0.17431749 0
7.4840002 3.0718751 0.17399283 0
7.4940004 3.0634804 0.17366813 0
7.5030003 3.0546129 0.17337592 0
7.5130005 3.0461478 0.17305122 0
7.5230002 3.0376461 0.17272654 0
7.5330005 3.0291088 0.17240185 0
7.5430002 3.0205352 0.17207718 0
7.5530005 3.0119257 0.17175248 0
7.5630002 3.0032799 0.1714278 0
7.5730004 2.9945984 0.1711031 0
7.5830007 2.9858806 0.17077844 0
6.8260002 3.6400242 0.18376586 0
6.8340006 3.6330075 0.18349166 0
6.8420005 3.625962 0.18321748 0
6.8510003 3.6194556 0.18290906 0
6.8590002 3.6123502 0.18263488 0
6.8670006 3.6052165 0.18236068 0
6.8750005 3.5980535 0.1820865 0
6.8830004 3.5908616 0.18181233 0
6.8910003 3.5836411 0.18153815 0
6.9000006 3.5769489 0.1812297 0
6.9080005 3.5696688 0.18095551 0
6.9160004 3.5623596 0.18068133 0
6.9240003 3.5550215 0.18040717 0
6.9330006 3.5482054 0.18009871 0
6.9410005 3.5408077 0.17982453 0
6.9500003 3.5339279 0.17951608 0
6.9580002 3.5264709 0.1792419 0
6.9660006 3.5189853 0.17896773 0
6.9750004 3.5120118 0.17865928 0
6.9830003 3.5044663 0.17838509 0
6.9920006 3.4974298 0.17807664 0
7.0000005 3.4898248 0.17780246 0
7.0090003 3.4827249 0.177494 0
7.0170002 3.4750607 0.17721984 0
7.0260005 3.4678977 0.17691138 0
7.0340004 3.4601738 0.1766372 0
7.0430002 3.4529476 0.17632876 0
7.0520005 3.4456894 0.17602029 0
7.0600004 3.4378753 0.17574611 0
7.0690002 3.4305534 0.17543767 0
7.0780005 3.4231997 0.1751292 0
7.0860004 3.4152951 0.17485504 0
7.0950003 3.4078777 0.1745466 0
7.1040006 3.4004283 0.17423813 0
7.1130004 3.392946 0.17392969 0
7.1210003 3.3849208 0.17365551 0
7.1300006 3.3773756 0.17334704 0
7.1390004 3.3697977 0.17303862 0
7.1480002 3.3621874 0.17273015 0
7.1570005 3.3545446 0.17242169 0
7.1660004 3.3468695 0.17211325 0
7.1750002 3.3391616 0.1718048 0
7.1840005 3.3314219 0.17149633 0
7.1930003 3.3236489 0.17118791 0
7.2020006 3.3158441 0.17087944 0
7.2110004 3.3080065 0.17057098 0
7.2200003 3.3001363 0.17026255 0
7.2290006 3.2922342 0.16995409 0
7.2380004 3.2842991 0.16964562 0
7.2470002 3.2763314 0.1693372 0
7.2560005 3.2683318 0.16902873 0
7.2650003 3.2602992 0.1687203 0
7.2750006 3.2527144 0.16837755 0
7.2840004 3.2446153 0.16806911 0
7.2930002 3.2364836 0.16776069 0
7.3020005 3.2283196 0.16745222 0
7.3120003 3.2205956 0.16710949 0
7.3210006 3.2123649 0.16680104 0
7.3300004 3.2041016 0.16649257 0
7.3400006 3.1962731 0.16614984 0
7.3490005 3.187943 0.16584142 0
7.3590002 3.1800442 0.16549869 0
7.3680005 3.1716475 0.16519022 0
7.3780003 3.1636782 0.16484752 0
7.3870006 3.155215 0.16453905 0
7.3970003 3.1471753 0.16419633 0
7.4060006 3.1386452 0.16388787 0
7.4160004 3.1305351 0.16354518 0
7.4250002 3.121938 0.16323671 0
7.4350004 3.1137578 0.16289398 0
7.4450006 3.1055417 0.16255125 0
7.4540005 3.0968437 0.16224281 0
7.4640002 3.0885568 0.16190009 0
7.4740005 3.0802343 0.16155736 0
7.4840002 3.0718751 0.16121463 0
7.4940004 3.0634804 0.16087191 0
7.5030003 3.0546129 0.16056348 0
7.5130005 3.0461478 0.16022074 0
7.5230002 3.0376461 0.15987802 0
7.5330005 3.0291088 0.15953529 0
7.5430002 3.0205352 0.15919259 0
7.5530005 3.0119257 0.15884984 0
7.5630002 3.0032799 0.15850714 0
7.5730004 2.9945984 0.15816441 0
7.5830007 2.9858806 0.15782169 0
6.8260002 3.6400242 0.17217459 0
6.8340006 3.6330075 0.17188597 0
6.8420005 3.625962 0.17159735 0
6.8510003 3.6194556 0.17127268 0
6.8590002 3.6123502 0.17098406 0
6.8670006 3.6052165 0.17069545 0
6.8750005 3.5980535 0.17040686 0
6.8830004 3.5908616 0.17011824 0
6.8910003 3.5836411 0.16982962 0
6.9000006 3.5769489 0.16950493 0
6.9080005 3.5696688 0.16921633 0
6.9160004 3.5623596 0.16892773 0
6.9240003 3.5550215 0.16863911 0
6.9330006 3.5482054 0.16831444 0
6.9410005 3.5408077 0.16802582 0
6.9500003 3.5339279 0.16770114 0
6.9580002 3.5264709 0.16741253 0
6.9660006 3.5189853 0.16712391 0
6.9750004 3.5120118 0.16679925 0
6.9830003 3.5044663 0.16651063 0
6.9920006 3.4974298 0.16618593 0
7.0000005 3.4898248 0.16589734 0
7.0090003 3.4827249 0.16557264 0
7.0170002 3.4750607 0.16528405 0
7.0260005 3.4678977 0.16495936 0
7.0340004 3.4601738 0.16467074 0
7.0430002 3.4529476 0.16434607 0
7.0520005 3.4456894 0.16402136 0
7.0600004 3.4378753 0.16373275 0
7.0690002 3.4305534 0.16340807 0
7.0780005 3.4231997 0.16308337 0
7.0860004 3.4152951 0.16279478 0
7.0950003 3.4078777 0.16247009 0
7.1040006 3.4004283 0.16214539 0
7.1130004 3.392946 0.16182071 0
7.1210003 3.3849208 0.16153212 0
7.1300006 3.3773756 0.16120742 0
7.1390004 3.3697977 0.16088276 0
7.1480002 3.3621874 0.16055806 0
7.1570005 3.3545446 0.16023335 0
7.1660004 3.3468695 0.15990868 0
7.1750002 3.3391616 0.15958402 0
7.1840005 3.3314219 0.1592593 0
7.1930003 3.3236489 0.15893464 0
7.2020006 3.3158441 0.15860994 0
7.2110004 3.3080065 0.15828526 0
7.2200003 3.3001363 0.15796056 0
7.2290006 3.2922342 0.15763587 0
7.2380004 3.2842991 0.1573112 0
7.2470002 3.2763314 0.15698652 0
7.2560005 3.2683318 0.15666182 0
7.2650003 3.2602992 0.15633716 0
7.2750006 3.2527144 0.15597637 0
7.2840004 3.2446153 0.15565169 0
7.2930002 3.2364836 0.15532702 0
7.3020005 3.2283196 0.15500233 0
7.3120003 3.2205956 0.15464157 0
7.3210006 3.2123649 0.15431687 0
7.3300004 3.2041016 0.15399221 0
7.3400006 3.1962731 0.15363142 0
7.3490005 3.187943 0.15330675 0
7.3590002 3.1800442 0.152946 0
7.3680005 3.1716475 0.15262127 0
7.3780003 3.1636782 0.15226054 0
7.3870006 3.155215 0.15193585 0
7.3970003 3.1471753 0.15157509 0
7.4060006 3.1386452 0.15125039 0
7.4160004 3.1305351 0.15088964 0
7.4250002 3.121938 0.15056497 0
7.4350004 3.1137578 0.15020418 0
7.4450006 3.1055417 0.14984342 0
7.4550004 3.0972891 0.14948267 0
7.4640002 3.0885568 0.149158 0
7.4740005 3.0802343 0.14879721 0
7.4840002 3.0718751 0.14843646 0
7.4940004 3.0634804 0.1480757 0
7.5030003 3.0546129 0.14775103 0
7.5130005 3.0461478 0.14739025 0
7.5230002 3.0376461 0.14702949 0
7.5330005 3.0291088 0.14666873 0
7.5430002 3.0205352 0.14630798 0
7.5530005 3.0119257 0.14594719 0
7.5630002 3.0032799 0.14558643 0
7.5730004 2.9945984 0.14522567 0
7.5830007 2.9858806 0.14486492 0
6.8260002 3.6400242 0.16058332 0
6.8340006 3.6330075 0.16028026 0
6.8420005 3.625962 0.15997721 0
6.8510003 3.6194556 0.1596363 0
6.8590002 3.6123502 0.15933327 0
6.8670006 3.6052165 0.15903023 0
6.8750005 3.5980535 0.15872718 0
6.8830004 3.5908616 0.15842415 0
6.8910003 3.5836411 0.15812111 0
6.9000006 3.5769489 0.15778017 0
6.9080005 3.5696688 0.15747714 0
6.9160004 3.5623596 0.15717413 0
6.9240003 3.5550215 0.15687108 0
6.9330006 3.5482054 0.15653014 0
6.9410005 3.5408077 0.15622711 0
6.9500003 3.5339279 0.1558862 0
6.9580002 3.5264709 0.15558316 0
6.9660006 3.5189853 0.1552801 0
6.9750004 3.5120118 0.15493919 0
6.9830003 3.5044663 0.15463614 0
6.9920006 3.4974298 0.15429524 0
7.0000005 3.4898248 0.15399221 0
7.0090003 3.4827249 0.1536513 0
7.0170002 3.4750607 0.15334824 0
7.0260005 3.4678977 0.1530073 0
7.0340004 3.4601738 0.15270427 0
7.0430002 3.4529476 0.15236336 0
7.0520005 3.4456894 0.15202242 0
7.0600004 3.4378753 0.15171939 0
7.0690002 3.4305534 0.15137848 0
