# .PCD v0.7 - Point Cloud Data file format
VERSION 0.7
FIELDS x y z intensity
SIZE 4 4 4 4
TYPE F F F F
COUNT 1 1 1 1
WIDTH 445
HEIGHT 1
VIEWPOINT 0 0 0 1 0 0 0
POINTS 445
DATA ascii
3.1230001 -0.18844132 1.5631777 0
3.1190002 -0.19313663 1.5614749 0
3.1150002 -0.19781753 1.5597721 0
3.1120002 -0.20254169 1.558495 0
3.1080003 -0.20719552 1.5567923 0
3.1040003 -0.21183492 1.5550895 0
3.1000001 -0.21645987 1.5533866 0
3.0960002 -0.22107041 1.5516839 0
3.0930002 -0.22573327 1.5504068 0
3.0890002 -0.23031674 1.5487039 0
3.0850003 -0.23488578 1.5470011 0
3.0820003 -0.23951255 1.545724 0
3.1500003 -0.1551304 1.5697112 0
3.1460001 -0.15992491 1.5680155 0
3.1420002 -0.16470501 1.5663199 0
3.1380002 -0.16947068 1.5646244 0
3.1350002 -0.1742688 1.5633527 0
3.1310003 -0.17900741 1.5616571 0
3.1270003 -0.18373159 1.5599616 0
3.1230001 -0.18844132 1.5582659 0
3.1190002 -0.19313663 1.5565704 0
3.1150002 -0.19781753 1.5548748 0
3.1120002 -0.20254169 1.5536031 0
3.1080003 -0.20719552 1.5519075 0
3.1040003 -0.21183492 1.550212 0
3.1000001 -0.21645987 1.5485163 0
3.0960002 -0.22107041 1.5468208 0
3.0930002 -0.22573327 1.5455492 0
3.0890002 -0.23031674 1.5438535 0
3.0850003 -0.23488578 1.542158 0
3.0820003 -0.23951255 1.5408863 0
3.1540003 -0.15032145 1.566439 0
3.1500003 -0.1551304 1.5647507 0
3.1460001 -0.15992491 1.5630623 0
3.1420002 -0.16470501 1.5613739 0
3.1380002 -0.16947068 1.5596855 0
3.1350002 -0.1742688 1.5584193 0
3.1310003 -0.17900741 1.5567309 0
3.1270003 -0.18373159 1.5550426 0
3.1230001 -0.18844132 1.5533541 0
3.1190002 -0.19313663 1.5516658 0
3.1150002 -0.19781753 1.5499775 0
3.1120002 -0.20254169 1.5487112 0
3.1080003 -0.20719552 1.5470228 0
3.1040003 -0.21183492 1.5453346 0
3.1000001 -0.21645987 1.543646 0
3.0960002 -0.22107041 1.5419577 0
3.0930002 -0.22573327 1.5406915 0
3.0890002 -0.23031674 1.539003 0
3.0850003 -0.23488578 1.5373148 0
3.1540003 -0.15032145 1.5614713 0
3.1500003 -0.1551304 1.5597903 0
3.1460001 -0.15992491 1.5581089 0
3.1420002 -0.16470501 1.556428 0
3.1380002 -0.16947068 1.5547467 0
3.1350002 -0.1742688 1.5534859 0
3.1310003 -0.17900741 1.5518048 0
3.1270003 -0.18373159 1.5501236 0
3.1230001 -0.18844132 1.5484424 0
3.1190002 -0.19313663 1.5467613 0
3.1150002 -0.19781753 1.5450801 0
3.1120002 -0.20254169 1.5438193 0
3.1080003 -0.20719552 1.5421381 0
3.1040003 -0.21183492 1.540457 0
3.1000001 -0.21645987 1.5387758 0
3.0960002 -0.22107041 1.5370947 0
3.0930002 -0.22573327 1.5358337 0
3.0890002 -0.23031674 1.5341526 0
3.1540003 -0.15032145 1.5565037 0
3.1500003 -0.1551304 1.5548297 0
3.1460001 -0.15992491 1.5531558 0
3.1420002 -0.16470501 1.5514818 0
3.1380002 -0.16947068 1.5498079 0
3.1350002 -0.1742688 1.5485524 0
3.1310003 -0.17900741 1.5468786 0
3.1270003 -0.18373159 1.5452046 0
3.1230001 -0.18844132 1.5435306 0
3.1190002 -0.19313663 1.5418568 0
3.1150002 -0.19781753 1.5401827 0
3.1120002 -0.20254169 1.5389273 0
3.1080003 -0.20719552 1.5372534 0
3.1040003 -0.21183492 1.5355796 0
3.1000001 -0.21645987 1.5339055 0
3.0960002 -0.22107041 1.5322316 0
3.0930002 -0.22573327 1.5309761 0
3.1540003 -0.15032145 1.551536 0
3.1500003 -0.1551304 1.5498693 0
3.1460001 -0.15992491 1.5482024 0
3.1420002 -0.16470501 1.5465358 0
3.1380002 -0.16947068 1.5448691 0
3.1350002 -0.1742688 1.543619 0
3.1310003 -0.17900741 1.5419523 0
3.1270003 -0.18373159 1.5402857 0
3.1230001 -0.18844132 1.5386188 0
3.1190002 -0.19313663 1.5369521 0
3.1150002 -0.19781753 1.5352855 0
3.1120002 -0.20254169 1.5340354 0
3.1080003 -0.20719552 1.5323687 0
3.1040003 -0.21183492 1.5307021 0
3.1000001 -0.21645987 1.5290352 0
3.0960002 -0.22107041 1.5273684 0
3.1540003 -0.15032145 1.5465683 0
3.1500003 -0.1551304 1.5449088 0
3.1460001 -0.15992491 1.5432492 0
3.1420002 -0.16470501 1.5415897 0
3.1380002 -0.16947068 1.5399302 0
3.1350002 -0.1742688 1.5386857 0
3.1310003 -0.17900741 1.5370262 0
3.1270003 -0.18373159 1.5353667 0
3.1230001 -0.18844132 1.5337071 0
3.1190002 -0.19313663 1.5320475 0
3.1150002 -0.19781753 1.5303881 0
3.1120002 -0.20254169 1.5291435 0
3.1080003 -0.20719552 1.5274839 0
3.1040003 -0.21183492 1.5258244 0
3.1000001 -0.21645987 1.5241649 0
3.1540003 -0.15032145 1.5416006 0
3.1500003 -0.1551304 1.5399483 0
3.1460001 -0.15992491 1.5382959 0
3.1420002 -0.16470501 1.5366437 0
3.1380002 -0.16947068 1.5349914 0
3.1350002 -0.1742688 1.5337522 0
3.1310003 -0.17900741 1.5321 0
3.1270003 -0.18373159 1.5304476 0
3.1230001 -0.18844132 1.5287954 0
3.1190002 -0.19313663 1.527143 0
3.1150002 -0.19781753 1.5254908 0
3.1120002 -0.20254169 1.5242516 0
3.1080003 -0.20719552 1.5225992 0
3.1040003 -0.21183492 1.520947 0
3.1540003 -0.15032145 1.5366329 0
3.1500003 -0.1551304 1.5349878 0
3.1460001 -0.15992491 1.5333427 0
3.1420002 -0.16470501 1.5316976 0
3.1380002 -0.16947068 1.5300525 0
3.1350002 -0.1742688 1.5288187 0
3.1310003 -0.17900741 1.5271738 0
3.1270003 -0.18373159 1.5255287 0
3.1230001 -0.18844132 1.5238835 0
3.1190002 -0.19313663 1.5222385 0
3.1150002 -0.19781753 1.5205934 0
3.1120002 -0.20254169 1.5193597 0
3.1080003 -0.20719552 1.5177146 0
3.1540003 -0.15032145 1.5316652 0
3.1500003 -0.1551304 1.5300274 0
3.1460001 -0.15992491 1.5283895 0
3.1420002 -0.16470501 1.5267516 0
3.1380002 -0.16947068 1.5251138 0
3.1350002 -0.1742688 1.5238854 0
3.1310003 -0.17900741 1.5222474 0
3.1270003 -0.18373159 1.5206097 0
3.1230001 -0.18844132 1.5189718 0
3.1190002 -0.19313663 1.5173339 0
3.1150002 -0.19781753 1.5156962 0
3.1120002 -0.20254169 1.5144677 0
3.1080003 -0.20719552 1.5128299 0
3.1540003 -0.15032145 1.5266975 0
3.1500003 -0.1551304 1.525067 0
3.1460001 -0.15992491 1.5234362 0
3.1420002 -0.16470501 1.5218055 0
3.1380002 -0.16947068 1.520175 0
3.1350002 -0.1742688 1.518952 0
3.1310003 -0.17900741 1.5173213 0
3.1270003 -0.18373159 1.5156907 0
3.1230001 -0.18844132 1.51406 0
3.1190002 -0.19313663 1.5124294 0
3.1150002 -0.19781753 1.5107987 0
3.1120002 -0.20254169 1.5095758 0
3.1540003 -0.15032145 1.5217298 0
3.1500003 -0.1551304 1.5201064 0
3.1460001 -0.15992491 1.5184829 0
3.1420002 -0.16470501 1.5168595 0
3.1380002 -0.16947068 1.5152361 0
3.1350002 -0.1742688 1.5140185 0
3.1310003 -0.17900741 1.5123951 0
3.1270003 -0.18373159 1.5107718 0
3.1230001 -0.18844132 1.5091481 0
3.1190002 -0.19313663 1.5075248 0
3.1150002 -0.19781753 1.5059015 0
3.1120002 -0.20254169 1.5046839 0
3.1540003 -0.15032145 1.5167621 0
3.1500003 -0.1551304 1.515146 0
3.1460001 -0.15992491 1.5135297 0
3.1420002 -0.16470501 1.5119134 0
3.1380002 -0.16947068 1.5102973 0
3.1350002 -0.1742688 1.5090851 0
3.1310003 -0.17900741 1.5074689 0
3.1270003 -0.18373159 1.5058527 0
3.1230001 -0.18844132 1.5042365 0
3.1190002 -0.19313663 1.5026202 0
3.1150002 -0.19781753 1.5010041 0
3.1540003 -0.15032145 1.5117944 0
3.1500003 -0.1551304 1.5101855 0
3.1460001 -0.15992491 1.5085764 0
3.1420002 -0.16470501 1.5069674 0
3.1380002 -0.16947068 1.5053585 0
3.1350002 -0.1742688 1.5041517 0
3.1310003 -0.17900741 1.5025427 0
3.1270003 -0.18373159 1.5009338 0
3.1230001 -0.18844132 1.4993247 0
3.1190002 -0.19313663 1.4977157 0
3.1540003 -0.15032145 1.5068268 0
3.1500003 -0.1551304 1.5052251 0
3.1460001 -0.15992491 1.5036231 0
3.1420002 -0.16470501 1.5020213 0
3.1380002 -0.16947068 1.5004197 0
3.1350002 -0.1742688 1.4992183 0
3.1310003 -0.17900741 1.4976165 0
3.1270003 -0.18373159 1.4960147 0
3.1230001 -0.18844132 1.4944129 0
3.1190002 -0.19313663 1.4928112 0
3.1540003 -0.15032145 1.5018591 0
3.1500003 -0.1551304 1.5002645 0
3.1460001 -0.15992491 1.49867 0
3.1420002 -0.16470501 1.4970753 0
3.1380002 -0.16947068 1.4954808 0
3.1350002 -0.1742688 1.4942849 0
3.1310003 -0.17900741 1.4926903 0
3.1270003 -0.18373159 1.4910958 0
3.1230001 -0.18844132 1.4895011 0
3.1540003 -0.15032145 1.4968915 0
3.1500003 -0.1551304 1.4953041 0
3.1460001 -0.15992491 1.4937166 0
3.1420002 -0.16470501 1.4921293 0
3.1380002 -0.16947068 1.4905421 0
3.1350002 -0.1742688 1.4893514 0
3.1310003 -0.17900741 1.4877641 0
3.1270003 -0.18373159 1.4861768 0
3.1230001 -0.18844132 1.4845893 0
3.1540003 -0.15032145 1.4919237 0
3.1500003 -0.1551304 1.4903436 0
3.1460001 -0.15992491 1.4887635 0
3.1420002 -0.16470501 1.4871833 0
3.1380002 -0.16947068 1.4856031 0
3.1350002 -0.1742688 1.484418 0
3.1310003 -0.17900741 1.4828379 0
3.1270003 -0.18373159 1.4812578 0
3.1230001 -0.18844132 1.4796777 0
3.1540003 -0.15032145 1.4869561 0
3.1500003 -0.1551304 1.4853832 0
3.1460001 -0.15992491 1.4838101 0
3.1420002 -0.16470501 1.4822372 0
3.1380002 -0.16947068 1.4806644 0
3.1350002 -0.1742688 1.4794847 0
3.1310003 -0.17900741 1.4779117 0
3.1270003 -0.18373159 1.4763387 0
3.1540003 -0.15032145 1.4819883 0
3.1500003 -0.1551304 1.4804226 0
3.1460001 -0.15992491 1.4788569 0
3.1420002 -0.16470501 1.4772912 0
3.1380002 -0.16947068 1.4757255 0
3.1350002 -0.1742688 1.4745513 0
3.1310003 -0.17900741 1.4729855 0
3.1270003 -0.18373159 1.4714198 0
3.1540003 -0.15032145 1.4770206 0
3.1500003 -0.1551304 1.4754622 0
3.1460001 -0.15992491 1.4739035 0
3.1420002 -0.16470501 1.4723451 0
3.1380002 -0.16947068 1.4707867 0
3.1350002 -0.1742688 1.4696177 0
3.1310003 -0.17900741 1.4680593 0
3.1270003 -0.18373159 1.4665009 0
3.1540003 -0.15032145 1.4720529 0
3.1500003 -0.1551304 1.4705018 0
3.1460001 -0.15992491 1.4689504 0
3.1420002 -0.16470501 1.4673991 0
3.1380002 -0.16947068 1.4658478 0
3.1350002 -0.1742688 1.4646844 0
3.1310003 -0.17900741 1.4631331 0
3.1540003 -0.15032145 1.4670852 0
3.1500003 -0.1551304 1.4655412 0
3.1460001 -0.15992491 1.463997 0
3.1420002 -0.16470501 1.462453 0
3.1380002 -0.16947068 1.460909 0
3.1350002 -0.1742688 1.459751 0
3.1310003 -0.17900741 1.4582069 0
3.1540003 -0.15032145 1.4621176 0
3.1500003 -0.1551304 1.4605808 0
3.1460001 -0.15992491 1.4590439 0
3.1420002 -0.16470501 1.457507 0
3.1380002 -0.16947068 1.4559702 0
3.1350002 -0.1742688 1.4548177 0
3.1310003 -0.17900741 1.4532808 0
3.1540003 -0.15032145 1.4571499 0
3.1500003 -0.1551304 1.4556203 0
3.1460001 -0.15992491 1.4540906 0
3.1420002 -0.16470501 1.452561 0
3.1380002 -0.16947068 1.4510314 0
3.1350002 -0.1742688 1.4498841 0
3.1540003 -0.15032145 1.4521823 0
3.1500003 -0.1551304 1.4506599 0
3.1460001 -0.15992491 1.4491373 0
3.1420002 -0.16470501 1.4476149 0
3.1380002 -0.16947068 1.4460925 0
3.1350002 -0.1742688 1.4449507 0
3.1540003 -0.15032145 1.4472145 0
3.1500003 -0.1551304 1.4456993 0
3.1460001 -0.15992491 1.4441841 0
3.1420002 -0.16470501 1.4426689 0
3.1380002 -0.16947068 1.4411538 0
3.1350002 -0.1742688 1.4400173 0
3.1540003 -0.15032145 1.4422469 0
3.1500003 -0.1551304 1.4407389 0
3.1460001 -0.15992491 1.4392308 0
3.1420002 -0.16470501 1.4377228 0
3.1380002 -0.16947068 1.4362148 0
3.1350002 -0.1742688 1.435084 0
3.1540003 -0.15032145 1.4372791 0
3.1500003 -0.1551304 1.4357784 0
3.1460001 -0.15992491 1.4342775 0
3.1420002 -0.16470501 1.4327768 0
3.1380002 -0.16947068 1.4312761 0
3.1350002 -0.1742688 1.4301504 0
3.1540003 -0.15032145 1.4323115 0
3.1500003 -0.1551304 1.430818 0
3.1460001 -0.15992491 1.4293243 0
3.1420002 -0.16470501 1.4278307 0
3.1380002 -0.16947068 1.4263372 0
3.1350002 -0.1742688 1.425217 0
3.1540003 -0.15032145 1.4273437 0
3.1500003 -0.1551304 1.4258574 0
3.1460001 -0.15992491 1.4243711 0
3.1420002 -0.16470501 1.4228848 0
3.1380002 -0.16947068 1.4213984 0
3.1540003 -0.15032145 1.4223762 0
3.1500003 -0.1551304 1.420897 0
3.1460001 -0.15992491 1.4194177 0
3.1420002 -0.16470501 1.4179387 0
3.1380002 -0.16947068 1.4164596 0
3.1540003 -0.15032145 1.4174083 0
3.1500003 -0.1551304 1.4159365 0
3.1460001 -0.15992491 1.4144646 0
3.1420002 -0.16470501 1.4129927 0
3.1380002 -0.16947068 1.4115207 0
3.1540003 -0.15032145 1.4124407 0
3.1500003 -0.1551304 1.4109761 0
3.1460001 -0.15992491 1.4095112 0
3.1420002 -0.16470501 1.4080466 0
3.1380002 -0.16947068 1.4065819 0
3.1540003 -0.15032145 1.407473 0
3.1500003 -0.1551304 1.4060156 0
3.1460001 -0.15992491 1.4045581 0
3.1420002 -0.16470501 1.4031005 0
3.1380002 -0.16947068 1.4016432 0
3.1540003 -0.15032145 1.4025053 0
3.1500003 -0.1551304 1.4010551 0
3.1460001 -0.15992491 1.3996047 0
3.1420002 -0.16470501 1.3981545 0
3.1380002 -0.16947068 1.3967042 0
3.1540003 -0.15032145 1.3975376 0
3.1500003 -0.1551304 1.3960946 0
3.1460001 -0.15992491 1.3946514 0
3.1420002 -0.16470501 1.3932085 0
3.1380002 -0.16947068 1.3917655 0
3.1540003 -0.15032145 1.3925699 0
3.1500003 -0.1551304 1.3911341 0
3.1460001 -0.15992491 1.3896983 0
3.1420002 -0.16470501 1.3882624 0
3.1380002 -0.16947068 1.3868266 0
3.1540003 -0.15032145 1.3876022 0
3.1500003 -0.1551304 1.3861736 0
3.1460001 -0.15992491 1.384745 0
3.1420002 -0.16470501 1.3833164 0
3.1380002 -0.16947068 1.3818878 0
3.1540003 -0.15032145 1.3826345 0
3.1500003 -0.1551304 1.3812132 0
3.1460001 -0.15992491 1.3797917 0
3.1420002 -0.16470501 1.3783703 0
3.1380002 -0.16947068 1.376949 0
3.1540003 -0.15032145 1.377667 0
3.1500003 -0.1551304 1.3762528 0
3.1460001 -0.15992491 1.3748385 0
3.1420002 -0.16470501 1.3734243 0
3.1380002 -0.16947068 1.3720101 0
3.1540003 -0.15032145 1.3726991 0
3.1500003 -0.1551304 1.3712922 0
3.1460001 -0.15992491 1.3698852 0
3.1420002 -0.16470501 1.3684782 0
3.1380002 -0.16947068 1.3670713 0
3.1540003 -0.15032145 1.3677316 0
3.1500003 -0.1551304 1.3663318 0
3.1460001 -0.15992491 1.3649319 0
3.1420002 -0.16470501 1.3635322 0
3.1380002 -0.16947068 1.3621325 0
3.1350002 -0.1742688 1.3610827 0
3.1540003 -0.15032145 1.3627638 0
3.1500003 -0.1551304 1.3613713 0
3.1460001 -0.15992491 1.3599787 0
3.1420002 -0.16470501 1.3585861 0
3.1380002 -0.16947068 1.3571936 0
3.1350002 -0.1742688 1.3561492 0
3.1540003 -0.15032145 1.3577962 0
3.1500003 -0.1551304 1.3564109 0
3.1460001 -0.15992491 1.3550254 0
3.1420002 -0.16470501 1.3536401 0
3.1380002 -0.16947068 1.3522549 0
3.1350002 -0.1742688 1.3512157 0
3.1540003 -0.15032145 1.3528284 0
3.1500003 -0.1551304 1.3514503 0
3.1460001 -0.15992491 1.3500721 0
3.1420002 -0.16470501 1.3486941 0
3.1380002 -0.16947068 1.3473159 0
3.1350002 -0.1742688 1.3462824 0
3.1540003 -0.15032145 1.3478607 0
3.1500003 -0.1551304 1.3464899 0
3.1460001 -0.15992491 1.3451189 0
3.1420002 -0.16470501 1.3437481 0
3.1380002 -0.16947068 1.3423772 0
3.1350002 -0.1742688 1.341349 0
3.1540003 -0.15032145 1.342893 0
3.1500003 -0.1551304 1.3415294 0
3.1460001 -0.15992491 1.3401656 0
3.1420002 -0.16470501 1.338802 0
3.1380002 -0.16947068 1.3374383 0
3.1350002 -0.1742688 1.3364155 0
3.1310003 -0.17900741 1.3350519 0
3.1540003 -0.15032145 1.3379253 0
3.1500003 -0.1551304 1.336569 0
3.1460001 -0.15992491 1.3352123 0
3.1420002 -0.16470501 1.333856 0
3.1380002 -0.16947068 1.3324995 0
3.1350002 -0.1742688 1.3314822 0
3.1310003 -0.17900741 1.3301257 0
3.1580002 -0.14549807 1.334307 0
3.1540003 -0.15032145 1.3329577 0
3.1500003 -0.1551304 1.3316084 0
3.1460001 -0.15992491 1.3302591 0
3.1420002 -0.16470501 1.3289099 0
3.1380002 -0.16947068 1.3275607 0
3.1350002 -0.1742688 1.3265487 0
3.1310003 -0.17900741 1.3251995 0
3.1660001 -0.13580801 1.332016 0
3.1620002 -0.14066024 1.3306739 0
3.1580002 -0.14549807 1.329332 0
3.1540003 -0.15032145 1.3279899 0
3.1500003 -0.1551304 1.3266479 0
3.1460001 -0.15992491 1.3253058 0
3.1420002 -0.16470501 1.3239639 0
3.1380002 -0.16947068 1.3226218 0
3.1350002 -0.1742688 1.3216153 0
3.1310003 -0.17900741 1.3202733 0
3.1700003 -0.13094133 1.3283615 0
3.1660001 -0.13580801 1.3270267 0
3.1620002 -0.14066024 1.3256918 0
3.1580002 -0.14549807 1.324357 0
