# .PCD v0.7 - Point Cloud Data file format
VERSION 0.7
FIELDS x y z intensity
SIZE 4 4 4 4
TYPE F F F F
COUNT 1 1 1 1
WIDTH 1458
HEIGHT 1
VIEWPOINT 0 0 0 1 0 0 0
POINTS 1458
DATA ascii
4.9540005 1.7694139 0.80651259 0
4.9550004 1.7615963 0.80660099 0
4.9570003 1.7541699 0.80677778 0
4.9580002 1.7463433 0.80686617 0
4.9590001 1.7385128 0.8069545 0
4.9610004 1.7310686 0.80713129 0
4.9620004 1.7232293 0.80721968 0
4.9640002 1.7157723 0.80739641 0
4.9650002 1.7079239 0.80748487 0
4.9670005 1.7004545 0.80766165 0
4.9680004 1.692597 0.80774999 0
4.9700003 1.6851147 0.80792677 0
4.9710002 1.6772484 0.80801517 0
4.9720001 1.6693783 0.80810356 0
4.9740005 1.6618781 0.80828035 0
4.9750004 1.6539991 0.80836874 0
4.9770002 1.6464862 0.80854547 0
4.9780002 1.6385981 0.80863386 0
4.9800005 1.6310726 0.80881065 0
4.9810004 1.6231756 0.80889904 0
4.9820004 1.6152749 0.80898738 0
4.9840002 1.6077313 0.80916417 0
4.9850001 1.5998216 0.80925262 0
4.9870005 1.5922656 0.80942941 0
4.9880004 1.5843469 0.80951774 0
4.9900002 1.5767779 0.80969453 0
4.9910002 1.5688502 0.80978286 0
4.9930005 1.5612689 0.80995971 0
4.9940004 1.5533322 0.8100481 0
4.9210005 1.9438243 0.79544085 0
4.9230003 1.9365458 0.795614 0
4.9240003 1.9288236 0.79570055 0
4.9250002 1.9210979 0.79578716 0
4.9270005 1.9138017 0.79596031 0
4.9280005 1.906067 0.79604697 0
4.9300003 1.8987577 0.79622006 0
4.9310002 1.8910141 0.79630661 0
4.9320002 1.8832666 0.79639328 0
4.9340005 1.8759397 0.79656643 0
4.9350004 1.8681833 0.79665303 0
4.9370003 1.8608437 0.79682612 0
4.9380002 1.8530781 0.79691273 0
4.9400005 1.845726 0.79708588 0
4.9410005 1.8379514 0.79717249 0
4.9420004 1.8301734 0.79725909 0
4.9440002 1.8228029 0.79743218 0
4.9450002 1.8150159 0.79751885 0
4.9470005 1.807633 0.797692 0
4.9480004 1.799837 0.79777861 0
4.9500003 1.7924414 0.7979517 0
4.9510002 1.7846363 0.7980383 0
4.9520001 1.7768275 0.79812491 0
4.9540005 1.7694139 0.79829806 0
4.9550004 1.7615963 0.79838467 0
4.9570003 1.7541699 0.79855782 0
4.9580002 1.7463433 0.79864436 0
4.9590001 1.7385128 0.79873097 0
4.9610004 1.7310686 0.79890418 0
4.9620004 1.7232293 0.79899073 0
4.9640002 1.7157723 0.79916388 0
4.9650002 1.7079239 0.79925048 0
4.9670005 1.7004545 0.79942369 0
4.9680004 1.692597 0.79951024 0
4.9700003 1.6851147 0.79968339 0
4.9710002 1.6772484 0.79977 0
4.9720001 1.6693783 0.79985654 0
4.9740005 1.6618781 0.80002975 0
4.9750004 1.6539991 0.8001163 0
4.9770002 1.6464862 0.80028951 0
4.9780002 1.6385981 0.80037606 0
4.9800005 1.6310726 0.80054927 0
4.9810004 1.6231756 0.80063581 0
4.9820004 1.6152749 0.80072236 0
4.9840002 1.6077313 0.80089557 0
4.9850001 1.5998216 0.80098212 0
4.9870005 1.5922656 0.80115533 0
4.9880004 1.5843469 0.80124187 0
4.9900002 1.5767779 0.80141503 0
4.9910002 1.5688502 0.80150163 0
4.9930005 1.5612689 0.80167484 0
4.9940004 1.5533322 0.80176139 0
4.9210005 1.9438243 0.7872858 0
4.9230003 1.9365458 0.78745538 0
4.9240003 1.9288236 0.78754014 0
4.9250002 1.9210979 0.78762496 0
4.9270005 1.9138017 0.78779447 0
4.9280005 1.906067 0.78787923 0
4.9300003 1.8987577 0.7880488 0
4.9310002 1.8910141 0.78813362 0
4.9320002 1.8832666 0.78821838 0
4.9340005 1.8759397 0.78838795 0
4.9350004 1.8681833 0.78847277 0
4.9370003 1.8608437 0.78864229 0
4.9380002 1.8530781 0.78872705 0
4.9400005 1.845726 0.78889662 0
4.9410005 1.8379514 0.78898144 0
4.9420004 1.8301734 0.7890662 0
4.9440002 1.8228029 0.78923571 0
4.9450002 1.8150159 0.78932047 0
4.9470005 1.807633 0.7894901 0
4.9480004 1.799837 0.78957486 0
4.9500003 1.7924414 0.78974438 0
4.9510002 1.7846363 0.78982913 0
4.9520001 1.7768275 0.78991395 0
4.9540005 1.7694139 0.79008353 0
4.9550004 1.7615963 0.79016829 0
4.9570003 1.7541699 0.7903378 0
4.9580002 1.7463433 0.79042262 0
4.9590001 1.7385128 0.79050738 0
4.9610004 1.7310686 0.79067695 0
4.9620004 1.7232293 0.79076177 0
4.9640002 1.7157723 0.79093134 0
4.9650002 1.7079239 0.7910161 0
4.9670005 1.7004545 0.79118562 0
4.9680004 1.692597 0.79127043 0
4.9700003 1.6851147 0.79144001 0
4.9710002 1.6772484 0.79152477 0
4.9720001 1.6693783 0.79160953 0
4.9740005 1.6618781 0.7917791 0
4.9750004 1.6539991 0.79186392 0
4.9770002 1.6464862 0.79203343 0
4.9780002 1.6385981 0.79211819 0
4.9800005 1.6310726 0.79228783 0
4.9810004 1.6231756 0.79237258 0
4.9820004 1.6152749 0.79245734 0
4.9840002 1.6077313 0.79262686 0
4.9850001 1.5998216 0.79271162 0
4.9870005 1.5922656 0.79288125 0
4.9880004 1.5843469 0.79296601 0
4.9900002 1.5767779 0.79313552 0
4.9910002 1.5688502 0.79322034 0
4.9930005 1.5612689 0.79338992 0
4.9940004 1.5533322 0.79347467 0
4.9210005 1.9438243 0.77913082 0
4.9230003 1.9365458 0.77929676 0
4.9240003 1.9288236 0.77937973 0
4.9250002 1.9210979 0.7794627 0
4.9270005 1.9138017 0.77962863 0
4.9280005 1.906067 0.7797116 0
4.9300003 1.8987577 0.77987754 0
4.9310002 1.8910141 0.77996051 0
4.9320002 1.8832666 0.78004348 0
4.9340005 1.8759397 0.78020954 0
4.9350004 1.8681833 0.78029245 0
4.9370003 1.8608437 0.78045839 0
4.9380002 1.8530781 0.78054136 0
4.9400005 1.845726 0.78070736 0
4.9410005 1.8379514 0.78079033 0
4.9420004 1.8301734 0.7808733 0
4.9440002 1.8228029 0.78103924 0
4.9450002 1.8150159 0.78112221 0
4.9470005 1.807633 0.78128815 0
4.9480004 1.799837 0.78137112 0
4.9500003 1.7924414 0.78153706 0
4.9510002 1.7846363 0.78162003 0
4.9520001 1.7768275 0.781703 0
4.9540005 1.7694139 0.78186899 0
4.9550004 1.7615963 0.78195196 0
4.9570003 1.7541699 0.7821179 0
4.9580002 1.7463433 0.78220087 0
4.9590001 1.7385128 0.78228384 0
4.9610004 1.7310686 0.78244984 0
4.9620004 1.7232293 0.78253281 0
4.9640002 1.7157723 0.78269875 0
4.9650002 1.7079239 0.78278172 0
4.9670005 1.7004545 0.78294766 0
4.9680004 1.692597 0.78303063 0
4.9700003 1.6851147 0.78319657 0
4.9710002 1.6772484 0.78327954 0
4.9720001 1.6693783 0.78336251 0
4.9740005 1.6618781 0.78352851 0
4.9750004 1.6539991 0.78361142 0
4.9770002 1.6464862 0.78377742 0
4.9780002 1.6385981 0.78386033 0
4.9800005 1.6310726 0.78402638 0
4.9810004 1.6231756 0.78410935 0
4.9820004 1.6152749 0.78419232 0
4.9840002 1.6077313 0.7843582 0
4.9850001 1.5998216 0.78444123 0
4.9870005 1.5922656 0.78460717 0
4.9880004 1.5843469 0.78469014 0
4.9900002 1.5767779 0.78485608 0
4.9910002 1.5688502 0.78493905 0
4.9930005 1.5612689 0.78510499 0
4.9940004 1.5533322 0.78518796 0
4.9210005 1.9438243 0.77097583 0
4.9230003 1.9365458 0.77113807 0
4.9240003 1.9288236 0.77121925 0
4.9250002 1.9210979 0.77130044 0
4.9270005 1.9138017 0.7714628 0
4.9280005 1.906067 0.77154398 0
4.9300003 1.8987577 0.77170634 0
4.9310002 1.8910141 0.77178752 0
4.9320002 1.8832666 0.77186865 0
4.9340005 1.8759397 0.77203101 0
4.9350004 1.8681833 0.77211219 0
4.9370003 1.8608437 0.77227449 0
4.9380002 1.8530781 0.77235568 0
4.9400005 1.845726 0.77251804 0
4.9410005 1.8379514 0.77259922 0
4.9420004 1.8301734 0.7726804 0
4.9440002 1.8228029 0.77284276 0
4.9450002 1.8150159 0.77292389 0
4.9470005 1.807633 0.77308625 0
4.9480004 1.799837 0.77316743 0
4.9500003 1.7924414 0.77332973 0
4.9510002 1.7846363 0.77341092 0
4.9520001 1.7768275 0.7734921 0
4.9540005 1.7694139 0.77365446 0
4.9550004 1.7615963 0.77373564 0
4.9570003 1.7541699 0.77389795 0
4.9580002 1.7463433 0.77397907 0
4.9590001 1.7385128 0.77406025 0
4.9610004 1.7310686 0.77422261 0
4.9620004 1.7232293 0.77430379 0
4.9640002 1.7157723 0.77446616 0
4.9650002 1.7079239 0.77454734 0
4.9670005 1.7004545 0.7747097 0
4.9680004 1.692597 0.77479088 0
4.9700003 1.6851147 0.77495319 0
4.9710002 1.6772484 0.77503431 0
4.9720001 1.6693783 0.77511549 0
4.9740005 1.6618781 0.77527785 0
4.9750004 1.6539991 0.77535903 0
4.9770002 1.6464862 0.7755214 0
4.9780002 1.6385981 0.77560258 0
4.9800005 1.6310726 0.77576494 0
4.9810004 1.6231756 0.77584612 0
4.9820004 1.6152749 0.77592725 0
4.9840002 1.6077313 0.77608955 0
4.9850001 1.5998216 0.77617073 0
4.9870005 1.5922656 0.77633309 0
4.9880004 1.5843469 0.77641428 0
4.9900002 1.5767779 0.77657658 0
4.9910002 1.5688502 0.77665776 0
4.9930005 1.5612689 0.77682012 0
4.9940004 1.5533322 0.7769013 0
4.9210005 1.9438243 0.76282078 0
4.9230003 1.9365458 0.76297951 0
4.9240003 1.9288236 0.76305884 0
4.9250002 1.9210979 0.76313823 0
4.9270005 1.9138017 0.76329696 0
4.9280005 1.906067 0.76337636 0
4.9300003 1.8987577 0.76353502 0
4.9310002 1.8910141 0.76361442 0
4.9320002 1.8832666 0.76369381 0
4.9340005 1.8759397 0.7638526 0
4.9350004 1.8681833 0.76393187 0
4.9370003 1.8608437 0.76409066 0
4.9380002 1.8530781 0.76416999 0
4.9400005 1.845726 0.76432878 0
4.9410005 1.8379514 0.76440811 0
4.9420004 1.8301734 0.7644875 0
4.9440002 1.8228029 0.76464617 0
4.9450002 1.8150159 0.76472557 0
4.9470005 1.807633 0.76488435 0
4.9480004 1.799837 0.76496369 0
4.9500003 1.7924414 0.76512241 0
4.9510002 1.7846363 0.76520181 0
4.9520001 1.7768275 0.76528114 0
4.9540005 1.7694139 0.76543993 0
4.9550004 1.7615963 0.76551926 0
4.9570003 1.7541699 0.76567799 0
4.9580002 1.7463433 0.76575732 0
4.9590001 1.7385128 0.76583672 0
4.9610004 1.7310686 0.7659955 0
4.9620004 1.7232293 0.76607484 0
4.9640002 1.7157723 0.76623356 0
4.9650002 1.7079239 0.76631296 0
4.9670005 1.7004545 0.76647168 0
4.9680004 1.692597 0.76655102 0
4.9700003 1.6851147 0.76670974 0
4.9710002 1.6772484 0.76678914 0
4.9720001 1.6693783 0.76686847 0
4.9740005 1.6618781 0.76702726 0
4.9750004 1.6539991 0.76710665 0
4.9770002 1.6464862 0.76726532 0
4.9780002 1.6385981 0.76734471 0
4.9800005 1.6310726 0.7675035 0
4.9810004 1.6231756 0.76758277 0
4.9820004 1.6152749 0.76766217 0
4.9840002 1.6077313 0.76782089 0
4.9850001 1.5998216 0.76790029 0
4.9870005 1.5922656 0.76805902 0
4.9880004 1.5843469 0.76813841 0
4.9900002 1.5767779 0.76829708 0
4.9910002 1.5688502 0.76837647 0
4.9930005 1.5612689 0.76853526 0
4.9940004 1.5533322 0.76861465 0
4.9210005 1.9438243 0.75466573 0
4.9230003 1.9365458 0.75482088 0
4.9240003 1.9288236 0.75489843 0
4.9250002 1.9210979 0.75497597 0
4.9270005 1.9138017 0.75513113 0
4.9280005 1.906067 0.75520873 0
4.9300003 1.8987577 0.75536382 0
4.9310002 1.8910141 0.75544137 0
4.9320002 1.8832666 0.75551891 0
4.9340005 1.8759397 0.75567412 0
4.9350004 1.8681833 0.75575167 0
4.9370003 1.8608437 0.75590676 0
4.9380002 1.8530781 0.75598431 0
4.9400005 1.845726 0.75613946 0
4.9410005 1.8379514 0.756217 0
4.9420004 1.8301734 0.75629461 0
4.9440002 1.8228029 0.7564497 0
4.9450002 1.8150159 0.75652725 0
4.9470005 1.807633 0.7566824 0
4.9480004 1.799837 0.75676 0
4.9500003 1.7924414 0.75691509 0
4.9510002 1.7846363 0.7569927 0
4.9520001 1.7768275 0.75707018 0
4.9540005 1.7694139 0.75722539 0
4.9550004 1.7615963 0.75730294 0
4.9570003 1.7541699 0.75745803 0
4.9580002 1.7463433 0.75753558 0
4.9590001 1.7385128 0.75761318 0
4.9610004 1.7310686 0.75776827 0
4.9620004 1.7232293 0.75784588 0
4.9640002 1.7157723 0.75800097 0
4.9650002 1.7079239 0.75807858 0
4.9670005 1.7004545 0.75823367 0
4.9680004 1.692597 0.75831127 0
4.9700003 1.6851147 0.75846636 0
4.9710002 1.6772484 0.75854397 0
4.9720001 1.6693783 0.75862145 0
4.9740005 1.6618781 0.75877666 0
4.9750004 1.6539991 0.75885415 0
4.9770002 1.6464862 0.7590093 0
4.9780002 1.6385981 0.75908685 0
4.9800005 1.6310726 0.75924206 0
4.9810004 1.6231756 0.75931954 0
4.9820004 1.6152749 0.75939715 0
4.9840002 1.6077313 0.75955224 0
4.9850001 1.5998216 0.75962985 0
4.9870005 1.5922656 0.75978494 0
4.9880004 1.5843469 0.75986254 0
4.9900002 1.5767779 0.76001763 0
4.9910002 1.5688502 0.76009524 0
4.9930005 1.5612689 0.76025033 0
4.9940004 1.5533322 0.76032794 0
4.9210005 1.9438243 0.74651074 0
4.9230003 1.9365458 0.74666226 0
4.9240003 1.9288236 0.74673802 0
4.9250002 1.9210979 0.74681377 0
4.9270005 1.9138017 0.74696529 0
4.9280005 1.906067 0.74704105 0
4.9300003 1.8987577 0.74719256 0
4.9310002 1.8910141 0.74726832 0
4.9320002 1.8832666 0.74734408 0
4.9340005 1.8759397 0.74749565 0
4.9350004 1.8681833 0.74757135 0
4.9370003 1.8608437 0.74772286 0
4.9380002 1.8530781 0.74779868 0
4.9400005 1.845726 0.7479502 0
4.9410005 1.8379514 0.74802595 0
4.9420004 1.8301734 0.74810171 0
4.9440002 1.8228029 0.74825323 0
4.9450002 1.8150159 0.74832892 0
4.9470005 1.807633 0.7484805 0
4.9480004 1.799837 0.74855626 0
4.9500003 1.7924414 0.74870777 0
4.9510002 1.7846363 0.74878347 0
4.9520001 1.7768275 0.74885929 0
4.9540005 1.7694139 0.7490108 0
4.9550004 1.7615963 0.74908662 0
4.9570003 1.7541699 0.74923813 0
4.9580002 1.7463433 0.74931383 0
4.9590001 1.7385128 0.74938959 0
4.9610004 1.7310686 0.74954116 0
4.9620004 1.7232293 0.74961686 0
4.9640002 1.7157723 0.74976838 0
4.9650002 1.7079239 0.74984413 0
4.9670005 1.7004545 0.74999571 0
4.9680004 1.692597 0.75007147 0
4.9700003 1.6851147 0.75022292 0
4.9710002 1.6772484 0.75029874 0
4.9720001 1.6693783 0.75037444 0
4.9740005 1.6618781 0.75052601 0
4.9750004 1.6539991 0.75060177 0
4.9770002 1.6464862 0.75075328 0
4.9780002 1.6385981 0.75082904 0
4.9800005 1.6310726 0.75098062 0
4.9810004 1.6231756 0.75105631 0
4.9820004 1.6152749 0.75113213 0
4.9840002 1.6077313 0.75128359 0
4.9850001 1.5998216 0.75135934 0
4.9870005 1.5922656 0.75151092 0
4.9880004 1.5843469 0.75158668 0
4.9900002 1.5767779 0.75173819 0
4.9910002 1.5688502 0.75181389 0
4.9930005 1.5612689 0.75196546 0
4.9940004 1.5533322 0.75204122 0
4.9210005 1.9438243 0.73835576 0
4.9230003 1.9365458 0.73850363 0
4.9240003 1.9288236 0.7385776 0
4.9250002 1.9210979 0.73865151 0
4.9270005 1.9138017 0.73879945 0
4.9280005 1.906067 0.73887342 0
4.9300003 1.8987577 0.7390213 0
4.9310002 1.8910141 0.73909527 0
4.9320002 1.8832666 0.73916924 0
4.9340005 1.8759397 0.73931718 0
4.9350004 1.8681833 0.73939109 0
4.9370003 1.8608437 0.73953903 0
4.9380002 1.8530781 0.73961294 0
4.9400005 1.845726 0.73976088 0
4.9410005 1.8379514 0.73983485 0
4.9420004 1.8301734 0.73990881 0
4.9440002 1.8228029 0.74005669 0
4.9450002 1.8150159 0.74013066 0
4.9470005 1.807633 0.7402786 0
4.9480004 1.799837 0.74035251 0
4.9500003 1.7924414 0.74050045 0
4.9510002 1.7846363 0.74057436 0
4.9520001 1.7768275 0.74064833 0
4.9540005 1.7694139 0.74079633 0
4.9550004 1.7615963 0.74087024 0
4.9570003 1.7541699 0.74101812 0
4.9580002 1.7463433 0.74109209 0
4.9590001 1.7385128 0.74116606 0
4.9610004 1.7310686 0.74131393 0
4.9620004 1.7232293 0.7413879 0
4.9640002 1.7157723 0.74153578 0
4.9650002 1.7079239 0.74160981 0
4.9670005 1.7004545 0.74175769 0
4.9680004 1.692597 0.74183166 0
4.9700003 1.6851147 0.7419796 0
4.9710002 1.6772484 0.74205351 0
4.9720001 1.6693783 0.74212742 0
4.9740005 1.6618781 0.74227536 0
4.9750004 1.6539991 0.74234939 0
4.9770002 1.6464862 0.74249727 0
4.9780002 1.6385981 0.74257123 0
4.9800005 1.6310726 0.74271917 0
4.9810004 1.6231756 0.74279308 0
4.9820004 1.6152749 0.74286705 0
4.9840002 1.6077313 0.74301493 0
4.9850001 1.5998216 0.7430889 0
4.9870005 1.5922656 0.74323684 0
4.9880004 1.5843469 0.74331081 0
4.9900002 1.5767779 0.74345869 0
4.9910002 1.5688502 0.74353266 0
4.9930005 1.5612689 0.7436806 0
4.9940004 1.5533322 0.74375451 0
4.9210005 1.9438243 0.73020071 0
4.9230003 1.9365458 0.73034501 0
4.9240003 1.9288236 0.73041713 0
4.9250002 1.9210979 0.73048925 0
4.9270005 1.9138017 0.73063362 0
4.9280005 1.906067 0.73070574 0
4.9300003 1.8987577 0.7308501 0
4.9310002 1.8910141 0.73092222 0
4.9320002 1.8832666 0.73099434 0
4.9340005 1.8759397 0.73113871 0
4.9350004 1.8681833 0.73121083 0
4.9370003 1.8608437 0.73135513 0
4.9380002 1.8530781 0.73142731 0
4.9400005 1.845726 0.73157161 0
4.9410005 1.8379514 0.7316438 0
4.9420004 1.8301734 0.73171592 0
4.9440002 1.8228029 0.73186016 0
4.9450002 1.8150159 0.73193234 0
4.9470005 1.807633 0.73207664 0
4.9480004 1.799837 0.73214883 0
4.9500003 1.7924414 0.73229313 0
4.9510002 1.7846363 0.73236525 0
4.9520001 1.7768275 0.73243737 0
4.9540005 1.7694139 0.73258173 0
4.9550004 1.7615963 0.73265386 0
4.9570003 1.7541699 0.73279816 0
4.9580002 1.7463433 0.73287034 0
4.9590001 1.7385128 0.73294246 0
4.9610004 1.7310686 0.73308682 0
4.9620004 1.7232293 0.73315895 0
4.9640002 1.7157723 0.73330319 0
4.9650002 1.7079239 0.73337543 0
4.9670005 1.7004545 0.73351973 0
4.9680004 1.692597 0.73359185 0
4.9700003 1.6851147 0.73373616 0
4.9710002 1.6772484 0.73380828 0
4.9720001 1.6693783 0.73388046 0
4.9740005 1.6618781 0.73402476 0
4.9750004 1.6539991 0.73409694 0
4.9770002 1.6464862 0.73424125 0
4.9780002 1.6385981 0.73431337 0
4.9800005 1.6310726 0.73445773 0
4.9810004 1.6231756 0.73452985 0
4.9820004 1.6152749 0.73460197 0
4.9840002 1.6077313 0.73474628 0
4.9850001 1.5998216 0.73481846 0
4.9870005 1.5922656 0.73496276 0
4.9880004 1.5843469 0.73503494 0
4.9900002 1.5767779 0.73517919 0
4.9910002 1.5688502 0.73525131 0
4.9930005 1.5612689 0.73539567 0
4.9940004 1.5533322 0.73546779 0
4.9210005 1.9438243 0.72204566 0
4.9230003 1.9365458 0.72218633 0
4.9240003 1.9288236 0.72225672 0
4.9250002 1.9210979 0.72232705 0
4.9270005 1.9138017 0.72246778 0
4.9280005 1.906067 0.72253811 0
4.9300003 1.8987577 0.72267878 0
4.9310002 1.8910141 0.72274911 0
4.9320002 1.8832666 0.72281951 0
4.9340005 1.8759397 0.72296023 0
4.9350004 1.8681833 0.72303057 0
4.9370003 1.8608437 0.72317123 0
4.9380002 1.8530781 0.72324157 0
4.9400005 1.845726 0.72338229 0
4.9410005 1.8379514 0.72345269 0
4.9420004 1.8301734 0.72352302 0
4.9440002 1.8228029 0.72366369 0
4.9450002 1.8150159 0.72373402 0
4.9470005 1.807633 0.72387481 0
4.9480004 1.799837 0.72394508 0
4.9500003 1.7924414 0.72408581 0
4.9510002 1.7846363 0.72415614 0
4.9520001 1.7768275 0.72422647 0
4.9540005 1.7694139 0.7243672 0
4.9550004 1.7615963 0.72443753 0
4.9570003 1.7541699 0.72457826 0
4.9580002 1.7463433 0.72464859 0
4.9590001 1.7385128 0.72471893 0
4.9610004 1.7310686 0.7248596 0
4.9620004 1.7232293 0.72492999 0
4.9640002 1.7157723 0.72507066 0
4.9650002 1.7079239 0.72514105 0
4.9670005 1.7004545 0.72528172 0
4.9680004 1.692597 0.72535205 0
4.9700003 1.6851147 0.72549272 0
4.9710002 1.6772484 0.72556305 0
4.9720001 1.6693783 0.72563344 0
4.9740005 1.6618781 0.72577417 0
4.9750004 1.6539991 0.7258445 0
4.9770002 1.6464862 0.72598517 0
4.9780002 1.6385981 0.7260555 0
4.9800005 1.6310726 0.72619623 0
4.9810004 1.6231756 0.72626662 0
4.9820004 1.6152749 0.72633696 0
4.9840002 1.6077313 0.72647762 0
4.9850001 1.5998216 0.72654796 0
4.9870005 1.5922656 0.72668874 0
4.9880004 1.5843469 0.72675902 0
4.9900002 1.5767779 0.72689974 0
4.9910002 1.5688502 0.72697008 0
4.9930005 1.5612689 0.72711074 0
4.9940004 1.5533322 0.72718114 0
4.9210005 1.9438243 0.71389067 0
4.9230003 1.9365458 0.71402776 0
4.9240003 1.9288236 0.71409631 0
4.9250002 1.9210979 0.71416485 0
4.9270005 1.9138017 0.71430194 0
4.9280005 1.906067 0.71437049 0
4.9300003 1.8987577 0.71450758 0
4.9310002 1.8910141 0.71457613 0
4.9320002 1.8832666 0.71464467 0
4.9340005 1.8759397 0.71478176 0
4.9350004 1.8681833 0.71485031 0
4.9370003 1.8608437 0.7149874 0
4.9380002 1.8530781 0.71505594 0
4.9400005 1.845726 0.71519303 0
4.9410005 1.8379514 0.71526158 0
4.9420004 1.8301734 0.71533012 0
4.9440002 1.8228029 0.71546721 0
4.9450002 1.8150159 0.71553576 0
4.9470005 1.807633 0.71567285 0
4.9480004 1.799837 0.7157414 0
4.9500003 1.7924414 0.71587849 0
4.9510002 1.7846363 0.71594703 0
4.9520001 1.7768275 0.71601552 0
4.9540005 1.7694139 0.71615267 0
4.9550004 1.7615963 0.71622121 0
4.9570003 1.7541699 0.71635824 0
4.9580002 1.7463433 0.71642685 0
4.9590001 1.7385128 0.71649539 0
4.9610004 1.7310686 0.71663249 0
4.9620004 1.7232293 0.71670103 0
4.9640002 1.7157723 0.71683812 0
4.9650002 1.7079239 0.71690661 0
4.9670005 1.7004545 0.71704376 0
4.9680004 1.692597 0.7171123 0
4.9700003 1.6851147 0.71724933 0
4.9710002 1.6772484 0.71731788 0
4.9720001 1.6693783 0.71738648 0
4.9740005 1.6618781 0.71752357 0
4.9750004 1.6539991 0.71759206 0
4.9770002 1.6464862 0.71772921 0
4.9780002 1.6385981 0.7177977 0
4.9800005 1.6310726 0.71793479 0
4.9810004 1.6231756 0.71800339 0
4.9820004 1.6152749 0.71807194 0
4.9840002 1.6077313 0.71820897 0
4.9850001 1.5998216 0.71827751 0
4.9870005 1.5922656 0.71841466 0
4.9880004 1.5843469 0.71848315 0
4.9900002 1.5767779 0.71862024 0
4.9910002 1.5688502 0.71868879 0
4.9930005 1.5612689 0.71882588 0
4.9940004 1.5533322 0.71889442 0
4.9210005 1.9438243 0.70573568 0
4.9230003 1.9365458 0.70586914 0
4.9240003 1.9288236 0.70593584 0
4.9250002 1.9210979 0.70600259 0
4.9270005 1.9138017 0.70613611 0
4.9280005 1.906067 0.70620286 0
4.9300003 1.8987577 0.70633626 0
4.9310002 1.8910141 0.70640302 0
4.9320002 1.8832666 0.70646977 0
4.9340005 1.8759397 0.70660329 0
4.9350004 1.8681833 0.70667005 0
4.9370003 1.8608437 0.7068035 0
4.9380002 1.8530781 0.7068702 0
4.9400005 1.845726 0.70700371 0
4.9410005 1.8379514 0.70707047 0
4.9420004 1.8301734 0.70713723 0
4.9440002 1.8228029 0.70727068 0
4.9450002 1.8150159 0.70733744 0
4.9470005 1.807633 0.70747089 0
4.9480004 1.799837 0.70753765 0
4.9500003 1.7924414 0.70767117 0
4.9510002 1.7846363 0.70773786 0
4.9520001 1.7768275 0.70780456 0
4.9540005 1.7694139 0.70793808 0
4.9550004 1.7615963 0.70800483 0
4.9570003 1.7541699 0.70813835 0
4.9580002 1.7463433 0.70820504 0
4.9590001 1.7385128 0.70827174 0
4.9610004 1.7310686 0.70840526 0
4.9620004 1.7232293 0.70847201 0
4.9640002 1.7157723 0.70860553 0
4.9650002 1.7079239 0.70867223 0
4.9670005 1.7004545 0.70880574 0
4.9680004 1.692597 0.70887244 0
4.9700003 1.6851147 0.70900595 0
4.9710002 1.6772484 0.70907271 0
4.9720001 1.6693783 0.70913941 0
4.9740005 1.6618781 0.70927292 0
4.9750004 1.6539991 0.70933962 0
4.9770002 1.6464862 0.70947313 0
4.9780002 1.6385981 0.70953989 0
4.9800005 1.6310726 0.7096734 0
4.9810004 1.6231756 0.7097401 0
4.9820004 1.6152749 0.70980686 0
4.9840002 1.6077313 0.70994031 0
4.9850001 1.5998216 0.71000707 0
4.9870005 1.5922656 0.71014059 0
4.9880004 1.5843469 0.71020728 0
4.9900002 1.5767779 0.71034074 0
4.9910002 1.5688502 0.7104075 0
4.9930005 1.5612689 0.71054101 0
4.9940004 1.5533322 0.71060777 0
4.9210005 1.9438243 0.69758064 0
4.9230003 1.9365458 0.69771051 0
4.9240003 1.9288236 0.69777548 0
4.9250002 1.9210979 0.69784039 0
4.9270005 1.9138017 0.69797027 0
4.9280005 1.906067 0.69803518 0
4.9300003 1.8987577 0.69816506 0
4.9310002 1.8910141 0.69822997 0
4.9330001 1.8836923 0.69835985 0
4.9340005 1.8759397 0.69842482 0
4.9350004 1.8681833 0.69848979 0
4.9370003 1.8608437 0.6986196 0
4.9380002 1.8530781 0.69868457 0
4.9400005 1.845726 0.69881445 0
4.9410005 1.8379514 0.69887936 0
4.9420004 1.8301734 0.69894433 0
4.9440002 1.8228029 0.69907415 0
4.9450002 1.8150159 0.69913912 0
4.9470005 1.807633 0.699269 0
4.9480004 1.799837 0.69933391 0
4.9500003 1.7924414 0.69946378 0
4.9510002 1.7846363 0.69952869 0
4.9520001 1.7768275 0.69959366 0
4.9540005 1.7694139 0.6997236 0
4.9550004 1.7615963 0.69978845 0
4.9570003 1.7541699 0.69991839 0
4.9580002 1.7463433 0.69998324 0
4.9590001 1.7385128 0.70004821 0
4.9610004 1.7310686 0.70017815 0
4.9620004 1.7232293 0.70024306 0
4.9640002 1.7157723 0.70037293 0
4.9650002 1.7079239 0.70043784 0
4.9670005 1.7004545 0.70056772 0
4.9680004 1.692597 0.70063269 0
4.9700003 1.6851147 0.70076251 0
4.9710002 1.6772484 0.70082748 0
4.9720001 1.6693783 0.70089239 0
4.9740005 1.6618781 0.70102227 0
4.9750004 1.6539991 0.70108724 0
4.9770002 1.6464862 0.70121706 0
4.9780002 1.6385981 0.70128202 0
4.9800005 1.6310726 0.70141196 0
4.9810004 1.6231756 0.70147687 0
4.9820004 1.6152749 0.70154178 0
4.9840002 1.6077313 0.70167166 0
4.9850001 1.5998216 0.70173657 0
4.9870005 1.5922656 0.70186651 0
4.9880004 1.5843469 0.70193142 0
4.9900002 1.5767779 0.7020613 0
4.9910002 1.5688502 0.7021262 0
4.9930005 1.5612689 0.70225608 0
4.9940004 1.5533322 0.70232105 0
4.9210005 1.9438243 0.68942559 0
4.9230003 1.9365458 0.68955189 0
4.9240003 1.9288236 0.68961501 0
4.9250002 1.9210979 0.68967813 0
4.9270005 1.9138017 0.68980443 0
4.9280005 1.906067 0.68986756 0
4.9300003 1.8987577 0.6899938 0
4.9310002 1.8910141 0.69005692 0
4.9330001 1.8836923 0.69018316 0
4.9340005 1.8759397 0.69024634 0
4.9350004 1.8681833 0.69030946 0
4.9370003 1.8608437 0.69043577 0
4.9380002 1.8530781 0.69049883 0
4.9400005 1.845726 0.69062513 0
4.9410005 1.8379514 0.69068825 0
4.9420004 1.8301734 0.69075143 0
4.9440002 1.8228029 0.69087768 0
4.9450002 1.8150159 0.6909408 0
4.9470005 1.807633 0.6910671 0
4.9480004 1.799837 0.69113022 0
4.9500003 1.7924414 0.69125646 0
4.9510002 1.7846363 0.69131958 0
4.9520001 1.7768275 0.69138277 0
4.9540005 1.7694139 0.69150901 0
4.9550004 1.7615963 0.69157219 0
4.9570003 1.7541699 0.69169843 0
4.9580002 1.7463433 0.69176149 0
4.9590001 1.7385128 0.69182467 0
4.9610004 1.7310686 0.69195092 0
4.9620004 1.7232293 0.6920141 0
4.9640002 1.7157723 0.69214034 0
4.9650002 1.7079239 0.69220352 0
4.9670005 1.7004545 0.69232976 0
4.9680004 1.692597 0.69239283 0
4.9700003 1.6851147 0.69251919 0
4.9710002 1.6772484 0.69258225 0
4.9720001 1.6693783 0.69264543 0
4.9740005 1.6618781 0.69277167 0
4.9750004 1.6539991 0.69283485 0
4.9770002 1.6464862 0.6929611 0
4.9780002 1.6385981 0.69302416 0
4.9800005 1.6310726 0.69315052 0
4.9810004 1.6231756 0.69321358 0
4.9820004 1.6152749 0.69327676 0
4.9840002 1.6077313 0.69340301 0
4.9850001 1.5998216 0.69346613 0
4.9870005 1.5922656 0.69359243 0
4.9880004 1.5843469 0.69365555 0
4.9900002 1.5767779 0.69378185 0
4.9910002 1.5688502 0.69384491 0
4.9930005 1.5612689 0.69397122 0
4.9940004 1.5533322 0.69403434 0
4.9210005 1.9438243 0.6812706 0
4.9230003 1.9365458 0.68139327 0
4.9240003 1.9288236 0.6814546 0
4.9250002 1.9210979 0.68151593 0
4.9270005 1.9138017 0.6816386 0
4.9280005 1.906067 0.68169987 0
4.9300003 1.8987577 0.68182254 0
4.9310002 1.8910141 0.68188387 0
4.9330001 1.8836923 0.68200648 0
4.9340005 1.8759397 0.68206787 0
4.9350004 1.8681833 0.68212926 0
4.9370003 1.8608437 0.68225187 0
4.9380002 1.8530781 0.6823132 0
4.9400005 1.845726 0.68243587 0
4.9410005 1.8379514 0.6824972 0
4.9420004 1.8301734 0.68255854 0
4.9440002 1.8228029 0.6826812 0
4.9450002 1.8150159 0.68274248 0
4.9470005 1.807633 0.68286514 0
4.9480004 1.799837 0.68292654 0
4.9500003 1.7924414 0.68304914 0
4.9510002 1.7846363 0.68311048 0
4.9520001 1.7768275 0.68317181 0
4.9540005 1.7694139 0.68329448 0
4.9550004 1.7615963 0.68335581 0
4.9570003 1.7541699 0.68347847 0
4.9580002 1.7463433 0.68353975 0
4.9590001 1.7385128 0.68360108 0
4.9610004 1.7310686 0.68372381 0
4.9620004 1.7232293 0.68378508 0
4.9640002 1.7157723 0.68390775 0
4.9650002 1.7079239 0.68396908 0
4.9670005 1.7004545 0.68409181 0
4.9680004 1.692597 0.68415308 0
4.9700003 1.6851147 0.68427575 0
4.9710002 1.6772484 0.68433702 0
4.9720001 1.6693783 0.68439841 0
4.9740005 1.6618781 0.68452108 0
4.9750004 1.6539991 0.68458235 0
4.9770002 1.6464862 0.68470502 0
4.9780002 1.6385981 0.68476641 0
4.9800005 1.6310726 0.68488908 0
4.9810004 1.6231756 0.68495035 0
4.9820004 1.6152749 0.68501168 0
4.9840002 1.6077313 0.68513435 0
4.9850001 1.5998216 0.68519568 0
4.9870005 1.5922656 0.68531835 0
4.9880004 1.5843469 0.68537962 0
4.9900002 1.5767779 0.68550229 0
4.9910002 1.5688502 0.68556368 0
4.9930005 1.5612689 0.68568635 0
4.9940004 1.5533322 0.68574762 0
4.9210005 1.9438243 0.67311561 0
4.9230003 1.9365458 0.67323458 0
4.9240003 1.9288236 0.67329419 0
4.9250002 1.9210979 0.67335367 0
4.9270005 1.9138017 0.67347276 0
4.9280005 1.906067 0.67353225 0
4.9300003 1.8987577 0.67365134 0
4.9310002 1.8910141 0.67371082 0
4.9330001 1.8836923 0.67382991 0
4.9340005 1.8759397 0.6738894 0
4.9350004 1.8681833 0.67394894 0
4.9370003 1.8608437 0.67406797 0
4.9380002 1.8530781 0.67412746 0
4.9400005 1.845726 0.67424655 0
4.9410005 1.8379514 0.67430609 0
4.9420004 1.8301734 0.67436564 0
4.9440002 1.8228029 0.67448467 0
4.9450002 1.8150159 0.67454422 0
4.9470005 1.807633 0.67466325 0
4.9480004 1.799837 0.67472279 0
4.9500003 1.7924414 0.67484182 0
4.9510002 1.7846363 0.67490137 0
4.9520001 1.7768275 0.67496085 0
4.9540005 1.7694139 0.67507994 0
4.9550004 1.7615963 0.67513943 0
4.9570003 1.7541699 0.67525852 0
4.9580002 1.7463433 0.675318 0
4.9590001 1.7385128 0.67537755 0
4.9610004 1.7310686 0.67549658 0
4.9620004 1.7232293 0.67555612 0
4.9640002 1.7157723 0.67567515 0
4.9650002 1.7079239 0.6757347 0
4.9670005 1.7004545 0.67585373 0
4.9680004 1.692597 0.67591327 0
4.9700003 1.6851147 0.6760323 0
4.9710002 1.6772484 0.67609185 0
4.9720001 1.6693783 0.67615139 0
4.9740005 1.6618781 0.67627048 0
4.9750004 1.6539991 0.67632997 0
4.9770002 1.6464862 0.676449 0
4.9780002 1.6385981 0.67650855 0
4.9800005 1.6310726 0.67662764 0
4.9810004 1.6231756 0.67668712 0
4.9820004 1.6152749 0.67674661 0
4.9840002 1.6077313 0.6768657 0
4.9850001 1.5998216 0.67692518 0
4.9870005 1.5922656 0.67704427 0
4.9880004 1.5843469 0.67710376 0
4.9900002 1.5767779 0.67722285 0
4.9910002 1.5688502 0.67728233 0
4.9930005 1.5612689 0.67740142 0
4.9940004 1.5533322 0.67746091 0
4.9210005 1.9438243 0.66496056 0
4.9230003 1.9365458 0.66507602 0
4.9240003 1.9288236 0.66513371 0
4.9250002 1.9210979 0.66519141 0
4.9270005 1.9138017 0.66530693 0
4.9280005 1.906067 0.66536462 0
4.9300003 1.8987577 0.66548002 0
4.9310002 1.8910141 0.66553777 0
4.9330001 1.8836923 0.66565323 0
4.9340005 1.8759397 0.66571093 0
4.9350004 1.8681833 0.66576868 0
4.9370003 1.8608437 0.66588414 0
4.9380002 1.8530781 0.66594183 0
4.9400005 1.845726 0.66605729 0
4.9410005 1.8379514 0.66611505 0
4.9420004 1.8301734 0.66617274 0
4.9440002 1.8228029 0.66628814 0
4.9450002 1.8150159 0.66634583 0
4.9470005 1.807633 0.66646135 0
4.9480004 1.799837 0.66651905 0
4.9500003 1.7924414 0.6666345 0
4.9510002 1.7846363 0.6666922 0
4.9520001 1.7768275 0.66674995 0
4.9540005 1.7694139 0.66686535 0
4.9550004 1.7615963 0.66692311 0
4.9570003 1.7541699 0.66703856 0
4.9580002 1.7463433 0.66709626 0
4.9590001 1.7385128 0.66715395 0
4.9610004 1.7310686 0.66726947 0
4.9620004 1.7232293 0.66732717 0
4.9640002 1.7157723 0.66744256 0
4.9650002 1.7079239 0.66750032 0
4.9670005 1.7004545 0.66761577 0
4.9680004 1.692597 0.66767347 0
4.9700003 1.6851147 0.66778892 0
4.9710002 1.6772484 0.66784668 0
4.9720001 1.6693783 0.66790438 0
4.9740005 1.6618781 0.66801983 0
4.9750004 1.6539991 0.66807753 0
4.9770002 1.6464862 0.66819298 0
4.9780002 1.6385981 0.66825068 0
4.9800005 1.6310726 0.66836619 0
4.9810004 1.6231756 0.66842389 0
4.9820004 1.6152749 0.66848159 0
4.9840002 1.6077313 0.66859704 0
4.9850001 1.5998216 0.66865474 0
4.9870005 1.5922656 0.66877019 0
4.9880004 1.5843469 0.66882789 0
4.9900002 1.5767779 0.66894341 0
4.9910002 1.5688502 0.6690011 0
4.9930005 1.5612689 0.66911656 0
4.9940004 1.5533322 0.66917425 0
4.9210005 1.9438243 0.65680552 0
4.9230003 1.9365458 0.65691739 0
4.9240003 1.9288236 0.6569733 0
4.9250002 1.9210979 0.65702921 0
4.9270005 1.9138017 0.65714109 0
4.9280005 1.906067 0.657197 0
4.9300003 1.8987577 0.65730882 0
4.9310002 1.8910141 0.65736473 0
4.9330001 1.8836923 0.65747654 0
4.9340005 1.8759397 0.65753245 0
4.9350004 1.8681833 0.65758836 0
4.9370003 1.8608437 0.65770018 0
4.9380002 1.8530781 0.65775615 0
4.9400005 1.845726 0.65786803 0
4.9410005 1.8379514 0.65792394 0
4.9420004 1.8301734 0.65797985 0
4.9440002 1.8228029 0.65809166 0
4.9450002 1.8150159 0.65814757 0
4.9470005 1.807633 0.65825939 0
4.9480004 1.799837 0.6583153 0
4.9500003 1.7924414 0.65842712 0
4.9510002 1.7846363 0.65848309 0
4.9520001 1.7768275 0.658539 0
4.9540005 1.7694139 0.65865088 0
4.9550004 1.7615963 0.65870678 0
4.9570003 1.7541699 0.6588186 0
4.9580002 1.7463433 0.65887451 0
4.9590001 1.7385128 0.65893042 0
4.9610004 1.7310686 0.65904224 0
4.9620004 1.7232293 0.65909815 0
4.9640002 1.7157723 0.65921003 0
4.9650002 1.7079239 0.65926594 0
4.9670005 1.7004545 0.65937781 0
4.9680004 1.692597 0.65943372 0
4.9700003 1.6851147 0.65954554 0
4.9710002 1.6772484 0.65960145 0
4.9720001 1.6693783 0.65965736 0
4.9740005 1.6618781 0.65976918 0
4.9750004 1.6539991 0.65982509 0
4.9770002 1.6464862 0.65993696 0
4.9780002 1.6385981 0.65999281 0
4.9800005 1.6310726 0.66010475 0
4.9810004 1.6231756 0.66016066 0
4.9820004 1.6152749 0.66021657 0
4.9840002 1.6077313 0.66032839 0
4.9850001 1.5998216 0.6603843 0
4.9870005 1.5922656 0.66049612 0
4.9880004 1.5843469 0.66055202 0
4.9900002 1.5767779 0.6606639 0
4.9910002 1.5688502 0.66071975 0
4.9930005 1.5612689 0.66083169 0
4.9940004 1.5533322 0.6608876 0
4.9210005 1.9438243 0.64865053 0
4.9230003 1.9365458 0.64875877 0
4.9240003 1.9288236 0.64881289 0
4.9250002 1.9210979 0.64886695 0
4.9270005 1.9138017 0.64897525 0
4.9280005 1.906067 0.64902931 0
4.9300003 1.8987577 0.64913756 0
4.9310002 1.8910141 0.64919168 0
4.9330001 1.8836923 0.64929986 0
4.9340005 1.8759397 0.64935404 0
4.9350004 1.8681833 0.6494081 0
4.9370003 1.8608437 0.64951634 0
4.9380002 1.8530781 0.64957047 0
4.9400005 1.845726 0.64967871 0
4.9410005 1.8379514 0.64973283 0
4.9420004 1.8301734 0.64978695 0
4.9440002 1.8228029 0.64989513 0
4.9450002 1.8150159 0.64994925 0
4.9470005 1.807633 0.65005755 0
4.9480004 1.799837 0.65011162 0
4.9500003 1.7924414 0.6502198 0
4.9510002 1.7846363 0.65027392 0
4.9520001 1.7768275 0.65032804 0
4.9540005 1.7694139 0.65043628 0
4.9550004 1.7615963 0.6504904 0
4.9570003 1.7541699 0.65059865 0
4.9580002 1.7463433 0.65065277 0
4.9590001 1.7385128 0.65070689 0
4.9610004 1.7310686 0.65081513 0
4.9620004 1.7232293 0.65086925 0
4.9640002 1.7157723 0.65097743 0
4.9650002 1.7079239 0.65103155 0
4.9670005 1.7004545 0.6511398 0
4.9680004 1.692597 0.65119392 0
4.9700003 1.6851147 0.6513021 0
4.9710002 1.6772484 0.65135622 0
4.9720001 1.6693783 0.65141034 0
4.9740005 1.6618781 0.65151858 0
4.9750004 1.6539991 0.6515727 0
4.9770002 1.6464862 0.65168089 0
4.9780002 1.6385981 0.65173501 0
4.9800005 1.6310726 0.65184325 0
4.9810004 1.6231756 0.65189737 0
4.9820004 1.6152749 0.65195149 0
4.9840002 1.6077313 0.65205973 0
4.9850001 1.5998216 0.6521138 0
4.9870005 1.5922656 0.6522221 0
4.9880004 1.5843469 0.65227616 0
4.9900002 1.5767779 0.6523844 0
4.9910002 1.5688502 0.65243852 0
4.9930005 1.5612689 0.65254676 0
4.9940004 1.5533322 0.65260088 0
4.9210005 1.9438243 0.64049554 0
4.9230003 1.9365458 0.64060014 0
4.9240003 1.9288236 0.64065242 0
4.9250002 1.9210979 0.64070475 0
4.9270005 1.9138017 0.64080942 0
4.9280005 1.906067 0.64086169 0
4.9300003 1.8987577 0.6409663 0
4.9310002 1.8910141 0.64101863 0
4.9330001 1.8836923 0.64112324 0
4.9340005 1.8759397 0.64117557 0
4.9350004 1.8681833 0.64122784 0
4.9370003 1.8608437 0.64133245 0
4.9380002 1.8530781 0.64138478 0
4.9400005 1.845726 0.64148945 0
4.9410005 1.8379514 0.64154172 0
4.9420004 1.8301734 0.64159405 0
4.9440002 1.8228029 0.64169866 0
4.9450002 1.8150159 0.64175093 0
4.9470005 1.807633 0.6418556 0
4.9480004 1.799837 0.64190793 0
4.9500003 1.7924414 0.64201254 0
4.9510002 1.7846363 0.64206481 0
4.9520001 1.7768275 0.64211714 0
4.9540005 1.7694139 0.64222175 0
4.9550004 1.7615963 0.64227402 0
4.9570003 1.7541699 0.64237869 0
4.9580002 1.7463433 0.64243102 0
4.9590001 1.7385128 0.64248329 0
4.9610004 1.7310686 0.6425879 0
4.9620004 1.7232293 0.64264023 0
4.9640002 1.7157723 0.64274484 0
4.9650002 1.7079239 0.64279711 0
4.9670005 1.7004545 0.64290178 0
4.9680004 1.692597 0.64295411 0
4.9700003 1.6851147 0.64305872 0
4.9710002 1.6772484 0.64311105 0
4.9720001 1.6693783 0.64316332 0
4.9740005 1.6618781 0.64326799 0
4.9750004 1.6539991 0.64332026 0
4.9770002 1.6464862 0.64342487 0
4.9780002 1.6385981 0.6434772 0
4.9800005 1.6310726 0.64358181 0
4.9810004 1.6231756 0.64363414 0
4.9820004 1.6152749 0.64368641 0
4.9840002 1.6077313 0.64379108 0
4.9850001 1.5998216 0.64384335 0
4.9870005 1.5922656 0.64394802 0
4.9880004 1.5843469 0.64400029 0
4.9900002 1.5767779 0.6441049 0
4.9910002 1.5688502 0.64415723 0
4.9930005 1.5612689 0.64426184 0
4.9940004 1.5533322 0.64431417 0
4.9210005 1.9438243 0.63234049 0
4.9230003 1.9365458 0.63244152 0
4.9240003 1.9288236 0.63249201 0
4.9250002 1.9210979 0.63254249 0
4.9270005 1.9138017 0.63264352 0
4.9280005 1.906067 0.63269407 0
4.9300003 1.8987577 0.63279504 0
4.9310002 1.8910141 0.63284552 0
4.9330001 1.8836923 0.63294655 0
4.9340005 1.8759397 0.6329971 0
4.9350004 1.8681833 0.63304758 0
4.9370003 1.8608437 0.63314861 0
4.9380002 1.8530781 0.6331991 0
4.9400005 1.845726 0.63330013 0
4.9410005 1.8379514 0.63335061 0
4.9420004 1.8301734 0.63340116 0
4.9440002 1.8228029 0.63350213 0
4.9450002 1.8150159 0.63355267 0
4.9470005 1.807633 0.63365364 0
4.9480004 1.799837 0.63370419 0
4.9500003 1.7924414 0.63380516 0
4.9510002 1.7846363 0.6338557 0
4.9520001 1.7768275 0.63390619 0
4.9540005 1.7694139 0.63400722 0
4.9550004 1.7615963 0.6340577 0
4.9570003 1.7541699 0.63415873 0
4.9580002 1.7463433 0.63420922 0
4.9600005 1.7389044 0.63431025 0
4.9610004 1.7310686 0.63436079 0
4.9620004 1.7232293 0.63441128 0
4.9640002 1.7157723 0.63451231 0
4.9650002 1.7079239 0.63456279 0
4.9670005 1.7004545 0.63466382 0
4.9680004 1.692597 0.63471431 0
4.9700003 1.6851147 0.63481534 0
4.9710002 1.6772484 0.63486582 0
4.9720001 1.6693783 0.63491631 0
4.9740005 1.6618781 0.63501734 0
4.9750004 1.6539991 0.63506782 0
4.9770002 1.6464862 0.63516885 0
4.9780002 1.6385981 0.63521934 0
4.9800005 1.6310726 0.63532037 0
4.9810004 1.6231756 0.63537085 0
4.9820004 1.6152749 0.6354214 0
4.9840002 1.6077313 0.63552243 0
4.9850001 1.5998216 0.63557291 0
4.9870005 1.5922656 0.63567394 0
4.9880004 1.5843469 0.63572443 0
4.9900002 1.5767779 0.63582546 0
4.9910002 1.5688502 0.63587594 0
4.9930005 1.5612689 0.63597697 0
4.9940004 1.5533322 0.63602746 0
4.9210005 1.9438243 0.62418544 0
4.9230003 1.9365458 0.6242829 0
4.9240003 1.9288236 0.62433159 0
4.9250002 1.9210979 0.62438029 0
4.9270005 1.9138017 0.62447768 0
4.9280005 1.906067 0.62452638 0
4.9300003 1.8987577 0.62462378 0
4.9310002 1.8910141 0.62467253 0
4.9330001 1.8836923 0.62476993 0
4.9340005 1.8759397 0.62481862 0
4.9350004 1.8681833 0.62486732 0
4.9370003 1.8608437 0.62496471 0
4.9380002 1.8530781 0.62501341 0
4.9400005 1.845726 0.62511086 0
4.9410005 1.8379514 0.6251595 0
4.9420004 1.8301734 0.62520826 0
4.9440002 1.8228029 0.62530565 0
4.9450002 1.8150159 0.62535435 0
4.9470005 1.807633 0.62545174 0
4.9480004 1.799837 0.62550044 0
4.9500003 1.7924414 0.62559783 0
4.9510002 1.7846363 0.62564659 0
4.9520001 1.7768275 0.62569523 0
4.9540005 1.7694139 0.62579268 0
4.9550004 1.7615963 0.62584138 0
4.9570003 1.7541699 0.62593877 0
4.9580002 1.7463433 0.62598747 0
4.9600005 1.7389044 0.62608492 0
4.9610004 1.7310686 0.62613356 0
4.9620004 1.7232293 0.62618232 0
4.9640002 1.7157723 0.62627971 0
4.9650002 1.7079239 0.62632841 0
4.9670005 1.7004545 0.6264258 0
4.9680004 1.692597 0.6264745 0
4.9700003 1.6851147 0.62657189 0
4.9710002 1.6772484 0.62662059 0
4.9720001 1.6693783 0.62666929 0
4.9740005 1.6618781 0.62676674 0
4.9750004 1.6539991 0.62681544 0
4.9770002 1.6464862 0.62691283 0
4.9780002 1.6385981 0.62696153 0
4.9800005 1.6310726 0.62705898 0
4.9810004 1.6231756 0.62710762 0
4.9820004 1.6152749 0.62715638 0
4.9840002 1.6077313 0.62725377 0
4.9850001 1.5998216 0.62730241 0
4.9870005 1.5922656 0.62739986 0
4.9880004 1.5843469 0.62744856 0
4.9900002 1.5767779 0.62754595 0
4.9910002 1.5688502 0.62759465 0
4.9930005 1.5612689 0.6276921 0
4.9940004 1.5533322 0.6277408 0
4.9210005 1.9438243 0.61603045 0
4.9230003 1.9365458 0.61612427 0
4.9240003 1.9288236 0.61617112 0
4.9250002 1.9210979 0.61621803 0
4.9270005 1.9138017 0.61631185 0
4.9280005 1.906067 0.61635876 0
4.9300003 1.8987577 0.61645257 0
4.9310002 1.8910141 0.61649942 0
4.9330001 1.8836923 0.61659324 0
4.9340005 1.8759397 0.61664015 0
4.9350004 1.8681833 0.61668706 0
4.9370003 1.8608437 0.61678088 0
4.9380002 1.8530781 0.61682773 0
4.9400005 1.845726 0.61692154 0
4.9410005 1.8379514 0.61696845 0
4.9420004 1.8301734 0.61701536 0
4.9440002 1.8228029 0.61710912 0
4.9450002 1.8150159 0.61715603 0
4.9470005 1.807633 0.61724985 0
4.9480004 1.799837 0.61729676 0
4.9500003 1.7924414 0.61739051 0
4.9510002 1.7846363 0.61743742 0
4.9520001 1.7768275 0.61748433 0
4.9540005 1.7694139 0.61757815 0
4.9550004 1.7615963 0.617625 0
4.9570003 1.7541699 0.61771882 0
4.9580002 1.7463433 0.61776572 0
4.9600005 1.7389044 0.61785954 0
4.9610004 1.7310686 0.61790645 0
4.9620004 1.7232293 0.6179533 0
4.9640002 1.7157723 0.61804712 0
4.9650002 1.7079239 0.61809403 0
4.9670005 1.7004545 0.61818784 0
4.9680004 1.692597 0.61823469 0
4.9700003 1.6851147 0.61832851 0
4.9710002 1.6772484 0.61837542 0
4.9720001 1.6693783 0.61842227 0
4.9740005 1.6618781 0.61851609 0
4.9750004 1.6539991 0.618563 0
4.9770002 1.6464862 0.61865681 0
4.9780002 1.6385981 0.61870372 0
4.9800005 1.6310726 0.61879754 0
4.9810004 1.6231756 0.61884439 0
4.9820004 1.6152749 0.6188913 0
4.9840002 1.6077313 0.61898512 0
4.9850001 1.5998216 0.61903197 0
4.9870005 1.5922656 0.61912578 0
4.9880004 1.5843469 0.61917269 0
4.9900002 1.5767779 0.61926651 0
4.9910002 1.5688502 0.61931336 0
4.9930005 1.5612689 0.61940718 0
4.9940004 1.5533322 0.61945409 0
4.9210005 1.9438243 0.60787547 0
4.9230003 1.9365458 0.60796565 0
4.9240003 1.9288236 0.60801071 0
4.9250002 1.9210979 0.60805583 0
4.9270005 1.9138017 0.60814601 0
4.9280005 1.906067 0.60819113 0
4.9300003 1.8987577 0.60828131 0
4.9310002 1.8910141 0.60832638 0
4.9330001 1.8836923 0.60841656 0
4.9340005 1.8759397 0.60846168 0
4.9350004 1.8681833 0.6085068 0
4.9370003 1.8608437 0.60859698 0
4.9380002 1.8530781 0.60864204 0
4.9400005 1.845726 0.60873222 0
4.9410005 1.8379514 0.60877734 0
4.9420004 1.8301734 0.60882246 0
4.9440002 1.8228029 0.60891265 0
4.9450002 1.8150159 0.60895771 0
4.9470005 1.807633 0.60904789 0
4.9480004 1.799837 0.60909301 0
4.9500003 1.7924414 0.60918319 0
4.9510002 1.7846363 0.60922825 0
4.9520001 1.7768275 0.60927337 0
4.9540005 1.7694139 0.60936356 0
4.9550004 1.7615963 0.60940868 0
4.9570003 1.7541699 0.60949886 0
4.9580002 1.7463433 0.60954398 0
4.9600005 1.7389044 0.60963416 0
4.9610004 1.7310686 0.60967922 0
4.9620004 1.7232293 0.60972434 0
4.9640002 1.7157723 0.60981452 0
4.9650002 1.7079239 0.60985959 0
4.9670005 1.7004545 0.60994983 0
4.9680004 1.692597 0.60999489 0
4.9700003 1.6851147 0.61008513 0
4.9710002 1.6772484 0.61013019 0
4.9720001 1.6693783 0.61017531 0
4.9740005 1.6618781 0.61026549 0
4.9750004 1.6539991 0.61031055 0
4.9770002 1.6464862 0.6104008 0
4.9780002 1.6385981 0.61044586 0
4.9800005 1.6310726 0.61053604 0
4.9810004 1.6231756 0.61058116 0
4.9820004 1.6152749 0.61062622 0
4.9840002 1.6077313 0.61071646 0
4.9850001 1.5998216 0.61076152 0
4.9870005 1.5922656 0.61085176 0
4.9880004 1.5843469 0.61089683 0
4.9900002 1.5767779 0.61098701 0
4.9910002 1.5688502 0.61103213 0
4.9930005 1.5612689 0.61112231 0
4.9940004 1.5533322 0.61116737 0
4.9210005 1.9438243 0.59972042 0
4.9230003 1.9365458 0.59980702 0
4.9240003 1.9288236 0.5998503 0
4.9250002 1.9210979 0.59989357 0
4.9270005 1.9138017 0.59998018 0
4.9280005 1.906067 0.60002351 0
4.9300003 1.8987577 0.60011005 0
4.9310002 1.8910141 0.60015333 0
4.9330001 1.8836923 0.60023987 0
4.9340005 1.8759397 0.60028321 0
4.9350004 1.8681833 0.60032654 0
4.9370003 1.8608437 0.60041308 0
4.9380002 1.8530781 0.60045636 0
4.9400005 1.845726 0.60054296 0
4.9410005 1.8379514 0.60058624 0
4.9420004 1.8301734 0.60062957 0
4.9440002 1.8228029 0.60071611 0
4.9450002 1.8150159 0.60075939 0
4.9470005 1.807633 0.60084599 0
4.9480004 1.799837 0.60088933 0
4.9500003 1.7924414 0.60097587 0
4.9510002 1.7846363 0.60101914 0
4.9520001 1.7768275 0.60106242 0
4.9540005 1.7694139 0.60114902 0
4.9550004 1.7615963 0.60119236 0
4.9570003 1.7541699 0.6012789 0
4.9580002 1.7463433 0.60132217 0
4.9600005 1.7389044 0.60140878 0
4.9610004 1.7310686 0.60145211 0
4.9620004 1.7232293 0.60149539 0
4.9640002 1.7157723 0.60158193 0
4.9650002 1.7079239 0.6016252 0
4.9670005 1.7004545 0.60171187 0
4.9680004 1.692597 0.60175514 0
4.9700003 1.6851147 0.60184169 0
4.9710002 1.6772484 0.60188496 0
4.9720001 1.6693783 0.60192823 0
4.9740005 1.6618781 0.6020149 0
4.9750004 1.6539991 0.60205817 0
4.9770002 1.6464862 0.60214472 0
4.9780002 1.6385981 0.60218799 0
4.9800005 1.6310726 0.60227466 0
4.9810004 1.6231756 0.60231793 0
4.9820004 1.6152749 0.6023612 0
4.9840002 1.6077313 0.60244775 0
4.9850001 1.5998216 0.60249108 0
4.9870005 1.5922656 0.60257769 0
4.9880004 1.5843469 0.60262096 0
4.9900002 1.5767779 0.60270751 0
4.9910002 1.5688502 0.60275084 0
4.9930005 1.5612689 0.60283744 0
4.9940004 1.5533322 0.60288072 0
4.9210005 1.9438243 0.59156543 0
4.9230003 1.9365458 0.5916484 0
4.9240003 1.9288236 0.59168988 0
4.9250002 1.9210979 0.59173137 0
4.9270005 1.9138017 0.59181434 0
4.9280005 1.906067 0.59185582 0
4.9300003 1.8987577 0.59193879 0
4.9310002 1.8910141 0.59198028 0
4.9330001 1.8836923 0.59206325 0
4.9340005 1.8759397 0.59210479 0
4.9350004 1.8681833 0.59214622 0
4.9370003 1.8608437 0.59222919 0
4.9380002 1.8530781 0.59227067 0
4.9400005 1.845726 0.5923537 0
4.9410005 1.8379514 0.59239519 0
4.9420004 1.8301734 0.59243667 0
4.9440002 1.8228029 0.59251964 0
4.9450002 1.8150159 0.59256113 0
4.9470005 1.807633 0.5926441 0
4.9480004 1.799837 0.59268558 0
4.9500003 1.7924414 0.59276855 0
4.9510002 1.7846363 0.59281003 0
4.9520001 1.7768275 0.59285152 0
4.9540005 1.7694139 0.59293449 0
4.9550004 1.7615963 0.59297597 0
4.9570003 1.7541699 0.59305894 0
4.9580002 1.7463433 0.59310043 0
4.9600005 1.7389044 0.5931834 0
4.9610004 1.7310686 0.59322488 0
4.9620004 1.7232293 0.59326643 0
4.9640002 1.7157723 0.59334934 0
4.9650002 1.7079239 0.59339082 0
4.9670005 1.7004545 0.59347385 0
4.9680004 1.692597 0.59351534 0
4.9700003 1.6851147 0.59359831 0
4.9710002 1.6772484 0.59363979 0
4.9720001 1.6693783 0.59368128 0
4.9740005 1.6618781 0.59376425 0
4.9750004 1.6539991 0.59380573 0
4.9770002 1.6464862 0.5938887 0
4.9780002 1.6385981 0.59393018 0
4.9800005 1.6310726 0.59401321 0
4.9810004 1.6231756 0.5940547 0
4.9820004 1.6152749 0.59409618 0
4.9840002 1.6077313 0.59417909 0
4.9850001 1.5998216 0.59422064 0
4.9870005 1.5922656 0.59430361 0
4.9880004 1.5843469 0.59434509 0
4.9900002 1.5767779 0.59442806 0
4.9910002 1.5688502 0.59446955 0
4.9930005 1.5612689 0.59455252 0
4.9940004 1.5533322 0.594594 0
4.9210005 1.9438243 0.58341038 0
4.9230003 1.9365458 0.58348978 0
4.9240003 1.9288236 0.58352941 0
4.9250002 1.9210979 0.58356911 0
4.9270005 1.9138017 0.5836485 0
4.9280005 1.906067 0.58368814 0
4.9300003 1.8987577 0.58376753 0
4.9310002 1.8910141 0.58380723 0
4.9330001 1.8836923 0.58388656 0
4.9340005 1.8759397 0.58392632 0
4.9350004 1.8681833 0.58396596 0
4.9370003 1.8608437 0.58404529 0
4.9380002 1.8530781 0.58408499 0
4.9400005 1.845726 0.58416438 0
4.9410005 1.8379514 0.58420408 0
4.9420004 1.8301734 0.58424377 0
4.9440002 1.8228029 0.58432311 0
4.9450002 1.8150159 0.5843628 0
4.9470005 1.807633 0.5844422 0
4.9480004 1.799837 0.58448184 0
4.9500003 1.7924414 0.58456123 0
4.9510002 1.7846363 0.58460093 0
4.9520001 1.7768275 0.58464056 0
4.9540005 1.7694139 0.58471996 0
4.9550004 1.7615963 0.58475965 0
4.9570003 1.7541699 0.58483899 0
4.9580002 1.7463433 0.58487868 0
4.9600005 1.7389044 0.58495808 0
4.9610004 1.7310686 0.58499777 0
4.9620004 1.7232293 0.58503741 0
4.9640002 1.7157723 0.5851168 0
4.9650002 1.7079239 0.58515644 0
4.9670005 1.7004545 0.58523583 0
4.9680004 1.692597 0.58527553 0
4.9700003 1.6851147 0.58535486 0
4.9710002 1.6772484 0.58539456 0
4.9720001 1.6693783 0.58543426 0
4.9740005 1.6618781 0.58551365 0
4.9750004 1.6539991 0.58555329 0
4.9770002 1.6464862 0.58563268 0
4.9780002 1.6385981 0.58567238 0
4.9800005 1.6310726 0.58575177 0
4.9810004 1.6231756 0.58579141 0
4.9820004 1.6152749 0.58583111 0
4.9840002 1.6077313 0.58591044 0
4.9850001 1.5998216 0.58595014 0
4.9870005 1.5922656 0.58602953 0
4.9880004 1.5843469 0.58606923 0
4.9900002 1.5767779 0.58614856 0
4.9910002 1.5688502 0.58618826 0
4.9930005 1.5612689 0.58626759 0
4.9940004 1.5533322 0.58630729 0
4.9210005 1.9438243 0.57525539 0
4.9230003 1.9365458 0.57533109 0
4.9240003 1.9288236 0.575369 0
4.9250002 1.9210979 0.57540691 0
4.9270005 1.9138017 0.57548267 0
4.9280005 1.906067 0.57552052 0
4.9300003 1.8987577 0.57559627 0
4.9310002 1.8910141 0.57563418 0
4.9330001 1.8836923 0.57570994 0
4.9340005 1.8759397 0.57574785 0
4.9350004 1.8681833 0.5757857 0
4.9370003 1.8608437 0.57586145 0
4.9380002 1.8530781 0.57589936 0
4.9400005 1.845726 0.57597512 0
4.9410005 1.8379514 0.57601297 0
4.9420004 1.8301734 0.57605088 0
4.9440002 1.8228029 0.57612658 0
4.9450002 1.8150159 0.57616448 0
4.9470005 1.807633 0.57624024 0
4.9480004 1.799837 0.57627815 0
4.9500003 1.7924414 0.57635391 0
4.9510002 1.7846363 0.57639176 0
4.9520001 1.7768275 0.57642967 0
4.9540005 1.7694139 0.57650542 0
4.9550004 1.7615963 0.57654333 0
