# .PCD v0.7 - Point Cloud Data file format
VERSION 0.7
FIELDS x y z intensity
SIZE 4 4 4 4
TYPE F F F F
COUNT 1 1 1 1
WIDTH 1504
HEIGHT 1
VIEWPOINT 0 0 0 1 0 0 0
POINTS 1504
DATA ascii
2.9770002 1.3159852 1.1756366 0
2.9810002 1.3134437 1.1768345 0
2.9860003 1.3114127 1.1783316 0
2.9900002 1.3088404 1.1795293 0
2.9950001 1.306775 1.1810265 0
3.0000002 1.3046917 1.1825237 0
3.0040002 1.3020724 1.1837213 0
3.0090003 1.2999549 1.1852186 0
3.0140002 1.2978191 1.1867157 0
3.0180001 1.295153 1.1879134 0
3.0230002 1.2929831 1.1894106 0
3.0280001 1.290795 1.1909077 0
3.0320003 1.2880821 1.1921055 0
3.0370002 1.2858598 1.1936026 0
3.0420003 1.2836195 1.1950998 0
3.0470002 1.2813611 1.196597 0
3.0520003 1.2790848 1.1980941 0
3.0560002 1.2762924 1.1992918 0
3.0610001 1.2739817 1.200789 0
3.0660002 1.2716531 1.2022862 0
3.0710003 1.2693063 1.2037834 0
3.0760002 1.2669414 1.2052805 0
3.0810003 1.2645588 1.2067777 0
3.0860002 1.2621578 1.2082748 0
2.8680003 1.3696719 1.1385468 0
2.8720002 1.3675073 1.1397372 0
2.8760002 1.3653284 1.1409278 0
2.8810003 1.3637033 1.142416 0
2.8850002 1.3614935 1.1436065 0
2.8890002 1.3592694 1.144797 0
2.8930001 1.3570309 1.1459875 0
2.8970003 1.3547781 1.1471781 0
2.9020002 1.3530698 1.1486661 0
2.9060001 1.3507861 1.1498567 0
2.9100003 1.3484881 1.1510472 0
2.9150002 1.3467294 1.1525353 0
2.9190001 1.3444006 1.1537259 0
2.9230001 1.3420575 1.1549164 0
2.9280002 1.3402482 1.1564045 0
2.9320002 1.3378745 1.157595 0
2.9360001 1.3354862 1.1587855 0
2.9410002 1.3336265 1.1602737 0
2.9450002 1.3312075 1.1614642 0
2.9500003 1.3293136 1.1629523 0
2.9540002 1.326864 1.1641428 0
2.9590001 1.3249357 1.1656309 0
2.9630003 1.3224555 1.1668215 0
2.9680002 1.3204929 1.1683096 0
2.9720001 1.3179821 1.1695001 0
2.9770002 1.3159852 1.1709883 0
2.9810002 1.3134437 1.1721789 0
2.9860003 1.3114127 1.173667 0
2.9900002 1.3088404 1.1748575 0
2.9950001 1.306775 1.1763456 0
3.0000002 1.3046917 1.1778338 0
3.0040002 1.3020724 1.1790242 0
3.0090003 1.2999549 1.1805124 0
3.0140002 1.2978191 1.1820005 0
3.0180001 1.295153 1.1831911 0
3.0230002 1.2929831 1.1846792 0
3.0280001 1.290795 1.1861672 0
3.0320003 1.2880821 1.1873579 0
3.0370002 1.2858598 1.188846 0
3.0420003 1.2836195 1.1903342 0
3.0470002 1.2813611 1.1918223 0
3.0520003 1.2790848 1.1933104 0
3.0560002 1.2762924 1.1945009 0
3.0610001 1.2739817 1.195989 0
3.0660002 1.2716531 1.1974772 0
3.0710003 1.2693063 1.1989653 0
3.0760002 1.2669414 1.2004535 0
3.0810003 1.2645588 1.2019417 0
3.0860002 1.2621578 1.2034298 0
2.8680003 1.3696719 1.134095 0
2.8720002 1.3675073 1.1352783 0
2.8760002 1.3653284 1.1364616 0
2.8810003 1.3637033 1.1379408 0
2.8850002 1.3614935 1.139124 0
2.8890002 1.3592694 1.1403073 0
2.8930001 1.3570309 1.1414906 0
2.8970003 1.3547781 1.142674 0
2.9020002 1.3530698 1.144153 0
2.9060001 1.3507861 1.1453363 0
2.9100003 1.3484881 1.1465197 0
2.9150002 1.3467294 1.1479988 0
2.9190001 1.3444006 1.149182 0
2.9230001 1.3420575 1.1503654 0
2.9280002 1.3402482 1.1518445 0
2.9320002 1.3378745 1.1530278 0
2.9360001 1.3354862 1.154211 0
2.9410002 1.3336265 1.1556902 0
2.9450002 1.3312075 1.1568735 0
2.9500003 1.3293136 1.1583526 0
2.9540002 1.326864 1.1595359 0
2.9590001 1.3249357 1.161015 0
2.9630003 1.3224555 1.1621983 0
2.9680002 1.3204929 1.1636775 0
2.9720001 1.3179821 1.1648607 0
2.9770002 1.3159852 1.1663399 0
2.9810002 1.3134437 1.1675231 0
2.9860003 1.3114127 1.1690023 0
2.9900002 1.3088404 1.1701856 0
2.9950001 1.306775 1.1716647 0
3.0000002 1.3046917 1.1731439 0
3.0040002 1.3020724 1.1743271 0
3.0090003 1.2999549 1.1758063 0
3.0140002 1.2978191 1.1772854 0
3.0180001 1.295153 1.1784686 0
3.0230002 1.2929831 1.1799479 0
3.0280001 1.290795 1.1814269 0
3.0320003 1.2880821 1.1826103 0
3.0370002 1.2858598 1.1840893 0
3.0420003 1.2836195 1.1855685 0
3.0470002 1.2813611 1.1870476 0
3.0520003 1.2790848 1.1885267 0
3.0560002 1.2762924 1.18971 0
3.0610001 1.2739817 1.1911891 0
3.0660002 1.2716531 1.1926683 0
3.0710003 1.2693063 1.1941475 0
3.0760002 1.2669414 1.1956265 0
3.0810003 1.2645588 1.1971056 0
3.0860002 1.2621578 1.1985848 0
2.8680003 1.3696719 1.1296432 0
2.8720002 1.3675073 1.1308193 0
2.8760002 1.3653284 1.1319953 0
2.8810003 1.3637033 1.1334654 0
2.8850002 1.3614935 1.1346415 0
2.8890002 1.3592694 1.1358176 0
2.8930001 1.3570309 1.1369936 0
2.8970003 1.3547781 1.1381699 0
2.9020002 1.3530698 1.1396399 0
2.9060001 1.3507861 1.140816 0
2.9100003 1.3484881 1.1419921 0
2.9150002 1.3467294 1.1434622 0
2.9190001 1.3444006 1.1446383 0
2.9230001 1.3420575 1.1458143 0
2.9280002 1.3402482 1.1472845 0
2.9320002 1.3378745 1.1484605 0
2.9360001 1.3354862 1.1496366 0
2.9410002 1.3336265 1.1511067 0
2.9450002 1.3312075 1.1522828 0
2.9500003 1.3293136 1.1537529 0
2.9540002 1.326864 1.154929 0
2.9590001 1.3249357 1.156399 0
2.9630003 1.3224555 1.1575752 0
2.9680002 1.3204929 1.1590452 0
2.9720001 1.3179821 1.1602213 0
2.9770002 1.3159852 1.1616914 0
2.9810002 1.3134437 1.1628675 0
2.9860003 1.3114127 1.1643376 0
2.9900002 1.3088404 1.1655138 0
2.9950001 1.306775 1.1669838 0
3.0000002 1.3046917 1.1684539 0
3.0040002 1.3020724 1.1696301 0
3.0090003 1.2999549 1.1711001 0
3.0140002 1.2978191 1.1725702 0
3.0180001 1.295153 1.1737463 0
3.0230002 1.2929831 1.1752164 0
3.0280001 1.290795 1.1766865 0
3.0320003 1.2880821 1.1778626 0
3.0370002 1.2858598 1.1793327 0
3.0420003 1.2836195 1.1808028 0
3.0470002 1.2813611 1.1822729 0
3.0520003 1.2790848 1.183743 0
3.0560002 1.2762924 1.1849191 0
3.0610001 1.2739817 1.1863892 0
3.0660002 1.2716531 1.1878593 0
3.0710003 1.2693063 1.1893295 0
3.0760002 1.2669414 1.1907995 0
3.0810003 1.2645588 1.1922697 0
3.0860002 1.2621578 1.1937398 0
2.8680003 1.3696719 1.1251915 0
2.8720002 1.3675073 1.1263603 0
2.8760002 1.3653284 1.1275291 0
2.8810003 1.3637033 1.1289903 0
2.8850002 1.3614935 1.130159 0
2.8890002 1.3592694 1.131328 0
2.8930001 1.3570309 1.1324968 0
2.8970003 1.3547781 1.1336657 0
2.9020002 1.3530698 1.1351267 0
2.9060001 1.3507861 1.1362957 0
2.9100003 1.3484881 1.1374645 0
2.9150002 1.3467294 1.1389256 0
2.9190001 1.3444006 1.1400944 0
2.9230001 1.3420575 1.1412634 0
2.9280002 1.3402482 1.1427244 0
2.9320002 1.3378745 1.1438932 0
2.9360001 1.3354862 1.1450621 0
2.9410002 1.3336265 1.1465232 0
2.9450002 1.3312075 1.1476921 0
2.9500003 1.3293136 1.1491532 0
2.9540002 1.326864 1.1503221 0
2.9590001 1.3249357 1.1517831 0
2.9630003 1.3224555 1.1529521 0
2.9680002 1.3204929 1.1544131 0
2.9720001 1.3179821 1.155582 0
2.9770002 1.3159852 1.1570431 0
2.9810002 1.3134437 1.1582119 0
2.9860003 1.3114127 1.1596731 0
2.9900002 1.3088404 1.1608418 0
2.9950001 1.306775 1.162303 0
3.0000002 1.3046917 1.163764 0
3.0040002 1.3020724 1.164933 0
3.0090003 1.2999549 1.166394 0
3.0140002 1.2978191 1.167855 0
3.0180001 1.295153 1.1690239 0
3.0230002 1.2929831 1.170485 0
3.0280001 1.290795 1.171946 0
3.0320003 1.2880821 1.173115 0
3.0370002 1.2858598 1.174576 0
3.0420003 1.2836195 1.1760372 0
3.0470002 1.2813611 1.1774982 0
3.0520003 1.2790848 1.1789594 0
3.0560002 1.2762924 1.1801282 0
3.0610001 1.2739817 1.1815892 0
3.0660002 1.2716531 1.1830504 0
3.0710003 1.2693063 1.1845114 0
3.0760002 1.2669414 1.1859726 0
3.0810003 1.2645588 1.1874337 0
3.0860002 1.2621578 1.1888947 0
2.8680003 1.3696719 1.1207396 0
2.8720002 1.3675073 1.1219013 0
2.8760002 1.3653284 1.123063 0
2.8810003 1.3637033 1.1245151 0
2.8850002 1.3614935 1.1256766 0
2.8890002 1.3592694 1.1268382 0
2.8930001 1.3570309 1.1279999 0
2.8970003 1.3547781 1.1291616 0
2.9020002 1.3530698 1.1306137 0
2.9060001 1.3507861 1.1317753 0
2.9100003 1.3484881 1.132937 0
2.9150002 1.3467294 1.134389 0
2.9190001 1.3444006 1.1355507 0
2.9230001 1.3420575 1.1367123 0
2.9280002 1.3402482 1.1381644 0
2.9320002 1.3378745 1.139326 0
2.9360001 1.3354862 1.1404877 0
2.9410002 1.3336265 1.1419398 0
2.9450002 1.3312075 1.1431015 0
2.9500003 1.3293136 1.1445534 0
2.9540002 1.326864 1.1457151 0
2.9590001 1.3249357 1.1471672 0
2.9630003 1.3224555 1.1483289 0
2.9680002 1.3204929 1.1497809 0
2.9720001 1.3179821 1.1509426 0
2.9770002 1.3159852 1.1523947 0
2.9810002 1.3134437 1.1535562 0
2.9860003 1.3114127 1.1550084 0
2.9900002 1.3088404 1.15617 0
2.9950001 1.306775 1.1576221 0
3.0000002 1.3046917 1.1590742 0
3.0040002 1.3020724 1.1602358 0
3.0090003 1.2999549 1.1616879 0
3.0140002 1.2978191 1.1631399 0
3.0180001 1.295153 1.1643015 0
3.0230002 1.2929831 1.1657536 0
3.0280001 1.290795 1.1672057 0
3.0320003 1.2880821 1.1683674 0
3.0370002 1.2858598 1.1698194 0
3.0420003 1.2836195 1.1712716 0
3.0470002 1.2813611 1.1727235 0
3.0520003 1.2790848 1.1741756 0
3.0560002 1.2762924 1.1753373 0
3.0610001 1.2739817 1.1767893 0
3.0660002 1.2716531 1.1782414 0
3.0710003 1.2693063 1.1796935 0
3.0760002 1.2669414 1.1811455 0
3.0810003 1.2645588 1.1825976 0
3.0860002 1.2621578 1.1840496 0
2.8680003 1.3696719 1.1162878 0
2.8720002 1.3675073 1.1174423 0
2.8760002 1.3653284 1.1185967 0
2.8810003 1.3637033 1.1200397 0
2.8850002 1.3614935 1.1211942 0
2.8890002 1.3592694 1.1223487 0
2.8930001 1.3570309 1.123503 0
2.8970003 1.3547781 1.1246575 0
2.9020002 1.3530698 1.1261005 0
2.9060001 1.3507861 1.127255 0
2.9100003 1.3484881 1.1284094 0
2.9150002 1.3467294 1.1298524 0
2.9190001 1.3444006 1.1310068 0
2.9230001 1.3420575 1.1321613 0
2.9280002 1.3402482 1.1336044 0
2.9320002 1.3378745 1.1347587 0
2.9360001 1.3354862 1.1359133 0
2.9410002 1.3336265 1.1373563 0
2.9450002 1.3312075 1.1385107 0
2.9500003 1.3293136 1.1399539 0
2.9540002 1.326864 1.1411082 0
2.9590001 1.3249357 1.1425512 0
2.9630003 1.3224555 1.1437057 0
2.9680002 1.3204929 1.1451488 0
2.9720001 1.3179821 1.1463032 0
2.9770002 1.3159852 1.1477462 0
2.9810002 1.3134437 1.1489006 0
2.9860003 1.3114127 1.1503438 0
2.9900002 1.3088404 1.1514982 0
2.9950001 1.306775 1.1529412 0
3.0000002 1.3046917 1.1543843 0
3.0040002 1.3020724 1.1555387 0
3.0090003 1.2999549 1.1569817 0
3.0140002 1.2978191 1.1584247 0
3.0180001 1.295153 1.1595792 0
3.0230002 1.2929831 1.1610223 0
3.0280001 1.290795 1.1624653 0
3.0320003 1.2880821 1.1636198 0
3.0370002 1.2858598 1.1650628 0
3.0420003 1.2836195 1.1665058 0
3.0470002 1.2813611 1.1679488 0
3.0520003 1.2790848 1.169392 0
3.0560002 1.2762924 1.1705464 0
3.0610001 1.2739817 1.1719894 0
3.0660002 1.2716531 1.1734325 0
3.0710003 1.2693063 1.1748755 0
3.0760002 1.2669414 1.1763185 0
3.0810003 1.2645588 1.1777616 0
3.0860002 1.2621578 1.1792046 0
2.8680003 1.3696719 1.111836 0
2.8720002 1.3675073 1.1129832 0
2.8760002 1.3653284 1.1141305 0
2.8810003 1.3637033 1.1155645 0
2.8850002 1.3614935 1.1167117 0
2.8890002 1.3592694 1.1178589 0
2.8930001 1.3570309 1.1190062 0
2.8970003 1.3547781 1.1201534 0
2.9020002 1.3530698 1.1215874 0
2.9060001 1.3507861 1.1227345 0
2.9100003 1.3484881 1.1238818 0
2.9150002 1.3467294 1.1253159 0
2.9190001 1.3444006 1.1264631 0
2.9230001 1.3420575 1.1276103 0
2.9280002 1.3402482 1.1290444 0
2.9320002 1.3378745 1.1301916 0
2.9360001 1.3354862 1.1313387 0
2.9410002 1.3336265 1.1327728 0
2.9450002 1.3312075 1.13392 0
2.9500003 1.3293136 1.1353542 0
2.9540002 1.326864 1.1365013 0
2.9590001 1.3249357 1.1379353 0
2.9630003 1.3224555 1.1390826 0
2.9680002 1.3204929 1.1405165 0
2.9720001 1.3179821 1.1416638 0
2.9770002 1.3159852 1.1430978 0
2.9810002 1.3134437 1.144245 0
2.9860003 1.3114127 1.1456791 0
2.9900002 1.3088404 1.1468263 0
2.9950001 1.306775 1.1482602 0
3.0000002 1.3046917 1.1496943 0
3.0040002 1.3020724 1.1508416 0
3.0090003 1.2999549 1.1522756 0
3.0140002 1.2978191 1.1537097 0
3.0180001 1.295153 1.1548568 0
3.0230002 1.2929831 1.1562909 0
3.0280001 1.290795 1.1577249 0
3.0320003 1.2880821 1.1588721 0
3.0370002 1.2858598 1.1603061 0
3.0420003 1.2836195 1.1617402 0
3.0470002 1.2813611 1.1631742 0
3.0520003 1.2790848 1.1646082 0
3.0560002 1.2762924 1.1657554 0
3.0610001 1.2739817 1.1671895 0
3.0660002 1.2716531 1.1686234 0
3.0710003 1.2693063 1.1700575 0
3.0760002 1.2669414 1.1714915 0
3.0810003 1.2645588 1.1729256 0
3.0860002 1.2621578 1.1743596 0
2.8680003 1.3696719 1.1073842 0
2.8720002 1.3675073 1.1085242 0
2.8760002 1.3653284 1.1096642 0
2.8800001 1.363135 1.1108042 0
2.8850002 1.3614935 1.1122292 0
2.8890002 1.3592694 1.1133692 0
2.8930001 1.3570309 1.1145092 0
2.8970003 1.3547781 1.1156493 0
2.9020002 1.3530698 1.1170743 0
2.9060001 1.3507861 1.1182142 0
2.9100003 1.3484881 1.1193544 0
2.9150002 1.3467294 1.1207793 0
2.9190001 1.3444006 1.1219193 0
2.9230001 1.3420575 1.1230593 0
2.9280002 1.3402482 1.1244843 0
2.9320002 1.3378745 1.1256243 0
2.9360001 1.3354862 1.1267643 0
2.9410002 1.3336265 1.1281893 0
2.9450002 1.3312075 1.1293293 0
2.9500003 1.3293136 1.1307544 0
2.9540002 1.326864 1.1318944 0
2.9590001 1.3249357 1.1333193 0
2.9630003 1.3224555 1.1344594 0
2.9680002 1.3204929 1.1358844 0
2.9720001 1.3179821 1.1370244 0
2.9770002 1.3159852 1.1384494 0
2.9810002 1.3134437 1.1395894 0
2.9860003 1.3114127 1.1410145 0
2.9900002 1.3088404 1.1421545 0
2.9950001 1.306775 1.1435794 0
3.0000002 1.3046917 1.1450044 0
3.0040002 1.3020724 1.1461444 0
3.0090003 1.2999549 1.1475695 0
3.0140002 1.2978191 1.1489944 0
3.0180001 1.295153 1.1501344 0
3.0230002 1.2929831 1.1515595 0
3.0280001 1.290795 1.1529845 0
3.0320003 1.2880821 1.1541245 0
3.0370002 1.2858598 1.1555495 0
3.0420003 1.2836195 1.1569746 0
3.0470002 1.2813611 1.1583995 0
3.0520003 1.2790848 1.1598245 0
3.0560002 1.2762924 1.1609645 0
3.0610001 1.2739817 1.1623895 0
3.0660002 1.2716531 1.1638145 0
3.0710003 1.2693063 1.1652396 0
3.0760002 1.2669414 1.1666646 0
3.0810003 1.2645588 1.1680896 0
3.0860002 1.2621578 1.1695147 0
2.8680003 1.3696719 1.1029325 0
2.8720002 1.3675073 1.1040652 0
2.8760002 1.3653284 1.105198 0
2.8800001 1.363135 1.1063308 0
2.8850002 1.3614935 1.1077467 0
2.8890002 1.3592694 1.1088796 0
2.8930001 1.3570309 1.1100123 0
2.8970003 1.3547781 1.1111451 0
2.9020002 1.3530698 1.1125611 0
2.9060001 1.3507861 1.113694 0
2.9100003 1.3484881 1.1148268 0
2.9150002 1.3467294 1.1162426 0
2.9190001 1.3444006 1.1173755 0
2.9230001 1.3420575 1.1185082 0
2.9280002 1.3402482 1.1199243 0
2.9320002 1.3378745 1.121057 0
2.9360001 1.3354862 1.1221899 0
2.9410002 1.3336265 1.1236058 0
2.9450002 1.3312075 1.1247386 0
2.9500003 1.3293136 1.1261547 0
2.9540002 1.326864 1.1272874 0
2.9590001 1.3249357 1.1287034 0
2.9630003 1.3224555 1.1298362 0
2.9680002 1.3204929 1.1312522 0
2.9720001 1.3179821 1.132385 0
2.9770002 1.3159852 1.133801 0
2.9810002 1.3134437 1.1349337 0
2.9860003 1.3114127 1.1363498 0
2.9900002 1.3088404 1.1374826 0
2.9950001 1.306775 1.1388985 0
3.0000002 1.3046917 1.1403146 0
3.0040002 1.3020724 1.1414473 0
3.0090003 1.2999549 1.1428634 0
3.0140002 1.2978191 1.1442792 0
3.0180001 1.295153 1.1454121 0
3.0230002 1.2929831 1.1468281 0
3.0280001 1.290795 1.148244 0
3.0320003 1.2880821 1.1493769 0
3.0370002 1.2858598 1.1507928 0
3.0420003 1.2836195 1.1522089 0
3.0470002 1.2813611 1.1536248 0
3.0520003 1.2790848 1.1550409 0
3.0560002 1.2762924 1.1561736 0
3.0610001 1.2739817 1.1575896 0
3.0660002 1.2716531 1.1590055 0
3.0710003 1.2693063 1.1604216 0
3.0760002 1.2669414 1.1618376 0
3.0810003 1.2645588 1.1632535 0
3.0860002 1.2621578 1.1646695 0
2.8680003 1.3696719 1.0984806 0
2.8720002 1.3675073 1.0996062 0
2.8760002 1.3653284 1.1007317 0
2.8800001 1.363135 1.1018573 0
2.8850002 1.3614935 1.1032643 0
2.8890002 1.3592694 1.1043899 0
2.8930001 1.3570309 1.1055155 0
2.8970003 1.3547781 1.1066411 0
2.9020002 1.3530698 1.108048 0
2.9060001 1.3507861 1.1091735 0
2.9100003 1.3484881 1.1102992 0
2.9150002 1.3467294 1.1117061 0
2.9190001 1.3444006 1.1128317 0
2.9230001 1.3420575 1.1139573 0
2.9280002 1.3402482 1.1153642 0
2.9320002 1.3378745 1.1164898 0
2.9360001 1.3354862 1.1176153 0
2.9410002 1.3336265 1.1190224 0
2.9450002 1.3312075 1.1201479 0
2.9500003 1.3293136 1.121555 0
2.9540002 1.326864 1.1226805 0
2.9590001 1.3249357 1.1240875 0
2.9630003 1.3224555 1.125213 0
2.9680002 1.3204929 1.1266199 0
2.9720001 1.3179821 1.1277455 0
2.9770002 1.3159852 1.1291525 0
2.9810002 1.3134437 1.1302781 0
2.9860003 1.3114127 1.1316851 0
2.9900002 1.3088404 1.1328107 0
2.9950001 1.306775 1.1342176 0
3.0000002 1.3046917 1.1356246 0
3.0040002 1.3020724 1.1367502 0
3.0090003 1.2999549 1.1381572 0
3.0140002 1.2978191 1.1395642 0
3.0180001 1.295153 1.1406897 0
3.0230002 1.2929831 1.1420966 0
3.0280001 1.290795 1.1435037 0
3.0320003 1.2880821 1.1446292 0
3.0370002 1.2858598 1.1460361 0
3.0420003 1.2836195 1.1474432 0
3.0470002 1.2813611 1.1488501 0
3.0520003 1.2790848 1.1502571 0
3.0560002 1.2762924 1.1513827 0
3.0610001 1.2739817 1.1527896 0
3.0660002 1.2716531 1.1541966 0
3.0710003 1.2693063 1.1556036 0
3.0760002 1.2669414 1.1570106 0
3.0810003 1.2645588 1.1584176 0
3.0860002 1.2621578 1.1598245 0
2.8680003 1.3696719 1.0940288 0
2.8720002 1.3675073 1.0951473 0
2.8760002 1.3653284 1.0962656 0
2.8800001 1.363135 1.0973839 0
2.8850002 1.3614935 1.0987818 0
2.8890002 1.3592694 1.0999002 0
2.8930001 1.3570309 1.1010185 0
2.8970003 1.3547781 1.102137 0
2.9020002 1.3530698 1.1035349 0
2.9060001 1.3507861 1.1046532 0
2.9100003 1.3484881 1.1057717 0
2.9150002 1.3467294 1.1071695 0
2.9190001 1.3444006 1.1082879 0
2.9230001 1.3420575 1.1094062 0
2.9280002 1.3402482 1.1108042 0
2.9320002 1.3378745 1.1119226 0
2.9360001 1.3354862 1.1130409 0
2.9410002 1.3336265 1.1144389 0
2.9450002 1.3312075 1.1155572 0
2.9500003 1.3293136 1.1169553 0
2.9540002 1.326864 1.1180736 0
2.9590001 1.3249357 1.1194714 0
2.9630003 1.3224555 1.12059 0
2.9680002 1.3204929 1.1219878 0
2.9720001 1.3179821 1.1231061 0
2.9770002 1.3159852 1.1245042 0
2.9810002 1.3134437 1.1256225 0
2.9860003 1.3114127 1.1270205 0
2.9900002 1.3088404 1.1281388 0
2.9950001 1.306775 1.1295367 0
3.0000002 1.3046917 1.1309347 0
3.0040002 1.3020724 1.1320531 0
3.0090003 1.2999549 1.1334511 0
3.0140002 1.2978191 1.134849 0
3.0180001 1.295153 1.1359674 0
3.0230002 1.2929831 1.1373653 0
3.0280001 1.290795 1.1387632 0
3.0320003 1.2880821 1.1398816 0
3.0370002 1.2858598 1.1412796 0
3.0420003 1.2836195 1.1426775 0
3.0470002 1.2813611 1.1440754 0
3.0520003 1.2790848 1.1454735 0
3.0560002 1.2762924 1.1465918 0
3.0610001 1.2739817 1.1479897 0
3.0660002 1.2716531 1.1493877 0
3.0710003 1.2693063 1.1507857 0
3.0760002 1.2669414 1.1521837 0
3.0810003 1.2645588 1.1535815 0
3.0860002 1.2621578 1.1549795 0
2.8680003 1.3696719 1.0895771 0
2.8720002 1.3675073 1.0906881 0
2.8760002 1.3653284 1.0917993 0
2.8800001 1.363135 1.0929104 0
2.8850002 1.3614935 1.0942994 0
2.8890002 1.3592694 1.0954105 0
2.8930001 1.3570309 1.0965216 0
2.8970003 1.3547781 1.0976329 0
2.9020002 1.3530698 1.0990218 0
2.9060001 1.3507861 1.1001329 0
2.9100003 1.3484881 1.1012441 0
2.9150002 1.3467294 1.102633 0
2.9190001 1.3444006 1.103744 0
2.9230001 1.3420575 1.1048552 0
2.9280002 1.3402482 1.1062442 0
2.9320002 1.3378745 1.1073554 0
2.9360001 1.3354862 1.1084665 0
2.9410002 1.3336265 1.1098554 0
2.9450002 1.3312075 1.1109666 0
2.9500003 1.3293136 1.1123556 0
2.9540002 1.326864 1.1134666 0
2.9590001 1.3249357 1.1148555 0
2.9630003 1.3224555 1.1159668 0
2.9680002 1.3204929 1.1173557 0
2.9720001 1.3179821 1.1184669 0
2.9770002 1.3159852 1.1198558 0
2.9810002 1.3134437 1.1209669 0
2.9860003 1.3114127 1.1223558 0
2.9900002 1.3088404 1.123467 0
2.9950001 1.306775 1.1248559 0
3.0000002 1.3046917 1.1262448 0
3.0040002 1.3020724 1.1273559 0
3.0090003 1.2999549 1.128745 0
3.0140002 1.2978191 1.1301337 0
3.0180001 1.295153 1.1312449 0
3.0230002 1.2929831 1.1326339 0
3.0280001 1.290795 1.1340228 0
3.0320003 1.2880821 1.135134 0
3.0370002 1.2858598 1.1365229 0
3.0420003 1.2836195 1.1379119 0
3.0470002 1.2813611 1.1393007 0
3.0520003 1.2790848 1.1406897 0
3.0560002 1.2762924 1.1418009 0
3.0610001 1.2739817 1.1431898 0
3.0660002 1.2716531 1.1445787 0
3.0710003 1.2693063 1.1459677 0
3.0760002 1.2669414 1.1473566 0
3.0810003 1.2645588 1.1487455 0
3.0860002 1.2621578 1.1501344 0
2.8680003 1.3696719 1.0851252 0
2.8720002 1.3675073 1.0862291 0
2.8760002 1.3653284 1.0873331 0
2.8800001 1.363135 1.088437 0
2.8850002 1.3614935 1.0898169 0
2.8890002 1.3592694 1.0909208 0
2.8930001 1.3570309 1.0920248 0
2.8970003 1.3547781 1.0931288 0
2.9020002 1.3530698 1.0945086 0
2.9060001 1.3507861 1.0956125 0
2.9100003 1.3484881 1.0967165 0
2.9150002 1.3467294 1.0980964 0
2.9190001 1.3444006 1.0992004 0
2.9230001 1.3420575 1.1003042 0
2.9280002 1.3402482 1.1016842 0
2.9320002 1.3378745 1.1027881 0
2.9360001 1.3354862 1.103892 0
2.9410002 1.3336265 1.1052719 0
2.9450002 1.3312075 1.1063758 0
2.9500003 1.3293136 1.1077558 0
2.9540002 1.326864 1.1088598 0
2.9590001 1.3249357 1.1102396 0
2.9630003 1.3224555 1.1113436 0
2.9680002 1.3204929 1.1127235 0
2.9720001 1.3179821 1.1138273 0
2.9770002 1.3159852 1.1152073 0
2.9810002 1.3134437 1.1163112 0
2.9860003 1.3114127 1.1176912 0
2.9900002 1.3088404 1.1187952 0
2.9950001 1.306775 1.120175 0
3.0000002 1.3046917 1.121555 0
3.0040002 1.3020724 1.1226588 0
3.0090003 1.2999549 1.1240388 0
3.0140002 1.2978191 1.1254187 0
3.0180001 1.295153 1.1265227 0
3.0230002 1.2929831 1.1279025 0
3.0280001 1.290795 1.1292825 0
3.0320003 1.2880821 1.1303865 0
3.0370002 1.2858598 1.1317662 0
3.0420003 1.2836195 1.1331463 0
3.0470002 1.2813611 1.1345261 0
3.0520003 1.2790848 1.1359061 0
3.0560002 1.2762924 1.13701 0
3.0610001 1.2739817 1.1383898 0
3.0660002 1.2716531 1.1397698 0
3.0710003 1.2693063 1.1411498 0
3.0760002 1.2669414 1.1425296 0
3.0810003 1.2645588 1.1439096 0
3.0860002 1.2621578 1.1452894 0
2.8680003 1.3696719 1.0806735 0
2.8720002 1.3675073 1.0817702 0
2.8760002 1.3653284 1.0828669 0
2.8800001 1.363135 1.0839635 0
2.8850002 1.3614935 1.0853345 0
2.8890002 1.3592694 1.0864311 0
2.8930001 1.3570309 1.0875279 0
2.8970003 1.3547781 1.0886246 0
2.9020002 1.3530698 1.0899955 0
2.9060001 1.3507861 1.0910922 0
2.9100003 1.3484881 1.092189 0
2.9150002 1.3467294 1.0935599 0
2.9190001 1.3444006 1.0946565 0
2.9230001 1.3420575 1.0957532 0
2.9280002 1.3402482 1.0971241 0
2.9320002 1.3378745 1.0982208 0
2.9360001 1.3354862 1.0993176 0
2.9410002 1.3336265 1.1006885 0
2.9450002 1.3312075 1.1017852 0
2.9500003 1.3293136 1.1031561 0
2.9540002 1.326864 1.1042528 0
2.9590001 1.3249357 1.1056237 0
2.9630003 1.3224555 1.1067204 0
2.9680002 1.3204929 1.1080912 0
2.9720001 1.3179821 1.109188 0
2.9770002 1.3159852 1.1105589 0
2.9810002 1.3134437 1.1116556 0
2.9860003 1.3114127 1.1130265 0
2.9900002 1.3088404 1.1141232 0
2.9950001 1.306775 1.1154941 0
3.0000002 1.3046917 1.116865 0
3.0040002 1.3020724 1.1179618 0
3.0090003 1.2999549 1.1193327 0
3.0140002 1.2978191 1.1207035 0
3.0180001 1.295153 1.1218002 0
3.0230002 1.2929831 1.1231711 0
3.0280001 1.290795 1.124542 0
3.0320003 1.2880821 1.1256387 0
3.0370002 1.2858598 1.1270096 0
3.0420003 1.2836195 1.1283805 0
3.0470002 1.2813611 1.1297514 0
3.0520003 1.2790848 1.1311224 0
3.0560002 1.2762924 1.1322191 0
3.0610001 1.2739817 1.13359 0
3.0660002 1.2716531 1.1349609 0
3.0710003 1.2693063 1.1363318 0
3.0760002 1.2669414 1.1377026 0
3.0810003 1.2645588 1.1390735 0
3.0860002 1.2621578 1.1404444 0
2.8680003 1.3696719 1.0762216 0
2.8720002 1.3675073 1.0773112 0
2.8760002 1.3653284 1.0784006 0
2.8800001 1.363135 1.0794901 0
2.8850002 1.3614935 1.080852 0
2.8890002 1.3592694 1.0819415 0
2.8930001 1.3570309 1.0830309 0
2.8970003 1.3547781 1.0841205 0
2.9020002 1.3530698 1.0854824 0
2.9060001 1.3507861 1.0865718 0
2.9100003 1.3484881 1.0876614 0
2.9150002 1.3467294 1.0890232 0
2.9190001 1.3444006 1.0901128 0
2.9230001 1.3420575 1.0912023 0
2.9280002 1.3402482 1.0925641 0
2.9320002 1.3378745 1.0936536 0
2.9360001 1.3354862 1.0947431 0
2.9410002 1.3336265 1.096105 0
2.9450002 1.3312075 1.0971944 0
2.9500003 1.3293136 1.0985564 0
2.9540002 1.326864 1.0996459 0
2.9590001 1.3249357 1.1010077 0
2.9630003 1.3224555 1.1020973 0
2.9680002 1.3204929 1.1034591 0
2.9720001 1.3179821 1.1045486 0
2.9770002 1.3159852 1.1059105 0
2.9810002 1.3134437 1.107 0
2.9860003 1.3114127 1.1083618 0
2.9900002 1.3088404 1.1094514 0
2.9950001 1.306775 1.1108133 0
3.0000002 1.3046917 1.1121751 0
3.0040002 1.3020724 1.1132646 0
3.0090003 1.2999549 1.1146265 0
3.0140002 1.2978191 1.1159884 0
3.0180001 1.295153 1.1170778 0
3.0230002 1.2929831 1.1184398 0
3.0280001 1.290795 1.1198016 0
3.0320003 1.2880821 1.1208912 0
3.0370002 1.2858598 1.1222529 0
3.0420003 1.2836195 1.1236149 0
3.0470002 1.2813611 1.1249768 0
3.0520003 1.2790848 1.1263386 0
3.0560002 1.2762924 1.1274282 0
3.0610001 1.2739817 1.12879 0
3.0660002 1.2716531 1.1301519 0
3.0710003 1.2693063 1.1315138 0
3.0760002 1.2669414 1.1328757 0
3.0810003 1.2645588 1.1342375 0
3.0860002 1.2621578 1.1355994 0
2.8680003 1.3696719 1.0717698 0
2.8720002 1.3675073 1.0728521 0
2.8760002 1.3653284 1.0739344 0
2.8800001 1.363135 1.0750166 0
2.8850002 1.3614935 1.0763695 0
2.8890002 1.3592694 1.0774518 0
2.8930001 1.3570309 1.0785341 0
2.8970003 1.3547781 1.0796164 0
2.9020002 1.3530698 1.0809692 0
2.9060001 1.3507861 1.0820515 0
2.9100003 1.3484881 1.0831338 0
2.9150002 1.3467294 1.0844867 0
2.9190001 1.3444006 1.0855689 0
2.9230001 1.3420575 1.0866512 0
2.9280002 1.3402482 1.0880041 0
2.9320002 1.3378745 1.0890864 0
2.9360001 1.3354862 1.0901686 0
2.9410002 1.3336265 1.0915215 0
2.9450002 1.3312075 1.0926038 0
2.9500003 1.3293136 1.0939567 0
2.9540002 1.326864 1.0950389 0
2.9590001 1.3249357 1.0963918 0
2.9630003 1.3224555 1.0974741 0
2.9680002 1.3204929 1.0988269 0
2.9720001 1.3179821 1.0999092 0
2.9770002 1.3159852 1.1012621 0
2.9810002 1.3134437 1.1023444 0
2.9860003 1.3114127 1.1036972 0
2.9900002 1.3088404 1.1047795 0
2.9950001 1.306775 1.1061324 0
3.0000002 1.3046917 1.1074853 0
3.0040002 1.3020724 1.1085675 0
3.0090003 1.2999549 1.1099204 0
3.0140002 1.2978191 1.1112732 0
3.0180001 1.295153 1.1123555 0
3.0230002 1.2929831 1.1137084 0
3.0280001 1.290795 1.1150612 0
3.0320003 1.2880821 1.1161435 0
3.0370002 1.2858598 1.1174964 0
3.0420003 1.2836195 1.1188492 0
3.0470002 1.2813611 1.1202021 0
3.0520003 1.2790848 1.121555 0
3.0560002 1.2762924 1.1226373 0
3.0610001 1.2739817 1.1239901 0
3.0660002 1.2716531 1.125343 0
3.0710003 1.2693063 1.1266958 0
3.0760002 1.2669414 1.1280487 0
3.0810003 1.2645588 1.1294014 0
3.0860002 1.2621578 1.1307544 0
2.8680003 1.3696719 1.0673181 0
2.8720002 1.3675073 1.0683931 0
2.8760002 1.3653284 1.0694681 0
2.8800001 1.363135 1.0705432 0
2.8850002 1.3614935 1.071887 0
2.8890002 1.3592694 1.0729622 0
2.8930001 1.3570309 1.0740372 0
2.8970003 1.3547781 1.0751123 0
2.9020002 1.3530698 1.0764561 0
2.9060001 1.3507861 1.0775312 0
2.9100003 1.3484881 1.0786062 0
2.9150002 1.3467294 1.0799501 0
2.9190001 1.3444006 1.0810251 0
2.9230001 1.3420575 1.0821002 0
2.9280002 1.3402482 1.0834441 0
2.9320002 1.3378745 1.0845191 0
2.9360001 1.3354862 1.0855942 0
2.9410002 1.3336265 1.086938 0
2.9450002 1.3312075 1.0880132 0
2.9500003 1.3293136 1.089357 0
2.9540002 1.326864 1.090432 0
2.9590001 1.3249357 1.0917759 0
2.9630003 1.3224555 1.0928509 0
2.9680002 1.3204929 1.0941948 0
2.9720001 1.3179821 1.0952698 0
2.9770002 1.3159852 1.0966136 0
2.9810002 1.3134437 1.0976887 0
2.9860003 1.3114127 1.0990326 0
2.9900002 1.3088404 1.1001077 0
2.9950001 1.306775 1.1014514 0
3.0000002 1.3046917 1.1027954 0
3.0040002 1.3020724 1.1038704 0
3.0090003 1.2999549 1.1052142 0
3.0140002 1.2978191 1.1065581 0
3.0180001 1.295153 1.1076331 0
3.0230002 1.2929831 1.108977 0
3.0280001 1.290795 1.1103208 0
3.0320003 1.2880821 1.111396 0
3.0370002 1.2858598 1.1127397 0
3.0420003 1.2836195 1.1140835 0
3.0470002 1.2813611 1.1154274 0
3.0520003 1.2790848 1.1167712 0
3.0560002 1.2762924 1.1178463 0
3.0610001 1.2739817 1.1191901 0
3.0660002 1.2716531 1.1205339 0
3.0710003 1.2693063 1.1218778 0
3.0760002 1.2669414 1.1232216 0
3.0810003 1.2645588 1.1245655 0
3.0860002 1.2621578 1.1259093 0
2.8680003 1.3696719 1.0628662 0
2.8720002 1.3675073 1.0639341 0
2.8760002 1.3653284 1.0650018 0
2.8800001 1.363135 1.0660697 0
2.8850002 1.3614935 1.0674046 0
2.8890002 1.3592694 1.0684725 0
2.8930001 1.3570309 1.0695403 0
2.8970003 1.3547781 1.0706081 0
2.9020002 1.3530698 1.071943 0
2.9060001 1.3507861 1.0730108 0
2.9100003 1.3484881 1.0740788 0
2.9150002 1.3467294 1.0754135 0
2.9190001 1.3444006 1.0764813 0
2.9230001 1.3420575 1.0775492 0
2.9280002 1.3402482 1.078884 0
2.9320002 1.3378745 1.0799519 0
2.9360001 1.3354862 1.0810198 0
2.9410002 1.3336265 1.0823545 0
2.9450002 1.3312075 1.0834224 0
2.9500003 1.3293136 1.0847572 0
2.9540002 1.326864 1.0858251 0
2.9590001 1.3249357 1.0871599 0
2.9630003 1.3224555 1.0882277 0
2.9680002 1.3204929 1.0895627 0
2.9720001 1.3179821 1.0906304 0
2.9770002 1.3159852 1.0919653 0
2.9810002 1.3134437 1.0930331 0
2.9860003 1.3114127 1.094368 0
2.9900002 1.3088404 1.0954357 0
2.9950001 1.306775 1.0967705 0
3.0000002 1.3046917 1.0981054 0
3.0040002 1.3020724 1.0991733 0
3.0090003 1.2999549 1.1005081 0
3.0140002 1.2978191 1.1018429 0
3.0180001 1.295153 1.1029108 0
3.0230002 1.2929831 1.1042455 0
3.0280001 1.290795 1.1055803 0
3.0320003 1.2880821 1.1066483 0
3.0370002 1.2858598 1.107983 0
3.0420003 1.2836195 1.1093179 0
3.0470002 1.2813611 1.1106527 0
3.0520003 1.2790848 1.1119876 0
3.0560002 1.2762924 1.1130553 0
3.0610001 1.2739817 1.1143901 0
3.0660002 1.2716531 1.115725 0
3.0710003 1.2693063 1.1170598 0
3.0760002 1.2669414 1.1183946 0
3.0810003 1.2645588 1.1197295 0
3.0860002 1.2621578 1.1210643 0
2.8680003 1.3696719 1.0584145 0
2.8720002 1.3675073 1.0594751 0
2.8760002 1.3653284 1.0605357 0
2.8800001 1.363135 1.0615963 0
2.8850002 1.3614935 1.0629221 0
2.8890002 1.3592694 1.0639828 0
2.8930001 1.3570309 1.0650434 0
2.8970003 1.3547781 1.0661041 0
2.9020002 1.3530698 1.0674298 0
2.9060001 1.3507861 1.0684905 0
2.9100003 1.3484881 1.0695511 0
2.9150002 1.3467294 1.070877 0
2.9190001 1.3444006 1.0719376 0
2.9230001 1.3420575 1.0729982 0
2.9280002 1.3402482 1.074324 0
2.9320002 1.3378745 1.0753846 0
2.9360001 1.3354862 1.0764452 0
2.9410002 1.3336265 1.0777711 0
2.9450002 1.3312075 1.0788318 0
2.9500003 1.3293136 1.0801575 0
2.9540002 1.326864 1.0812181 0
2.9590001 1.3249357 1.082544 0
2.9630003 1.3224555 1.0836046 0
2.9680002 1.3204929 1.0849304 0
2.9720001 1.3179821 1.085991 0
2.9770002 1.3159852 1.0873169 0
2.9810002 1.3134437 1.0883775 0
2.9860003 1.3114127 1.0897033 0
2.9900002 1.3088404 1.0907639 0
2.9950001 1.306775 1.0920897 0
3.0000002 1.3046917 1.0934155 0
3.0040002 1.3020724 1.0944762 0
3.0090003 1.2999549 1.0958019 0
3.0140002 1.2978191 1.0971278 0
3.0180001 1.295153 1.0981884 0
3.0230002 1.2929831 1.0995142 0
3.0280001 1.290795 1.10084 0
3.0320003 1.2880821 1.1019007 0
3.0370002 1.2858598 1.1032264 0
3.0420003 1.2836195 1.1045523 0
3.0470002 1.2813611 1.105878 0
3.0520003 1.2790848 1.1072038 0
3.0560002 1.2762924 1.1082644 0
3.0610001 1.2739817 1.1095902 0
3.0660002 1.2716531 1.110916 0
3.0710003 1.2693063 1.1122419 0
3.0760002 1.2669414 1.1135676 0
3.0810003 1.2645588 1.1148934 0
3.0860002 1.2621578 1.1162193 0
2.8680003 1.3696719 1.0539627 0
2.8720002 1.3675073 1.055016 0
2.8760002 1.3653284 1.0560695 0
2.8800001 1.363135 1.0571229 0
2.8850002 1.3614935 1.0584397 0
2.8890002 1.3592694 1.0594931 0
2.8930001 1.3570309 1.0605465 0
2.8970003 1.3547781 1.0616 0
2.9020002 1.3530698 1.0629168 0
2.9060001 1.3507861 1.0639701 0
2.9100003 1.3484881 1.0650235 0
2.9150002 1.3467294 1.0663403 0
2.9190001 1.3444006 1.0673938 0
2.9230001 1.3420575 1.0684472 0
2.9280002 1.3402482 1.069764 0
2.9320002 1.3378745 1.0708174 0
2.9360001 1.3354862 1.0718708 0
2.9410002 1.3336265 1.0731876 0
2.9450002 1.3312075 1.074241 0
2.9500003 1.3293136 1.0755578 0
2.9540002 1.326864 1.0766113 0
2.9590001 1.3249357 1.0779281 0
2.9630003 1.3224555 1.0789815 0
2.9680002 1.3204929 1.0802982 0
2.9720001 1.3179821 1.0813516 0
2.9770002 1.3159852 1.0826684 0
2.9810002 1.3134437 1.0837219 0
2.9860003 1.3114127 1.0850387 0
2.9900002 1.3088404 1.086092 0
2.9950001 1.306775 1.0874088 0
3.0000002 1.3046917 1.0887256 0
3.0040002 1.3020724 1.089779 0
3.0090003 1.2999549 1.0910958 0
3.0140002 1.2978191 1.0924126 0
3.0180001 1.295153 1.093466 0
3.0230002 1.2929831 1.0947828 0
3.0280001 1.290795 1.0960995 0
3.0320003 1.2880821 1.0971531 0
3.0370002 1.2858598 1.0984697 0
3.0420003 1.2836195 1.0997866 0
3.0470002 1.2813611 1.1011033 0
3.0520003 1.2790848 1.1024201 0
3.0560002 1.2762924 1.1034735 0
3.0610001 1.2739817 1.1047903 0
3.0660002 1.2716531 1.1061071 0
3.0710003 1.2693063 1.1074239 0
3.0760002 1.2669414 1.1087407 0
3.0810003 1.2645588 1.1100575 0
3.0860002 1.2621578 1.1113743 0
2.8680003 1.3696719 1.0495108 0
2.8720002 1.3675073 1.050557 0
2.8760002 1.3653284 1.0516032 0
2.8800001 1.363135 1.0526494 0
2.8850002 1.3614935 1.0539572 0
2.8890002 1.3592694 1.0550034 0
2.8930001 1.3570309 1.0560496 0
2.8970003 1.3547781 1.0570959 0
2.9020002 1.3530698 1.0584036 0
2.9060001 1.3507861 1.0594498 0
2.9100003 1.3484881 1.0604961 0
2.9150002 1.3467294 1.0618038 0
2.9190001 1.3444006 1.06285 0
2.9230001 1.3420575 1.0638962 0
2.9280002 1.3402482 1.065204 0
2.9320002 1.3378745 1.0662502 0
2.9360001 1.3354862 1.0672964 0
2.9410002 1.3336265 1.0686041 0
2.9450002 1.3312075 1.0696504 0
2.9500003 1.3293136 1.0709581 0
2.9540002 1.326864 1.0720043 0
2.9590001 1.3249357 1.073312 0
2.9630003 1.3224555 1.0743583 0
2.9680002 1.3204929 1.0756661 0
2.9720001 1.3179821 1.0767123 0
2.9770002 1.3159852 1.07802 0
2.9810002 1.3134437 1.0790663 0
2.9860003 1.3114127 1.080374 0
2.9900002 1.3088404 1.0814202 0
2.9950001 1.306775 1.0827279 0
3.0000002 1.3046917 1.0840358 0
3.0040002 1.3020724 1.0850819 0
3.0090003 1.2999549 1.0863897 0
3.0140002 1.2978191 1.0876974 0
3.0180001 1.295153 1.0887437 0
3.0230002 1.2929831 1.0900514 0
3.0280001 1.290795 1.0913591 0
3.0320003 1.2880821 1.0924054 0
3.0370002 1.2858598 1.0937132 0
3.0420003 1.2836195 1.0950209 0
3.0470002 1.2813611 1.0963286 0
3.0520003 1.2790848 1.0976365 0
3.0560002 1.2762924 1.0986826 0
3.0610001 1.2739817 1.0999904 0
3.0660002 1.2716531 1.1012981 0
3.0710003 1.2693063 1.1026059 0
3.0760002 1.2669414 1.1039137 0
3.0810003 1.2645588 1.1052215 0
3.0860002 1.2621578 1.1065291 0
2.8680003 1.3696719 1.0450591 0
2.8720002 1.3675073 1.046098 0
2.8760002 1.3653284 1.047137 0
2.8800001 1.363135 1.0481759 0
2.8850002 1.3614935 1.0494747 0
2.8890002 1.3592694 1.0505137 0
2.8930001 1.3570309 1.0515528 0
2.8970003 1.3547781 1.0525918 0
2.9020002 1.3530698 1.0538905 0
2.9060001 1.3507861 1.0549295 0
2.9100003 1.3484881 1.0559685 0
2.9150002 1.3467294 1.0572672 0
2.9190001 1.3444006 1.0583062 0
2.9230001 1.3420575 1.0593451 0
2.9280002 1.3402482 1.0606439 0
2.9320002 1.3378745 1.0616829 0
2.9360001 1.3354862 1.0627218 0
2.9410002 1.3336265 1.0640206 0
2.9450002 1.3312075 1.0650597 0
2.9500003 1.3293136 1.0663584 0
2.9540002 1.326864 1.0673975 0
2.9590001 1.3249357 1.0686961 0
2.9630003 1.3224555 1.0697352 0
2.9680002 1.3204929 1.0710338 0
2.9720001 1.3179821 1.0720729 0
2.9770002 1.3159852 1.0733716 0
2.9810002 1.3134437 1.0744106 0
2.9860003 1.3114127 1.0757093 0
2.9900002 1.3088404 1.0767484 0
2.9950001 1.306775 1.078047 0
3.0000002 1.3046917 1.0793458 0
3.0040002 1.3020724 1.0803849 0
3.0090003 1.2999549 1.0816836 0
3.0140002 1.2978191 1.0829823 0
3.0180001 1.295153 1.0840212 0
3.0230002 1.2929831 1.0853201 0
3.0280001 1.290795 1.0866188 0
3.0320003 1.2880821 1.0876578 0
3.0370002 1.2858598 1.0889565 0
3.0420003 1.2836195 1.0902553 0
3.0470002 1.2813611 1.0915539 0
3.0520003 1.2790848 1.0928527 0
3.0560002 1.2762924 1.0938917 0
3.0610001 1.2739817 1.0951904 0
3.0660002 1.2716531 1.0964892 0
3.0710003 1.2693063 1.097788 0
3.0760002 1.2669414 1.0990868 0
3.0810003 1.2645588 1.1003854 0
3.0860002 1.2621578 1.1016842 0
2.8680003 1.3696719 1.0406072 0
2.8720002 1.3675073 1.0416391 0
2.8760002 1.3653284 1.0426708 0
2.8800001 1.363135 1.0437026 0
2.8850002 1.3614935 1.0449923 0
2.8890002 1.3592694 1.0460241 0
2.8930001 1.3570309 1.0470558 0
2.8970003 1.3547781 1.0480877 0
2.9020002 1.3530698 1.0493773 0
2.9060001 1.3507861 1.0504091 0
2.9100003 1.3484881 1.051441 0
2.9150002 1.3467294 1.0527307 0
2.9190001 1.3444006 1.0537624 0
2.9230001 1.3420575 1.0547942 0
2.9280002 1.3402482 1.0560839 0
2.9320002 1.3378745 1.0571157 0
2.9360001 1.3354862 1.0581474 0
2.9410002 1.3336265 1.0594372 0
2.9450002 1.3312075 1.0604689 0
2.9500003 1.3293136 1.0617588 0
2.9540002 1.326864 1.0627905 0
2.9590001 1.3249357 1.0640801 0
2.9630003 1.3224555 1.065112 0
2.9680002 1.3204929 1.0664016 0
2.9720001 1.3179821 1.0674335 0
2.9770002 1.3159852 1.0687232 0
2.9810002 1.3134437 1.069755 0
2.9860003 1.3114127 1.0710447 0
2.9900002 1.3088404 1.0720764 0
2.9950001 1.306775 1.0733662 0
3.0000002 1.3046917 1.0746559 0
3.0040002 1.3020724 1.0756876 0
3.0090003 1.2999549 1.0769775 0
3.0140002 1.2978191 1.0782671 0
3.0180001 1.295153 1.0792989 0
3.0230002 1.2929831 1.0805887 0
3.0280001 1.290795 1.0818783 0
3.0320003 1.2880821 1.0829102 0
3.0370002 1.2858598 1.0841998 0
3.0420003 1.2836195 1.0854896 0
3.0470002 1.2813611 1.0867792 0
3.0520003 1.2790848 1.0880691 0
3.0560002 1.2762924 1.0891008 0
3.0610001 1.2739817 1.0903906 0
3.0660002 1.2716531 1.0916803 0
3.0710003 1.2693063 1.09297 0
3.0760002 1.2669414 1.0942597 0
3.0810003 1.2645588 1.0955495 0
3.0860002 1.2621578 1.0968392 0
2.8680003 1.3696719 1.0361555 0
2.8720002 1.3675073 1.0371799 0
2.8760002 1.3653284 1.0382046 0
2.8800001 1.363135 1.0392292 0
2.8850002 1.3614935 1.0405098 0
2.8890002 1.3592694 1.0415344 0
2.8930001 1.3570309 1.0425589 0
2.8970003 1.3547781 1.0435835 0
2.9020002 1.3530698 1.0448642 0
2.9060001 1.3507861 1.0458888 0
2.9100003 1.3484881 1.0469134 0
2.9150002 1.3467294 1.0481941 0
2.9190001 1.3444006 1.0492185 0
2.9230001 1.3420575 1.0502431 0
2.9280002 1.3402482 1.0515239 0
2.9320002 1.3378745 1.0525484 0
2.9360001 1.3354862 1.053573 0
2.9410002 1.3336265 1.0548537 0
2.9450002 1.3312075 1.0558783 0
2.9500003 1.3293136 1.0571591 0
2.9540002 1.326864 1.0581836 0
2.9590001 1.3249357 1.0594642 0
2.9630003 1.3224555 1.0604888 0
2.9680002 1.3204929 1.0617695 0
2.9720001 1.3179821 1.0627941 0
2.9770002 1.3159852 1.0640748 0
2.9810002 1.3134437 1.0650994 0
2.9860003 1.3114127 1.06638 0
2.9900002 1.3088404 1.0674046 0
2.9950001 1.306775 1.0686853 0
3.0000002 1.3046917 1.069966 0
3.0040002 1.3020724 1.0709906 0
3.0090003 1.2999549 1.0722713 0
3.0140002 1.2978191 1.073552 0
3.0180001 1.295153 1.0745765 0
3.0230002 1.2929831 1.0758573 0
3.0280001 1.290795 1.0771379 0
3.0320003 1.2880821 1.0781626 0
3.0370002 1.2858598 1.0794432 0
3.0420003 1.2836195 1.080724 0
3.0470002 1.2813611 1.0820047 0
3.0520003 1.2790848 1.0832853 0
3.0560002 1.2762924 1.0843099 0
3.0610001 1.2739817 1.0855906 0
3.0660002 1.2716531 1.0868713 0
3.0710003 1.2693063 1.0881521 0
3.0760002 1.2669414 1.0894327 0
3.0810003 1.2645588 1.0907134 0
3.0860002 1.2621578 1.0919942 0
2.8680003 1.3696719 1.0317037 0
2.8720002 1.3675073 1.0327209 0
2.8760002 1.3653284 1.0337383 0
2.8800001 1.363135 1.0347556 0
2.8850002 1.3614935 1.0360273 0
2.8890002 1.3592694 1.0370446 0
2.8930001 1.3570309 1.038062 0
2.8970003 1.3547781 1.0390794 0
2.9020002 1.3530698 1.040351 0
2.9060001 1.3507861 1.0413684 0
2.9100003 1.3484881 1.0423858 0
2.9150002 1.3467294 1.0436574 0
2.9190001 1.3444006 1.0446749 0
2.9230001 1.3420575 1.0456922 0
2.9280002 1.3402482 1.0469639 0
2.9320002 1.3378745 1.0479813 0
2.9360001 1.3354862 1.0489985 0
2.9410002 1.3336265 1.0502702 0
2.9450002 1.3312075 1.0512875 0
2.9500003 1.3293136 1.0525593 0
2.9540002 1.326864 1.0535766 0
2.9590001 1.3249357 1.0548483 0
2.9630003 1.3224555 1.0558656 0
2.9680002 1.3204929 1.0571374 0
2.9720001 1.3179821 1.0581547 0
2.9770002 1.3159852 1.0594264 0
2.9810002 1.3134437 1.0604438 0
2.9860003 1.3114127 1.0617155 0
2.9900002 1.3088404 1.0627328 0
2.9950001 1.306775 1.0640044 0
3.0000002 1.3046917 1.0652761 0
3.0040002 1.3020724 1.0662935 0
3.0090003 1.2999549 1.0675652 0
3.0140002 1.2978191 1.0688368 0
3.0180001 1.295153 1.0698541 0
3.0230002 1.2929831 1.0711259 0
3.0280001 1.290795 1.0723975 0
3.0320003 1.2880821 1.0734149 0
3.0370002 1.2858598 1.0746865 0
3.0420003 1.2836195 1.0759583 0
3.0470002 1.2813611 1.07723 0
3.0520003 1.2790848 1.0785017 0
3.0560002 1.2762924 1.079519 0
3.0610001 1.2739817 1.0807906 0
3.0660002 1.2716531 1.0820624 0
3.0710003 1.2693063 1.0833341 0
3.0760002 1.2669414 1.0846057 0
3.0810003 1.2645588 1.0858774 0
3.0860002 1.2621578 1.087149 0
2.8680003 1.3696719 1.0272518 0
2.8720002 1.3675073 1.028262 0
2.8760002 1.3653284 1.0292721 0
2.8800001 1.363135 1.0302823 0
2.8850002 1.3614935 1.0315449 0
2.8890002 1.3592694 1.032555 0
2.8930001 1.3570309 1.0335652 0
2.8970003 1.3547781 1.0345753 0
2.9020002 1.3530698 1.0358379 0
2.9060001 1.3507861 1.0368481 0
2.9100003 1.3484881 1.0378582 0
2.9150002 1.3467294 1.0391209 0
2.9190001 1.3444006 1.040131 0
2.9230001 1.3420575 1.0411412 0
2.9280002 1.3402482 1.0424038 0
2.9320002 1.3378745 1.043414 0
2.9360001 1.3354862 1.0444241 0
2.9410002 1.3336265 1.0456867 0
2.9450002 1.3312075 1.0466969 0
2.9500003 1.3293136 1.0479596 0
2.9540002 1.326864 1.0489697 0
2.9590001 1.3249357 1.0502323 0
2.9630003 1.3224555 1.0512425 0
2.9680002 1.3204929 1.0525051 0
2.9720001 1.3179821 1.0535153 0
2.9770002 1.3159852 1.054778 0
2.9810002 1.3134437 1.055788 0
2.9860003 1.3114127 1.0570508 0
2.9900002 1.3088404 1.0580609 0
2.9950001 1.306775 1.0593235 0
3.0000002 1.3046917 1.0605862 0
3.0040002 1.3020724 1.0615963 0
3.0090003 1.2999549 1.0628591 0
3.0140002 1.2978191 1.0641217 0
3.0180001 1.295153 1.0651318 0
3.0230002 1.2929831 1.0663944 0
3.0280001 1.290795 1.0676571 0
3.0320003 1.2880821 1.0686673 0
3.0370002 1.2858598 1.06993 0
3.0420003 1.2836195 1.0711926 0
3.0470002 1.2813611 1.0724553 0
3.0520003 1.2790848 1.073718 0
3.0560002 1.2762924 1.0747281 0
3.0610001 1.2739817 1.0759907 0
3.0660002 1.2716531 1.0772535 0
3.0710003 1.2693063 1.0785161 0
3.0760002 1.2669414 1.0797787 0
3.0810003 1.2645588 1.0810415 0
3.0860002 1.2621578 1.082304 0
2.8680003 1.3696719 1.0228001 0
2.8720002 1.3675073 1.023803 0
2.8760002 1.3653284 1.0248059 0
2.8800001 1.363135 1.0258088 0
2.8850002 1.3614935 1.0270624 0
2.8890002 1.3592694 1.0280653 0
2.8930001 1.3570309 1.0290682 0
2.8970003 1.3547781 1.0300713 0
2.9020002 1.3530698 1.0313249 0
2.9060001 1.3507861 1.0323278 0
2.9100003 1.3484881 1.0333307 0
2.9150002 1.3467294 1.0345843 0
2.9190001 1.3444006 1.0355872 0
2.9230001 1.3420575 1.0365901 0
2.9280002 1.3402482 1.0378438 0
2.9320002 1.3378745 1.0388467 0
2.9360001 1.3354862 1.0398496 0
2.9410002 1.3336265 1.0411032 0
2.9450002 1.3312075 1.0421062 0
2.9500003 1.3293136 1.0433599 0
2.9540002 1.326864 1.0443628 0
2.9590001 1.3249357 1.0456164 0
2.9630003 1.3224555 1.0466193 0
2.9680002 1.3204929 1.0478729 0
2.9720001 1.3179821 1.0488758 0
2.9770002 1.3159852 1.0501295 0
2.9810002 1.3134437 1.0511324 0
2.9860003 1.3114127 1.0523862 0
2.9900002 1.3088404 1.053389 0
2.9950001 1.306775 1.0546427 0
3.0000002 1.3046917 1.0558963 0
3.0040002 1.3020724 1.0568992 0
3.0090003 1.2999549 1.0581529 0
3.0140002 1.2978191 1.0594065 0
3.0180001 1.295153 1.0604094 0
3.0230002 1.2929831 1.061663 0
3.0280001 1.290795 1.0629166 0
3.0320003 1.2880821 1.0639197 0
3.0370002 1.2858598 1.0651733 0
3.0420003 1.2836195 1.066427 0
3.0470002 1.2813611 1.0676806 0
3.0520003 1.2790848 1.0689342 0
3.0560002 1.2762924 1.0699371 0
3.0610001 1.2739817 1.0711907 0
3.0660002 1.2716531 1.0724444 0
3.0710003 1.2693063 1.0736982 0
3.0760002 1.2669414 1.0749518 0
3.0810003 1.2645588 1.0762054 0
3.0860002 1.2621578 1.077459 0
2.8680003 1.3696719 1.0183482 0
2.8720002 1.3675073 1.019344 0
2.8760002 1.3653284 1.0203396 0
2.8800001 1.363135 1.0213352 0
2.8850002 1.3614935 1.02258 0
2.8890002 1.3592694 1.0235757 0
2.8930001 1.3570309 1.0245713 0
2.8970003 1.3547781 1.0255671 0
2.9020002 1.3530698 1.0268117 0
2.9060001 1.3507861 1.0278074 0
2.9100003 1.3484881 1.0288031 0
2.9150002 1.3467294 1.0300478 0
2.9190001 1.3444006 1.0310434 0
2.9230001 1.3420575 1.0320392 0
2.9280002 1.3402482 1.0332837 0
2.9320002 1.3378745 1.0342795 0
2.9360001 1.3354862 1.0352751 0
2.9410002 1.3336265 1.0365198 0
2.9450002 1.3312075 1.0375155 0
2.9500003 1.3293136 1.0387602 0
2.9540002 1.326864 1.0397558 0
2.9590001 1.3249357 1.0410005 0
2.9630003 1.3224555 1.0419962 0
2.9680002 1.3204929 1.0432408 0
2.9720001 1.3179821 1.0442364 0
2.9770002 1.3159852 1.0454811 0
2.9810002 1.3134437 1.0464768 0
2.9860003 1.3114127 1.0477215 0
2.9900002 1.3088404 1.0487171 0
2.9950001 1.306775 1.0499618 0
3.0000002 1.3046917 1.0512065 0
3.0040002 1.3020724 1.0522021 0
3.0090003 1.2999549 1.0534468 0
3.0140002 1.2978191 1.0546914 0
3.0180001 1.295153 1.0556871 0
3.0230002 1.2929831 1.0569317 0
3.0280001 1.290795 1.0581763 0
3.0320003 1.2880821 1.059172 0
3.0370002 1.2858598 1.0604166 0
3.0420003 1.2836195 1.0616614 0
3.0470002 1.2813611 1.0629059 0
3.0520003 1.2790848 1.0641506 0
3.0560002 1.2762924 1.0651462 0
3.0610001 1.2739817 1.0663908 0
3.0660002 1.2716531 1.0676355 0
3.0710003 1.2693063 1.0688801 0
3.0760002 1.2669414 1.0701247 0
3.0810003 1.2645588 1.0713694 0
3.0860002 1.2621578 1.0726141 0
2.8680003 1.3696719 1.0138965 0
2.8720002 1.3675073 1.0148849 0
2.8760002 1.3653284 1.0158734 0
2.8800001 1.363135 1.0168619 0
2.8850002 1.3614935 1.0180975 0
2.8890002 1.3592694 1.019086 0
2.8930001 1.3570309 1.0200745 0
2.8970003 1.3547781 1.021063 0
2.9020002 1.3530698 1.0222986 0
2.9060001 1.3507861 1.0232871 0
2.9100003 1.3484881 1.0242755 0
2.9150002 1.3467294 1.0255111 0
2.9190001 1.3444006 1.0264996 0
2.9230001 1.3420575 1.0274881 0
2.9280002 1.3402482 1.0287237 0
2.9320002 1.3378745 1.0297122 0
2.9360001 1.3354862 1.0307007 0
2.9410002 1.3336265 1.0319363 0
2.9450002 1.3312075 1.0329248 0
2.9500003 1.3293136 1.0341605 0
2.9540002 1.326864 1.0351489 0
2.9590001 1.3249357 1.0363845 0
2.9630003 1.3224555 1.0373731 0
2.9680002 1.3204929 1.0386086 0
2.9720001 1.3179821 1.039597 0
2.9770002 1.3159852 1.0408326 0
2.9810002 1.3134437 1.0418212 0
2.9860003 1.3114127 1.0430568 0
2.9900002 1.3088404 1.0440453 0
2.9950001 1.306775 1.0452809 0
3.0000002 1.3046917 1.0465165 0
3.0040002 1.3020724 1.047505 0
3.0090003 1.2999549 1.0487406 0
3.0140002 1.2978191 1.0499762 0
3.0180001 1.295153 1.0509647 0
3.0230002 1.2929831 1.0522003 0
3.0280001 1.290795 1.0534359 0
3.0320003 1.2880821 1.0544244 0
3.0370002 1.2858598 1.05566 0
3.0420003 1.2836195 1.0568956 0
3.0470002 1.2813611 1.0581312 0
3.0520003 1.2790848 1.0593668 0
3.0560002 1.2762924 1.0603553 0
3.0610001 1.2739817 1.0615909 0
3.0660002 1.2716531 1.0628265 0
3.0710003 1.2693063 1.0640621 0
3.0760002 1.2669414 1.0652977 0
3.0810003 1.2645588 1.0665333 0
3.0860002 1.2621578 1.0677689 0
2.8680003 1.3696719 1.0094446 0
2.8720002 1.3675073 1.0104259 0
2.8760002 1.3653284 1.0114071 0
2.8800001 1.363135 1.0123885 0
2.8850002 1.3614935 1.013615 0
2.8890002 1.3592694 1.0145962 0
2.8930001 1.3570309 1.0155776 0
2.8970003 1.3547781 1.0165589 0
2.9020002 1.3530698 1.0177854 0
2.9060001 1.3507861 1.0187668 0
2.9100003 1.3484881 1.0197481 0
2.9150002 1.3467294 1.0209745 0
2.9190001 1.3444006 1.0219558 0
2.9230001 1.3420575 1.0229371 0
2.9280002 1.3402482 1.0241637 0
2.9320002 1.3378745 1.0251449 0
2.9360001 1.3354862 1.0261263 0
2.9410002 1.3336265 1.0273528 0
2.9450002 1.3312075 1.028334 0
2.9500003 1.3293136 1.0295607 0
2.9540002 1.326864 1.030542 0
2.9590001 1.3249357 1.0317686 0
2.9630003 1.3224555 1.0327499 0
2.9680002 1.3204929 1.0339764 0
2.9720001 1.3179821 1.0349576 0
2.9770002 1.3159852 1.0361843 0
2.9810002 1.3134437 1.0371655 0
2.9860003 1.3114127 1.0383922 0
2.9900002 1.3088404 1.0393734 0
2.9950001 1.306775 1.0406001 0
3.0000002 1.3046917 1.0418266 0
3.0040002 1.3020724 1.0428078 0
3.0090003 1.2999549 1.0440345 0
3.0140002 1.2978191 1.045261 0
3.0180001 1.295153 1.0462424 0
3.0230002 1.2929831 1.0474689 0
3.0280001 1.290795 1.0486954 0
3.0320003 1.2880821 1.0496768 0
3.0370002 1.2858598 1.0509033 0
3.0420003 1.2836195 1.05213 0
3.0470002 1.2813611 1.0533565 0
3.0520003 1.2790848 1.0545832 0
3.0560002 1.2762924 1.0555644 0
3.0610001 1.2739817 1.0567909 0
3.0660002 1.2716531 1.0580176 0
3.0710003 1.2693063 1.0592443 0
3.0760002 1.2669414 1.0604707 0
3.0810003 1.2645588 1.0616974 0
3.0860002 1.2621578 1.0629239 0
2.8680003 1.3696719 1.0049928 0
2.8720002 1.3675073 1.0059669 0
2.8760002 1.3653284 1.006941 0
2.8800001 1.363135 1.0079149 0
2.8850002 1.3614935 1.0091325 0
2.8890002 1.3592694 1.0101067 0
2.8930001 1.3570309 1.0110806 0
2.8970003 1.3547781 1.0120548 0
2.9020002 1.3530698 1.0132723 0
2.9060001 1.3507861 1.0142463 0
