# .PCD v0.7 - Point Cloud Data file format
VERSION 0.7
FIELDS x y z intensity
SIZE 4 4 4 4
TYPE F F F F
COUNT 1 1 1 1
WIDTH 1503
HEIGHT 1
VIEWPOINT 0 0 0 1 0 0 0
POINTS 1503
DATA ascii
7.1440005 3.7737734 1.4745097 0
7.1540003 3.7672539 1.476097 0
7.1630006 3.7601364 1.4775257 0
7.1730003 3.753547 1.4791131 0
7.1820006 3.7463627 1.4805417 0
7.1920004 3.7397027 1.4821291 0
7.2020006 3.7330072 1.4837164 0
7.2110004 3.7257214 1.485145 0
7.2210002 3.7189553 1.4867322 0
7.2310004 3.7121532 1.4883198 0
7.2410007 3.7053149 1.489907 0
7.2500005 3.6978941 1.4913356 0
7.2600002 3.6909854 1.4929229 0
7.2700005 3.684041 1.4945104 0
7.2800002 3.6770601 1.4960977 0
7.2900004 3.6700435 1.497685 0
7.3000002 3.6629903 1.4992723 0
7.3100004 3.6559014 1.5008597 0
7.3200006 3.6487765 1.5024471 0
7.3300004 3.6416154 1.5040344 0
7.3400006 3.6344182 1.5056218 0
7.3500004 3.6271849 1.5072092 0
7.3600006 3.6199157 1.5087966 0
7.3700004 3.6126099 1.5103838 0
7.3800006 3.6052687 1.5119712 0
7.3900003 3.5978911 1.5135585 0
7.4010005 3.590997 1.5153046 0
7.4110003 3.5835454 1.516892 0
7.4210005 3.5760577 1.5184793 0
7.4320006 3.5690482 1.5202254 0
7.4420004 3.5614865 1.5218128 0
7.4520006 3.553889 1.5234002 0
7.4630003 3.5467639 1.5251461 0
7.4730005 3.5390923 1.5267335 0
7.1160007 3.7942574 1.4579508 0
7.1250005 3.7872729 1.4593631 0
7.1350002 3.7808244 1.4609324 0
7.1440005 3.7737734 1.4623449 0
7.1540003 3.7672539 1.4639142 0
7.1630006 3.7601364 1.4653265 0
7.1730003 3.753547 1.4668958 0
7.1820006 3.7463627 1.4683083 0
7.1920004 3.7397027 1.4698776 0
7.2020006 3.7330072 1.4714469 0
7.2110004 3.7257214 1.4728591 0
7.2210002 3.7189553 1.4744285 0
7.2310004 3.7121532 1.4759979 0
7.2400002 3.7047668 1.4774102 0
7.2500005 3.6978941 1.4789796 0
7.2600002 3.6909854 1.4805489 0
7.2700005 3.684041 1.4821181 0
7.2800002 3.6770601 1.4836874 0
7.2900004 3.6700435 1.4852569 0
7.3000002 3.6629903 1.4868261 0
7.3100004 3.6559014 1.4883955 0
7.3200006 3.6487765 1.4899647 0
7.3300004 3.6416154 1.4915341 0
7.3400006 3.6344182 1.4931034 0
7.3500004 3.6271849 1.4946727 0
7.3600006 3.6199157 1.496242 0
7.3700004 3.6126099 1.4978113 0
7.3800006 3.6052687 1.4993807 0
7.3900003 3.5978911 1.5009499 0
7.4010005 3.590997 1.5026762 0
7.4110003 3.5835454 1.5042455 0
7.4210005 3.5760577 1.5058148 0
7.4320006 3.5690482 1.5075411 0
7.4420004 3.5614865 1.5091105 0
7.4520006 3.553889 1.5106797 0
7.4630003 3.5467639 1.5124059 0
7.4730005 3.5390923 1.5139753 0
7.1160007 3.7942574 1.4458364 0
7.1250005 3.7872729 1.4472326 0
7.1350002 3.7808244 1.4487838 0
7.1440005 3.7737734 1.4501799 0
7.1540003 3.7672539 1.4517312 0
7.1630006 3.7601364 1.4531274 0
7.1730003 3.753547 1.4546787 0
7.1820006 3.7463627 1.4560748 0
7.1920004 3.7397027 1.457626 0
7.2020006 3.7330072 1.4591774 0
7.2110004 3.7257214 1.4605736 0
7.2210002 3.7189553 1.4621247 0
7.2310004 3.7121532 1.463676 0
7.2400002 3.7047668 1.4650722 0
7.2500005 3.6978941 1.4666235 0
7.2600002 3.6909854 1.4681747 0
7.2700005 3.684041 1.469726 0
7.2800002 3.6770601 1.4712772 0
7.2900004 3.6700435 1.4728286 0
7.3000002 3.6629903 1.4743799 0
7.3100004 3.6559014 1.475931 0
7.3200006 3.6487765 1.4774824 0
7.3300004 3.6416154 1.4790337 0
7.3400006 3.6344182 1.480585 0
7.3500004 3.6271849 1.4821362 0
7.3600006 3.6199157 1.4836875 0
7.3700004 3.6126099 1.4852388 0
7.3800006 3.6052687 1.4867901 0
7.3900003 3.5978911 1.4883413 0
7.4010005 3.590997 1.4900478 0
7.4110003 3.5835454 1.491599 0
7.4210005 3.5760577 1.4931502 0
7.4320006 3.5690482 1.4948567 0
7.4420004 3.5614865 1.4964079 0
7.4520006 3.553889 1.4979593 0
7.4630003 3.5467639 1.4996656 0
7.4730005 3.5390923 1.5012169 0
7.1160007 3.7942574 1.433722 0
7.1250005 3.7872729 1.435102 0
7.1350002 3.7808244 1.4366351 0
7.1440005 3.7737734 1.4380151 0
7.1540003 3.7672539 1.4395483 0
7.1630006 3.7601364 1.4409282 0
7.1730003 3.753547 1.4424615 0
7.1820006 3.7463627 1.4438413 0
7.1920004 3.7397027 1.4453746 0
7.2020006 3.7330072 1.4469079 0
7.2110004 3.7257214 1.4482878 0
7.2210002 3.7189553 1.449821 0
7.2310004 3.7121532 1.4513541 0
7.2400002 3.7047668 1.4527341 0
7.2500005 3.6978941 1.4542675 0
7.2600002 3.6909854 1.4558007 0
7.2700005 3.684041 1.4573338 0
7.2800002 3.6770601 1.4588671 0
7.2900004 3.6700435 1.4604003 0
7.3000002 3.6629903 1.4619335 0
7.3100004 3.6559014 1.4634669 0
7.3200006 3.6487765 1.4650002 0
7.3300004 3.6416154 1.4665333 0
7.3400006 3.6344182 1.4680666 0
7.3500004 3.6271849 1.4695997 0
7.3600006 3.6199157 1.471133 0
7.3700004 3.6126099 1.4726661 0
7.3800006 3.6052687 1.4741995 0
7.3900003 3.5978911 1.4757327 0
7.4010005 3.590997 1.4774193 0
7.4110003 3.5835454 1.4789524 0
7.4210005 3.5760577 1.4804858 0
7.4320006 3.5690482 1.4821723 0
7.4420004 3.5614865 1.4837055 0
7.4520006 3.553889 1.4852388 0
7.4630003 3.5467639 1.4869254 0
7.4730005 3.5390923 1.4884585 0
7.1160007 3.7942574 1.4216076 0
7.1250005 3.7872729 1.4229714 0
7.1350002 3.7808244 1.4244864 0
7.1440005 3.7737734 1.4258502 0
7.1540003 3.7672539 1.4273653 0
7.1630006 3.7601364 1.4287291 0
7.1730003 3.753547 1.4302442 0
7.1820006 3.7463627 1.431608 0
7.1920004 3.7397027 1.4331231 0
7.2020006 3.7330072 1.4346384 0
7.2110004 3.7257214 1.436002 0
7.2210002 3.7189553 1.4375172 0
7.2310004 3.7121532 1.4390324 0
7.2400002 3.7047668 1.4403961 0
7.2500005 3.6978941 1.4419113 0
7.2600002 3.6909854 1.4434265 0
7.2700005 3.684041 1.4449416 0
7.2800002 3.6770601 1.4464568 0
7.2900004 3.6700435 1.4479721 0
7.3000002 3.6629903 1.4494873 0
7.3100004 3.6559014 1.4510025 0
7.3200006 3.6487765 1.4525177 0
7.3300004 3.6416154 1.4540328 0
7.3400006 3.6344182 1.455548 0
7.3500004 3.6271849 1.4570633 0
7.3600006 3.6199157 1.4585785 0
7.3700004 3.6126099 1.4600937 0
7.3800006 3.6052687 1.461609 0
7.3900003 3.5978911 1.4631242 0
7.4010005 3.590997 1.4647908 0
7.4110003 3.5835454 1.466306 0
7.4210005 3.5760577 1.4678212 0
7.4320006 3.5690482 1.4694879 0
7.4420004 3.5614865 1.4710031 0
7.4520006 3.553889 1.4725183 0
7.4630003 3.5467639 1.474185 0
7.4730005 3.5390923 1.4757003 0
7.1160007 3.7942574 1.4094933 0
7.1250005 3.7872729 1.4108407 0
7.1350002 3.7808244 1.4123378 0
7.1440005 3.7737734 1.4136853 0
7.1540003 3.7672539 1.4151825 0
7.1630006 3.7601364 1.4165299 0
7.1730003 3.753547 1.418027 0
7.1820006 3.7463627 1.4193746 0
7.1920004 3.7397027 1.4208716 0
7.2020006 3.7330072 1.4223689 0
7.2110004 3.7257214 1.4237163 0
7.2210002 3.7189553 1.4252135 0
7.2310004 3.7121532 1.4267106 0
7.2400002 3.7047668 1.428058 0
7.2500005 3.6978941 1.4295553 0
7.2600002 3.6909854 1.4310523 0
7.2700005 3.684041 1.4325495 0
7.2800002 3.6770601 1.4340467 0
7.2900004 3.6700435 1.4355439 0
7.3000002 3.6629903 1.437041 0
7.3100004 3.6559014 1.4385382 0
7.3200006 3.6487765 1.4400353 0
7.3300004 3.6416154 1.4415325 0
7.3400006 3.6344182 1.4430296 0
7.3500004 3.6271849 1.4445268 0
7.3600006 3.6199157 1.4460241 0
7.3700004 3.6126099 1.4475211 0
7.3800006 3.6052687 1.4490184 0
7.3900003 3.5978911 1.4505155 0
7.4010005 3.590997 1.4521623 0
7.4110003 3.5835454 1.4536595 0
7.4210005 3.5760577 1.4551567 0
7.4320006 3.5690482 1.4568036 0
7.4420004 3.5614865 1.4583007 0
7.4520006 3.553889 1.4597979 0
7.4630003 3.5467639 1.4614447 0
7.4730005 3.5390923 1.4629419 0
7.1160007 3.7942574 1.3973789 0
7.1250005 3.7872729 1.39871 0
7.1350002 3.7808244 1.4001892 0
7.1440005 3.7737734 1.4015205 0
7.1540003 3.7672539 1.4029995 0
7.1630006 3.7601364 1.4043307 0
7.1730003 3.753547 1.4058099 0
7.1820006 3.7463627 1.4071411 0
7.1920004 3.7397027 1.4086202 0
7.2020006 3.7330072 1.4100994 0
7.2110004 3.7257214 1.4114305 0
7.2210002 3.7189553 1.4129096 0
7.2310004 3.7121532 1.4143888 0
7.2400002 3.7047668 1.41572 0
7.2500005 3.6978941 1.4171991 0
7.2600002 3.6909854 1.4186783 0
7.2700005 3.684041 1.4201574 0
7.2800002 3.6770601 1.4216365 0
7.2900004 3.6700435 1.4231156 0
7.3000002 3.6629903 1.4245946 0
7.3100004 3.6559014 1.4260739 0
7.3200006 3.6487765 1.4275531 0
7.3300004 3.6416154 1.4290321 0
7.3400006 3.6344182 1.4305112 0
7.3500004 3.6271849 1.4319904 0
7.3600006 3.6199157 1.4334695 0
7.3700004 3.6126099 1.4349486 0
7.3800006 3.6052687 1.4364277 0
7.3900003 3.5978911 1.4379067 0
7.4010005 3.590997 1.4395338 0
7.4110003 3.5835454 1.441013 0
7.4210005 3.5760577 1.4424921 0
7.4320006 3.5690482 1.4441191 0
7.4420004 3.5614865 1.4455982 0
7.4520006 3.553889 1.4470774 0
7.4630003 3.5467639 1.4487044 0
7.4730005 3.5390923 1.4501835 0
7.1160007 3.7942574 1.3852645 0
7.1250005 3.7872729 1.3865795 0
7.1350002 3.7808244 1.3880405 0
7.1440005 3.7737734 1.3893555 0
7.1540003 3.7672539 1.3908166 0
7.1630006 3.7601364 1.3921316 0
7.1730003 3.753547 1.3935927 0
7.1820006 3.7463627 1.3949077 0
7.1920004 3.7397027 1.3963687 0
7.2020006 3.7330072 1.3978298 0
7.2110004 3.7257214 1.3991448 0
7.2210002 3.7189553 1.4006059 0
7.2310004 3.7121532 1.4020669 0
7.2400002 3.7047668 1.4033819 0
7.2500005 3.6978941 1.4048431 0
7.2600002 3.6909854 1.4063041 0
7.2700005 3.684041 1.4077653 0
7.2800002 3.6770601 1.4092263 0
7.2900004 3.6700435 1.4106873 0
7.3000002 3.6629903 1.4121485 0
7.3100004 3.6559014 1.4136095 0
7.3200006 3.6487765 1.4150707 0
7.3300004 3.6416154 1.4165317 0
7.3400006 3.6344182 1.4179928 0
7.3500004 3.6271849 1.4194539 0
7.3600006 3.6199157 1.420915 0
7.3700004 3.6126099 1.422376 0
7.3800006 3.6052687 1.4238372 0
7.3900003 3.5978911 1.4252982 0
7.4010005 3.590997 1.4269055 0
7.4110003 3.5835454 1.4283664 0
7.4210005 3.5760577 1.4298277 0
7.4320006 3.5690482 1.4314348 0
7.4420004 3.5614865 1.4328959 0
7.4520006 3.553889 1.4343569 0
7.4630003 3.5467639 1.4359641 0
7.4730005 3.5390923 1.4374253 0
7.1160007 3.7942574 1.3731501 0
7.1250005 3.7872729 1.3744488 0
7.1350002 3.7808244 1.3758918 0
7.1440005 3.7737734 1.3771906 0
7.1540003 3.7672539 1.3786336 0
7.1630006 3.7601364 1.3799324 0
7.1730003 3.753547 1.3813754 0
7.1820006 3.7463627 1.3826742 0
7.1920004 3.7397027 1.3841172 0
7.2020006 3.7330072 1.3855603 0
7.2110004 3.7257214 1.3868591 0
7.2210002 3.7189553 1.3883021 0
7.2310004 3.7121532 1.3897451 0
7.2400002 3.7047668 1.3910439 0
7.2500005 3.6978941 1.3924869 0
7.2600002 3.6909854 1.39393 0
7.2700005 3.684041 1.395373 0
7.2800002 3.6770601 1.396816 0
7.2900004 3.6700435 1.398259 0
7.3000002 3.6629903 1.3997021 0
7.3100004 3.6559014 1.4011452 0
7.3200006 3.6487765 1.4025882 0
7.3300004 3.6416154 1.4040313 0
7.3400006 3.6344182 1.4054744 0
7.3500004 3.6271849 1.4069173 0
7.3600006 3.6199157 1.4083605 0
7.3700004 3.6126099 1.4098035 0
7.3800006 3.6052687 1.4112465 0
7.3900003 3.5978911 1.4126896 0
7.4010005 3.590997 1.414277 0
7.4110003 3.5835454 1.41572 0
7.4210005 3.5760577 1.4171631 0
7.4320006 3.5690482 1.4187504 0
7.4420004 3.5614865 1.4201934 0
7.4520006 3.553889 1.4216365 0
7.4630003 3.5467639 1.4232239 0
7.4730005 3.5390923 1.4246669 0
7.1160007 3.7942574 1.3610357 0
7.1250005 3.7872729 1.3623183 0
7.1350002 3.7808244 1.3637432 0
7.1440005 3.7737734 1.3650258 0
7.1540003 3.7672539 1.3664508 0
7.1630006 3.7601364 1.3677332 0
7.1730003 3.753547 1.3691583 0
7.1820006 3.7463627 1.3704407 0
7.1920004 3.7397027 1.3718657 0
7.2020006 3.7330072 1.3732908 0
7.2110004 3.7257214 1.3745733 0
7.2210002 3.7189553 1.3759983 0
7.2310004 3.7121532 1.3774234 0
7.2400002 3.7047668 1.3787057 0
7.2500005 3.6978941 1.3801309 0
7.2600002 3.6909854 1.3815558 0
7.2700005 3.684041 1.3829809 0
7.2800002 3.6770601 1.3844059 0
7.2900004 3.6700435 1.3858309 0
7.3000002 3.6629903 1.3872559 0
7.3100004 3.6559014 1.3886808 0
7.3200006 3.6487765 1.390106 0
7.3300004 3.6416154 1.3915309 0
7.3400006 3.6344182 1.392956 0
7.3500004 3.6271849 1.3943809 0
7.3600006 3.6199157 1.395806 0
7.3700004 3.6126099 1.3972309 0
7.3800006 3.6052687 1.398656 0
7.3900003 3.5978911 1.4000809 0
7.4010005 3.590997 1.4016485 0
7.4110003 3.5835454 1.4030734 0
7.4210005 3.5760577 1.4044986 0
7.4320006 3.5690482 1.4060661 0
7.4420004 3.5614865 1.407491 0
7.4520006 3.553889 1.408916 0
7.4630003 3.5467639 1.4104835 0
7.4730005 3.5390923 1.4119085 0
7.1160007 3.7942574 1.3489213 0
7.1250005 3.7872729 1.3501877 0
7.1350002 3.7808244 1.3515946 0
7.1440005 3.7737734 1.3528609 0
7.1540003 3.7672539 1.3542678 0
7.1630006 3.7601364 1.3555341 0
7.1730003 3.753547 1.3569411 0
7.1820006 3.7463627 1.3582073 0
7.1920004 3.7397027 1.3596143 0
7.2020006 3.7330072 1.3610213 0
7.2110004 3.7257214 1.3622876 0
7.2210002 3.7189553 1.3636945 0
7.2310004 3.7121532 1.3651016 0
7.2400002 3.7047668 1.3663678 0
7.2500005 3.6978941 1.3677748 0
7.2600002 3.6909854 1.3691818 0
7.2700005 3.684041 1.3705888 0
7.2800002 3.6770601 1.3719957 0
7.2900004 3.6700435 1.3734027 0
7.3000002 3.6629903 1.3748096 0
7.3100004 3.6559014 1.3762167 0
7.3200006 3.6487765 1.3776237 0
7.3300004 3.6416154 1.3790306 0
7.3400006 3.6344182 1.3804376 0
7.3500004 3.6271849 1.3818445 0
7.3600006 3.6199157 1.3832515 0
7.3700004 3.6126099 1.3846585 0
7.3800006 3.6052687 1.3860655 0
7.3900003 3.5978911 1.3874724 0
7.4010005 3.590997 1.38902 0
7.4110003 3.5835454 1.390427 0
7.4210005 3.5760577 1.3918339 0
7.4320006 3.5690482 1.3933816 0
7.4420004 3.5614865 1.3947885 0
7.4520006 3.553889 1.3961955 0
7.4630003 3.5467639 1.3977432 0
7.4730005 3.5390923 1.3991503 0
7.1160007 3.7942574 1.336807 0
7.1250005 3.7872729 1.338057 0
7.1350002 3.7808244 1.3394459 0
7.1440005 3.7737734 1.340696 0
7.1540003 3.7672539 1.342085 0
7.1630006 3.7601364 1.343335 0
7.1730003 3.753547 1.3447238 0
7.1820006 3.7463627 1.345974 0
7.1920004 3.7397027 1.3473629 0
7.2020006 3.7330072 1.3487518 0
7.2110004 3.7257214 1.3500018 0
7.2210002 3.7189553 1.3513907 0
7.2310004 3.7121532 1.3527796 0
7.2400002 3.7047668 1.3540297 0
7.2500005 3.6978941 1.3554187 0
7.2600002 3.6909854 1.3568076 0
7.2700005 3.684041 1.3581966 0
7.2800002 3.6770601 1.3595854 0
7.2900004 3.6700435 1.3609744 0
7.3000002 3.6629903 1.3623632 0
7.3100004 3.6559014 1.3637522 0
7.3200006 3.6487765 1.3651412 0
7.3300004 3.6416154 1.3665302 0
7.3400006 3.6344182 1.3679191 0
7.3500004 3.6271849 1.369308 0
7.3600006 3.6199157 1.3706969 0
7.3700004 3.6126099 1.3720858 0
7.3800006 3.6052687 1.3734748 0
7.3900003 3.5978911 1.3748637 0
7.4010005 3.590997 1.3763915 0
7.4110003 3.5835454 1.3777804 0
7.4210005 3.5760577 1.3791693 0
7.4320006 3.5690482 1.3806973 0
7.4420004 3.5614865 1.3820862 0
7.4520006 3.553889 1.3834751 0
7.4630003 3.5467639 1.3850029 0
7.4730005 3.5390923 1.3863919 0
7.1160007 3.7942574 1.3246926 0
7.1250005 3.7872729 1.3259264 0
7.1350002 3.7808244 1.3272973 0
7.1440005 3.7737734 1.328531 0
7.1540003 3.7672539 1.3299019 0
7.1630006 3.7601364 1.3311359 0
7.1730003 3.753547 1.3325068 0
7.1820006 3.7463627 1.3337406 0
7.1920004 3.7397027 1.3351114 0
7.2020006 3.7330072 1.3364823 0
7.2110004 3.7257214 1.3377161 0
7.2210002 3.7189553 1.3390869 0
7.2310004 3.7121532 1.3404578 0
7.2400002 3.7047668 1.3416917 0
7.2500005 3.6978941 1.3430626 0
7.2600002 3.6909854 1.3444334 0
7.2700005 3.684041 1.3458045 0
7.2800002 3.6770601 1.3471752 0
7.2900004 3.6700435 1.3485461 0
7.3000002 3.6629903 1.3499171 0
7.3100004 3.6559014 1.351288 0
7.3200006 3.6487765 1.3526589 0
7.3300004 3.6416154 1.3540298 0
7.3400006 3.6344182 1.3554007 0
7.3500004 3.6271849 1.3567715 0
7.3600006 3.6199157 1.3581424 0
7.3700004 3.6126099 1.3595133 0
7.3800006 3.6052687 1.3608842 0
7.3900003 3.5978911 1.362255 0
7.4010005 3.590997 1.3637631 0
7.4110003 3.5835454 1.3651339 0
7.4210005 3.5760577 1.3665048 0
7.4320006 3.5690482 1.3680129 0
7.4420004 3.5614865 1.3693837 0
7.4520006 3.553889 1.3707546 0
7.4630003 3.5467639 1.3722626 0
7.4730005 3.5390923 1.3736335 0
7.1160007 3.7942574 1.3125782 0
7.1250005 3.7872729 1.3137958 0
7.1350002 3.7808244 1.3151486 0
7.1440005 3.7737734 1.3163662 0
7.1540003 3.7672539 1.3177191 0
7.1630006 3.7601364 1.3189367 0
7.1730003 3.753547 1.3202895 0
7.1820006 3.7463627 1.3215071 0
7.1920004 3.7397027 1.3228599 0
7.2020006 3.7330072 1.3242128 0
7.2110004 3.7257214 1.3254303 0
7.2210002 3.7189553 1.3267832 0
7.2310004 3.7121532 1.3281361 0
7.2400002 3.7047668 1.3293536 0
7.2500005 3.6978941 1.3307065 0
7.2600002 3.6909854 1.3320593 0
7.2700005 3.684041 1.3334122 0
7.2800002 3.6770601 1.3347651 0
7.2900004 3.6700435 1.3361179 0
7.3000002 3.6629903 1.3374708 0
7.3100004 3.6559014 1.3388236 0
7.3200006 3.6487765 1.3401766 0
7.3300004 3.6416154 1.3415293 0
7.3400006 3.6344182 1.3428823 0
7.3500004 3.6271849 1.3442351 0
7.3600006 3.6199157 1.345588 0
7.3700004 3.6126099 1.3469408 0
7.3800006 3.6052687 1.3482937 0
7.3900003 3.5978911 1.3496464 0
7.4010005 3.590997 1.3511347 0
7.4110003 3.5835454 1.3524874 0
7.4210005 3.5760577 1.3538404 0
7.4320006 3.5690482 1.3553284 0
7.4420004 3.5614865 1.3566813 0
7.4520006 3.553889 1.3580341 0
7.4630003 3.5467639 1.3595223 0
7.4730005 3.5390923 1.3608752 0
7.1160007 3.7942574 1.3004639 0
7.1250005 3.7872729 1.3016652 0
7.1350002 3.7808244 1.303 0
7.1440005 3.7737734 1.3042014 0
7.1540003 3.7672539 1.3055362 0
7.1630006 3.7601364 1.3067375 0
7.1730003 3.753547 1.3080723 0
7.1820006 3.7463627 1.3092737 0
7.1920004 3.7397027 1.3106085 0
7.2020006 3.7330072 1.3119433 0
7.2110004 3.7257214 1.3131447 0
7.2210002 3.7189553 1.3144794 0
7.2310004 3.7121532 1.3158143 0
7.2400002 3.7047668 1.3170155 0
7.2500005 3.6978941 1.3183504 0
7.2600002 3.6909854 1.3196852 0
7.2700005 3.684041 1.32102 0
7.2800002 3.6770601 1.3223548 0
7.2900004 3.6700435 1.3236897 0
7.3000002 3.6629903 1.3250245 0
7.3100004 3.6559014 1.3263593 0
7.3200006 3.6487765 1.3276942 0
7.3300004 3.6416154 1.329029 0
7.3400006 3.6344182 1.3303639 0
7.3500004 3.6271849 1.3316987 0
7.3600006 3.6199157 1.3330334 0
7.3700004 3.6126099 1.3343682 0
7.3800006 3.6052687 1.335703 0
7.3900003 3.5978911 1.3370378 0
7.4010005 3.590997 1.3385062 0
7.4110003 3.5835454 1.339841 0
7.4210005 3.5760577 1.3411758 0
7.4320006 3.5690482 1.3426441 0
7.4420004 3.5614865 1.3439789 0
7.4520006 3.553889 1.3453138 0
7.4630003 3.5467639 1.346782 0
7.4730005 3.5390923 1.3481169 0
7.1160007 3.7942574 1.2883495 0
7.1250005 3.7872729 1.2895346 0
7.1350002 3.7808244 1.2908514 0
7.1440005 3.7737734 1.2920365 0
7.1540003 3.7672539 1.2933532 0
7.1630006 3.7601364 1.2945384 0
7.1730003 3.753547 1.295855 0
7.1820006 3.7463627 1.2970402 0
7.1920004 3.7397027 1.298357 0
7.2020006 3.7330072 1.2996738 0
7.2110004 3.7257214 1.3008589 0
7.2210002 3.7189553 1.3021756 0
7.2310004 3.7121532 1.3034924 0
7.2400002 3.7047668 1.3046775 0
7.2500005 3.6978941 1.3059943 0
7.2600002 3.6909854 1.3073111 0
7.2700005 3.684041 1.308628 0
7.2800002 3.6770601 1.3099446 0
7.2900004 3.6700435 1.3112614 0
7.3000002 3.6629903 1.3125782 0
7.3100004 3.6559014 1.313895 0
7.3200006 3.6487765 1.3152118 0
7.3300004 3.6416154 1.3165286 0
7.3400006 3.6344182 1.3178453 0
7.3500004 3.6271849 1.3191621 0
7.3600006 3.6199157 1.3204789 0
7.3700004 3.6126099 1.3217957 0
7.3800006 3.6052687 1.3231125 0
7.3900003 3.5978911 1.3244293 0
7.4010005 3.590997 1.3258777 0
7.4110003 3.5835454 1.3271945 0
7.4210005 3.5760577 1.3285112 0
7.4320006 3.5690482 1.3299598 0
7.4420004 3.5614865 1.3312765 0
7.4520006 3.553889 1.3325933 0
7.4630003 3.5467639 1.3340417 0
7.4730005 3.5390923 1.3353585 0
7.1160007 3.7942574 1.2762351 0
7.1250005 3.7872729 1.277404 0
7.1350002 3.7808244 1.2787027 0
7.1440005 3.7737734 1.2798716 0
7.1540003 3.7672539 1.2811704 0
7.1630006 3.7601364 1.2823392 0
7.1730003 3.753547 1.2836379 0
7.1820006 3.7463627 1.2848068 0
7.1920004 3.7397027 1.2861055 0
7.2020006 3.7330072 1.2874043 0
7.2110004 3.7257214 1.2885731 0
7.2210002 3.7189553 1.2898718 0
7.2310004 3.7121532 1.2911706 0
7.2400002 3.7047668 1.2923394 0
7.2500005 3.6978941 1.2936382 0
7.2600002 3.6909854 1.294937 0
7.2700005 3.684041 1.2962357 0
7.2800002 3.6770601 1.2975345 0
7.2900004 3.6700435 1.2988331 0
7.3000002 3.6629903 1.3001319 0
7.3100004 3.6559014 1.3014307 0
7.3200006 3.6487765 1.3027295 0
7.3300004 3.6416154 1.3040282 0
7.3400006 3.6344182 1.3053269 0
7.3500004 3.6271849 1.3066256 0
7.3600006 3.6199157 1.3079244 0
7.3700004 3.6126099 1.3092232 0
7.3800006 3.6052687 1.3105218 0
7.3900003 3.5978911 1.3118206 0
7.4010005 3.590997 1.3132492 0
7.4110003 3.5835454 1.314548 0
7.4210005 3.5760577 1.3158467 0
7.4320006 3.5690482 1.3172754 0
7.4420004 3.5614865 1.3185741 0
7.4520006 3.553889 1.3198729 0
7.4630003 3.5467639 1.3213015 0
7.4730005 3.5390923 1.3226002 0
7.1160007 3.7942574 1.2641207 0
7.1250005 3.7872729 1.2652733 0
7.1350002 3.7808244 1.266554 0
7.1440005 3.7737734 1.2677068 0
7.1540003 3.7672539 1.2689874 0
7.1630006 3.7601364 1.2701401 0
7.1730003 3.753547 1.2714207 0
7.1820006 3.7463627 1.2725734 0
7.1920004 3.7397027 1.273854 0
7.2020006 3.7330072 1.2751348 0
7.2110004 3.7257214 1.2762874 0
7.2210002 3.7189553 1.2775681 0
7.2310004 3.7121532 1.2788489 0
7.2400002 3.7047668 1.2800014 0
7.2500005 3.6978941 1.2812822 0
7.2600002 3.6909854 1.2825629 0
7.2700005 3.684041 1.2838435 0
7.2800002 3.6770601 1.2851242 0
7.2900004 3.6700435 1.286405 0
7.3000002 3.6629903 1.2876856 0
7.3100004 3.6559014 1.2889664 0
7.3200006 3.6487765 1.2902471 0
7.3300004 3.6416154 1.2915277 0
7.3400006 3.6344182 1.2928085 0
7.3500004 3.6271849 1.2940892 0
7.3600006 3.6199157 1.2953699 0
7.3700004 3.6126099 1.2966506 0
7.3800006 3.6052687 1.2979313 0
7.3900003 3.5978911 1.299212 0
7.4010005 3.590997 1.3006208 0
7.4110003 3.5835454 1.3019015 0
7.4210005 3.5760577 1.3031822 0
7.4320006 3.5690482 1.3045909 0
7.4420004 3.5614865 1.3058716 0
7.4520006 3.553889 1.3071524 0
7.4630003 3.5467639 1.3085611 0
7.4730005 3.5390923 1.3098419 0
7.1160007 3.7942574 1.2520063 0
7.1250005 3.7872729 1.2531427 0
7.1350002 3.7808244 1.2544054 0
7.1440005 3.7737734 1.2555418 0
7.1540003 3.7672539 1.2568045 0
7.1630006 3.7601364 1.2579409 0
7.1730003 3.753547 1.2592036 0
7.1820006 3.7463627 1.26034 0
7.1920004 3.7397027 1.2616026 0
7.2020006 3.7330072 1.2628653 0
7.2110004 3.7257214 1.2640016 0
7.2210002 3.7189553 1.2652643 0
7.2310004 3.7121532 1.2665269 0
7.2400002 3.7047668 1.2676634 0
7.2500005 3.6978941 1.268926 0
7.2600002 3.6909854 1.2701887 0
7.2700005 3.684041 1.2714514 0
7.2800002 3.6770601 1.272714 0
7.2900004 3.6700435 1.2739767 0
7.3000002 3.6629903 1.2752393 0
7.3100004 3.6559014 1.276502 0
7.3200006 3.6487765 1.2777647 0
7.3300004 3.6416154 1.2790275 0
7.3400006 3.6344182 1.2802901 0
7.3500004 3.6271849 1.2815528 0
7.3600006 3.6199157 1.2828155 0
7.3700004 3.6126099 1.284078 0
7.3800006 3.6052687 1.2853408 0
7.3900003 3.5978911 1.2866033 0
7.4010005 3.590997 1.2879924 0
7.4110003 3.5835454 1.289255 0
7.4210005 3.5760577 1.2905177 0
7.4320006 3.5690482 1.2919066 0
7.4420004 3.5614865 1.2931693 0
7.4520006 3.553889 1.2944319 0
7.4630003 3.5467639 1.2958208 0
7.4730005 3.5390923 1.2970835 0
7.1160007 3.7942574 1.239892 0
7.1250005 3.7872729 1.2410121 0
7.1350002 3.7808244 1.2422568 0
7.1440005 3.7737734 1.243377 0
7.1540003 3.7672539 1.2446215 0
7.1630006 3.7601364 1.2457417 0
7.1730003 3.753547 1.2469863 0
7.1820006 3.7463627 1.2481065 0
7.1920004 3.7397027 1.2493511 0
7.2020006 3.7330072 1.2505958 0
7.2110004 3.7257214 1.2517159 0
7.2210002 3.7189553 1.2529606 0
7.2310004 3.7121532 1.2542052 0
7.2400002 3.7047668 1.2553253 0
7.2500005 3.6978941 1.25657 0
7.2600002 3.6909854 1.2578145 0
7.2700005 3.684041 1.2590592 0
7.2800002 3.6770601 1.2603039 0
7.2900004 3.6700435 1.2615485 0
7.3000002 3.6629903 1.2627931 0
7.3100004 3.6559014 1.2640377 0
7.3200006 3.6487765 1.2652824 0
7.3300004 3.6416154 1.2665269 0
7.3400006 3.6344182 1.2677717 0
7.3500004 3.6271849 1.2690163 0
7.3600006 3.6199157 1.2702609 0
7.3700004 3.6126099 1.2715055 0
7.3800006 3.6052687 1.2727501 0
7.3900003 3.5978911 1.2739948 0
7.4010005 3.590997 1.2753639 0
7.4110003 3.5835454 1.2766085 0
7.4210005 3.5760577 1.2778531 0
7.4320006 3.5690482 1.2792222 0
7.4420004 3.5614865 1.2804668 0
7.4520006 3.553889 1.2817115 0
7.4630003 3.5467639 1.2830806 0
7.4730005 3.5390923 1.2843251 0
7.1160007 3.7942574 1.2277776 0
7.1250005 3.7872729 1.2288815 0
7.1350002 3.7808244 1.2301081 0
7.1440005 3.7737734 1.231212 0
7.1540003 3.7672539 1.2324386 0
7.1630006 3.7601364 1.2335426 0
7.1730003 3.753547 1.2347691 0
7.1820006 3.7463627 1.2358731 0
7.1920004 3.7397027 1.2370996 0
7.2020006 3.7330072 1.2383263 0
7.2110004 3.7257214 1.2394302 0
7.2210002 3.7189553 1.2406567 0
7.2310004 3.7121532 1.2418834 0
7.2400002 3.7047668 1.2429873 0
7.2500005 3.6978941 1.2442139 0
7.2600002 3.6909854 1.2454405 0
7.2700005 3.684041 1.2466671 0
7.2800002 3.6770601 1.2478936 0
7.2900004 3.6700435 1.2491202 0
7.3000002 3.6629903 1.2503468 0
7.3100004 3.6559014 1.2515734 0
7.3200006 3.6487765 1.2528 0
7.3300004 3.6416154 1.2540267 0
7.3400006 3.6344182 1.2552532 0
7.3500004 3.6271849 1.2564797 0
7.3600006 3.6199157 1.2577064 0
7.3700004 3.6126099 1.2589329 0
7.3800006 3.6052687 1.2601596 0
7.3900003 3.5978911 1.2613862 0
7.4010005 3.590997 1.2627354 0
7.4110003 3.5835454 1.2639619 0
7.4210005 3.5760577 1.2651886 0
7.4320006 3.5690482 1.2665378 0
7.4420004 3.5614865 1.2677644 0
7.4520006 3.553889 1.268991 0
7.4630003 3.5467639 1.2703402 0
7.4730005 3.5390923 1.2715669 0
7.1160007 3.7942574 1.2156633 0
7.1250005 3.7872729 1.2167509 0
7.1350002 3.7808244 1.2179594 0
7.1440005 3.7737734 1.2190472 0
7.1540003 3.7672539 1.2202557 0
7.1630006 3.7601364 1.2213434 0
7.1730003 3.753547 1.2225519 0
7.1820006 3.7463627 1.2236397 0
7.1920004 3.7397027 1.2248483 0
7.2020006 3.7330072 1.2260568 0
7.2110004 3.7257214 1.2271445 0
7.2210002 3.7189553 1.228353 0
7.2310004 3.7121532 1.2295616 0
7.2400002 3.7047668 1.2306492 0
7.2500005 3.6978941 1.2318578 0
7.2600002 3.6909854 1.2330663 0
7.2700005 3.684041 1.234275 0
7.2800002 3.6770601 1.2354834 0
7.2900004 3.6700435 1.2366921 0
7.3000002 3.6629903 1.2379005 0
7.3100004 3.6559014 1.2391092 0
7.3200006 3.6487765 1.2403177 0
7.3300004 3.6416154 1.2415262 0
7.3400006 3.6344182 1.2427348 0
7.3500004 3.6271849 1.2439433 0
7.3600006 3.6199157 1.2451519 0
7.3700004 3.6126099 1.2463604 0
7.3800006 3.6052687 1.247569 0
7.3900003 3.5978911 1.2487775 0
7.4010005 3.590997 1.2501069 0
7.4110003 3.5835454 1.2513155 0
7.4210005 3.5760577 1.252524 0
7.4320006 3.5690482 1.2538534 0
7.4420004 3.5614865 1.255062 0
7.4520006 3.553889 1.2562705 0
7.4630003 3.5467639 1.2575999 0
7.4730005 3.5390923 1.2588085 0
7.1160007 3.7942574 1.2035489 0
7.1250005 3.7872729 1.2046204 0
7.1350002 3.7808244 1.2058108 0
7.1440005 3.7737734 1.2068822 0
7.1540003 3.7672539 1.2080728 0
7.1630006 3.7601364 1.2091442 0
7.1730003 3.753547 1.2103348 0
7.1820006 3.7463627 1.2114062 0
7.1920004 3.7397027 1.2125968 0
7.2020006 3.7330072 1.2137873 0
7.2110004 3.7257214 1.2148588 0
7.2210002 3.7189553 1.2160492 0
7.2310004 3.7121532 1.2172397 0
7.2400002 3.7047668 1.2183112 0
7.2500005 3.6978941 1.2195017 0
7.2600002 3.6909854 1.2206922 0
7.2700005 3.684041 1.2218827 0
7.2800002 3.6770601 1.2230732 0
7.2900004 3.6700435 1.2242638 0
7.3000002 3.6629903 1.2254542 0
7.3100004 3.6559014 1.2266448 0
7.3200006 3.6487765 1.2278353 0
7.3300004 3.6416154 1.2290258 0
7.3400006 3.6344182 1.2302164 0
7.3500004 3.6271849 1.2314068 0
7.3600006 3.6199157 1.2325974 0
7.3700004 3.6126099 1.2337879 0
7.3800006 3.6052687 1.2349784 0
7.3900003 3.5978911 1.2361689 0
7.4010005 3.590997 1.2374785 0
7.4110003 3.5835454 1.2386689 0
7.4210005 3.5760577 1.2398595 0
7.4320006 3.5690482 1.2411691 0
7.4420004 3.5614865 1.2423596 0
7.4520006 3.553889 1.2435501 0
7.4630003 3.5467639 1.2448597 0
7.4730005 3.5390923 1.2460501 0
7.1160007 3.7942574 1.1914345 0
7.1250005 3.7872729 1.1924897 0
7.1350002 3.7808244 1.1936622 0
7.1440005 3.7737734 1.1947174 0
7.1540003 3.7672539 1.1958898 0
7.1630006 3.7601364 1.1969451 0
7.1730003 3.753547 1.1981176 0
7.1820006 3.7463627 1.1991729 0
7.1920004 3.7397027 1.2003453 0
7.2020006 3.7330072 1.2015178 0
7.2110004 3.7257214 1.2025729 0
7.2210002 3.7189553 1.2037455 0
7.2310004 3.7121532 1.2049179 0
7.2400002 3.7047668 1.2059731 0
7.2500005 3.6978941 1.2071457 0
7.2600002 3.6909854 1.2083181 0
7.2700005 3.684041 1.2094905 0
7.2800002 3.6770601 1.2106631 0
7.2900004 3.6700435 1.2118355 0
7.3000002 3.6629903 1.2130079 0
7.3100004 3.6559014 1.2141805 0
7.3200006 3.6487765 1.215353 0
7.3300004 3.6416154 1.2165254 0
7.3400006 3.6344182 1.217698 0
7.3500004 3.6271849 1.2188704 0
7.3600006 3.6199157 1.2200428 0
7.3700004 3.6126099 1.2212154 0
7.3800006 3.6052687 1.2223878 0
7.3900003 3.5978911 1.2235602 0
7.4010005 3.590997 1.2248501 0
7.4110003 3.5835454 1.2260225 0
7.4210005 3.5760577 1.2271949 0
7.4320006 3.5690482 1.2284847 0
7.4420004 3.5614865 1.2296572 0
7.4520006 3.553889 1.2308297 0
7.4630003 3.5467639 1.2321193 0
7.1160007 3.7942574 1.1793201 0
7.1250005 3.7872729 1.1803591 0
7.1350002 3.7808244 1.1815135 0
7.1440005 3.7737734 1.1825526 0
7.1540003 3.7672539 1.1837069 0
7.1630006 3.7601364 1.1847459 0
7.1730003 3.753547 1.1859003 0
7.1820006 3.7463627 1.1869394 0
7.1920004 3.7397027 1.1880938 0
7.2020006 3.7330072 1.1892483 0
7.2110004 3.7257214 1.1902872 0
7.2210002 3.7189553 1.1914417 0
7.2310004 3.7121532 1.1925961 0
7.2400002 3.7047668 1.1936351 0
7.2500005 3.6978941 1.1947895 0
7.2600002 3.6909854 1.195944 0
7.2700005 3.684041 1.1970984 0
7.2800002 3.6770601 1.1982528 0
7.2900004 3.6700435 1.1994073 0
7.3000002 3.6629903 1.2005618 0
7.3100004 3.6559014 1.2017162 0
7.3200006 3.6487765 1.2028706 0
7.3300004 3.6416154 1.204025 0
7.3400006 3.6344182 1.2051795 0
7.3500004 3.6271849 1.2063339 0
7.3600006 3.6199157 1.2074884 0
7.3700004 3.6126099 1.2086428 0
7.3800006 3.6052687 1.2097973 0
7.3900003 3.5978911 1.2109517 0
7.4010005 3.590997 1.2122215 0
7.4110003 3.5835454 1.2133759 0
7.4210005 3.5760577 1.2145305 0
7.4320006 3.5690482 1.2158003 0
7.4420004 3.5614865 1.2169547 0
7.4520006 3.553889 1.2181093 0
7.4630003 3.5467639 1.2193791 0
7.1160007 3.7942574 1.1672057 0
7.1250005 3.7872729 1.1682285 0
7.1350002 3.7808244 1.1693649 0
7.1440005 3.7737734 1.1703876 0
7.1540003 3.7672539 1.171524 0
7.1630006 3.7601364 1.1725467 0
7.1730003 3.753547 1.1736832 0
7.1820006 3.7463627 1.174706 0
7.1920004 3.7397027 1.1758424 0
7.2020006 3.7330072 1.1769787 0
7.2110004 3.7257214 1.1780015 0
7.2210002 3.7189553 1.1791378 0
7.2310004 3.7121532 1.1802744 0
7.2400002 3.7047668 1.1812971 0
7.2500005 3.6978941 1.1824335 0
7.2600002 3.6909854 1.1835699 0
7.2700005 3.684041 1.1847062 0
7.2800002 3.6770601 1.1858426 0
7.2900004 3.6700435 1.1869791 0
7.3000002 3.6629903 1.1881155 0
7.3100004 3.6559014 1.1892519 0
7.3200006 3.6487765 1.1903882 0
7.3300004 3.6416154 1.1915246 0
7.3400006 3.6344182 1.192661 0
7.3500004 3.6271849 1.1937975 0
7.3600006 3.6199157 1.1949339 0
7.3700004 3.6126099 1.1960702 0
7.3800006 3.6052687 1.1972066 0
7.3900003 3.5978911 1.198343 0
7.4010005 3.590997 1.1995931 0
7.4110003 3.5835454 1.2007295 0
7.4210005 3.5760577 1.2018659 0
7.4320006 3.5690482 1.2031159 0
7.4420004 3.5614865 1.2042524 0
7.4520006 3.553889 1.2053888 0
7.4630003 3.5467639 1.2066388 0
7.1160007 3.7942574 1.1550914 0
7.1250005 3.7872729 1.1560979 0
7.1350002 3.7808244 1.1572162 0
7.1440005 3.7737734 1.1582228 0
7.1540003 3.7672539 1.1593411 0
7.1630006 3.7601364 1.1603477 0
7.1730003 3.753547 1.161466 0
7.1820006 3.7463627 1.1624726 0
7.1920004 3.7397027 1.1635908 0
7.2020006 3.7330072 1.1647092 0
7.2110004 3.7257214 1.1657157 0
7.2210002 3.7189553 1.1668341 0
7.2310004 3.7121532 1.1679525 0
7.2400002 3.7047668 1.168959 0
7.2500005 3.6978941 1.1700773 0
7.2600002 3.6909854 1.1711957 0
7.2700005 3.684041 1.1723142 0
7.2800002 3.6770601 1.1734325 0
7.2900004 3.6700435 1.1745508 0
7.3000002 3.6629903 1.1756692 0
7.3100004 3.6559014 1.1767875 0
7.3200006 3.6487765 1.1779059 0
7.3300004 3.6416154 1.1790243 0
7.3400006 3.6344182 1.1801426 0
7.3500004 3.6271849 1.1812609 0
7.3600006 3.6199157 1.1823794 0
7.3700004 3.6126099 1.1834977 0
7.3800006 3.6052687 1.1846161 0
7.3900003 3.5978911 1.1857344 0
7.4010005 3.590997 1.1869646 0
7.4110003 3.5835454 1.1880829 0
7.4210005 3.5760577 1.1892014 0
7.4320006 3.5690482 1.1904316 0
7.4420004 3.5614865 1.1915499 0
7.4520006 3.553889 1.1926683 0
7.4630003 3.5467639 1.1938984 0
7.1160007 3.7942574 1.142977 0
7.1250005 3.7872729 1.1439673 0
7.1350002 3.7808244 1.1450676 0
7.1440005 3.7737734 1.1460578 0
7.1540003 3.7672539 1.1471581 0
7.1630006 3.7601364 1.1481485 0
7.1730003 3.753547 1.1492488 0
7.1820006 3.7463627 1.1502391 0
7.1920004 3.7397027 1.1513394 0
7.2020006 3.7330072 1.1524397 0
7.2110004 3.7257214 1.15343 0
7.2210002 3.7189553 1.1545303 0
7.2310004 3.7121532 1.1556307 0
7.2400002 3.7047668 1.156621 0
7.2500005 3.6978941 1.1577213 0
7.2600002 3.6909854 1.1588216 0
7.2700005 3.684041 1.1599219 0
7.2800002 3.6770601 1.1610222 0
7.2900004 3.6700435 1.1621226 0
7.3000002 3.6629903 1.1632229 0
7.3100004 3.6559014 1.1643232 0
7.3200006 3.6487765 1.1654235 0
7.3300004 3.6416154 1.1665238 0
7.3400006 3.6344182 1.1676242 0
7.3500004 3.6271849 1.1687245 0
7.3600006 3.6199157 1.1698248 0
7.3700004 3.6126099 1.1709251 0
7.3800006 3.6052687 1.1720254 0
7.3900003 3.5978911 1.1731257 0
7.4010005 3.590997 1.1743362 0
7.4110003 3.5835454 1.1754365 0
7.4210005 3.5760577 1.1765368 0
7.4320006 3.5690482 1.1777471 0
7.4420004 3.5614865 1.1788474 0
7.4520006 3.553889 1.1799479 0
7.4630003 3.5467639 1.1811582 0
7.1160007 3.7942574 1.1308626 0
7.1250005 3.7872729 1.1318367 0
7.1350002 3.7808244 1.132919 0
7.1440005 3.7737734 1.133893 0
7.1540003 3.7672539 1.1349753 0
7.1630006 3.7601364 1.1359494 0
7.1730003 3.753547 1.1370316 0
7.1820006 3.7463627 1.1380057 0
7.1920004 3.7397027 1.1390879 0
7.2020006 3.7330072 1.1401702 0
7.2110004 3.7257214 1.1411443 0
7.2210002 3.7189553 1.1422266 0
7.2310004 3.7121532 1.1433089 0
7.2400002 3.7047668 1.1442829 0
7.2500005 3.6978941 1.1453652 0
7.2600002 3.6909854 1.1464474 0
7.2700005 3.684041 1.1475297 0
7.2800002 3.6770601 1.148612 0
7.2900004 3.6700435 1.1496943 0
7.3000002 3.6629903 1.1507766 0
7.3100004 3.6559014 1.1518589 0
7.3200006 3.6487765 1.1529412 0
7.3300004 3.6416154 1.1540235 0
7.3400006 3.6344182 1.1551058 0
7.3500004 3.6271849 1.156188 0
7.3600006 3.6199157 1.1572703 0
7.3700004 3.6126099 1.1583526 0
7.3800006 3.6052687 1.1594349 0
7.3900003 3.5978911 1.1605172 0
7.4010005 3.590997 1.1617078 0
7.4110003 3.5835454 1.1627899 0
7.4210005 3.5760577 1.1638722 0
7.4320006 3.5690482 1.1650628 0
7.4420004 3.5614865 1.1661451 0
7.4520006 3.553889 1.1672274 0
7.4630003 3.5467639 1.1684178 0
7.1160007 3.7942574 1.1187482 0
7.1250005 3.7872729 1.119706 0
7.1350002 3.7808244 1.1207703 0
7.1440005 3.7737734 1.1217281 0
7.1540003 3.7672539 1.1227924 0
7.1630006 3.7601364 1.1237502 0
7.1730003 3.753547 1.1248144 0
7.1820006 3.7463627 1.1257722 0
7.1920004 3.7397027 1.1268365 0
7.2020006 3.7330072 1.1279007 0
7.2110004 3.7257214 1.1288586 0
7.2210002 3.7189553 1.1299227 0
7.2310004 3.7121532 1.130987 0
7.2400002 3.7047668 1.1319448 0
7.2500005 3.6978941 1.1330091 0
7.2600002 3.6909854 1.1340734 0
7.2700005 3.684041 1.1351376 0
7.2800002 3.6770601 1.1362019 0
7.2900004 3.6700435 1.137266 0
7.3000002 3.6629903 1.1383303 0
7.3100004 3.6559014 1.1393946 0
7.3200006 3.6487765 1.1404588 0
7.3300004 3.6416154 1.1415231 0
7.3400006 3.6344182 1.1425873 0
7.3500004 3.6271849 1.1436516 0
7.3600006 3.6199157 1.1447159 0
7.3700004 3.6126099 1.1457801 0
7.3800006 3.6052687 1.1468444 0
7.3900003 3.5978911 1.1479086 0
7.4010005 3.590997 1.1490792 0
7.4110003 3.5835454 1.1501435 0
7.4210005 3.5760577 1.1512077 0
7.4320006 3.5690482 1.1523784 0
7.4420004 3.5614865 1.1534426 0
7.4520006 3.553889 1.1545069 0
7.4630003 3.5467639 1.1556776 0
7.1160007 3.7942574 1.1066339 0
7.1250005 3.7872729 1.1075754 0
7.1350002 3.7808244 1.1086216 0
7.1440005 3.7737734 1.1095632 0
7.1540003 3.7672539 1.1106094 0
7.1630006 3.7601364 1.111551 0
7.1730003 3.753547 1.1125972 0
7.1820006 3.7463627 1.1135389 0
7.1920004 3.7397027 1.114585 0
7.2020006 3.7330072 1.1156312 0
7.2110004 3.7257214 1.1165729 0
7.2210002 3.7189553 1.117619 0
7.2310004 3.7121532 1.1186652 0
7.2400002 3.7047668 1.1196067 0
7.2500005 3.6978941 1.120653 0
7.2600002 3.6909854 1.1216992 0
7.2700005 3.684041 1.1227454 0
7.2800002 3.6770601 1.1237916 0
7.2900004 3.6700435 1.1248379 0
7.3000002 3.6629903 1.1258841 0
7.3100004 3.6559014 1.1269302 0
7.3200006 3.6487765 1.1279765 0
7.3300004 3.6416154 1.1290227 0
7.3400006 3.6344182 1.1300689 0
7.3500004 3.6271849 1.1311151 0
7.3600006 3.6199157 1.1321614 0
7.3700004 3.6126099 1.1332076 0
7.3800006 3.6052687 1.1342537 0
7.3900003 3.5978911 1.1352999 0
7.4010005 3.590997 1.1364508 0
7.4110003 3.5835454 1.1374969 0
7.4210005 3.5760577 1.1385432 0
7.4320006 3.5690482 1.139694 0
7.4420004 3.5614865 1.1407402 0
7.4520006 3.553889 1.1417865 0
7.4630003 3.5467639 1.1429373 0
7.1160007 3.7942574 1.0945195 0
7.1250005 3.7872729 1.0954448 0
7.1350002 3.7808244 1.096473 0
7.1440005 3.7737734 1.0973983 0
7.1540003 3.7672539 1.0984265 0
7.1630006 3.7601364 1.0993519 0
7.1730003 3.753547 1.1003799 0
7.1820006 3.7463627 1.1013054 0
7.1920004 3.7397027 1.1023335 0
7.2020006 3.7330072 1.1033617 0
7.2110004 3.7257214 1.104287 0
7.2210002 3.7189553 1.1053152 0
7.2310004 3.7121532 1.1063434 0
7.2400002 3.7047668 1.1072687 0
7.2500005 3.6978941 1.1082969 0
7.2600002 3.6909854 1.1093252 0
7.2700005 3.684041 1.1103534 0
7.2800002 3.6770601 1.1113814 0
7.2900004 3.6700435 1.1124096 0
7.3000002 3.6629903 1.1134378 0
7.3100004 3.6559014 1.114466 0
7.3200006 3.6487765 1.1154941 0
7.3300004 3.6416154 1.1165223 0
7.3400006 3.6344182 1.1175505 0
7.3500004 3.6271849 1.1185787 0
7.3600006 3.6199157 1.1196069 0
7.3700004 3.6126099 1.1206349 0
7.3800006 3.6052687 1.1216631 0
7.3900003 3.5978911 1.1226914 0
7.4010005 3.590997 1.1238223 0
7.4110003 3.5835454 1.1248505 0
7.4210005 3.5760577 1.1258787 0
7.4320006 3.5690482 1.1270096 0
7.4420004 3.5614865 1.1280378 0
7.4520006 3.553889 1.129066 0
7.4630003 3.5467639 1.1301969 0
7.1160007 3.7942574 1.0824051 0
7.1250005 3.7872729 1.0833142 0
7.1350002 3.7808244 1.0843244 0
7.1440005 3.7737734 1.0852334 0
7.1540003 3.7672539 1.0862435 0
7.1630006 3.7601364 1.0871527 0
7.1730003 3.753547 1.0881629 0
7.1820006 3.7463627 1.089072 0
7.1920004 3.7397027 1.090082 0
7.2020006 3.7330072 1.0910922 0
7.2110004 3.7257214 1.0920013 0
7.2210002 3.7189553 1.0930115 0
7.2310004 3.7121532 1.0940216 0
7.2400002 3.7047668 1.0949306 0
7.2500005 3.6978941 1.0959408 0
7.2600002 3.6909854 1.096951 0
7.2700005 3.684041 1.0979612 0
7.2800002 3.6770601 1.0989712 0
7.2900004 3.6700435 1.0999814 0
7.3000002 3.6629903 1.1009915 0
7.3100004 3.6559014 1.1020017 0
7.3200006 3.6487765 1.1030117 0
7.3300004 3.6416154 1.1040219 0
7.3400006 3.6344182 1.1050321 0
7.3500004 3.6271849 1.1060421 0
7.3600006 3.6199157 1.1070523 0
7.3700004 3.6126099 1.1080624 0
7.3800006 3.6052687 1.1090726 0
7.3900003 3.5978911 1.1100826 0
7.4010005 3.590997 1.1111939 0
7.4110003 3.5835454 1.112204 0
7.4210005 3.5760577 1.1132141 0
7.4320006 3.5690482 1.1143253 0
7.4420004 3.5614865 1.1153353 0
7.4520006 3.553889 1.1163455 0
7.4630003 3.5467639 1.1174567 0
7.1160007 3.7942574 1.0702907 0
7.1250005 3.7872729 1.0711836 0
7.1350002 3.7808244 1.0721756 0
7.1440005 3.7737734 1.0730685 0
7.1540003 3.7672539 1.0740607 0
7.1630006 3.7601364 1.0749536 0
7.1730003 3.753547 1.0759456 0
7.1820006 3.7463627 1.0768386 0
7.1920004 3.7397027 1.0778307 0
7.2020006 3.7330072 1.0788227 0
7.2110004 3.7257214 1.0797156 0
7.2210002 3.7189553 1.0807077 0
7.2310004 3.7121532 1.0816997 0
7.2400002 3.7047668 1.0825926 0
7.2500005 3.6978941 1.0835848 0
7.2600002 3.6909854 1.0845768 0
7.2700005 3.684041 1.0855689 0
7.2800002 3.6770601 1.086561 0
7.2900004 3.6700435 1.0875531 0
7.3000002 3.6629903 1.0885452 0
7.3100004 3.6559014 1.0895374 0
7.3200006 3.6487765 1.0905294 0
7.3300004 3.6416154 1.0915215 0
7.3400006 3.6344182 1.0925137 0
7.3500004 3.6271849 1.0935057 0
7.3600006 3.6199157 1.0944978 0
7.3700004 3.6126099 1.0954899 0
7.3800006 3.6052687 1.096482 0
7.3900003 3.5978911 1.0974741 0
7.4010005 3.590997 1.0985655 0
7.4110003 3.5835454 1.0995575 0
7.4210005 3.5760577 1.1005496 0
7.4320006 3.5690482 1.1016409 0
7.4420004 3.5614865 1.102633 0
7.4520006 3.553889 1.1036251 0
7.4630003 3.5467639 1.1047163 0
7.1160007 3.7942574 1.0581764 0
7.1250005 3.7872729 1.0590529 0
7.1350002 3.7808244 1.060027 0
7.1440005 3.7737734 1.0609037 0
7.1540003 3.7672539 1.0618777 0
7.1630006 3.7601364 1.0627544 0
7.1730003 3.753547 1.0637285 0
7.1820006 3.7463627 1.0646051 0
7.1920004 3.7397027 1.0655792 0
7.2020006 3.7330072 1.0665532 0
7.2110004 3.7257214 1.0674298 0
7.2210002 3.7189553 1.068404 0
7.2310004 3.7121532 1.069378 0
7.2400002 3.7047668 1.0702546 0
7.2500005 3.6978941 1.0712287 0
7.2600002 3.6909854 1.0722027 0
7.2700005 3.684041 1.0731767 0
7.2800002 3.6770601 1.0741508 0
7.2900004 3.6700435 1.075125 0
7.3000002 3.6629903 1.0760989 0
7.3100004 3.6559014 1.077073 0
7.3200006 3.6487765 1.078047 0
7.3300004 3.6416154 1.0790212 0
7.3400006 3.6344182 1.0799953 0
7.3500004 3.6271849 1.0809692 0
7.3600006 3.6199157 1.0819433 0
7.3700004 3.6126099 1.0829173 0
7.3800006 3.6052687 1.0838914 0
7.3900003 3.5978911 1.0848655 0
7.4010005 3.590997 1.0859369 0
7.4110003 3.5835454 1.086911 0
7.4210005 3.5760577 1.087885 0
7.4320006 3.5690482 1.0889565 0
7.4420004 3.5614865 1.0899305 0
7.4520006 3.553889 1.0909046 0
7.4630003 3.5467639 1.091976 0
7.1160007 3.7942574 1.046062 0
7.1250005 3.7872729 1.0469223 0
7.1350002 3.7808244 1.0478784 0
7.1440005 3.7737734 1.0487388 0
7.1540003 3.7672539 1.0496948 0
7.1630006 3.7601364 1.0505552 0
7.1730003 3.753547 1.0515113 0
7.1820006 3.7463627 1.0523716 0
7.1920004 3.7397027 1.0533277 0
7.2020006 3.7330072 1.0542837 0
7.2110004 3.7257214 1.0551442 0
7.2210002 3.7189553 1.0561001 0
7.2310004 3.7121532 1.0570562 0
7.2400002 3.7047668 1.0579165 0
7.2500005 3.6978941 1.0588726 0
7.2600002 3.6909854 1.0598286 0
7.2700005 3.684041 1.0607846 0
7.2800002 3.6770601 1.0617406 0
7.2900004 3.6700435 1.0626967 0
7.3000002 3.6629903 1.0636526 0
7.3100004 3.6559014 1.0646087 0
7.3200006 3.6487765 1.0655648 0
7.3300004 3.6416154 1.0665207 0
7.3400006 3.6344182 1.0674767 0
7.3500004 3.6271849 1.0684328 0
7.3600006 3.6199157 1.0693889 0
7.3700004 3.6126099 1.0703448 0
7.3800006 3.6052687 1.0713009 0
7.3900003 3.5978911 1.0722568 0
7.4010005 3.590997 1.0733085 0
7.4110003 3.5835454 1.0742645 0
7.4210005 3.5760577 1.0752205 0
7.4320006 3.5690482 1.0762721 0
7.4420004 3.5614865 1.0772282 0
7.4520006 3.553889 1.0781842 0
7.4630003 3.5467639 1.0792358 0
7.1160007 3.7942574 1.0339476 0
7.1250005 3.7872729 1.0347917 0
7.1350002 3.7808244 1.0357296 0
7.1440005 3.7737734 1.0365739 0
7.1540003 3.7672539 1.0375118 0
7.1630006 3.7601364 1.0383561 0
7.1730003 3.753547 1.039294 0
7.1820006 3.7463627 1.0401382 0
7.1920004 3.7397027 1.0410762 0
7.2020006 3.7330072 1.0420142 0
7.2110004 3.7257214 1.0428584 0
7.2210002 3.7189553 1.0437964 0
7.2310004 3.7121532 1.0447344 0
7.2400002 3.7047668 1.0455785 0
7.2500005 3.6978941 1.0465165 0
7.2600002 3.6909854 1.0474545 0
7.2700005 3.684041 1.0483924 0
7.2800002 3.6770601 1.0493305 0
7.2900004 3.6700435 1.0502684 0
7.3000002 3.6629903 1.0512065 0
7.3100004 3.6559014 1.0521444 0
7.3200006 3.6487765 1.0530823 0
7.3300004 3.6416154 1.0540204 0
7.3400006 3.6344182 1.0549583 0
7.3500004 3.6271849 1.0558963 0
7.3600006 3.6199157 1.0568343 0
7.3700004 3.6126099 1.0577723 0
7.3800006 3.6052687 1.0587102 0
7.3900003 3.5978911 1.0596483 0
7.4010005 3.590997 1.06068 0
7.4110003 3.5835454 1.061618 0
7.4210005 3.5760577 1.0625559 0
7.4320006 3.5690482 1.0635878 0
7.4420004 3.5614865 1.0645257 0
7.4520006 3.553889 1.0654638 0
7.4630003 3.5467639 1.0664954 0
7.1160007 3.7942574 1.0218332 0
7.1250005 3.7872729 1.0226611 0
7.1350002 3.7808244 1.023581 0
7.1440005 3.7737734 1.0244091 0
7.1540003 3.7672539 1.025329 0
7.1630006 3.7601364 1.0261569 0
7.1730003 3.753547 1.0270768 0
7.1820006 3.7463627 1.0279049 0
7.1920004 3.7397027 1.0288248 0
7.2020006 3.7330072 1.0297447 0
7.2110004 3.7257214 1.0305727 0
7.2210002 3.7189553 1.0314926 0
7.2310004 3.7121532 1.0324125 0
7.2400002 3.7047668 1.0332404 0
7.2500005 3.6978941 1.0341604 0
7.2600002 3.6909854 1.0350803 0
7.2700005 3.684041 1.0360004 0
7.2800002 3.6770601 1.0369202 0
7.2900004 3.6700435 1.0378401 0
7.3000002 3.6629903 1.0387601 0
7.3100004 3.6559014 1.03968 0
7.3200006 3.6487765 1.0406001 0
7.3300004 3.6416154 1.04152 0
7.3400006 3.6344182 1.0424399 0
7.3500004 3.6271849 1.0433599 0
7.3600006 3.6199157 1.0442798 0
7.3700004 3.6126099 1.0451998 0
7.3800006 3.6052687 1.0461197 0
7.3900003 3.5978911 1.0470396 0
7.4010005 3.590997 1.0480516 0
7.4110003 3.5835454 1.0489714 0
7.4210005 3.5760577 1.0498915 0
7.4320006 3.5690482 1.0509033 0
7.4420004 3.5614865 1.0518234 0
7.4520006 3.553889 1.0527433 0
7.4630003 3.5467639 1.0537552 0
7.1160007 3.7942574 1.0097188 0
7.1250005 3.7872729 1.0105306 0
7.1350002 3.7808244 1.0114324 0
7.1440005 3.7737734 1.0122441 0
7.1540003 3.7672539 1.013146 0
7.1630006 3.7601364 1.0139577 0
7.1730003 3.753547 1.0148597 0
7.1820006 3.7463627 1.0156714 0
7.1920004 3.7397027 1.0165733 0
7.2020006 3.7330072 1.0174752 0
7.2110004 3.7257214 1.0182869 0
7.2210002 3.7189553 1.0191888 0
7.2310004 3.7121532 1.0200907 0
7.2400002 3.7047668 1.0209024 0
7.2500005 3.6978941 1.0218043 0
7.2600002 3.6909854 1.0227062 0
7.2700005 3.684041 1.0236082 0
7.2800002 3.6770601 1.02451 0
7.2900004 3.6700435 1.025412 0
7.3000002 3.6629903 1.0263138 0
7.3100004 3.6559014 1.0272158 0
7.3200006 3.6487765 1.0281177 0
7.3300004 3.6416154 1.0290196 0
7.3400006 3.6344182 1.0299215 0
7.3500004 3.6271849 1.0308233 0
7.3600006 3.6199157 1.0317253 0
7.3700004 3.6126099 1.0326271 0
7.3800006 3.6052687 1.0335292 0
7.3900003 3.5978911 1.034431 0
7.4010005 3.590997 1.035423 0
7.4110003 3.5835454 1.036325 0
7.4210005 3.5760577 1.0372269 0
7.4320006 3.5690482 1.038219 0
7.4420004 3.5614865 1.0391209 0
7.4520006 3.553889 1.0400229 0
7.4630003 3.5467639 1.0410149 0
7.1160007 3.7942574 0.99760449 0
7.1250005 3.7872729 0.99839997 0
7.1350002 3.7808244 0.99928379 0
7.1440005 3.7737734 1.0000793 0
7.1540003 3.7672539 1.0009631 0
7.1630006 3.7601364 1.0017586 0
7.1730003 3.753547 1.0026425 0
7.1820006 3.7463627 1.003438 0
7.1920004 3.7397027 1.0043218 0
7.2020006 3.7330072 1.0052058 0
7.2110004 3.7257214 1.0060011 0
7.2210002 3.7189553 1.0068851 0
7.2310004 3.7121532 1.0077689 0
7.2400002 3.7047668 1.0085644 0
7.2500005 3.6978941 1.0094483 0
7.2600002 3.6909854 1.0103321 0
7.2700005 3.684041 1.0112159 0
7.2800002 3.6770601 1.0120999 0
7.2900004 3.6700435 1.0129837 0
7.3000002 3.6629903 1.0138676 0
7.3100004 3.6559014 1.0147514 0
7.3200006 3.6487765 1.0156353 0
7.3300004 3.6416154 1.0165192 0
7.3400006 3.6344182 1.017403 0
7.3500004 3.6271849 1.0182869 0
7.3600006 3.6199157 1.0191708 0
7.3700004 3.6126099 1.0200546 0
7.3800006 3.6052687 1.0209385 0
7.3900003 3.5978911 1.0218223 0
7.4010005 3.590997 1.0227946 0
7.4110003 3.5835454 1.0236784 0
7.4210005 3.5760577 1.0245624 0
7.4320006 3.5690482 1.0255346 0
7.4420004 3.5614865 1.0264184 0
7.4520006 3.553889 1.0273024 0
7.4630003 3.5467639 1.0282745 0
7.1160007 3.7942574 0.98549008 0
7.1250005 3.7872729 0.98626935 0
7.1350002 3.7808244 0.98713505 0
7.1440005 3.7737734 0.98791444 0
7.1540003 3.7672539 0.98878026 0
7.1630006 3.7601364 0.98955953 0
7.1730003 3.753547 0.99042523 0
7.1820006 3.7463627 0.9912045 0
7.1920004 3.7397027 0.99207032 0
7.2020006 3.7330072 0.99293625 0
7.2110004 3.7257214 0.99371541 0
7.2210002 3.7189553 0.99458122 0
7.2310004 3.7121532 0.99544704 0
7.2400002 3.7047668 0.99622631 0
7.2500005 3.6978941 0.99709213 0
7.2600002 3.6909854 0.99795794 0
7.2700005 3.684041 0.99882376 0
7.2800002 3.6770601 0.99968958 0
7.2900004 3.6700435 1.0005555 0
7.3000002 3.6629903 1.0014213 0
7.3100004 3.6559014 1.0022871 0
7.3200006 3.6487765 1.003153 0
7.3300004 3.6416154 1.0040188 0
7.3400006 3.6344182 1.0048846 0
7.3500004 3.6271849 1.0057504 0
7.3600006 3.6199157 1.0066162 0
7.3700004 3.6126099 1.0074821 0
7.3800006 3.6052687 1.008348 0
7.3900003 3.5978911 1.0092138 0
7.4010005 3.590997 1.0101662 0
7.4110003 3.5835454 1.011032 0
7.4210005 3.5760577 1.0118978 0
7.4320006 3.5690482 1.0128502 0
7.4420004 3.5614865 1.0137161 0
7.4520006 3.553889 1.0145819 0
7.4630003 3.5467639 1.0155343 0
7.1160007 3.7942574 0.97337568 0
7.1250005 3.7872729 0.97413874 0
7.1350002 3.7808244 0.97498643 0
7.1440005 3.7737734 0.97574949 0
7.1540003 3.7672539 0.97659731 0
7.1630006 3.7601364 0.97736037 0
7.1730003 3.753547 0.97820807 0
