# .PCD v0.7 - Point Cloud Data file format
VERSION 0.7
FIELDS x y z intensity
SIZE 4 4 4 4
TYPE F F F F
COUNT 1 1 1 1
WIDTH 1427
HEIGHT 1
VIEWPOINT 0 0 0 1 0 0 0
POINTS 1427
DATA ascii
2.6720002 -1.0705631 1.3670894 0
2.6720002 -1.0746614 1.3670894 0
2.6730001 -1.0792141 1.3675132 0
2.6730001 -1.0833142 1.3675132 0
2.6740003 -1.0878725 1.3679371 0
2.6750002 -1.0924342 1.368361 0
2.6750002 -1.0965379 1.368361 0
2.6760001 -1.1011051 1.3687848 0
2.6760001 -1.1052105 1.3687848 0
2.6770003 -1.1097833 1.3692088 0
2.6770003 -1.1138905 1.3692088 0
2.6780002 -1.1184686 1.3696326 0
2.6780002 -1.1225778 1.3696326 0
2.6790001 -1.1271611 1.3700565 0
2.6790001 -1.131272 1.3700565 0
2.6800003 -1.135861 1.3704805 0
2.6800003 -1.1399736 1.3704805 0
2.6810002 -1.144568 1.3709043 0
2.6810002 -1.1486825 1.3709043 0
2.6820002 -1.1532822 1.3713282 0
2.6820002 -1.1573983 1.3713282 0
2.6830001 -1.1620035 1.3717521 0
2.6840003 -1.1666123 1.3721761 0
2.6840003 -1.1707321 1.3721761 0
2.6850002 -1.1753463 1.3726 0
2.6850002 -1.1794679 1.3726 0
2.6860001 -1.1840874 1.3730239 0
2.6860001 -1.188211 1.3730239 0
2.6870003 -1.192836 1.3734478 0
2.6870003 -1.1969614 1.3734478 0
2.6880002 -1.2015917 1.3738717 0
2.6880002 -1.2057189 1.3738717 0
2.6890001 -1.2103546 1.3742955 0
2.6890001 -1.2144835 1.3742955 0
2.6900003 -1.2191248 1.3747194 0
2.6900003 -1.2232555 1.3747194 0
2.6910002 -1.2279021 1.3751433 0
2.6920002 -1.2325523 1.3755672 0
2.6920002 -1.2366866 1.3755672 0
2.6930003 -1.2413423 1.3759911 0
2.6930003 -1.2454785 1.3759911 0
2.6940002 -1.2501394 1.376415 0
2.6940002 -1.2542773 1.376415 0
2.6950002 -1.2589437 1.3768389 0
2.6950002 -1.2630836 1.3768389 0
2.6960001 -1.2677554 1.3772627 0
2.6960001 -1.271897 1.3772627 0
2.6970003 -1.2765743 1.3776867 0
2.6970003 -1.2807176 1.3776867 0
2.6980002 -1.2854003 1.3781105 0
2.6980002 -1.2895454 1.3781105 0
2.6990001 -1.2942334 1.3785344 0
2.7000003 -1.2989252 1.3789585 0
2.7000003 -1.303074 1.3789585 0
2.7010002 -1.3077711 1.3793823 0
2.7010002 -1.3119217 1.3793823 0
2.7020001 -1.316624 1.3798062 0
2.7020001 -1.3207765 1.3798062 0
2.7030003 -1.3254845 1.3802302 0
2.7030003 -1.3296387 1.3802302 0
2.7040002 -1.334352 1.3806539 0
2.7040002 -1.338508 1.3806539 0
2.7050002 -1.3432268 1.3810778 0
2.7060001 -1.347949 1.3815017 0
2.7060001 -1.3521086 1.3815017 0
2.7070003 -1.3568366 1.3819256 0
2.5400002 0.019622546 1.3072751 0
2.5410001 0.011929303 1.3076971 0
2.5410001 0.0080673471 1.3076971 0
2.5410001 0.0042053908 1.3076971 0
2.5420003 0.00036508963 1.3081193 0
2.5420003 -0.0034986697 1.3081193 0
2.5430002 -0.0073443912 1.3085413 0
2.5430002 -0.01120995 1.3085413 0
2.5440001 -0.015061082 1.3089634 0
2.5440001 -0.018928446 1.3089634 0
2.5450003 -0.022784987 1.3093855 0
2.5450003 -0.026654156 1.3093855 0
2.5460002 -0.03051611 1.3098075 0
2.5460002 -0.034387082 1.3098075 0
2.5470002 -0.038254447 1.3102297 0
2.5470002 -0.042127226 1.3102297 0
2.5480001 -0.046 1.3106517 0
2.5480001 -0.049874581 1.3106517 0
2.5490003 -0.053752769 1.3110739 0
2.5490003 -0.057629153 1.3110739 0
2.5490003 -0.061505537 1.3110739 0
2.5500002 -0.065390937 1.3114959 0
2.5500002 -0.069269128 1.3114959 0
2.5510001 -0.073159941 1.311918 0
2.5510001 -0.077039927 1.311918 0
2.5520003 -0.080936164 1.3123401 0
2.5520003 -0.084817961 1.3123401 0
2.5530002 -0.088719591 1.3127623 0
2.5530002 -0.092603192 1.3127623 0
2.5540001 -0.096510239 1.3131843 0
2.5540001 -0.10039563 1.3131843 0
2.5550003 -0.10430811 1.3136064 0
2.5550003 -0.10819531 1.3136064 0
2.5560002 -0.11211318 1.3140285 0
2.5560002 -0.11600219 1.3140285 0
2.5570002 -0.11992547 1.3144505 0
2.5570002 -0.12381628 1.3144505 0
2.5570002 -0.12770709 1.3144505 0
2.5580001 -0.13163759 1.3148726 0
2.5580001 -0.13553022 1.3148726 0
2.5590003 -0.13946612 1.3152947 0
2.5590003 -0.14336056 1.3152947 0
2.5600002 -0.14730187 1.3157169 0
2.5600002 -0.1511981 1.3157169 0
2.5610001 -0.15514483 1.3161389 0
2.5610001 -0.15904285 1.3161389 0
2.5620003 -0.16299501 1.3165611 0
2.5620003 -0.16689484 1.3165611 0
2.5630002 -0.17085239 1.3169831 0
2.5630002 -0.17475404 1.3169831 0
2.5640001 -0.178717 1.3174052 0
2.5640001 -0.18262044 1.3174052 0
2.5650003 -0.18658882 1.3178273 0
2.5650003 -0.19049408 1.3178273 0
2.5660002 -0.19446786 1.3182493 0
2.5660002 -0.19837491 1.3182493 0
2.5670002 -0.20235409 1.3186715 0
2.5670002 -0.20626295 1.3186715 0
2.5670002 -0.2101718 1.3186715 0
2.5680003 -0.21415822 1.3190936 0
2.5680003 -0.2180689 1.3190936 0
2.5690002 -0.22206071 1.3195157 0
2.5690002 -0.22597317 1.3195157 0
2.5700002 -0.22997041 1.3199378 0
2.5700002 -0.23388466 1.3199378 0
2.5710001 -0.23788731 1.3203598 0
2.5710001 -0.24180338 1.3203598 0
2.5720003 -0.24581146 1.3207819 0
2.5720003 -0.24972932 1.3207819 0
2.5730002 -0.25374278 1.3212041 0
2.5730002 -0.25766245 1.3212041 0
2.5740001 -0.26168135 1.3216261 0
2.5740001 -0.26560283 1.3216261 0
2.5750003 -0.26962712 1.3220483 0
2.5750003 -0.27355042 1.3220483 0
2.5760002 -0.27758011 1.3224703 0
2.5760002 -0.2815052 1.3224703 0
2.5770001 -0.28554031 1.3228923 0
2.5770001 -0.28946719 1.3228923 0
2.5780003 -0.29350775 1.3233145 0
2.5780003 -0.29743645 1.3233145 0
2.5790002 -0.30148238 1.3237367 0
2.5790002 -0.30541289 1.3237367 0
2.5800002 -0.30946422 1.3241587 0
2.5800002 -0.31339654 1.3241587 0
2.5800002 -0.31732881 1.3241587 0
2.5810001 -0.32138738 1.3245807 0
2.5810001 -0.3253215 1.3245807 0
2.5820003 -0.32938549 1.3250029 0
2.5820003 -0.33332142 1.3250029 0
2.5830002 -0.33739078 1.3254249 0
2.5830002 -0.3413285 1.3254249 0
2.5840001 -0.34540331 1.325847 0
2.5840001 -0.34934282 1.325847 0
2.5850003 -0.35342303 1.3262691 0
2.5850003 -0.35736439 1.3262691 0
2.5860002 -0.36144999 1.3266912 0
2.5860002 -0.3653931 1.3266912 0
2.5870001 -0.36948413 1.3271133 0
2.5870001 -0.37342906 1.3271133 0
2.5880003 -0.37752554 1.3275354 0
2.5880003 -0.38147226 1.3275354 0
2.5890002 -0.38557413 1.3279575 0
2.5890002 -0.38952264 1.3279575 0
2.5900002 -0.39362991 1.3283796 0
2.5900002 -0.39758027 1.3283796 0
2.5910003 -0.40169296 1.3288016 0
2.5910003 -0.40564513 1.3288016 0
2.5920002 -0.40976319 1.3292238 0
2.5920002 -0.41371715 1.3292238 0
2.5930002 -0.41784066 1.3296459 0
2.5930002 -0.42179638 1.3296459 0
2.5940001 -0.42592528 1.3300679 0
2.5940001 -0.42988282 1.3300679 0
2.5950003 -0.43401721 1.3304901 0
2.5950003 -0.43797657 1.3304901 0
2.5960002 -0.44211629 1.3309121 0
2.5960002 -0.44607744 1.3309121 0
2.5970001 -0.45022261 1.3313342 0
2.5970001 -0.45418555 1.3313342 0
2.5980003 -0.45833617 1.3317564 0
2.5980003 -0.46230093 1.3317564 0
2.5990002 -0.46645689 1.3321785 0
2.5990002 -0.47042346 1.3321785 0
2.6000001 -0.47458482 1.3326005 0
2.6000001 -0.47855321 1.3326005 0
2.6010003 -0.48272002 1.3330226 0
2.6010003 -0.48669022 1.3330226 0
2.6020002 -0.49086243 1.3334446 0
2.6020002 -0.49483439 1.3334446 0
2.6030002 -0.49901202 1.3338667 0
2.6030002 -0.50298578 1.3338667 0
2.6040001 -0.50716877 1.3342888 0
2.6040001 -0.5111444 1.3342888 0
2.6050003 -0.51533288 1.334711 0
2.6050003 -0.51931024 1.334711 0
2.6050003 -0.52328765 1.334711 0
2.6060002 -0.52748334 1.3351331 0
2.6060002 -0.53146249 1.3351331 0
2.6070001 -0.53566355 1.3355551 0
2.6070001 -0.53964454 1.3355551 0
2.6080003 -0.54385108 1.3359773 0
2.6080003 -0.54783386 1.3359773 0
2.6090002 -0.55204576 1.3363993 0
2.6090002 -0.55603039 1.3363993 0
2.6100001 -0.56024766 1.3368214 0
2.6100001 -0.56423414 1.3368214 0
2.6110003 -0.56845683 1.3372434 0
2.6110003 -0.57244503 1.3372434 0
2.6120002 -0.57667315 1.3376656 0
2.6120002 -0.5806632 1.3376656 0
2.6130002 -0.58489674 1.3380877 0
2.6130002 -0.58888859 1.3380877 0
2.6140001 -0.59312749 1.3385097 0
2.6140001 -0.59712112 1.3385097 0
2.6150002 -0.60136551 1.3389319 0
2.6150002 -0.60536098 1.3389319 0
2.6160002 -0.60961074 1.3393539 0
2.6160002 -0.61360794 1.3393539 0
2.6170001 -0.61786312 1.339776 0
2.6170001 -0.62186211 1.339776 0
2.6180003 -0.62612277 1.3401982 0
2.6180003 -0.63012367 1.3401982 0
2.6190002 -0.63438964 1.3406203 0
2.6190002 -0.63839227 1.3406203 0
2.6200001 -0.64266366 1.3410423 0
2.6200001 -0.64666814 1.3410423 0
2.6210003 -0.65094501 1.3414644 0
2.6210003 -0.65495127 1.3414644 0
2.6220002 -0.65923345 1.3418864 0
2.6220002 -0.66324157 1.3418864 0
2.6230001 -0.66752917 1.3423085 0
2.6230001 -0.67153901 1.3423085 0
2.6240003 -0.67583215 1.3427308 0
2.6240003 -0.67984378 1.3427308 0
2.6250002 -0.68414229 1.3431528 0
2.6260002 -0.68844432 1.3435749 0
2.6260002 -0.69245964 1.3435749 0
2.6270001 -0.69676703 1.3439969 0
2.6270001 -0.70078421 1.3439969 0
2.6280003 -0.70509714 1.3444191 0
2.6280003 -0.70911598 1.3444191 0
2.6290002 -0.71343428 1.3448411 0
2.6290002 -0.71745497 1.3448411 0
2.6300001 -0.72177869 1.3452632 0
2.6300001 -0.72580117 1.3452632 0
2.6310003 -0.73013037 1.3456852 0
2.6310003 -0.7341547 1.3456852 0
2.6320002 -0.73848921 1.3461074 0
2.6320002 -0.74251533 1.3461074 0
2.6330001 -0.7468552 1.3465295 0
2.6330001 -0.7508831 1.3465295 0
2.6340003 -0.75522852 1.3469516 0
2.6340003 -0.75925827 1.3469516 0
2.6350002 -0.76360905 1.3473737 0
2.6350002 -0.76764059 1.3473737 0
2.6360002 -0.77199674 1.3477957 0
2.6360002 -0.77603 1.3477957 0
2.6370001 -0.78039163 1.3482178 0
2.6370001 -0.78442675 1.3482178 0
2.6380002 -0.7887938 1.34864 0
2.6380002 -0.79283077 1.34864 0
2.6390002 -0.79720312 1.3490621 0
2.6390002 -0.80124187 1.3490621 0
2.6400001 -0.80561966 1.3494841 0
2.6400001 -0.80966026 1.3494841 0
2.6410003 -0.81404352 1.3499062 0
2.6410003 -0.81808585 1.3499062 0
2.6420002 -0.82247454 1.3503283 0
2.6420002 -0.82651865 1.3503283 0
2.6430001 -0.83091271 1.3507503 0
2.6430001 -0.83495867 1.3507503 0
2.6440003 -0.83935821 1.3511726 0
2.6440003 -0.8434059 1.3511726 0
2.6450002 -0.8478108 1.3515946 0
2.6450002 -0.8518604 1.3515946 0
2.6460001 -0.85627067 1.3520167 0
2.6460001 -0.860322 1.3520167 0
2.6470003 -0.86473775 1.3524388 0
2.6470003 -0.86879092 1.3524388 0
2.6480002 -0.87321204 1.3528609 0
2.6480002 -0.877267 1.3528609 0
2.6490002 -0.88169348 1.3532829 0
2.6490002 -0.88575029 1.3532829 0
2.6500001 -0.8901822 1.353705 0
2.6510003 -0.89461786 1.3541272 0
2.6510003 -0.89867818 1.3541272 0
2.6520002 -0.90311921 1.3545492 0
2.6520002 -0.90718132 1.3545492 0
2.6530001 -0.91162771 1.3549713 0
2.6530001 -0.91569167 1.3549713 0
2.6540003 -0.92014354 1.3553934 0
2.6540003 -0.92420936 1.3553934 0
2.6550002 -0.92866653 1.3558155 0
2.6550002 -0.93273407 1.3558155 0
2.6560001 -0.93719667 1.3562375 0
2.6560001 -0.94126606 1.3562375 0
2.6570003 -0.9457342 1.3566598 0
2.6570003 -0.94980538 1.3566598 0
2.6580002 -0.95427877 1.3570818 0
2.6580002 -0.95835179 1.3570818 0
2.6590002 -0.96283066 1.3575039 0
2.6590002 -0.96690542 1.3575039 0
2.6600001 -0.97138971 1.357926 0
2.6600001 -0.97546619 1.357926 0
2.6610003 -0.97995603 1.358348 0
2.6610003 -0.98403442 1.358348 0
2.6620002 -0.9885295 1.3587701 0
2.6620002 -0.99260968 1.3587701 0
2.6630001 -0.99711013 1.3591921 0
2.6630001 -1.0011921 1.3591921 0
2.6640003 -1.0056981 1.3596144 0
2.6650002 -1.0102077 1.3600364 0
2.6650002 -1.0142933 1.3600364 0
2.6660001 -1.0188081 1.3604585 0
2.6660001 -1.0228956 1.3604585 0
2.6670003 -1.0274161 1.3608806 0
2.6670003 -1.0315052 1.3608806 0
2.6680002 -1.0360309 1.3613027 0
2.6680002 -1.040122 1.3613027 0
2.6690001 -1.0446531 1.3617247 0
2.6690001 -1.048746 1.3617247 0
2.6700003 -1.0532826 1.362147 0
2.6700003 -1.0573773 1.362147 0
2.6710002 -1.0619192 1.362569 0
2.6710002 -1.0660157 1.362569 0
2.6720002 -1.0705631 1.362991 0
2.6720002 -1.0746614 1.362991 0
2.6730001 -1.0792141 1.3634131 0
2.6730001 -1.0833142 1.3634131 0
2.6740003 -1.0878725 1.3638352 0
2.6750002 -1.0924342 1.3642573 0
2.6750002 -1.0965379 1.3642573 0
2.6760001 -1.1011051 1.3646793 0
2.6760001 -1.1052105 1.3646793 0
2.6770003 -1.1097833 1.3651016 0
2.6770003 -1.1138905 1.3651016 0
2.6780002 -1.1184686 1.3655236 0
2.6780002 -1.1225778 1.3655236 0
2.6790001 -1.1271611 1.3659457 0
2.6790001 -1.131272 1.3659457 0
2.6800003 -1.135861 1.3663678 0
2.6800003 -1.1399736 1.3663678 0
2.6810002 -1.144568 1.3667899 0
2.6810002 -1.1486825 1.3667899 0
2.6820002 -1.1532822 1.3672119 0
2.6820002 -1.1573983 1.3672119 0
2.6830001 -1.1620035 1.3676339 0
2.6840003 -1.1666123 1.3680562 0
2.6840003 -1.1707321 1.3680562 0
2.6850002 -1.1753463 1.3684782 0
2.6850002 -1.1794679 1.3684782 0
2.6860001 -1.1840874 1.3689003 0
2.6860001 -1.188211 1.3689003 0
2.6870003 -1.192836 1.3693224 0
2.6870003 -1.1969614 1.3693224 0
2.6880002 -1.2015917 1.3697445 0
2.6880002 -1.2057189 1.3697445 0
2.6890001 -1.2103546 1.3701667 0
2.6890001 -1.2144835 1.3701667 0
2.6900003 -1.2191248 1.3705888 0
2.6900003 -1.2232555 1.3705888 0
2.6910002 -1.2279021 1.3710108 0
2.6920002 -1.2325523 1.3714328 0
2.6920002 -1.2366866 1.3714328 0
2.6930003 -1.2413423 1.371855 0
2.6930003 -1.2454785 1.371855 0
2.6940002 -1.2501394 1.372277 0
2.6940002 -1.2542773 1.372277 0
2.6950002 -1.2589437 1.3726991 0
2.6950002 -1.2630836 1.3726991 0
2.6960001 -1.2677554 1.3731211 0
2.6960001 -1.271897 1.3731211 0
2.6970003 -1.2765743 1.3735434 0
2.6970003 -1.2807176 1.3735434 0
2.6980002 -1.2854003 1.3739654 0
2.6980002 -1.2895454 1.3739654 0
2.6990001 -1.2942334 1.3743875 0
2.7000003 -1.2989252 1.3748097 0
2.7000003 -1.303074 1.3748097 0
2.7010002 -1.3077711 1.3752317 0
2.7010002 -1.3119217 1.3752317 0
2.7020001 -1.316624 1.3756537 0
2.7020001 -1.3207765 1.3756537 0
2.7030003 -1.3254845 1.3760759 0
2.7030003 -1.3296387 1.3760759 0
2.7040002 -1.334352 1.376498 0
2.7040002 -1.338508 1.376498 0
2.7050002 -1.3432268 1.37692 0
2.7060001 -1.347949 1.3773421 0
2.7060001 -1.3521086 1.3773421 0
2.7070003 -1.3568366 1.3777642 0
2.5500002 -0.065390937 1.3076178 0
2.5510001 -0.073159941 1.308038 0
2.5510001 -0.077039927 1.308038 0
2.5520003 -0.080936164 1.3084583 0
2.5520003 -0.084817961 1.3084583 0
2.5530002 -0.088719591 1.3088785 0
2.5530002 -0.092603192 1.3088785 0
2.5540001 -0.096510239 1.3092989 0
2.5540001 -0.10039563 1.3092989 0
2.5550003 -0.10430811 1.3097192 0
2.5550003 -0.10819531 1.3097192 0
2.5560002 -0.11211318 1.3101394 0
2.5560002 -0.11600219 1.3101394 0
2.5570002 -0.11992547 1.3105597 0
2.5570002 -0.12381628 1.3105597 0
2.5570002 -0.12770709 1.3105597 0
2.5580001 -0.13163759 1.31098 0
2.5580001 -0.13553022 1.31098 0
2.5590003 -0.13946612 1.3114003 0
2.5590003 -0.14336056 1.3114003 0
2.5600002 -0.14730187 1.3118206 0
2.5600002 -0.1511981 1.3118206 0
2.5610001 -0.15514483 1.3122408 0
2.5610001 -0.15904285 1.3122408 0
2.5620003 -0.16299501 1.3126612 0
2.5620003 -0.16689484 1.3126612 0
2.5630002 -0.17085239 1.3130815 0
2.5630002 -0.17475404 1.3130815 0
2.5640001 -0.178717 1.3135017 0
2.5640001 -0.18262044 1.3135017 0
2.5650003 -0.18658882 1.313922 0
2.5650003 -0.19049408 1.313922 0
2.5660002 -0.19446786 1.3143424 0
2.5660002 -0.19837491 1.3143424 0
2.5670002 -0.20235409 1.3147626 0
2.5670002 -0.20626295 1.3147626 0
2.5670002 -0.2101718 1.3147626 0
2.5680003 -0.21415822 1.3151829 0
2.5680003 -0.2180689 1.3151829 0
2.5690002 -0.22206071 1.3156033 0
2.5690002 -0.22597317 1.3156033 0
2.5700002 -0.22997041 1.3160235 0
2.5700002 -0.23388466 1.3160235 0
2.5710001 -0.23788731 1.3164437 0
2.5710001 -0.24180338 1.3164437 0
2.5720003 -0.24581146 1.3168641 0
2.5720003 -0.24972932 1.3168641 0
2.5730002 -0.25374278 1.3172843 0
2.5730002 -0.25766245 1.3172843 0
2.5740001 -0.26168135 1.3177046 0
2.5740001 -0.26560283 1.3177046 0
2.5750003 -0.26962712 1.318125 0
2.5750003 -0.27355042 1.318125 0
2.5760002 -0.27758011 1.3185452 0
2.5760002 -0.2815052 1.3185452 0
2.5770001 -0.28554031 1.3189654 0
2.5770001 -0.28946719 1.3189654 0
2.5780003 -0.29350775 1.3193859 0
2.5780003 -0.29743645 1.3193859 0
2.5790002 -0.30148238 1.3198061 0
2.5790002 -0.30541289 1.3198061 0
2.5800002 -0.30946422 1.3202263 0
2.5800002 -0.31339654 1.3202263 0
2.5800002 -0.31732881 1.3202263 0
2.5810001 -0.32138738 1.3206466 0
2.5810001 -0.3253215 1.3206466 0
2.5820003 -0.32938549 1.321067 0
2.5820003 -0.33332142 1.321067 0
2.5830002 -0.33739078 1.3214872 0
2.5830002 -0.3413285 1.3214872 0
2.5840001 -0.34540331 1.3219075 0
2.5840001 -0.34934282 1.3219075 0
2.5850003 -0.35342303 1.3223279 0
2.5850003 -0.35736439 1.3223279 0
2.5860002 -0.36144999 1.3227481 0
2.5860002 -0.3653931 1.3227481 0
2.5870001 -0.36948413 1.3231684 0
2.5870001 -0.37342906 1.3231684 0
2.5880003 -0.37752554 1.3235887 0
2.5880003 -0.38147226 1.3235887 0
2.5890002 -0.38557413 1.3240089 0
2.5890002 -0.38952264 1.3240089 0
2.5900002 -0.39362991 1.3244293 0
2.5900002 -0.39758027 1.3244293 0
2.5910003 -0.40169296 1.3248496 0
2.5910003 -0.40564513 1.3248496 0
2.5920002 -0.40976319 1.3252698 0
2.5920002 -0.41371715 1.3252698 0
2.5930002 -0.41784066 1.3256902 0
2.5930002 -0.42179638 1.3256902 0
2.5940001 -0.42592528 1.3261104 0
2.5940001 -0.42988282 1.3261104 0
2.5950003 -0.43401721 1.3265307 0
2.5950003 -0.43797657 1.3265307 0
2.5960002 -0.44211629 1.326951 0
2.5960002 -0.44607744 1.326951 0
2.5970001 -0.45022261 1.3273712 0
2.5970001 -0.45418555 1.3273712 0
2.5980003 -0.45833617 1.3277916 0
2.5980003 -0.46230093 1.3277916 0
2.5990002 -0.46645689 1.3282118 0
2.5990002 -0.47042346 1.3282118 0
2.6000001 -0.47458482 1.3286321 0
2.6000001 -0.47855321 1.3286321 0
2.6010003 -0.48272002 1.3290524 0
2.6010003 -0.48669022 1.3290524 0
2.6020002 -0.49086243 1.3294727 0
2.6020002 -0.49483439 1.3294727 0
2.6030002 -0.49901202 1.329893 0
2.6030002 -0.50298578 1.329893 0
2.6040001 -0.50716877 1.3303132 0
2.6040001 -0.5111444 1.3303132 0
2.6050003 -0.51533288 1.3307335 0
2.6050003 -0.51931024 1.3307335 0
2.6050003 -0.52328765 1.3307335 0
2.6060002 -0.52748334 1.3311539 0
2.6060002 -0.53146249 1.3311539 0
2.6070001 -0.53566355 1.3315741 0
2.6070001 -0.53964454 1.3315741 0
2.6080003 -0.54385108 1.3319944 0
2.6080003 -0.54783386 1.3319944 0
2.6090002 -0.55204576 1.3324147 0
2.6090002 -0.55603039 1.3324147 0
2.6100001 -0.56024766 1.332835 0
2.6100001 -0.56423414 1.332835 0
2.6110003 -0.56845683 1.3332553 0
2.6110003 -0.57244503 1.3332553 0
2.6120002 -0.57667315 1.3336756 0
2.6120002 -0.5806632 1.3336756 0
2.6130002 -0.58489674 1.3340958 0
2.6130002 -0.58888859 1.3340958 0
2.6140001 -0.59312749 1.334516 0
2.6140001 -0.59712112 1.334516 0
2.6150002 -0.60136551 1.3349364 0
2.6150002 -0.60536098 1.3349364 0
2.6160002 -0.60961074 1.3353567 0
2.6160002 -0.61360794 1.3353567 0
2.6170001 -0.61786312 1.3357769 0
2.6170001 -0.62186211 1.3357769 0
2.6180003 -0.62612277 1.3361974 0
2.6180003 -0.63012367 1.3361974 0
2.6190002 -0.63438964 1.3366176 0
2.6190002 -0.63839227 1.3366176 0
2.6200001 -0.64266366 1.3370378 0
2.6200001 -0.64666814 1.3370378 0
2.6210003 -0.65094501 1.3374581 0
2.6210003 -0.65495127 1.3374581 0
2.6220002 -0.65923345 1.3378785 0
2.6220002 -0.66324157 1.3378785 0
2.6230001 -0.66752917 1.3382987 0
2.6230001 -0.67153901 1.3382987 0
2.6240003 -0.67583215 1.3387191 0
2.6240003 -0.67984378 1.3387191 0
2.6250002 -0.68414229 1.3391393 0
2.6260002 -0.68844432 1.3395596 0
2.6260002 -0.69245964 1.3395596 0
2.6270001 -0.69676703 1.3399798 0
2.6270001 -0.70078421 1.3399798 0
2.6280003 -0.70509714 1.3404001 0
2.6280003 -0.70911598 1.3404001 0
2.6290002 -0.71343428 1.3408204 0
2.6290002 -0.71745497 1.3408204 0
2.6300001 -0.72177869 1.3412408 0
2.6300001 -0.72580117 1.3412408 0
2.6310003 -0.73013037 1.3416611 0
2.6310003 -0.7341547 1.3416611 0
2.6320002 -0.73848921 1.3420813 0
2.6320002 -0.74251533 1.3420813 0
2.6330001 -0.7468552 1.3425015 0
2.6330001 -0.7508831 1.3425015 0
2.6340003 -0.75522852 1.3429219 0
2.6340003 -0.75925827 1.3429219 0
2.6350002 -0.76360905 1.3433422 0
2.6350002 -0.76764059 1.3433422 0
2.6360002 -0.77199674 1.3437625 0
2.6360002 -0.77603 1.3437625 0
2.6370001 -0.78039163 1.3441827 0
2.6370001 -0.78442675 1.3441827 0
2.6380002 -0.7887938 1.3446031 0
2.6380002 -0.79283077 1.3446031 0
2.6390002 -0.79720312 1.3450233 0
2.6390002 -0.80124187 1.3450233 0
2.6400001 -0.80561966 1.3454435 0
2.6400001 -0.80966026 1.3454435 0
2.6410003 -0.81404352 1.3458638 0
2.6410003 -0.81808585 1.3458638 0
2.6420002 -0.82247454 1.3462843 0
2.6420002 -0.82651865 1.3462843 0
2.6430001 -0.83091271 1.3467045 0
2.6430001 -0.83495867 1.3467045 0
2.6440003 -0.83935821 1.3471248 0
2.6440003 -0.8434059 1.3471248 0
2.6450002 -0.8478108 1.347545 0
2.6450002 -0.8518604 1.347545 0
2.6460001 -0.85627067 1.3479652 0
2.6460001 -0.860322 1.3479652 0
2.6470003 -0.86473775 1.3483856 0
2.6470003 -0.86879092 1.3483856 0
2.6480002 -0.87321204 1.348806 0
2.6480002 -0.877267 1.348806 0
2.6490002 -0.88169348 1.3492262 0
2.6490002 -0.88575029 1.3492262 0
2.6500001 -0.8901822 1.3496464 0
2.6510003 -0.89461786 1.3500668 0
2.6510003 -0.89867818 1.3500668 0
2.6520002 -0.90311921 1.350487 0
2.6520002 -0.90718132 1.350487 0
2.6530001 -0.91162771 1.3509072 0
2.6530001 -0.91569167 1.3509072 0
2.6540003 -0.92014354 1.3513277 0
2.6540003 -0.92420936 1.3513277 0
2.6550002 -0.92866653 1.351748 0
2.6550002 -0.93273407 1.351748 0
2.6560001 -0.93719667 1.3521682 0
2.6560001 -0.94126606 1.3521682 0
2.6570003 -0.9457342 1.3525885 0
2.6570003 -0.94980538 1.3525885 0
2.6580002 -0.95427877 1.3530087 0
2.6580002 -0.95835179 1.3530087 0
2.6590002 -0.96283066 1.353429 0
2.6590002 -0.96690542 1.353429 0
2.6600001 -0.97138971 1.3538493 0
2.6600001 -0.97546619 1.3538493 0
2.6610003 -0.97995603 1.3542697 0
2.6610003 -0.98403442 1.3542697 0
2.6620002 -0.9885295 1.35469 0
2.6620002 -0.99260968 1.35469 0
2.6630001 -0.99711013 1.3551102 0
2.6630001 -1.0011921 1.3551102 0
2.6640003 -1.0056981 1.3555305 0
2.6650002 -1.0102077 1.3559507 0
2.6650002 -1.0142933 1.3559507 0
2.6660001 -1.0188081 1.356371 0
2.6660001 -1.0228956 1.356371 0
2.6670003 -1.0274161 1.3567914 0
2.6670003 -1.0315052 1.3567914 0
2.6680002 -1.0360309 1.3572117 0
2.6680002 -1.040122 1.3572117 0
2.6690001 -1.0446531 1.3576319 0
2.6690001 -1.048746 1.3576319 0
2.6700003 -1.0532826 1.3580523 0
2.6700003 -1.0573773 1.3580523 0
2.6710002 -1.0619192 1.3584725 0
2.6710002 -1.0660157 1.3584725 0
2.6720002 -1.0705631 1.3588928 0
2.6720002 -1.0746614 1.3588928 0
2.6730001 -1.0792141 1.359313 0
2.6730001 -1.0833142 1.359313 0
2.6740003 -1.0878725 1.3597335 0
2.6750002 -1.0924342 1.3601537 0
2.6750002 -1.0965379 1.3601537 0
2.6760001 -1.1011051 1.3605739 0
2.6760001 -1.1052105 1.3605739 0
2.6770003 -1.1097833 1.3609942 0
2.6770003 -1.1138905 1.3609942 0
2.6780002 -1.1184686 1.3614146 0
2.6780002 -1.1225778 1.3614146 0
2.6790001 -1.1271611 1.3618348 0
2.6790001 -1.131272 1.3618348 0
2.6800003 -1.135861 1.3622551 0
2.6800003 -1.1399736 1.3622551 0
2.6810002 -1.144568 1.3626754 0
2.6810002 -1.1486825 1.3626754 0
2.6820002 -1.1532822 1.3630956 0
2.6820002 -1.1573983 1.3630956 0
2.6830001 -1.1620035 1.363516 0
2.6840003 -1.1666123 1.3639363 0
2.6840003 -1.1707321 1.3639363 0
2.6850002 -1.1753463 1.3643565 0
2.6850002 -1.1794679 1.3643565 0
2.6860001 -1.1840874 1.3647767 0
2.6860001 -1.188211 1.3647767 0
2.6870003 -1.192836 1.3651972 0
2.6870003 -1.1969614 1.3651972 0
2.6880002 -1.2015917 1.3656174 0
2.6880002 -1.2057189 1.3656174 0
2.6890001 -1.2103546 1.3660377 0
2.6890001 -1.2144835 1.3660377 0
2.6900003 -1.2191248 1.3664581 0
2.6900003 -1.2232555 1.3664581 0
2.6910002 -1.2279021 1.3668783 0
2.6920002 -1.2325523 1.3672985 0
2.6920002 -1.2366866 1.3672985 0
2.6930003 -1.2413423 1.3677188 0
2.6930003 -1.2454785 1.3677188 0
2.6940002 -1.2501394 1.3681391 0
2.6940002 -1.2542773 1.3681391 0
2.6950002 -1.2589437 1.3685595 0
2.6950002 -1.2630836 1.3685595 0
2.6960001 -1.2677554 1.3689797 0
2.6960001 -1.271897 1.3689797 0
2.6970003 -1.2765743 1.3694 0
2.6970003 -1.2807176 1.3694 0
2.6980002 -1.2854003 1.3698202 0
2.6980002 -1.2895454 1.3698202 0
2.6990001 -1.2942334 1.3702404 0
2.7000003 -1.2989252 1.3706609 0
2.7000003 -1.303074 1.3706609 0
2.7010002 -1.3077711 1.3710812 0
2.7010002 -1.3119217 1.3710812 0
2.7020001 -1.316624 1.3715014 0
2.7020001 -1.3207765 1.3715014 0
2.7030003 -1.3254845 1.3719218 0
2.7030003 -1.3296387 1.3719218 0
2.7040002 -1.334352 1.372342 0
2.7040002 -1.338508 1.372342 0
2.7050002 -1.3432268 1.3727622 0
2.7060001 -1.347949 1.3731825 0
2.7060001 -1.3521086 1.3731825 0
2.7070003 -1.3568366 1.373603 0
2.5600002 -0.14730187 1.3079244 0
2.5610001 -0.15514483 1.3083428 0
2.5610001 -0.15904285 1.3083428 0
2.5620003 -0.16299501 1.3087614 0
2.5620003 -0.16689484 1.3087614 0
2.5630002 -0.17085239 1.3091799 0
2.5630002 -0.17475404 1.3091799 0
2.5640001 -0.178717 1.3095983 0
2.5640001 -0.18262044 1.3095983 0
2.5650003 -0.18658882 1.3100169 0
2.5650003 -0.19049408 1.3100169 0
2.5660002 -0.19446786 1.3104353 0
2.5660002 -0.19837491 1.3104353 0
2.5670002 -0.20235409 1.3108537 0
2.5670002 -0.20626295 1.3108537 0
2.5670002 -0.2101718 1.3108537 0
2.5680003 -0.21415822 1.3112723 0
2.5680003 -0.2180689 1.3112723 0
2.5690002 -0.22206071 1.3116908 0
2.5690002 -0.22597317 1.3116908 0
2.5700002 -0.22997041 1.3121092 0
2.5700002 -0.23388466 1.3121092 0
2.5710001 -0.23788731 1.3125277 0
2.5710001 -0.24180338 1.3125277 0
2.5720003 -0.24581146 1.3129462 0
2.5720003 -0.24972932 1.3129462 0
2.5730002 -0.25374278 1.3133646 0
2.5730002 -0.25766245 1.3133646 0
2.5740001 -0.26168135 1.3137832 0
2.5740001 -0.26560283 1.3137832 0
2.5750003 -0.26962712 1.3142017 0
2.5750003 -0.27355042 1.3142017 0
2.5760002 -0.27758011 1.3146201 0
2.5760002 -0.2815052 1.3146201 0
2.5770001 -0.28554031 1.3150386 0
2.5770001 -0.28946719 1.3150386 0
2.5780003 -0.29350775 1.3154571 0
2.5780003 -0.29743645 1.3154571 0
2.5790002 -0.30148238 1.3158756 0
2.5790002 -0.30541289 1.3158756 0
2.5800002 -0.30946422 1.3162941 0
2.5800002 -0.31339654 1.3162941 0
2.5800002 -0.31732881 1.3162941 0
2.5810001 -0.32138738 1.3167125 0
2.5810001 -0.3253215 1.3167125 0
2.5820003 -0.32938549 1.317131 0
2.5820003 -0.33332142 1.317131 0
2.5830002 -0.33739078 1.3175495 0
2.5830002 -0.3413285 1.3175495 0
2.5840001 -0.34540331 1.3179679 0
2.5840001 -0.34934282 1.3179679 0
2.5850003 -0.35342303 1.3183866 0
2.5850003 -0.35736439 1.3183866 0
2.5860002 -0.36144999 1.318805 0
2.5860002 -0.3653931 1.318805 0
2.5870001 -0.36948413 1.3192234 0
2.5870001 -0.37342906 1.3192234 0
2.5880003 -0.37752554 1.3196419 0
2.5880003 -0.38147226 1.3196419 0
2.5890002 -0.38557413 1.3200604 0
2.5890002 -0.38952264 1.3200604 0
2.5900002 -0.39362991 1.3204789 0
2.5900002 -0.39758027 1.3204789 0
2.5910003 -0.40169296 1.3208975 0
2.5910003 -0.40564513 1.3208975 0
2.5920002 -0.40976319 1.3213159 0
2.5920002 -0.41371715 1.3213159 0
2.5930002 -0.41784066 1.3217343 0
2.5930002 -0.42179638 1.3217343 0
2.5940001 -0.42592528 1.3221527 0
2.5940001 -0.42988282 1.3221527 0
2.5950003 -0.43401721 1.3225714 0
2.5950003 -0.43797657 1.3225714 0
2.5960002 -0.44211629 1.3229898 0
2.5960002 -0.44607744 1.3229898 0
2.5970001 -0.45022261 1.3234082 0
2.5970001 -0.45418555 1.3234082 0
2.5980003 -0.45833617 1.3238268 0
2.5980003 -0.46230093 1.3238268 0
2.5990002 -0.46645689 1.3242452 0
2.5990002 -0.47042346 1.3242452 0
2.6000001 -0.47458482 1.3246638 0
2.6000001 -0.47855321 1.3246638 0
2.6010003 -0.48272002 1.3250823 0
2.6010003 -0.48669022 1.3250823 0
2.6020002 -0.49086243 1.3255007 0
2.6020002 -0.49483439 1.3255007 0
2.6030002 -0.49901202 1.3259192 0
2.6030002 -0.50298578 1.3259192 0
2.6040001 -0.50716877 1.3263376 0
2.6040001 -0.5111444 1.3263376 0
2.6050003 -0.51533288 1.3267561 0
2.6050003 -0.51931024 1.3267561 0
2.6050003 -0.52328765 1.3267561 0
2.6060002 -0.52748334 1.3271747 0
2.6060002 -0.53146249 1.3271747 0
2.6070001 -0.53566355 1.3275931 0
2.6070001 -0.53964454 1.3275931 0
2.6080003 -0.54385108 1.3280116 0
2.6080003 -0.54783386 1.3280116 0
2.6090002 -0.55204576 1.3284301 0
2.6090002 -0.55603039 1.3284301 0
2.6100001 -0.56024766 1.3288486 0
2.6100001 -0.56423414 1.3288486 0
2.6110003 -0.56845683 1.329267 0
2.6110003 -0.57244503 1.329267 0
2.6120002 -0.57667315 1.3296856 0
2.6120002 -0.5806632 1.3296856 0
2.6130002 -0.58489674 1.330104 0
2.6130002 -0.58888859 1.330104 0
2.6140001 -0.59312749 1.3305225 0
2.6140001 -0.59712112 1.3305225 0
2.6150002 -0.60136551 1.330941 0
2.6150002 -0.60536098 1.330941 0
2.6160002 -0.60961074 1.3313594 0
2.6160002 -0.61360794 1.3313594 0
2.6170001 -0.61786312 1.3317779 0
2.6170001 -0.62186211 1.3317779 0
2.6180003 -0.62612277 1.3321965 0
2.6180003 -0.63012367 1.3321965 0
2.6190002 -0.63438964 1.332615 0
2.6190002 -0.63839227 1.332615 0
2.6200001 -0.64266366 1.3330333 0
2.6200001 -0.64666814 1.3330333 0
2.6210003 -0.65094501 1.3334519 0
2.6210003 -0.65495127 1.3334519 0
2.6220002 -0.65923345 1.3338704 0
2.6220002 -0.66324157 1.3338704 0
2.6230001 -0.66752917 1.3342888 0
2.6230001 -0.67153901 1.3342888 0
2.6240003 -0.67583215 1.3347074 0
2.6240003 -0.67984378 1.3347074 0
2.6250002 -0.68414229 1.3351258 0
2.6260002 -0.68844432 1.3355442 0
2.6260002 -0.69245964 1.3355442 0
2.6270001 -0.69676703 1.3359628 0
2.6270001 -0.70078421 1.3359628 0
2.6280003 -0.70509714 1.3363813 0
2.6280003 -0.70911598 1.3363813 0
2.6290002 -0.71343428 1.3367999 0
2.6290002 -0.71745497 1.3367999 0
2.6300001 -0.72177869 1.3372182 0
2.6300001 -0.72580117 1.3372182 0
2.6310003 -0.73013037 1.3376367 0
2.6310003 -0.7341547 1.3376367 0
2.6320002 -0.73848921 1.3380553 0
2.6320002 -0.74251533 1.3380553 0
2.6330001 -0.7468552 1.3384737 0
2.6330001 -0.7508831 1.3384737 0
2.6340003 -0.75522852 1.3388922 0
2.6340003 -0.75925827 1.3388922 0
2.6350002 -0.76360905 1.3393106 0
2.6350002 -0.76764059 1.3393106 0
2.6360002 -0.77199674 1.3397291 0
2.6360002 -0.77603 1.3397291 0
2.6370001 -0.78039163 1.3401476 0
2.6370001 -0.78442675 1.3401476 0
2.6380002 -0.7887938 1.3405662 0
2.6380002 -0.79283077 1.3405662 0
2.6390002 -0.79720312 1.3409846 0
2.6390002 -0.80124187 1.3409846 0
2.6400001 -0.80561966 1.341403 0
2.6400001 -0.80966026 1.341403 0
2.6410003 -0.81404352 1.3418216 0
2.6410003 -0.81808585 1.3418216 0
2.6420002 -0.82247454 1.3422401 0
2.6420002 -0.82651865 1.3422401 0
2.6430001 -0.83091271 1.3426584 0
2.6430001 -0.83495867 1.3426584 0
2.6440003 -0.83935821 1.3430771 0
2.6440003 -0.8434059 1.3430771 0
2.6450002 -0.8478108 1.3434955 0
2.6450002 -0.8518604 1.3434955 0
2.6460001 -0.85627067 1.3439139 0
2.6460001 -0.860322 1.3439139 0
2.6470003 -0.86473775 1.3443326 0
2.6470003 -0.86879092 1.3443326 0
2.6480002 -0.87321204 1.3447509 0
2.6480002 -0.877267 1.3447509 0
2.6490002 -0.88169348 1.3451694 0
2.6490002 -0.88575029 1.3451694 0
2.6500001 -0.8901822 1.3455878 0
2.6510003 -0.89461786 1.3460064 0
2.6510003 -0.89867818 1.3460064 0
2.6520002 -0.90311921 1.3464249 0
2.6520002 -0.90718132 1.3464249 0
2.6530001 -0.91162771 1.3468432 0
2.6530001 -0.91569167 1.3468432 0
2.6540003 -0.92014354 1.3472619 0
2.6540003 -0.92420936 1.3472619 0
2.6550002 -0.92866653 1.3476803 0
2.6550002 -0.93273407 1.3476803 0
2.6560001 -0.93719667 1.3480989 0
2.6560001 -0.94126606 1.3480989 0
2.6570003 -0.9457342 1.3485173 0
2.6570003 -0.94980538 1.3485173 0
2.6580002 -0.95427877 1.3489357 0
2.6580002 -0.95835179 1.3489357 0
2.6590002 -0.96283066 1.3493543 0
2.6590002 -0.96690542 1.3493543 0
2.6600001 -0.97138971 1.3497727 0
2.6600001 -0.97546619 1.3497727 0
2.6610003 -0.97995603 1.3501914 0
2.6610003 -0.98403442 1.3501914 0
2.6620002 -0.9885295 1.3506097 0
2.6620002 -0.99260968 1.3506097 0
2.6630001 -0.99711013 1.3510281 0
2.6630001 -1.0011921 1.3510281 0
2.6640003 -1.0056981 1.3514467 0
2.6650002 -1.0102077 1.3518652 0
2.6650002 -1.0142933 1.3518652 0
2.6660001 -1.0188081 1.3522837 0
2.6660001 -1.0228956 1.3522837 0
2.6670003 -1.0274161 1.3527021 0
2.6670003 -1.0315052 1.3527021 0
2.6680002 -1.0360309 1.3531206 0
2.6680002 -1.040122 1.3531206 0
2.6690001 -1.0446531 1.3535391 0
2.6690001 -1.048746 1.3535391 0
2.6700003 -1.0532826 1.3539577 0
2.6700003 -1.0573773 1.3539577 0
2.6710002 -1.0619192 1.3543761 0
2.6710002 -1.0660157 1.3543761 0
2.6720002 -1.0705631 1.3547945 0
2.6720002 -1.0746614 1.3547945 0
2.6730001 -1.0792141 1.3552129 0
2.6730001 -1.0833142 1.3552129 0
2.6740003 -1.0878725 1.3556316 0
2.6750002 -1.0924342 1.35605 0
2.6750002 -1.0965379 1.35605 0
2.6760001 -1.1011051 1.3564684 0
2.6760001 -1.1052105 1.3564684 0
2.6770003 -1.1097833 1.356887 0
2.6770003 -1.1138905 1.356887 0
2.6780002 -1.1184686 1.3573054 0
2.6780002 -1.1225778 1.3573054 0
2.6790001 -1.1271611 1.357724 0
2.6790001 -1.131272 1.357724 0
2.6800003 -1.135861 1.3581424 0
2.6800003 -1.1399736 1.3581424 0
2.6810002 -1.144568 1.3585609 0
2.6810002 -1.1486825 1.3585609 0
2.6820002 -1.1532822 1.3589793 0
2.6820002 -1.1573983 1.3589793 0
2.6830001 -1.1620035 1.3593979 0
2.6840003 -1.1666123 1.3598164 0
2.6840003 -1.1707321 1.3598164 0
2.6850002 -1.1753463 1.3602347 0
2.6850002 -1.1794679 1.3602347 0
2.6860001 -1.1840874 1.3606533 0
2.6860001 -1.188211 1.3606533 0
2.6870003 -1.192836 1.3610718 0
2.6870003 -1.1969614 1.3610718 0
2.6880002 -1.2015917 1.3614904 0
2.6880002 -1.2057189 1.3614904 0
2.6890001 -1.2103546 1.3619088 0
2.6890001 -1.2144835 1.3619088 0
2.6900003 -1.2191248 1.3623272 0
2.6900003 -1.2232555 1.3623272 0
2.6910002 -1.2279021 1.3627458 0
2.6920002 -1.2325523 1.3631642 0
2.6920002 -1.2366866 1.3631642 0
2.6930003 -1.2413423 1.3635828 0
2.6930003 -1.2454785 1.3635828 0
2.6940002 -1.2501394 1.3640012 0
2.6940002 -1.2542773 1.3640012 0
2.6950002 -1.2589437 1.3644196 0
2.6950002 -1.2630836 1.3644196 0
2.6960001 -1.2677554 1.3648381 0
2.6960001 -1.271897 1.3648381 0
2.6970003 -1.2765743 1.3652567 0
2.6970003 -1.2807176 1.3652567 0
2.6980002 -1.2854003 1.3656752 0
2.6980002 -1.2895454 1.3656752 0
2.6990001 -1.2942334 1.3660935 0
2.7000003 -1.2989252 1.3665121 0
2.7000003 -1.303074 1.3665121 0
2.7010002 -1.3077711 1.3669306 0
2.7010002 -1.3119217 1.3669306 0
2.7020001 -1.316624 1.367349 0
2.7020001 -1.3207765 1.367349 0
2.7030003 -1.3254845 1.3677676 0
2.7030003 -1.3296387 1.3677676 0
2.7040002 -1.334352 1.368186 0
2.7040002 -1.338508 1.368186 0
2.7050002 -1.3432268 1.3686044 0
2.7060001 -1.347949 1.369023 0
2.7060001 -1.3521086 1.369023 0
2.7070003 -1.3568366 1.3694415 0
2.5700002 -0.22997041 1.308195 0
2.5710001 -0.23788731 1.3086116 0
2.5710001 -0.24180338 1.3086116 0
2.5720003 -0.24581146 1.3090284 0
2.5720003 -0.24972932 1.3090284 0
2.5730002 -0.25374278 1.309445 0
2.5730002 -0.25766245 1.309445 0
2.5740001 -0.26168135 1.3098617 0
2.5740001 -0.26560283 1.3098617 0
2.5750003 -0.26962712 1.3102784 0
2.5750003 -0.27355042 1.3102784 0
2.5760002 -0.27758011 1.3106951 0
2.5760002 -0.2815052 1.3106951 0
2.5770001 -0.28554031 1.3111117 0
2.5770001 -0.28946719 1.3111117 0
2.5780003 -0.29350775 1.3115284 0
2.5780003 -0.29743645 1.3115284 0
2.5790002 -0.30148238 1.3119451 0
2.5790002 -0.30541289 1.3119451 0
2.5800002 -0.30946422 1.3123617 0
2.5800002 -0.31339654 1.3123617 0
2.5800002 -0.31732881 1.3123617 0
2.5810001 -0.32138738 1.3127784 0
2.5810001 -0.3253215 1.3127784 0
2.5820003 -0.32938549 1.3131951 0
2.5820003 -0.33332142 1.3131951 0
2.5830002 -0.33739078 1.3136117 0
2.5830002 -0.3413285 1.3136117 0
2.5840001 -0.34540331 1.3140284 0
2.5840001 -0.34934282 1.3140284 0
2.5850003 -0.35342303 1.3144453 0
2.5850003 -0.35736439 1.3144453 0
2.5860002 -0.36144999 1.3148619 0
2.5860002 -0.3653931 1.3148619 0
2.5870001 -0.36948413 1.3152785 0
2.5870001 -0.37342906 1.3152785 0
2.5880003 -0.37752554 1.3156953 0
2.5880003 -0.38147226 1.3156953 0
2.5890002 -0.38557413 1.3161119 0
2.5890002 -0.38952264 1.3161119 0
2.5900002 -0.39362991 1.3165286 0
2.5900002 -0.39758027 1.3165286 0
2.5910003 -0.40169296 1.3169453 0
2.5910003 -0.40564513 1.3169453 0
2.5920002 -0.40976319 1.317362 0
2.5920002 -0.41371715 1.317362 0
2.5930002 -0.41784066 1.3177786 0
2.5930002 -0.42179638 1.3177786 0
2.5940001 -0.42592528 1.3181952 0
2.5940001 -0.42988282 1.3181952 0
2.5950003 -0.43401721 1.318612 0
2.5950003 -0.43797657 1.318612 0
2.5960002 -0.44211629 1.3190286 0
2.5960002 -0.44607744 1.3190286 0
2.5970001 -0.45022261 1.3194453 0
2.5970001 -0.45418555 1.3194453 0
2.5980003 -0.45833617 1.319862 0
2.5980003 -0.46230093 1.319862 0
2.5990002 -0.46645689 1.3202786 0
2.5990002 -0.47042346 1.3202786 0
2.6000001 -0.47458482 1.3206953 0
2.6000001 -0.47855321 1.3206953 0
2.6010003 -0.48272002 1.3211122 0
2.6010003 -0.48669022 1.3211122 0
2.6020002 -0.49086243 1.3215287 0
2.6020002 -0.49483439 1.3215287 0
2.6030002 -0.49901202 1.3219453 0
2.6030002 -0.50298578 1.3219453 0
2.6040001 -0.50716877 1.3223621 0
2.6040001 -0.5111444 1.3223621 0
2.6050003 -0.51533288 1.3227788 0
2.6050003 -0.51931024 1.3227788 0
2.6050003 -0.52328765 1.3227788 0
2.6060002 -0.52748334 1.3231955 0
2.6060002 -0.53146249 1.3231955 0
2.6070001 -0.53566355 1.3236121 0
2.6070001 -0.53964454 1.3236121 0
2.6080003 -0.54385108 1.3240288 0
2.6080003 -0.54783386 1.3240288 0
2.6090002 -0.55204576 1.3244455 0
2.6090002 -0.55603039 1.3244455 0
2.6100001 -0.56024766 1.3248621 0
2.6100001 -0.56423414 1.3248621 0
2.6110003 -0.56845683 1.3252789 0
2.6110003 -0.57244503 1.3252789 0
2.6120002 -0.57667315 1.3256955 0
2.6120002 -0.5806632 1.3256955 0
2.6130002 -0.58489674 1.3261122 0
2.6130002 -0.58888859 1.3261122 0
2.6140001 -0.59312749 1.3265288 0
2.6140001 -0.59712112 1.3265288 0
2.6150002 -0.60136551 1.3269455 0
2.6150002 -0.60536098 1.3269455 0
2.6160002 -0.60961074 1.3273622 0
2.6160002 -0.61360794 1.3273622 0
2.6170001 -0.61786312 1.3277789 0
2.6170001 -0.62186211 1.3277789 0
2.6180003 -0.62612277 1.3281956 0
2.6180003 -0.63012367 1.3281956 0
2.6190002 -0.63438964 1.3286123 0
2.6190002 -0.63839227 1.3286123 0
2.6200001 -0.64266366 1.329029 0
2.6200001 -0.64666814 1.329029 0
2.6210003 -0.65094501 1.3294456 0
2.6210003 -0.65495127 1.3294456 0
2.6220002 -0.65923345 1.3298624 0
2.6220002 -0.66324157 1.3298624 0
2.6230001 -0.66752917 1.330279 0
2.6230001 -0.67153901 1.330279 0
2.6240003 -0.67583215 1.3306957 0
2.6240003 -0.67984378 1.3306957 0
2.6250002 -0.68414229 1.3311124 0
2.6260002 -0.68844432 1.331529 0
2.6260002 -0.69245964 1.331529 0
2.6270001 -0.69676703 1.3319457 0
2.6270001 -0.70078421 1.3319457 0
2.6280003 -0.70509714 1.3323624 0
2.6280003 -0.70911598 1.3323624 0
2.6290002 -0.71343428 1.3327792 0
2.6290002 -0.71745497 1.3327792 0
2.6300001 -0.72177869 1.3331957 0
2.6300001 -0.72580117 1.3331957 0
2.6310003 -0.73013037 1.3336124 0
2.6310003 -0.7341547 1.3336124 0
2.6320002 -0.73848921 1.3340292 0
2.6320002 -0.74251533 1.3340292 0
2.6330001 -0.7468552 1.3344457 0
2.6330001 -0.7508831 1.3344457 0
2.6340003 -0.75522852 1.3348626 0
2.6340003 -0.75925827 1.3348626 0
2.6350002 -0.76360905 1.3352791 0
2.6350002 -0.76764059 1.3352791 0
2.6360002 -0.77199674 1.3356957 0
2.6360002 -0.77603 1.3356957 0
2.6370001 -0.78039163 1.3361125 0
2.6370001 -0.78442675 1.3361125 0
2.6380002 -0.7887938 1.3365291 0
2.6380002 -0.79283077 1.3365291 0
2.6390002 -0.79720312 1.3369459 0
2.6390002 -0.80124187 1.3369459 0
2.6400001 -0.80561966 1.3373625 0
2.6400001 -0.80966026 1.3373625 0
2.6410003 -0.81404352 1.3377792 0
2.6410003 -0.81808585 1.3377792 0
2.6420002 -0.82247454 1.3381959 0
2.6420002 -0.82651865 1.3381959 0
2.6430001 -0.83091271 1.3386126 0
2.6430001 -0.83495867 1.3386126 0
2.6440003 -0.83935821 1.3390293 0
2.6440003 -0.8434059 1.3390293 0
2.6450002 -0.8478108 1.3394459 0
2.6450002 -0.8518604 1.3394459 0
2.6460001 -0.85627067 1.3398626 0
2.6460001 -0.860322 1.3398626 0
2.6470003 -0.86473775 1.3402793 0
2.6470003 -0.86879092 1.3402793 0
2.6480002 -0.87321204 1.340696 0
2.6480002 -0.877267 1.340696 0
2.6490002 -0.88169348 1.3411127 0
2.6490002 -0.88575029 1.3411127 0
2.6500001 -0.8901822 1.3415293 0
2.6510003 -0.89461786 1.341946 0
2.6510003 -0.89867818 1.341946 0
2.6520002 -0.90311921 1.3423628 0
2.6520002 -0.90718132 1.3423628 0
2.6530001 -0.91162771 1.3427793 0
2.6530001 -0.91569167 1.3427793 0
2.6540003 -0.92014354 1.3431962 0
2.6540003 -0.92420936 1.3431962 0
2.6550002 -0.92866653 1.3436128 0
2.6550002 -0.93273407 1.3436128 0
2.6560001 -0.93719667 1.3440293 0
2.6560001 -0.94126606 1.3440293 0
2.6570003 -0.9457342 1.3444462 0
2.6570003 -0.94980538 1.3444462 0
2.6580002 -0.95427877 1.3448628 0
2.6580002 -0.95835179 1.3448628 0
2.6590002 -0.96283066 1.3452795 0
2.6590002 -0.96690542 1.3452795 0
2.6600001 -0.97138971 1.3456961 0
2.6600001 -0.97546619 1.3456961 0
2.6610003 -0.97995603 1.3461128 0
2.6610003 -0.98403442 1.3461128 0
2.6620002 -0.9885295 1.3465295 0
2.6620002 -0.99260968 1.3465295 0
2.6630001 -0.99711013 1.3469461 0
2.6630001 -1.0011921 1.3469461 0
2.6640003 -1.0056981 1.347363 0
2.6650002 -1.0102077 1.3477795 0
2.6650002 -1.0142933 1.3477795 0
2.6660001 -1.0188081 1.3481961 0
2.6660001 -1.0228956 1.3481961 0
2.6670003 -1.0274161 1.348613 0
2.6670003 -1.0315052 1.348613 0
2.6680002 -1.0360309 1.3490295 0
2.6680002 -1.040122 1.3490295 0
2.6690001 -1.0446531 1.3494463 0
2.6690001 -1.048746 1.3494463 0
2.6700003 -1.0532826 1.3498631 0
2.6700003 -1.0573773 1.3498631 0
2.6710002 -1.0619192 1.3502796 0
2.6710002 -1.0660157 1.3502796 0
2.6720002 -1.0705631 1.3506963 0
2.6720002 -1.0746614 1.3506963 0
2.6730001 -1.0792141 1.351113 0
2.6730001 -1.0833142 1.351113 0
2.6740003 -1.0878725 1.3515297 0
2.6750002 -1.0924342 1.3519464 0
2.6750002 -1.0965379 1.3519464 0
2.6760001 -1.1011051 1.352363 0
2.6760001 -1.1052105 1.352363 0
2.6770003 -1.1097833 1.3527797 0
2.6770003 -1.1138905 1.3527797 0
2.6780002 -1.1184686 1.3531964 0
2.6780002 -1.1225778 1.3531964 0
2.6790001 -1.1271611 1.353613 0
2.6790001 -1.131272 1.353613 0
2.6800003 -1.135861 1.3540298 0
2.6800003 -1.1399736 1.3540298 0
2.6810002 -1.144568 1.3544464 0
2.6810002 -1.1486825 1.3544464 0
2.6820002 -1.1532822 1.354863 0
2.6820002 -1.1573983 1.354863 0
2.6830001 -1.1620035 1.3552797 0
2.6840003 -1.1666123 1.3556966 0
2.6840003 -1.1707321 1.3556966 0
2.6850002 -1.1753463 1.3561131 0
2.6850002 -1.1794679 1.3561131 0
2.6860001 -1.1840874 1.3565297 0
2.6860001 -1.188211 1.3565297 0
2.6870003 -1.192836 1.3569466 0
2.6870003 -1.1969614 1.3569466 0
2.6880002 -1.2015917 1.3573631 0
2.6880002 -1.2057189 1.3573631 0
2.6890001 -1.2103546 1.3577799 0
2.6890001 -1.2144835 1.3577799 0
2.6900003 -1.2191248 1.3581966 0
2.6900003 -1.2232555 1.3581966 0
2.6910002 -1.2279021 1.3586131 0
2.6920002 -1.2325523 1.3590299 0
2.6920002 -1.2366866 1.3590299 0
2.6930003 -1.2413423 1.3594466 0
2.6930003 -1.2454785 1.3594466 0
2.6940002 -1.2501394 1.3598633 0
2.6940002 -1.2542773 1.3598633 0
2.6950002 -1.2589437 1.3602799 0
2.6950002 -1.2630836 1.3602799 0
2.6960001 -1.2677554 1.3606966 0
2.6960001 -1.271897 1.3606966 0
2.6970003 -1.2765743 1.3611133 0
2.6970003 -1.2807176 1.3611133 0
2.6980002 -1.2854003 1.3615299 0
2.6980002 -1.2895454 1.3615299 0
2.6990001 -1.2942334 1.3619467 0
2.7000003 -1.2989252 1.3623633 0
2.7000003 -1.303074 1.3623633 0
2.7010002 -1.3077711 1.36278 0
2.7010002 -1.3119217 1.36278 0
2.7020001 -1.316624 1.3631967 0
2.7020001 -1.3207765 1.3631967 0
2.7030003 -1.3254845 1.3636134 0
2.7030003 -1.3296387 1.3636134 0
2.7040002 -1.334352 1.3640301 0
2.7040002 -1.338508 1.3640301 0
2.7050002 -1.3432268 1.3644468 0
2.7060001 -1.347949 1.3648633 0
2.7060001 -1.3521086 1.3648633 0
2.7070003 -1.3568366 1.3652802 0
2.5800002 -0.30946422 1.3084295 0
2.5810001 -0.32138738 1.3088443 0
2.5810001 -0.3253215 1.3088443 0
2.5820003 -0.32938549 1.3092593 0
2.5820003 -0.33332142 1.3092593 0
2.5830002 -0.33739078 1.3096741 0
2.5830002 -0.3413285 1.3096741 0
2.5840001 -0.34540331 1.310089 0
2.5840001 -0.34934282 1.310089 0
2.5850003 -0.35342303 1.3105038 0
2.5850003 -0.35736439 1.3105038 0
2.5860002 -0.36144999 1.3109187 0
2.5860002 -0.3653931 1.3109187 0
2.5870001 -0.36948413 1.3113335 0
2.5870001 -0.37342906 1.3113335 0
2.5880003 -0.37752554 1.3117485 0
2.5880003 -0.38147226 1.3117485 0
2.5890002 -0.38557413 1.3121634 0
2.5890002 -0.38952264 1.3121634 0
2.5900002 -0.39362991 1.3125782 0
2.5900002 -0.39758027 1.3125782 0
2.5910003 -0.40169296 1.3129932 0
2.5910003 -0.40564513 1.3129932 0
2.5920002 -0.40976319 1.313408 0
2.5920002 -0.41371715 1.313408 0
2.5930002 -0.41784066 1.3138229 0
2.5930002 -0.42179638 1.3138229 0
2.5940001 -0.42592528 1.3142377 0
2.5940001 -0.42988282 1.3142377 0
2.5950003 -0.43401721 1.3146527 0
2.5950003 -0.43797657 1.3146527 0
2.5960002 -0.44211629 1.3150674 0
2.5960002 -0.44607744 1.3150674 0
2.5970001 -0.45022261 1.3154823 0
2.5970001 -0.45418555 1.3154823 0
2.5980003 -0.45833617 1.3158972 0
2.5980003 -0.46230093 1.3158972 0
2.5990002 -0.46645689 1.3163121 0
2.5990002 -0.47042346 1.3163121 0
2.6000001 -0.47458482 1.3167269 0
2.6000001 -0.47855321 1.3167269 0
2.6010003 -0.48272002 1.3171419 0
2.6010003 -0.48669022 1.3171419 0
2.6020002 -0.49086243 1.3175567 0
2.6020002 -0.49483439 1.3175567 0
2.6030002 -0.49901202 1.3179716 0
2.6030002 -0.50298578 1.3179716 0
2.6040001 -0.50716877 1.3183864 0
2.6040001 -0.5111444 1.3183864 0
2.6050003 -0.51533288 1.3188014 0
2.6050003 -0.51931024 1.3188014 0
2.6050003 -0.52328765 1.3188014 0
2.6060002 -0.52748334 1.3192163 0
2.6060002 -0.53146249 1.3192163 0
2.6070001 -0.53566355 1.3196311 0
2.6070001 -0.53964454 1.3196311 0
2.6080003 -0.54385108 1.3200459 0
2.6080003 -0.54783386 1.3200459 0
2.6090002 -0.55204576 1.3204609 0
2.6090002 -0.55603039 1.3204609 0
2.6100001 -0.56024766 1.3208758 0
2.6100001 -0.56423414 1.3208758 0
2.6110003 -0.56845683 1.3212907 0
2.6110003 -0.57244503 1.3212907 0
2.6120002 -0.57667315 1.3217055 0
2.6120002 -0.5806632 1.3217055 0
2.6130002 -0.58489674 1.3221203 0
2.6130002 -0.58888859 1.3221203 0
2.6140001 -0.59312749 1.3225352 0
2.6140001 -0.59712112 1.3225352 0
2.6150002 -0.60136551 1.3229501 0
2.6150002 -0.60536098 1.3229501 0
2.6160002 -0.60961074 1.323365 0
2.6160002 -0.61360794 1.323365 0
2.6170001 -0.61786312 1.3237798 0
2.6170001 -0.62186211 1.3237798 0
2.6180003 -0.62612277 1.3241948 0
2.6180003 -0.63012367 1.3241948 0
2.6190002 -0.63438964 1.3246096 0
2.6190002 -0.63839227 1.3246096 0
2.6200001 -0.64266366 1.3250245 0
2.6200001 -0.64666814 1.3250245 0
2.6210003 -0.65094501 1.3254395 0
2.6210003 -0.65495127 1.3254395 0
2.6220002 -0.65923345 1.3258543 0
2.6220002 -0.66324157 1.3258543 0
2.6230001 -0.66752917 1.3262691 0
2.6230001 -0.67153901 1.3262691 0
2.6240003 -0.67583215 1.326684 0
2.6240003 -0.67984378 1.326684 0
2.6250002 -0.68414229 1.3270988 0
2.6260002 -0.68844432 1.3275137 0
2.6260002 -0.69245964 1.3275137 0
2.6270001 -0.69676703 1.3279287 0
2.6270001 -0.70078421 1.3279287 0
2.6280003 -0.70509714 1.3283436 0
2.6280003 -0.70911598 1.3283436 0
2.6290002 -0.71343428 1.3287584 0
2.6290002 -0.71745497 1.3287584 0
2.6300001 -0.72177869 1.3291732 0
2.6300001 -0.72580117 1.3291732 0
2.6310003 -0.73013037 1.3295882 0
2.6310003 -0.7341547 1.3295882 0
2.6320002 -0.73848921 1.330003 0
2.6320002 -0.74251533 1.330003 0
2.6330001 -0.7468552 1.3304179 0
2.6330001 -0.7508831 1.3304179 0
2.6340003 -0.75522852 1.3308328 0
2.6340003 -0.75925827 1.3308328 0
2.6350002 -0.76360905 1.3312477 0
2.6350002 -0.76764059 1.3312477 0
2.6360002 -0.77199674 1.3316625 0
2.6360002 -0.77603 1.3316625 0
2.6370001 -0.78039163 1.3320774 0
2.6370001 -0.78442675 1.3320774 0
2.6380002 -0.7887938 1.3324924 0
2.6380002 -0.79283077 1.3324924 0
2.6390002 -0.79720312 1.3329072 0
2.6390002 -0.80124187 1.3329072 0
2.6400001 -0.80561966 1.333322 0
2.6400001 -0.80966026 1.333322 0
2.6410003 -0.81404352 1.3337369 0
2.6410003 -0.81808585 1.3337369 0
2.6420002 -0.82247454 1.3341517 0
2.6420002 -0.82651865 1.3341517 0
2.6430001 -0.83091271 1.3345666 0
2.6430001 -0.83495867 1.3345666 0
2.6440003 -0.83935821 1.3349816 0
2.6440003 -0.8434059 1.3349816 0
2.6450002 -0.8478108 1.3353964 0
2.6450002 -0.8518604 1.3353964 0
2.6460001 -0.85627067 1.3358113 0
2.6460001 -0.860322 1.3358113 0
2.6470003 -0.86473775 1.3362262 0
2.6470003 -0.86879092 1.3362262 0
2.6480002 -0.87321204 1.3366411 0
2.6480002 -0.877267 1.3366411 0
2.6490002 -0.88169348 1.3370559 0
2.6490002 -0.88575029 1.3370559 0
2.6500001 -0.8901822 1.3374708 0
2.6510003 -0.89461786 1.3378857 0
2.6510003 -0.89867818 1.3378857 0
2.6520002 -0.90311921 1.3383005 0
2.6520002 -0.90718132 1.3383005 0
2.6530001 -0.91162771 1.3387153 0
2.6530001 -0.91569167 1.3387153 0
2.6540003 -0.92014354 1.3391303 0
2.6540003 -0.92420936 1.3391303 0
2.6550002 -0.92866653 1.3395451 0
2.6550002 -0.93273407 1.3395451 0
2.6560001 -0.93719667 1.33996 0
2.6560001 -0.94126606 1.33996 0
2.6570003 -0.9457342 1.3403749 0
2.6570003 -0.94980538 1.3403749 0
2.6580002 -0.95427877 1.3407898 0
2.6580002 -0.95835179 1.3407898 0
2.6590002 -0.96283066 1.3412046 0
2.6590002 -0.96690542 1.3412046 0
2.6600001 -0.97138971 1.3416195 0
2.6600001 -0.97546619 1.3416195 0
2.6610003 -0.97995603 1.3420345 0
2.6610003 -0.98403442 1.3420345 0
