# .PCD v0.7 - Point Cloud Data file format
VERSION 0.7
FIELDS x y z intensity
SIZE 4 4 4 4
TYPE F F F F
COUNT 1 1 1 1
WIDTH 1416
HEIGHT 1
VIEWPOINT 0 0 0 1 0 0 0
POINTS 1416
DATA ascii
2.5100002 -1.2563193 0.5676595 0
2.5070002 -1.2583991 0.56742686 0
2.5470002 -1.2271967 0.56665659 0
2.5440001 -1.2294136 0.56642932 0
2.5410001 -1.2316196 0.56620204 0
2.5380001 -1.233815 0.56597477 0
2.5350001 -1.2359993 0.5657475 0
2.5320003 -1.238173 0.56552023 0
2.5300002 -1.2408967 0.56536871 0
2.5270002 -1.2430505 0.56514144 0
2.5240002 -1.2451934 0.56491411 0
2.5210001 -1.2473254 0.56468683 0
2.5180001 -1.2494466 0.56445956 0
2.5160003 -1.2521273 0.56430805 0
2.5130002 -1.2542287 0.56408077 0
2.5100002 -1.2563193 0.5638535 0
2.5070002 -1.2583991 0.56362623 0
2.5470002 -1.2271967 0.56278384 0
2.5440001 -1.2294136 0.56256199 0
2.5410001 -1.2316196 0.56234008 0
2.5380001 -1.233815 0.56211823 0
2.5350001 -1.2359993 0.56189632 0
2.5320003 -1.238173 0.56167448 0
2.5300002 -1.2408967 0.5615266 0
2.5270002 -1.2430505 0.56130469 0
2.5240002 -1.2451934 0.56108284 0
2.5210001 -1.2473254 0.56086099 0
2.5180001 -1.2494466 0.56063908 0
2.5160003 -1.2521273 0.5604912 0
2.5130002 -1.2542287 0.56026936 0
2.5100002 -1.2563193 0.56004745 0
2.5070002 -1.2583991 0.5598256 0
2.5470002 -1.2271967 0.55891109 0
2.5440001 -1.2294136 0.5586946 0
2.5410001 -1.2316196 0.55847812 0
2.5380001 -1.233815 0.55826169 0
2.5350001 -1.2359993 0.55804527 0
2.5320003 -1.238173 0.55782878 0
2.5300002 -1.2408967 0.55768448 0
2.5270002 -1.2430505 0.557468 0
2.5240002 -1.2451934 0.55725157 0
2.5210001 -1.2473254 0.55703509 0
2.5180001 -1.2494466 0.55681866 0
2.5160003 -1.2521273 0.55667436 0
2.5130002 -1.2542287 0.55645788 0
2.5100002 -1.2563193 0.55624145 0
2.5070002 -1.2583991 0.55602497 0
2.5470002 -1.2271967 0.55503827 0
2.5440001 -1.2294136 0.55482721 0
2.5410001 -1.2316196 0.55461621 0
2.5380001 -1.233815 0.55440515 0
2.5350001 -1.2359993 0.55419409 0
2.5320003 -1.238173 0.55398309 0
2.5300002 -1.2408967 0.55384237 0
2.5270002 -1.2430505 0.55363131 0
2.5240002 -1.2451934 0.55342031 0
2.5210001 -1.2473254 0.55320925 0
2.5180001 -1.2494466 0.55299819 0
2.5160003 -1.2521273 0.55285752 0
2.5130002 -1.2542287 0.55264646 0
2.5100002 -1.2563193 0.5524354 0
2.5070002 -1.2583991 0.55222434 0
2.5470002 -1.2271967 0.55116552 0
2.5440001 -1.2294136 0.55095989 0
2.5410001 -1.2316196 0.55075425 0
2.5380001 -1.233815 0.55054861 0
2.5350001 -1.2359993 0.55034298 0
2.5320003 -1.238173 0.55013734 0
2.5300002 -1.2408967 0.55000025 0
2.5270002 -1.2430505 0.54979461 0
2.5240002 -1.2451934 0.54958898 0
2.5210001 -1.2473254 0.54938334 0
2.5180001 -1.2494466 0.54917771 0
2.5160003 -1.2521273 0.54904062 0
2.5130002 -1.2542287 0.54883498 0
2.5100002 -1.2563193 0.54862934 0
2.5070002 -1.2583991 0.54842371 0
2.5470002 -1.2271967 0.54729271 0
2.5440001 -1.2294136 0.5470925 0
2.5410001 -1.2316196 0.54689229 0
2.5380001 -1.233815 0.54669207 0
2.5350001 -1.2359993 0.54649186 0
2.5320003 -1.238173 0.54629165 0
2.5300002 -1.2408967 0.54615813 0
2.5270002 -1.2430505 0.54595792 0
2.5240002 -1.2451934 0.54575771 0
2.5210001 -1.2473254 0.5455575 0
2.5180001 -1.2494466 0.54535723 0
2.5160003 -1.2521273 0.54522377 0
2.5130002 -1.2542287 0.54502356 0
2.5100002 -1.2563193 0.54482335 0
2.5070002 -1.2583991 0.54462314 0
2.5470002 -1.2271967 0.54341996 0
2.5440001 -1.2294136 0.54322517 0
2.5410001 -1.2316196 0.54303032 0
2.5380001 -1.233815 0.54283553 0
2.5350001 -1.2359993 0.54264069 0
2.5320003 -1.238173 0.5424459 0
2.5300002 -1.2408967 0.54231602 0
2.5270002 -1.2430505 0.54212123 0
2.5240002 -1.2451934 0.54192638 0
2.5210001 -1.2473254 0.5417316 0
2.5180001 -1.2494466 0.54153681 0
2.5160003 -1.2521273 0.54140693 0
2.5130002 -1.2542287 0.54121208 0
2.5100002 -1.2563193 0.54101729 0
2.5070002 -1.2583991 0.54082251 0
2.5470002 -1.2271967 0.5395472 0
2.5440001 -1.2294136 0.53935778 0
2.5410001 -1.2316196 0.53916836 0
2.5380001 -1.233815 0.53897899 0
2.5350001 -1.2359993 0.53878957 0
2.5320003 -1.238173 0.53860021 0
2.5300002 -1.2408967 0.5384739 0
2.5270002 -1.2430505 0.53828454 0
2.5240002 -1.2451934 0.53809512 0
2.5210001 -1.2473254 0.53790569 0
2.5180001 -1.2494466 0.53771633 0
2.5160003 -1.2521273 0.53759003 0
2.5130002 -1.2542287 0.53740066 0
2.5100002 -1.2563193 0.53721124 0
2.5070002 -1.2583991 0.53702188 0
2.5470002 -1.2271967 0.53567439 0
2.5440001 -1.2294136 0.53549039 0
2.5410001 -1.2316196 0.53530645 0
2.5380001 -1.233815 0.53512245 0
2.5350001 -1.2359993 0.53493845 0
2.5320003 -1.238173 0.53475446 0
2.5300002 -1.2408967 0.53463179 0
2.5270002 -1.2430505 0.53444779 0
2.5240002 -1.2451934 0.53426385 0
2.5210001 -1.2473254 0.53407985 0
2.5180001 -1.2494466 0.53389585 0
2.5160003 -1.2521273 0.53377318 0
2.5130002 -1.2542287 0.53358918 0
2.5100002 -1.2563193 0.53340518 0
2.5070002 -1.2583991 0.53322124 0
2.5470002 -1.2271967 0.53180164 0
2.5440001 -1.2294136 0.53162307 0
2.5410001 -1.2316196 0.53144449 0
2.5380001 -1.233815 0.53126591 0
2.5350001 -1.2359993 0.53108734 0
2.5320003 -1.238173 0.53090876 0
2.5300002 -1.2408967 0.53078967 0
2.5270002 -1.2430505 0.5306111 0
2.5240002 -1.2451934 0.53043252 0
2.5210001 -1.2473254 0.53025395 0
2.5180001 -1.2494466 0.53007537 0
2.5160003 -1.2521273 0.52995634 0
2.5130002 -1.2542287 0.52977777 0
2.5100002 -1.2563193 0.52959919 0
2.5070002 -1.2583991 0.52942061 0
2.5470002 -1.2271967 0.52792883 0
2.5440001 -1.2294136 0.52775568 0
2.5410001 -1.2316196 0.52758253 0
2.5380001 -1.233815 0.52740937 0
2.5350001 -1.2359993 0.52723616 0
2.5320003 -1.238173 0.52706301 0
2.5300002 -1.2408967 0.52694756 0
2.5270002 -1.2430505 0.52677441 0
2.5240002 -1.2451934 0.52660125 0
2.5210001 -1.2473254 0.5264281 0
2.5180001 -1.2494466 0.52625489 0
2.5160003 -1.2521273 0.5261395 0
2.5130002 -1.2542287 0.52596629 0
2.5100002 -1.2563193 0.52579314 0
2.5070002 -1.2583991 0.52561998 0
2.5470002 -1.2271967 0.52405608 0
2.5440001 -1.2294136 0.52388835 0
2.5410001 -1.2316196 0.52372056 0
2.5380001 -1.233815 0.52355283 0
2.5350001 -1.2359993 0.52338505 0
2.5320003 -1.238173 0.52321732 0
2.5300002 -1.2408967 0.5231055 0
2.5270002 -1.2430505 0.52293772 0
2.5240002 -1.2451934 0.52276993 0
2.5210001 -1.2473254 0.5226022 0
2.5180001 -1.2494466 0.52243447 0
2.5160003 -1.2521273 0.52232265 0
2.5130002 -1.2542287 0.52215487 0
2.5100002 -1.2563193 0.52198708 0
2.5070002 -1.2583991 0.52181935 0
2.5470002 -1.2271967 0.52018332 0
2.5440001 -1.2294136 0.52002096 0
2.5410001 -1.2316196 0.5198586 0
2.5380001 -1.233815 0.51969624 0
2.5350001 -1.2359993 0.51953393 0
2.5320003 -1.238173 0.51937163 0
2.5300002 -1.2408967 0.51926339 0
2.5270002 -1.2430505 0.51910102 0
2.5240002 -1.2451934 0.51893866 0
2.5210001 -1.2473254 0.5187763 0
2.5180001 -1.2494466 0.51861399 0
2.5160003 -1.2521273 0.51850575 0
2.5130002 -1.2542287 0.51834345 0
2.5100002 -1.2563193 0.51818109 0
2.5070002 -1.2583991 0.51801872 0
2.5470002 -1.2271967 0.51631051 0
2.5440001 -1.2294136 0.51615357 0
2.5410001 -1.2316196 0.51599663 0
2.5380001 -1.233815 0.5158397 0
2.5350001 -1.2359993 0.51568282 0
2.5320003 -1.238173 0.51552588 0
2.5300002 -1.2408967 0.51542127 0
2.5270002 -1.2430505 0.51526433 0
2.5240002 -1.2451934 0.51510739 0
2.5210001 -1.2473254 0.51495045 0
2.5180001 -1.2494466 0.51479352 0
2.5160003 -1.2521273 0.51468891 0
2.5130002 -1.2542287 0.51453197 0
2.5100002 -1.2563193 0.51437503 0
2.5070002 -1.2583991 0.51421809 0
2.5470002 -1.2271967 0.51243776 0
2.5440001 -1.2294136 0.51228625 0
2.5410001 -1.2316196 0.51213473 0
2.5380001 -1.233815 0.51198316 0
2.5350001 -1.2359993 0.51183164 0
2.5320003 -1.238173 0.51168013 0
2.5300002 -1.2408967 0.51157916 0
2.5270002 -1.2430505 0.51142764 0
2.5240002 -1.2451934 0.51127613 0
2.5210001 -1.2473254 0.51112455 0
2.5180001 -1.2494466 0.51097304 0
2.5160003 -1.2521273 0.51087207 0
2.5130002 -1.2542287 0.51072055 0
2.5100002 -1.2563193 0.51056898 0
2.5070002 -1.2583991 0.51041746 0
2.5470002 -1.2271967 0.50856495 0
2.5440001 -1.2294136 0.50841886 0
2.5410001 -1.2316196 0.50827277 0
2.5380001 -1.233815 0.50812662 0
2.5350001 -1.2359993 0.50798053 0
2.5320003 -1.238173 0.50783443 0
2.5300002 -1.2408967 0.50773704 0
2.5270002 -1.2430505 0.50759089 0
2.5240002 -1.2451934 0.5074448 0
2.5210001 -1.2473254 0.50729871 0
2.5180001 -1.2494466 0.50715256 0
2.5160003 -1.2521273 0.50705516 0
2.5130002 -1.2542287 0.50690907 0
2.5100002 -1.2563193 0.50676298 0
2.5070002 -1.2583991 0.50661683 0
2.5470002 -1.2271967 0.5046922 0
2.5440001 -1.2294136 0.50455153 0
2.5410001 -1.2316196 0.5044108 0
2.5380001 -1.233815 0.50427008 0
2.5350001 -1.2359993 0.50412941 0
2.5320003 -1.238173 0.50398874 0
2.5300002 -1.2408967 0.50389493 0
2.5270002 -1.2430505 0.5037542 0
2.5240002 -1.2451934 0.50361353 0
2.5210001 -1.2473254 0.50347281 0
2.5180001 -1.2494466 0.50333214 0
2.5160003 -1.2521273 0.50323832 0
2.5130002 -1.2542287 0.50309765 0
2.5100002 -1.2563193 0.50295693 0
2.5070002 -1.2583991 0.50281626 0
2.5470002 -1.2271967 0.50081944 0
2.5440001 -1.2294136 0.50068414 0
2.5410001 -1.2316196 0.50054884 0
2.5380001 -1.233815 0.50041354 0
2.5350001 -1.2359993 0.50027829 0
2.5320003 -1.238173 0.50014299 0
2.5300002 -1.2408967 0.50005281 0
2.5270002 -1.2430505 0.49991751 0
2.5240002 -1.2451934 0.49978223 0
2.5210001 -1.2473254 0.49964696 0
2.5180001 -1.2494466 0.49951166 0
2.5160003 -1.2521273 0.49942148 0
2.5130002 -1.2542287 0.49928617 0
2.5100002 -1.2563193 0.4991509 0
2.5070002 -1.2583991 0.49901563 0
2.5470002 -1.2271967 0.49694663 0
2.5440001 -1.2294136 0.49681675 0
2.5410001 -1.2316196 0.49668691 0
2.5380001 -1.233815 0.49655703 0
2.5350001 -1.2359993 0.49642715 0
2.5320003 -1.238173 0.4962973 0
2.5300002 -1.2408967 0.49621069 0
2.5270002 -1.2430505 0.49608082 0
2.5240002 -1.2451934 0.49595094 0
2.5210001 -1.2473254 0.49582106 0
2.5180001 -1.2494466 0.49569118 0
2.5160003 -1.2521273 0.4956046 0
2.5130002 -1.2542287 0.49547476 0
2.5100002 -1.2563193 0.49534488 0
2.5070002 -1.2583991 0.495215 0
2.5470002 -1.2271967 0.49307388 0
2.5440001 -1.2294136 0.4929494 0
2.5410001 -1.2316196 0.49282494 0
2.5380001 -1.233815 0.49270046 0
2.5350001 -1.2359993 0.492576 0
2.5320003 -1.238173 0.49245155 0
2.5300002 -1.2408967 0.49236858 0
2.5270002 -1.2430505 0.49224412 0
2.5240002 -1.2451934 0.49211967 0
2.5210001 -1.2473254 0.49199519 0
2.5180001 -1.2494466 0.49187073 0
2.5160003 -1.2521273 0.49178776 0
2.5130002 -1.2542287 0.49166328 0
2.5100002 -1.2563193 0.49153882 0
2.5070002 -1.2583991 0.49141437 0
2.5470002 -1.2271967 0.4892011 0
2.5440001 -1.2294136 0.48908204 0
2.5410001 -1.2316196 0.48896298 0
2.5380001 -1.233815 0.48884392 0
2.5350001 -1.2359993 0.48872489 0
2.5320003 -1.238173 0.48860583 0
2.5300002 -1.2408967 0.48852646 0
2.5270002 -1.2430505 0.48840743 0
2.5240002 -1.2451934 0.48828837 0
2.5210001 -1.2473254 0.48816931 0
2.5180001 -1.2494466 0.48805025 0
2.5160003 -1.2521273 0.48797089 0
2.5130002 -1.2542287 0.48785186 0
2.5100002 -1.2563193 0.4877328 0
2.5070002 -1.2583991 0.48761374 0
2.5470002 -1.2271967 0.48532832 0
2.5440001 -1.2294136 0.48521468 0
2.5410001 -1.2316196 0.48510104 0
2.5380001 -1.233815 0.48498738 0
2.5350001 -1.2359993 0.48487374 0
2.5320003 -1.238173 0.48476011 0
2.5300002 -1.2408967 0.48468435 0
2.5270002 -1.2430505 0.48457071 0
2.5240002 -1.2451934 0.48445708 0
2.5210001 -1.2473254 0.48434344 0
2.5180001 -1.2494466 0.4842298 0
2.5160003 -1.2521273 0.48415405 0
2.5130002 -1.2542287 0.48404041 0
2.5100002 -1.2563193 0.48392677 0
2.5070002 -1.2583991 0.48381311 0
2.5470002 -1.2271967 0.48145553 0
2.5440001 -1.2294136 0.48134732 0
2.5410001 -1.2316196 0.48123908 0
2.5380001 -1.233815 0.48113084 0
2.5350001 -1.2359993 0.48102263 0
2.5320003 -1.238173 0.48091441 0
2.5300002 -1.2408967 0.48084223 0
2.5270002 -1.2430505 0.48073402 0
2.5240002 -1.2451934 0.48062581 0
2.5210001 -1.2473254 0.48051757 0
2.5180001 -1.2494466 0.48040932 0
2.5160003 -1.2521273 0.48033717 0
2.5130002 -1.2542287 0.48022896 0
2.5100002 -1.2563193 0.48012072 0
2.5070002 -1.2583991 0.48001251 0
2.5470002 -1.2271967 0.47758275 0
2.5440001 -1.2294136 0.47747993 0
2.5410001 -1.2316196 0.47737712 0
2.5380001 -1.233815 0.4772743 0
2.5350001 -1.2359993 0.47717148 0
2.5320003 -1.238173 0.47706866 0
2.5300002 -1.2408967 0.47700012 0
2.5270002 -1.2430505 0.4768973 0
2.5240002 -1.2451934 0.47679451 0
2.5210001 -1.2473254 0.47669166 0
2.5180001 -1.2494466 0.47658885 0
2.5160003 -1.2521273 0.47652033 0
2.5130002 -1.2542287 0.47641751 0
2.5100002 -1.2563193 0.47631469 0
2.5070002 -1.2583991 0.47621188 0
2.5470002 -1.2271967 0.47371 0
2.5440001 -1.2294136 0.47361258 0
2.5410001 -1.2316196 0.47351518 0
2.5380001 -1.233815 0.47341776 0
2.5350001 -1.2359993 0.47332036 0
2.5320003 -1.238173 0.47322297 0
2.5300002 -1.2408967 0.47315803 0
2.5270002 -1.2430505 0.47306061 0
2.5240002 -1.2451934 0.47296321 0
2.5210001 -1.2473254 0.47286582 0
2.5180001 -1.2494466 0.4727684 0
2.5160003 -1.2521273 0.47270346 0
2.5130002 -1.2542287 0.47260606 0
2.5100002 -1.2563193 0.47250867 0
2.5070002 -1.2583991 0.47241125 0
2.5470002 -1.2271967 0.46983722 0
2.5440001 -1.2294136 0.46974522 0
2.5410001 -1.2316196 0.46965322 0
2.5380001 -1.233815 0.46956122 0
2.5350001 -1.2359993 0.46946922 0
2.5320003 -1.238173 0.46937725 0
2.5300002 -1.2408967 0.46931592 0
2.5270002 -1.2430505 0.46922392 0
2.5240002 -1.2451934 0.46913192 0
2.5210001 -1.2473254 0.46903992 0
2.5180001 -1.2494466 0.46894795 0
2.5160003 -1.2521273 0.46888661 0
2.5130002 -1.2542287 0.46879461 0
2.5100002 -1.2563193 0.46870261 0
2.5070002 -1.2583991 0.46861061 0
2.5470002 -1.2271967 0.46596444 0
2.5440001 -1.2294136 0.46587786 0
2.5410001 -1.2316196 0.46579126 0
2.5380001 -1.233815 0.46570468 0
2.5350001 -1.2359993 0.4656181 0
2.5320003 -1.238173 0.46553153 0
2.5300002 -1.2408967 0.4654738 0
2.5270002 -1.2430505 0.46538723 0
2.5240002 -1.2451934 0.46530062 0
2.5210001 -1.2473254 0.46521404 0
2.5180001 -1.2494466 0.46512747 0
2.5160003 -1.2521273 0.46506974 0
2.5130002 -1.2542287 0.46498317 0
2.5100002 -1.2563193 0.46489659 0
2.5070002 -1.2583991 0.46481001 0
2.5470002 -1.2271967 0.46209165 0
2.5440001 -1.2294136 0.46201047 0
2.5410001 -1.2316196 0.46192932 0
2.5380001 -1.233815 0.46184814 0
2.5350001 -1.2359993 0.46176696 0
2.5320003 -1.238173 0.46168581 0
2.5300002 -1.2408967 0.46163169 0
2.5270002 -1.2430505 0.4615505 0
2.5240002 -1.2451934 0.46146935 0
2.5210001 -1.2473254 0.46138817 0
2.5180001 -1.2494466 0.46130699 0
2.5160003 -1.2521273 0.4612529 0
2.5130002 -1.2542287 0.46117172 0
2.5100002 -1.2563193 0.46109053 0
2.5070002 -1.2583991 0.46100938 0
2.5470002 -1.2271967 0.45821887 0
2.5440001 -1.2294136 0.45814312 0
2.5410001 -1.2316196 0.45806736 0
2.5380001 -1.233815 0.4579916 0
2.5350001 -1.2359993 0.45791584 0
2.5320003 -1.238173 0.45784009 0
2.5300002 -1.2408967 0.45778957 0
2.5270002 -1.2430505 0.45771381 0
2.5240002 -1.2451934 0.45763806 0
2.5210001 -1.2473254 0.4575623 0
2.5180001 -1.2494466 0.45748654 0
2.5160003 -1.2521273 0.45743603 0
2.5130002 -1.2542287 0.45736027 0
2.5100002 -1.2563193 0.45728451 0
2.5070002 -1.2583991 0.45720875 0
2.5470002 -1.2271967 0.45434612 0
2.5440001 -1.2294136 0.45427576 0
2.5410001 -1.2316196 0.45420539 0
2.5380001 -1.233815 0.45413506 0
2.5350001 -1.2359993 0.4540647 0
2.5320003 -1.238173 0.45399436 0
2.5300002 -1.2408967 0.45394745 0
2.5270002 -1.2430505 0.45387712 0
2.5240002 -1.2451934 0.45380676 0
2.5210001 -1.2473254 0.45373642 0
2.5180001 -1.2494466 0.45366606 0
2.5160003 -1.2521273 0.45361918 0
2.5130002 -1.2542287 0.45354882 0
2.5100002 -1.2563193 0.45347849 0
2.5070002 -1.2583991 0.45340812 0
2.5470002 -1.2271967 0.45047334 0
2.5440001 -1.2294136 0.4504084 0
2.5410001 -1.2316196 0.45034346 0
2.5380001 -1.233815 0.45027852 0
2.5350001 -1.2359993 0.45021358 0
2.5320003 -1.238173 0.45014864 0
2.5300002 -1.2408967 0.45010537 0
2.5270002 -1.2430505 0.45004043 0
2.5240002 -1.2451934 0.44997549 0
2.5210001 -1.2473254 0.44991055 0
2.5180001 -1.2494466 0.44984561 0
2.5160003 -1.2521273 0.44980231 0
2.5130002 -1.2542287 0.44973737 0
2.5100002 -1.2563193 0.44967243 0
2.5070002 -1.2583991 0.44960749 0
2.5470002 -1.2271967 0.44660056 0
2.5440001 -1.2294136 0.44654101 0
2.5410001 -1.2316196 0.4464815 0
2.5380001 -1.233815 0.44642198 0
2.5350001 -1.2359993 0.44636244 0
2.5320003 -1.238173 0.44630292 0
2.5300002 -1.2408967 0.44626325 0
2.5270002 -1.2430505 0.44620371 0
2.5240002 -1.2451934 0.44614419 0
2.5210001 -1.2473254 0.44608468 0
2.5180001 -1.2494466 0.44602513 0
2.5160003 -1.2521273 0.44598547 0
2.5130002 -1.2542287 0.44592592 0
2.5100002 -1.2563193 0.44586641 0
2.5070002 -1.2583991 0.44580689 0
2.5470002 -1.2271967 0.44272777 0
2.5440001 -1.2294136 0.44267365 0
2.5410001 -1.2316196 0.44261956 0
2.5380001 -1.233815 0.44256544 0
2.5350001 -1.2359993 0.44251132 0
2.5320003 -1.238173 0.4424572 0
2.5300002 -1.2408967 0.44242114 0
2.5270002 -1.2430505 0.44236702 0
2.5240002 -1.2451934 0.4423129 0
2.5210001 -1.2473254 0.44225878 0
2.5180001 -1.2494466 0.44220468 0
2.5160003 -1.2521273 0.44216859 0
2.5130002 -1.2542287 0.44211447 0
2.5100002 -1.2563193 0.44206038 0
2.5070002 -1.2583991 0.44200626 0
2.5470002 -1.2271967 0.43885499 0
2.5440001 -1.2294136 0.4388063 0
2.5410001 -1.2316196 0.4387576 0
2.5380001 -1.233815 0.4387089 0
2.5350001 -1.2359993 0.4386602 0
2.5320003 -1.238173 0.43861148 0
2.5300002 -1.2408967 0.43857902 0
2.5270002 -1.2430505 0.43853033 0
2.5240002 -1.2451934 0.43848163 0
2.5210001 -1.2473254 0.4384329 0
2.5180001 -1.2494466 0.43838421 0
2.5160003 -1.2521273 0.43835175 0
2.5130002 -1.2542287 0.43830305 0
2.5100002 -1.2563193 0.43825433 0
2.5070002 -1.2583991 0.43820563 0
2.5470002 -1.2271967 0.43498221 0
2.5440001 -1.2294136 0.43493894 0
2.5410001 -1.2316196 0.43489563 0
2.5380001 -1.233815 0.43485236 0
2.5350001 -1.2359993 0.43480906 0
2.5320003 -1.238173 0.43476576 0
2.5300002 -1.2408967 0.43473691 0
2.5270002 -1.2430505 0.4346936 0
2.5240002 -1.2451934 0.43465033 0
2.5210001 -1.2473254 0.43460703 0
2.5180001 -1.2494466 0.43456373 0
2.5160003 -1.2521273 0.43453488 0
2.5130002 -1.2542287 0.43449157 0
2.5100002 -1.2563193 0.4344483 0
2.5070002 -1.2583991 0.434405 0
2.5470002 -1.2271967 0.43110946 0
2.5440001 -1.2294136 0.43107158 0
2.5410001 -1.2316196 0.4310337 0
2.5380001 -1.233815 0.43099579 0
2.5350001 -1.2359993 0.43095791 0
2.5320003 -1.238173 0.43092006 0
2.5300002 -1.2408967 0.43089479 0
2.5270002 -1.2430505 0.43085691 0
2.5240002 -1.2451934 0.43081903 0
2.5210001 -1.2473254 0.43078116 0
2.5180001 -1.2494466 0.43074328 0
2.5160003 -1.2521273 0.43071803 0
2.5130002 -1.2542287 0.43068016 0
2.5100002 -1.2563193 0.43064225 0
2.5070002 -1.2583991 0.43060437 0
2.5470002 -1.2271967 0.42723668 0
2.5440001 -1.2294136 0.42720419 0
2.5410001 -1.2316196 0.42717174 0
2.5380001 -1.233815 0.42713925 0
2.5350001 -1.2359993 0.4271068 0
2.5320003 -1.238173 0.42707434 0
2.5300002 -1.2408967 0.42705268 0
2.5270002 -1.2430505 0.42702022 0
2.5240002 -1.2451934 0.42698774 0
2.5210001 -1.2473254 0.42695528 0
2.5180001 -1.2494466 0.4269228 0
2.5160003 -1.2521273 0.42690116 0
2.5130002 -1.2542287 0.42686871 0
2.5100002 -1.2563193 0.42683622 0
2.5070002 -1.2583991 0.42680377 0
2.5470002 -1.2271967 0.42336389 0
2.5440001 -1.2294136 0.42333683 0
2.5410001 -1.2316196 0.42330977 0
2.5380001 -1.233815 0.42328271 0
2.5350001 -1.2359993 0.42325568 0
2.5320003 -1.238173 0.42322862 0
2.5300002 -1.2408967 0.42321056 0
2.5270002 -1.2430505 0.4231835 0
2.5240002 -1.2451934 0.42315647 0
2.5210001 -1.2473254 0.42312941 0
2.5180001 -1.2494466 0.42310235 0
2.5160003 -1.2521273 0.42308432 0
2.5130002 -1.2542287 0.42305726 0
2.5100002 -1.2563193 0.4230302 0
2.5070002 -1.2583991 0.42300314 0
2.5470002 -1.2271967 0.41949111 0
2.5440001 -1.2294136 0.41946948 0
2.5410001 -1.2316196 0.41944784 0
2.5380001 -1.233815 0.41942617 0
2.5350001 -1.2359993 0.41940454 0
2.5320003 -1.238173 0.4193829 0
2.5300002 -1.2408967 0.41936845 0
2.5270002 -1.2430505 0.41934681 0
2.5240002 -1.2451934 0.41932517 0
2.5210001 -1.2473254 0.41930354 0
2.5180001 -1.2494466 0.41928187 0
2.5160003 -1.2521273 0.41926745 0
2.5130002 -1.2542287 0.41924581 0
2.5100002 -1.2563193 0.41922414 0
2.5070002 -1.2583991 0.41920251 0
2.5470002 -1.2271967 0.41561833 0
2.5440001 -1.2294136 0.41560212 0
2.5410001 -1.2316196 0.41558588 0
2.5380001 -1.233815 0.41556963 0
2.5350001 -1.2359993 0.41555339 0
2.5320003 -1.238173 0.41553718 0
2.5300002 -1.2408967 0.41552636 0
2.5270002 -1.2430505 0.41551012 0
2.5240002 -1.2451934 0.41549388 0
2.5210001 -1.2473254 0.41547763 0
2.5180001 -1.2494466 0.41546142 0
2.5160003 -1.2521273 0.4154506 0
2.5130002 -1.2542287 0.41543436 0
2.5100002 -1.2563193 0.41541812 0
2.5070002 -1.2583991 0.41540188 0
2.5470002 -1.2271967 0.41174558 0
2.5440001 -1.2294136 0.41173473 0
2.5410001 -1.2316196 0.41172391 0
2.5380001 -1.233815 0.41171309 0
2.5350001 -1.2359993 0.41170228 0
2.5320003 -1.238173 0.41169146 0
2.5300002 -1.2408967 0.41168424 0
2.5270002 -1.2430505 0.41167343 0
2.5240002 -1.2451934 0.41166258 0
2.5210001 -1.2473254 0.41165176 0
2.5180001 -1.2494466 0.41164094 0
2.5160003 -1.2521273 0.41163373 0
2.5130002 -1.2542287 0.41162291 0
2.5100002 -1.2563193 0.41161209 0
2.5070002 -1.2583991 0.41160128 0
2.5470002 -1.2271967 0.4078728 0
2.5440001 -1.2294136 0.40786737 0
2.5410001 -1.2316196 0.40786198 0
2.5380001 -1.233815 0.40785655 0
2.5350001 -1.2359993 0.40785113 0
2.5320003 -1.238173 0.40784574 0
2.5300002 -1.2408967 0.40784213 0
2.5270002 -1.2430505 0.40783671 0
2.5240002 -1.2451934 0.40783131 0
2.5210001 -1.2473254 0.40782589 0
2.5180001 -1.2494466 0.40782049 0
2.5160003 -1.2521273 0.40781689 0
2.5130002 -1.2542287 0.40781146 0
2.5100002 -1.2563193 0.40780604 0
2.5070002 -1.2583991 0.40780064 0
2.5470002 -1.2271967 0.40400001 0
2.5440001 -1.2294136 0.40400001 0
2.5410001 -1.2316196 0.40400001 0
2.5380001 -1.233815 0.40400001 0
2.5350001 -1.2359993 0.40400001 0
2.5320003 -1.238173 0.40400001 0
2.5300002 -1.2408967 0.40400001 0
2.5270002 -1.2430505 0.40400001 0
2.5240002 -1.2451934 0.40400001 0
2.5210001 -1.2473254 0.40400001 0
2.5180001 -1.2494466 0.40400001 0
2.5160003 -1.2521273 0.40400001 0
2.5130002 -1.2542287 0.40400001 0
2.5100002 -1.2563193 0.40400001 0
2.5070002 -1.2583991 0.40400001 0
2.5470002 -1.2271967 0.40012723 0
2.5440001 -1.2294136 0.40013266 0
2.5410001 -1.2316196 0.40013805 0
2.5380001 -1.233815 0.40014347 0
2.5350001 -1.2359993 0.4001489 0
2.5320003 -1.238173 0.40015429 0
2.5300002 -1.2408967 0.4001579 0
2.5270002 -1.2430505 0.40016332 0
2.5240002 -1.2451934 0.40016872 0
2.5210001 -1.2473254 0.40017414 0
2.5180001 -1.2494466 0.40017954 0
2.5160003 -1.2521273 0.40018314 0
2.5130002 -1.2542287 0.40018857 0
2.5100002 -1.2563193 0.40019399 0
2.5070002 -1.2583991 0.40019938 0
2.5470002 -1.2271967 0.39625445 0
2.5440001 -1.2294136 0.3962653 0
2.5410001 -1.2316196 0.39627612 0
2.5380001 -1.233815 0.39628693 0
2.5350001 -1.2359993 0.39629775 0
2.5320003 -1.238173 0.39630857 0
2.5300002 -1.2408967 0.39631578 0
2.5270002 -1.2430505 0.3963266 0
2.5240002 -1.2451934 0.39633745 0
2.5210001 -1.2473254 0.39634827 0
2.5180001 -1.2494466 0.39635909 0
2.5160003 -1.2521273 0.3963663 0
2.5130002 -1.2542287 0.39637712 0
2.5100002 -1.2563193 0.39638793 0
2.5070002 -1.2583991 0.39639875 0
2.5470002 -1.2271967 0.3923817 0
2.5440001 -1.2294136 0.39239791 0
2.5410001 -1.2316196 0.39241415 0
2.5380001 -1.233815 0.39243039 0
2.5350001 -1.2359993 0.39244664 0
2.5320003 -1.238173 0.39246285 0
2.5300002 -1.2408967 0.39247367 0
2.5270002 -1.2430505 0.39248991 0
2.5240002 -1.2451934 0.39250615 0
2.5210001 -1.2473254 0.39252239 0
2.5180001 -1.2494466 0.39253861 0
2.5160003 -1.2521273 0.39254943 0
2.5130002 -1.2542287 0.39256567 0
2.5100002 -1.2563193 0.39258191 0
2.5070002 -1.2583991 0.39259815 0
2.5470002 -1.2271967 0.38850892 0
2.5440001 -1.2294136 0.38853055 0
2.5410001 -1.2316196 0.38855219 0
2.5380001 -1.233815 0.38857386 0
2.5350001 -1.2359993 0.38859549 0
2.5320003 -1.238173 0.38861713 0
2.5300002 -1.2408967 0.38863158 0
2.5270002 -1.2430505 0.38865322 0
2.5240002 -1.2451934 0.38867486 0
2.5210001 -1.2473254 0.38869649 0
2.5180001 -1.2494466 0.38871816 0
2.5160003 -1.2521273 0.38873258 0
2.5130002 -1.2542287 0.38875422 0
2.5100002 -1.2563193 0.38877589 0
2.5070002 -1.2583991 0.38879752 0
2.5470002 -1.2271967 0.38463613 0
2.5440001 -1.2294136 0.38466319 0
2.5410001 -1.2316196 0.38469025 0
2.5380001 -1.233815 0.38471732 0
2.5350001 -1.2359993 0.38474435 0
2.5320003 -1.238173 0.38477141 0
2.5300002 -1.2408967 0.38478947 0
2.5270002 -1.2430505 0.38481653 0
2.5240002 -1.2451934 0.38484356 0
2.5210001 -1.2473254 0.38487062 0
2.5180001 -1.2494466 0.38489768 0
2.5160003 -1.2521273 0.38491571 0
2.5130002 -1.2542287 0.38494277 0
2.5100002 -1.2563193 0.38496983 0
2.5070002 -1.2583991 0.38499689 0
2.5470002 -1.2271967 0.38076335 0
2.5440001 -1.2294136 0.38079584 0
2.5410001 -1.2316196 0.38082829 0
2.5380001 -1.233815 0.38086078 0
2.5350001 -1.2359993 0.38089323 0
2.5320003 -1.238173 0.38092569 0
2.5300002 -1.2408967 0.38094735 0
2.5270002 -1.2430505 0.38097981 0
2.5240002 -1.2451934 0.38101229 0
2.5210001 -1.2473254 0.38104475 0
2.5180001 -1.2494466 0.38107723 0
2.5160003 -1.2521273 0.38109887 0
2.5130002 -1.2542287 0.38113132 0
2.5100002 -1.2563193 0.38116381 0
2.5070002 -1.2583991 0.38119626 0
2.5470002 -1.2271967 0.37689057 0
2.5440001 -1.2294136 0.37692845 0
2.5410001 -1.2316196 0.37696633 0
2.5380001 -1.233815 0.37700424 0
2.5350001 -1.2359993 0.37704211 0
2.5320003 -1.238173 0.37707996 0
2.5300002 -1.2408967 0.37710524 0
2.5270002 -1.2430505 0.37714311 0
2.5240002 -1.2451934 0.37718099 0
2.5210001 -1.2473254 0.37721887 0
2.5180001 -1.2494466 0.37725675 0
2.5160003 -1.2521273 0.37728199 0
2.5130002 -1.2542287 0.37731987 0
2.5100002 -1.2563193 0.37735778 0
2.5070002 -1.2583991 0.37739566 0
2.5470002 -1.2271967 0.37301782 0
2.5440001 -1.2294136 0.37306109 0
2.5410001 -1.2316196 0.37310439 0
2.5380001 -1.233815 0.37314767 0
2.5350001 -1.2359993 0.37319097 0
2.5320003 -1.238173 0.37323427 0
2.5300002 -1.2408967 0.37326312 0
2.5270002 -1.2430505 0.37330642 0
2.5240002 -1.2451934 0.3733497 0
2.5210001 -1.2473254 0.373393 0
2.5180001 -1.2494466 0.3734363 0
2.5160003 -1.2521273 0.37346515 0
2.5130002 -1.2542287 0.37350845 0
2.5100002 -1.2563193 0.37355173 0
2.5070002 -1.2583991 0.37359503 0
2.5470002 -1.2271967 0.36914504 0
2.5440001 -1.2294136 0.36919373 0
2.5410001 -1.2316196 0.36924243 0
2.5380001 -1.233815 0.36929113 0
2.5350001 -1.2359993 0.36933982 0
2.5320003 -1.238173 0.36938855 0
2.5300002 -1.2408967 0.36942101 0
2.5270002 -1.2430505 0.3694697 0
2.5240002 -1.2451934 0.3695184 0
2.5210001 -1.2473254 0.36956713 0
2.5180001 -1.2494466 0.36961582 0
2.5160003 -1.2521273 0.36964828 0
2.5130002 -1.2542287 0.36969697 0
2.5100002 -1.2563193 0.3697457 0
2.5070002 -1.2583991 0.3697944 0
2.5470002 -1.2271967 0.36527225 0
2.5440001 -1.2294136 0.36532637 0
2.5410001 -1.2316196 0.36538047 0
2.5380001 -1.233815 0.36543459 0
2.5350001 -1.2359993 0.36548871 0
2.5320003 -1.238173 0.36554283 0
2.5300002 -1.2408967 0.36557889 0
2.5270002 -1.2430505 0.36563301 0
2.5240002 -1.2451934 0.36568713 0
2.5210001 -1.2473254 0.36574125 0
2.5180001 -1.2494466 0.36579534 0
2.5160003 -1.2521273 0.36583143 0
2.5130002 -1.2542287 0.36588556 0
2.5100002 -1.2563193 0.36593965 0
2.5070002 -1.2583991 0.36599377 0
2.5470002 -1.2271967 0.36139947 0
2.5440001 -1.2294136 0.36145902 0
2.5410001 -1.2316196 0.36151853 0
2.5380001 -1.233815 0.36157805 0
2.5350001 -1.2359993 0.36163759 0
2.5320003 -1.238173 0.36169711 0
2.5300002 -1.2408967 0.36173677 0
2.5270002 -1.2430505 0.36179632 0
2.5240002 -1.2451934 0.36185583 0
2.5210001 -1.2473254 0.36191535 0
2.5180001 -1.2494466 0.3619749 0
2.5160003 -1.2521273 0.36201456 0
2.5130002 -1.2542287 0.36207411 0
2.5100002 -1.2563193 0.36213362 0
2.5070002 -1.2583991 0.36219314 0
2.5470002 -1.2271967 0.35752669 0
2.5440001 -1.2294136 0.35759163 0
2.5410001 -1.2316196 0.35765657 0
2.5380001 -1.233815 0.35772151 0
2.5350001 -1.2359993 0.35778645 0
2.5320003 -1.238173 0.35785139 0
2.5300002 -1.2408967 0.35789466 0
2.5270002 -1.2430505 0.3579596 0
2.5240002 -1.2451934 0.35802454 0
2.5210001 -1.2473254 0.35808948 0
2.5180001 -1.2494466 0.35815442 0
2.5160003 -1.2521273 0.35819772 0
2.5130002 -1.2542287 0.35826266 0
2.5100002 -1.2563193 0.3583276 0
2.5070002 -1.2583991 0.35839254 0
2.5470002 -1.2271967 0.35365391 0
2.5440001 -1.2294136 0.35372427 0
2.5410001 -1.2316196 0.35379463 0
2.5380001 -1.233815 0.35386497 0
2.5350001 -1.2359993 0.35393533 0
2.5320003 -1.238173 0.35400566 0
2.5300002 -1.2408967 0.35405257 0
2.5270002 -1.2430505 0.35412291 0
2.5240002 -1.2451934 0.35419327 0
2.5210001 -1.2473254 0.3542636 0
2.5180001 -1.2494466 0.35433397 0
2.5160003 -1.2521273 0.35438085 0
2.5130002 -1.2542287 0.35445121 0
2.5100002 -1.2563193 0.35452154 0
2.5070002 -1.2583991 0.35459191 0
2.5470002 -1.2271967 0.34978116 0
2.5440001 -1.2294136 0.34985691 0
2.5410001 -1.2316196 0.34993267 0
2.5380001 -1.233815 0.35000843 0
2.5350001 -1.2359993 0.35008419 0
2.5320003 -1.238173 0.35015994 0
2.5300002 -1.2408967 0.35021046 0
2.5270002 -1.2430505 0.35028622 0
2.5240002 -1.2451934 0.35036197 0
2.5210001 -1.2473254 0.35043773 0
2.5180001 -1.2494466 0.35051349 0
2.5160003 -1.2521273 0.350564 0
2.5130002 -1.2542287 0.35063976 0
2.5100002 -1.2563193 0.35071552 0
2.5070002 -1.2583991 0.35079128 0
2.5470002 -1.2271967 0.34590837 0
2.5440001 -1.2294136 0.34598956 0
2.5410001 -1.2316196 0.34607071 0
2.5380001 -1.233815 0.34615189 0
2.5350001 -1.2359993 0.34623307 0
2.5320003 -1.238173 0.34631422 0
2.5300002 -1.2408967 0.34636834 0
2.5270002 -1.2430505 0.34644952 0
2.5240002 -1.2451934 0.34653068 0
2.5210001 -1.2473254 0.34661186 0
2.5180001 -1.2494466 0.34669304 0
2.5160003 -1.2521273 0.34674713 0
2.5130002 -1.2542287 0.34682831 0
2.5100002 -1.2563193 0.34690949 0
2.5070002 -1.2583991 0.34699064 0
2.5730002 -1.2062238 0.3412852 0
2.5700002 -1.2085364 0.34137177 0
2.5670002 -1.210838 0.34145838 0
2.5640001 -1.2131288 0.34154496 0
2.5610001 -1.2154088 0.34163153 0
2.5580001 -1.217678 0.34171814 0
2.5550003 -1.2199365 0.34180471 0
2.5520003 -1.2221839 0.34189129 0
2.5490003 -1.2244207 0.34197786 0
2.5470002 -1.2271967 0.34203559 0
2.5440001 -1.2294136 0.34212217 0
2.5410001 -1.2316196 0.34220877 0
2.5380001 -1.233815 0.34229535 0
2.5350001 -1.2359993 0.34238192 0
2.5320003 -1.238173 0.3424685 0
2.5300002 -1.2408967 0.34252623 0
2.5270002 -1.2430505 0.3426128 0
2.5240002 -1.2451934 0.34269941 0
2.5210001 -1.2473254 0.34278598 0
2.5180001 -1.2494466 0.34287256 0
2.5160003 -1.2521273 0.34293029 0
2.5130002 -1.2542287 0.34301686 0
2.5100002 -1.2563193 0.34310344 0
2.5070002 -1.2583991 0.34319001 0
2.5730002 -1.2062238 0.33736554 0
2.5700002 -1.2085364 0.33745754 0
2.5670002 -1.210838 0.33754951 0
2.5640001 -1.2131288 0.33764151 0
2.5610001 -1.2154088 0.33773351 0
2.5580001 -1.217678 0.33782551 0
2.5550003 -1.2199365 0.33791751 0
2.5520003 -1.2221839 0.33800948 0
2.5490003 -1.2244207 0.33810148 0
2.5470002 -1.2271967 0.33816281 0
2.5440001 -1.2294136 0.33825481 0
2.5410001 -1.2316196 0.33834681 0
2.5380001 -1.233815 0.33843881 0
2.5350001 -1.2359993 0.33853081 0
2.5320003 -1.238173 0.33862278 0
2.5300002 -1.2408967 0.33868411 0
2.5270002 -1.2430505 0.33877611 0
2.5240002 -1.2451934 0.33886811 0
2.5210001 -1.2473254 0.33896011 0
2.5180001 -1.2494466 0.33905208 0
2.5160003 -1.2521273 0.33911341 0
2.5130002 -1.2542287 0.33920541 0
2.5100002 -1.2563193 0.33929741 0
2.5070002 -1.2583991 0.33938941 0
2.5730002 -1.2062238 0.33344585 0
2.5700002 -1.2085364 0.33354327 0
2.5670002 -1.210838 0.33364066 0
2.5640001 -1.2131288 0.33373809 0
2.5610001 -1.2154088 0.33383548 0
2.5580001 -1.217678 0.33393288 0
2.5550003 -1.2199365 0.33403027 0
2.5520003 -1.2221839 0.33412769 0
2.5490003 -1.2244207 0.33422512 0
2.5470002 -1.2271967 0.33429003 0
2.5440001 -1.2294136 0.33438745 0
2.5410001 -1.2316196 0.33448485 0
2.5380001 -1.233815 0.33458227 0
2.5350001 -1.2359993 0.33467966 0
2.5320003 -1.238173 0.33477706 0
2.5300002 -1.2408967 0.334842 0
2.5270002 -1.2430505 0.33493942 0
2.5240002 -1.2451934 0.33503681 0
2.5210001 -1.2473254 0.33513421 0
2.5180001 -1.2494466 0.33523163 0
2.5160003 -1.2521273 0.33529657 0
2.5130002 -1.2542287 0.33539397 0
2.5100002 -1.2563193 0.33549136 0
2.5070002 -1.2583991 0.33558878 0
2.5730002 -1.2062238 0.32952619 0
2.5700002 -1.2085364 0.329629 0
2.5670002 -1.210838 0.32973182 0
2.5640001 -1.2131288 0.32983464 0
2.5610001 -1.2154088 0.32993746 0
2.5580001 -1.217678 0.33004028 0
2.5550003 -1.2199365 0.33014309 0
2.5520003 -1.2221839 0.33024591 0
2.5490003 -1.2244207 0.33034873 0
2.5470002 -1.2271967 0.33041728 0
2.5440001 -1.2294136 0.33052009 0
2.5410001 -1.2316196 0.33062291 0
2.5380001 -1.233815 0.33072573 0
2.5350001 -1.2359993 0.33082855 0
2.5320003 -1.238173 0.33093137 0
2.5300002 -1.2408967 0.33099991 0
2.5270002 -1.2430505 0.33110273 0
2.5240002 -1.2451934 0.33120552 0
2.5210001 -1.2473254 0.33130836 0
2.5180001 -1.2494466 0.33141118 0
2.5160003 -1.2521273 0.3314797 0
2.5130002 -1.2542287 0.33158252 0
2.5100002 -1.2563193 0.33168533 0
2.5070002 -1.2583991 0.33178815 0
2.5730002 -1.2062238 0.32560652 0
2.5700002 -1.2085364 0.32571474 0
2.5670002 -1.210838 0.32582298 0
2.5640001 -1.2131288 0.32593119 0
2.5610001 -1.2154088 0.32603943 0
2.5580001 -1.217678 0.32614765 0
2.5550003 -1.2199365 0.32625586 0
2.5520003 -1.2221839 0.3263641 0
2.5490003 -1.2244207 0.32647234 0
2.5470002 -1.2271967 0.32654449 0
2.5440001 -1.2294136 0.32665271 0
2.5410001 -1.2316196 0.32676095 0
2.5380001 -1.233815 0.32686919 0
2.5350001 -1.2359993 0.3269774 0
2.5320003 -1.238173 0.32708561 0
2.5300002 -1.2408967 0.3271578 0
2.5270002 -1.2430505 0.32726601 0
2.5240002 -1.2451934 0.32737422 0
2.5210001 -1.2473254 0.32748246 0
2.5180001 -1.2494466 0.3275907 0
2.5160003 -1.2521273 0.32766286 0
2.5130002 -1.2542287 0.32777107 0
2.5100002 -1.2563193 0.32787931 0
2.5070002 -1.2583991 0.32798752 0
2.5730002 -1.2062238 0.32168683 0
2.5700002 -1.2085364 0.32180047 0
2.5670002 -1.210838 0.32191411 0
2.5640001 -1.2131288 0.32202774 0
2.5610001 -1.2154088 0.32214141 0
2.5580001 -1.217678 0.32225505 0
2.5550003 -1.2199365 0.32236868 0
2.5520003 -1.2221839 0.32248232 0
2.5490003 -1.2244207 0.32259595 0
2.5470002 -1.2271967 0.32267171 0
2.5440001 -1.2294136 0.32278535 0
2.5410001 -1.2316196 0.32289898 0
2.5380001 -1.233815 0.32301265 0
2.5350001 -1.2359993 0.32312629 0
2.5320003 -1.238173 0.32323992 0
2.5300002 -1.2408967 0.32331568 0
2.5270002 -1.2430505 0.32342932 0
2.5240002 -1.2451934 0.32354295 0
2.5210001 -1.2473254 0.32365659 0
2.5180001 -1.2494466 0.32377023 0
2.5160003 -1.2521273 0.32384598 0
2.5130002 -1.2542287 0.32395962 0
2.5100002 -1.2563193 0.32407326 0
2.5070002 -1.2583991 0.32418692 0
2.5730002 -1.2062238 0.31776714 0
2.5700002 -1.2085364 0.3178862 0
2.5670002 -1.210838 0.31800526 0
2.5640001 -1.2131288 0.31812429 0
2.5610001 -1.2154088 0.31824338 0
2.5580001 -1.217678 0.31836241 0
2.5550003 -1.2199365 0.31848145 0
2.5520003 -1.2221839 0.31860051 0
2.5490003 -1.2244207 0.31871957 0
2.5470002 -1.2271967 0.31879893 0
2.5440001 -1.2294136 0.31891799 0
2.5410001 -1.2316196 0.31903705 0
2.5380001 -1.233815 0.31915611 0
2.5350001 -1.2359993 0.31927514 0
2.5320003 -1.238173 0.3193942 0
2.5300002 -1.2408967 0.31947356 0
2.5270002 -1.2430505 0.3195926 0
2.5240002 -1.2451934 0.31971166 0
2.5210001 -1.2473254 0.31983072 0
2.5180001 -1.2494466 0.31994978 0
2.5160003 -1.2521273 0.32002914 0
2.5130002 -1.2542287 0.32014817 0
2.5100002 -1.2563193 0.32026723 0
2.5070002 -1.2583991 0.32038629 0
2.5730002 -1.2062238 0.31384748 0
2.5700002 -1.2085364 0.31397194 0
2.5670002 -1.210838 0.31409642 0
2.5640001 -1.2131288 0.31422088 0
2.5610001 -1.2154088 0.31434533 0
2.5580001 -1.217678 0.31446981 0
2.5550003 -1.2199365 0.31459427 0
2.5520003 -1.2221839 0.31471872 0
2.5490003 -1.2244207 0.31484318 0
2.5470002 -1.2271967 0.31492615 0
2.5440001 -1.2294136 0.31505063 0
2.5410001 -1.2316196 0.31517509 0
2.5380001 -1.233815 0.31529957 0
2.5350001 -1.2359993 0.31542403 0
2.5320003 -1.238173 0.31554848 0
2.5300002 -1.2408967 0.31563145 0
2.5270002 -1.2430505 0.3157559 0
2.5240002 -1.2451934 0.31588036 0
2.5210001 -1.2473254 0.31600484 0
2.5180001 -1.2494466 0.3161293 0
2.5160003 -1.2521273 0.31621227 0
2.5130002 -1.2542287 0.31633675 0
2.5100002 -1.2563193 0.31646121 0
2.5070002 -1.2583991 0.31658566 0
2.5730002 -1.2062238 0.30992782 0
2.5700002 -1.2085364 0.3100577 0
2.5670002 -1.210838 0.31018755 0
2.5640001 -1.2131288 0.31031743 0
2.5610001 -1.2154088 0.31044731 0
2.5580001 -1.217678 0.31057718 0
2.5550003 -1.2199365 0.31070703 0
2.5520003 -1.2221839 0.31083691 0
2.5490003 -1.2244207 0.31096679 0
2.5470002 -1.2271967 0.3110534 0
2.5440001 -1.2294136 0.31118327 0
2.5410001 -1.2316196 0.31131312 0
2.5380001 -1.233815 0.311443 0
2.5350001 -1.2359993 0.31157288 0
2.5320003 -1.238173 0.31170273 0
2.5300002 -1.2408967 0.31178933 0
2.5270002 -1.2430505 0.31191921 0
2.5240002 -1.2451934 0.31204909 0
2.5210001 -1.2473254 0.31217897 0
2.5180001 -1.2494466 0.31230885 0
2.5160003 -1.2521273 0.31239542 0
2.5130002 -1.2542287 0.31252527 0
2.5100002 -1.2563193 0.31265515 0
2.5070002 -1.2583991 0.31278503 0
2.5730002 -1.2062238 0.30600813 0
2.5700002 -1.2085364 0.30614343 0
2.5670002 -1.210838 0.30627871 0
2.5640001 -1.2131288 0.30641398 0
2.5610001 -1.2154088 0.30654928 0
2.5580001 -1.217678 0.30668455 0
2.5550003 -1.2199365 0.30681986 0
2.5520003 -1.2221839 0.30695513 0
2.5490003 -1.2244207 0.3070904 0
2.5470002 -1.2271967 0.30718061 0
2.5440001 -1.2294136 0.30731589 0
2.5410001 -1.2316196 0.30745119 0
2.5380001 -1.233815 0.30758646 0
2.5350001 -1.2359993 0.30772176 0
2.5320003 -1.238173 0.30785704 0
2.5300002 -1.2408967 0.30794722 0
2.5270002 -1.2430505 0.30808252 0
2.5240002 -1.2451934 0.30821779 0
2.5210001 -1.2473254 0.30835307 0
2.5180001 -1.2494466 0.30848837 0
2.5160003 -1.2521273 0.30857855 0
2.5130002 -1.2542287 0.30871385 0
2.5100002 -1.2563193 0.30884913 0
2.5070002 -1.2583991 0.3089844 0
2.5730002 -1.2062238 0.30208847 0
2.5700002 -1.2085364 0.30222917 0
2.5670002 -1.210838 0.30236983 0
2.5640001 -1.2131288 0.30251056 0
2.5610001 -1.2154088 0.30265126 0
2.5580001 -1.217678 0.30279195 0
2.5550003 -1.2199365 0.30293262 0
2.5520003 -1.2221839 0.30307335 0
2.5490003 -1.2244207 0.30321401 0
2.5470002 -1.2271967 0.30330783 0
2.5440001 -1.2294136 0.30344853 0
2.5410001 -1.2316196 0.30358922 0
2.5380001 -1.233815 0.30372992 0
2.5350001 -1.2359993 0.30387062 0
2.5320003 -1.238173 0.30401132 0
2.5300002 -1.2408967 0.3041051 0
2.5270002 -1.2430505 0.30424583 0
2.5240002 -1.2451934 0.3043865 0
2.5210001 -1.2473254 0.30452722 0
2.5180001 -1.2494466 0.30466789 0
2.5160003 -1.2521273 0.30476171 0
2.5130002 -1.2542287 0.3049024 0
2.5100002 -1.2563193 0.3050431 0
2.5070002 -1.2583991 0.3051838 0
2.5730002 -1.2062238 0.29816878 0
2.5700002 -1.2085364 0.29831487 0
2.5670002 -1.210838 0.29846099 0
2.5640001 -1.2131288 0.29860711 0
2.5610001 -1.2154088 0.2987532 0
2.5580001 -1.217678 0.29889932 0
2.5550003 -1.2199365 0.29904544 0
2.5520003 -1.2221839 0.29919153 0
2.5490003 -1.2244207 0.29933766 0
2.5470002 -1.2271967 0.29943505 0
2.5440001 -1.2294136 0.29958117 0
2.5410001 -1.2316196 0.29972726 0
2.5380001 -1.233815 0.29987338 0
2.5350001 -1.2359993 0.3000195 0
2.5320003 -1.238173 0.30016559 0
2.5300002 -1.2408967 0.30026299 0
2.5270002 -1.2430505 0.30040911 0
2.5240002 -1.2451934 0.30055523 0
2.5210001 -1.2473254 0.30070132 0
2.5180001 -1.2494466 0.30084744 0
2.5160003 -1.2521273 0.30094483 0
2.5130002 -1.2542287 0.30109096 0
2.5100002 -1.2563193 0.30123705 0
2.5070002 -1.2583991 0.30138317 0
2.5730002 -1.2062238 0.29424912 0
2.5700002 -1.2085364 0.29440063 0
2.5670002 -1.210838 0.29455215 0
2.5640001 -1.2131288 0.29470366 0
2.5610001 -1.2154088 0.29485518 0
2.5580001 -1.217678 0.29500669 0
2.5550003 -1.2199365 0.29515821 0
2.5520003 -1.2221839 0.29530975 0
2.5490003 -1.2244207 0.29546127 0
2.5470002 -1.2271967 0.29556227 0
2.5440001 -1.2294136 0.29571378 0
2.5410001 -1.2316196 0.29586533 0
2.5380001 -1.233815 0.29601684 0
2.5350001 -1.2359993 0.29616836 0
2.5320003 -1.238173 0.29631987 0
2.5300002 -1.2408967 0.29642087 0
2.5270002 -1.2430505 0.29657242 0
2.5240002 -1.2451934 0.29672393 0
2.5210001 -1.2473254 0.29687545 0
2.5180001 -1.2494466 0.29702699 0
2.5160003 -1.2521273 0.29712796 0
2.5130002 -1.2542287 0.29727951 0
2.5100002 -1.2563193 0.29743102 0
2.5070002 -1.2583991 0.29758254 0
2.5730002 -1.2062238 0.29032943 0
2.5700002 -1.2085364 0.29048637 0
2.5670002 -1.210838 0.2906433 0
2.5640001 -1.2131288 0.29080021 0
2.5610001 -1.2154088 0.29095715 0
2.5580001 -1.217678 0.29111409 0
2.5550003 -1.2199365 0.291271 0
2.5520003 -1.2221839 0.29142794 0
2.5490003 -1.2244207 0.29158488 0
2.5470002 -1.2271967 0.29168952 0
2.5440001 -1.2294136 0.29184642 0
2.5410001 -1.2316196 0.29200336 0
2.5380001 -1.233815 0.2921603 0
2.5350001 -1.2359993 0.29231724 0
2.5320003 -1.238173 0.29247415 0
2.5300002 -1.2408967 0.29257879 0
2.5270002 -1.2430505 0.2927357 0
2.5240002 -1.2451934 0.29289263 0
2.5210001 -1.2473254 0.29304957 0
2.5180001 -1.2494466 0.29320651 0
2.5160003 -1.2521273 0.29331112 0
2.5130002 -1.2542287 0.29346806 0
2.5100002 -1.2563193 0.293625 0
2.5070002 -1.2583991 0.29378191 0
2.5730002 -1.2062238 0.28640977 0
2.5700002 -1.2085364 0.2865721 0
2.5670002 -1.210838 0.28673443 0
2.5640001 -1.2131288 0.2868968 0
2.5610001 -1.2154088 0.28705913 0
2.5580001 -1.217678 0.28722149 0
2.5550003 -1.2199365 0.28738379 0
2.5520003 -1.2221839 0.28754616 0
2.5490003 -1.2244207 0.28770849 0
2.5470002 -1.2271967 0.28781673 0
2.5440001 -1.2294136 0.28797907 0
2.5410001 -1.2316196 0.2881414 0
2.5380001 -1.233815 0.28830376 0
2.5350001 -1.2359993 0.2884661 0
2.5320003 -1.238173 0.28862843 0
2.5300002 -1.2408967 0.28873667 0
2.5270002 -1.2430505 0.288899 0
2.5240002 -1.2451934 0.28906137 0
2.5210001 -1.2473254 0.2892237 0
2.5180001 -1.2494466 0.28938603 0
2.5160003 -1.2521273 0.28949428 0
2.5130002 -1.2542287 0.28965661 0
2.5100002 -1.2563193 0.28981894 0
2.5070002 -1.2583991 0.28998131 0
2.5730002 -1.2062238 0.28249007 0
2.5700002 -1.2085364 0.28265783 0
2.5670002 -1.210838 0.28282559 0
2.5640001 -1.2131288 0.28299335 0
2.5610001 -1.2154088 0.2831611 0
2.5580001 -1.217678 0.28332886 0
2.5550003 -1.2199365 0.28349659 0
2.5520003 -1.2221839 0.28366435 0
2.5490003 -1.2244207 0.2838321 0
2.5470002 -1.2271967 0.28394395 0
2.5440001 -1.2294136 0.28411171 0
2.5410001 -1.2316196 0.28427947 0
2.5380001 -1.233815 0.28444722 0
2.5350001 -1.2359993 0.28461498 0
2.5320003 -1.238173 0.28478271 0
2.5300002 -1.2408967 0.28489456 0
2.5270002 -1.2430505 0.28506231 0
2.5240002 -1.2451934 0.28523007 0
2.5210001 -1.2473254 0.28539783 0
2.5180001 -1.2494466 0.28556556 0
2.5160003 -1.2521273 0.2856774 0
2.5130002 -1.2542287 0.28584516 0
2.5100002 -1.2563193 0.28601292 0
2.5070002 -1.2583991 0.28618068 0
2.5730002 -1.2062238 0.27857041 0
2.5700002 -1.2085364 0.27874357 0
2.5670002 -1.210838 0.27891672 0
2.5640001 -1.2131288 0.2790899 0
2.5610001 -1.2154088 0.27926308 0
2.5580001 -1.217678 0.27943623 0
2.5550003 -1.2199365 0.27960938 0
2.5520003 -1.2221839 0.27978256 0
2.5490003 -1.2244207 0.27995571 0
2.5470002 -1.2271967 0.28007117 0
2.5440001 -1.2294136 0.28024435 0
2.5410001 -1.2316196 0.2804175 0
2.5380001 -1.233815 0.28059068 0
2.5350001 -1.2359993 0.28076383 0
2.5320003 -1.238173 0.28093699 0
2.5300002 -1.2408967 0.28105244 0
2.5270002 -1.2430505 0.28122562 0
2.5240002 -1.2451934 0.28139877 0
2.5210001 -1.2473254 0.28157195 0
2.5180001 -1.2494466 0.28174511 0
2.5160003 -1.2521273 0.28186053 0
2.5130002 -1.2542287 0.28203371 0
2.5100002 -1.2563193 0.28220689 0
2.5070002 -1.2583991 0.28238004 0
2.5730002 -1.2062238 0.27465075 0
2.5700002 -1.2085364 0.27482933 0
2.5670002 -1.210838 0.2750079 0
2.5640001 -1.2131288 0.27518648 0
2.5610001 -1.2154088 0.27536505 0
2.5580001 -1.217678 0.27554363 0
2.5550003 -1.2199365 0.27572221 0
2.5520003 -1.2221839 0.27590078 0
2.5490003 -1.2244207 0.27607936 0
2.5470002 -1.2271967 0.27619839 0
2.5440001 -1.2294136 0.27637696 0
2.5410001 -1.2316196 0.27655554 0
2.5380001 -1.233815 0.27673411 0
2.5350001 -1.2359993 0.27691269 0
2.5320003 -1.238173 0.27709126 0
2.5300002 -1.2408967 0.27721035 0
2.5270002 -1.2430505 0.27738893 0
2.5240002 -1.2451934 0.27756751 0
2.5210001 -1.2473254 0.27774608 0
2.5180001 -1.2494466 0.27792466 0
2.5160003 -1.2521273 0.27804369 0
2.5130002 -1.2542287 0.27822226 0
2.5100002 -1.2563193 0.27840084 0
2.5070002 -1.2583991 0.27857941 0
2.5730002 -1.2062238 0.27073103 0
2.5700002 -1.2085364 0.27091503 0
2.5670002 -1.210838 0.27109903 0
2.5640001 -1.2131288 0.27128303 0
2.5610001 -1.2154088 0.27146703 0
2.5580001 -1.217678 0.271651 0
2.5550003 -1.2199365 0.27183497 0
2.5520003 -1.2221839 0.27201897 0
2.5490003 -1.2244207 0.27220297 0
2.5470002 -1.2271967 0.27232563 0
2.5440001 -1.2294136 0.2725096 0
2.5410001 -1.2316196 0.2726936 0
2.5380001 -1.233815 0.27287757 0
2.5350001 -1.2359993 0.27306157 0
2.5320003 -1.238173 0.27324557 0
2.5300002 -1.2408967 0.27336824 0
2.5270002 -1.2430505 0.27355221 0
2.5240002 -1.2451934 0.27373618 0
2.5210001 -1.2473254 0.27392018 0
2.5180001 -1.2494466 0.27410418 0
2.5160003 -1.2521273 0.27422684 0
2.5130002 -1.2542287 0.27441084 0
2.5100002 -1.2563193 0.27459481 0
2.5070002 -1.2583991 0.27477878 0
2.5730002 -1.2062238 0.26681137 0
2.5700002 -1.2085364 0.26700079 0
2.5670002 -1.210838 0.26719019 0
2.5640001 -1.2131288 0.26737958 0
2.5610001 -1.2154088 0.26756898 0
2.5580001 -1.217678 0.26775837 0
2.5550003 -1.2199365 0.26794776 0
2.5520003 -1.2221839 0.26813716 0
2.5490003 -1.2244207 0.26832658 0
2.5470002 -1.2271967 0.26845282 0
2.5440001 -1.2294136 0.26864225 0
2.5410001 -1.2316196 0.26883167 0
2.5380001 -1.233815 0.26902103 0
2.5350001 -1.2359993 0.26921046 0
2.5320003 -1.238173 0.26939982 0
2.5300002 -1.2408967 0.26952612 0
2.5270002 -1.2430505 0.26971552 0
2.5240002 -1.2451934 0.26990491 0
2.5210001 -1.2473254 0.27009434 0
2.5180001 -1.2494466 0.2702837 0
2.5160003 -1.2521273 0.27040997 0
2.5130002 -1.2542287 0.27059937 0
2.5100002 -1.2563193 0.27078879 0
2.5070002 -1.2583991 0.27097818 0
2.5730002 -1.2062238 0.26289171 0
2.5700002 -1.2085364 0.2630865 0
2.5670002 -1.210838 0.26328135 0
2.5640001 -1.2131288 0.26347613 0
2.5610001 -1.2154088 0.26367098 0
2.5580001 -1.217678 0.26386577 0
2.5550003 -1.2199365 0.26406056 0
2.5520003 -1.2221839 0.26425537 0
2.5490003 -1.2244207 0.26445019 0
2.5470002 -1.2271967 0.26458007 0
2.5440001 -1.2294136 0.26477486 0
2.5410001 -1.2316196 0.26496971 0
2.5380001 -1.233815 0.26516449 0
2.5350001 -1.2359993 0.26535931 0
2.5320003 -1.238173 0.26555413 0
2.5300002 -1.2408967 0.26568401 0
2.5270002 -1.2430505 0.2658788 0
2.5240002 -1.2451934 0.26607361 0
2.5210001 -1.2473254 0.26626843 0
2.5180001 -1.2494466 0.26646325 0
2.5160003 -1.2521273 0.2665931 0
2.5130002 -1.2542287 0.26678792 0
2.5100002 -1.2563193 0.26698273 0
2.5070002 -1.2583991 0.26717755 0
2.5730002 -1.2062238 0.25897205 0
2.5700002 -1.2085364 0.25917226 0
2.5670002 -1.210838 0.25937247 0
2.5640001 -1.2131288 0.25957268 0
2.5610001 -1.2154088 0.25977293 0
2.5580001 -1.217678 0.25997317 0
2.5550003 -1.2199365 0.26017335 0
2.5520003 -1.2221839 0.26037359 0
2.5490003 -1.2244207 0.2605738 0
2.5470002 -1.2271967 0.26070729 0
2.5440001 -1.2294136 0.26090753 0
2.5410001 -1.2316196 0.26110774 0
2.5380001 -1.233815 0.26130795 0
2.5350001 -1.2359993 0.26150817 0
2.5320003 -1.238173 0.26170838 0
2.5300002 -1.2408967 0.26184189 0
2.5270002 -1.2430505 0.26204211 0
2.5240002 -1.2451934 0.26224232 0
2.5210001 -1.2473254 0.26244256 0
2.5180001 -1.2494466 0.2626428 0
2.5160003 -1.2521273 0.26277626 0
2.5130002 -1.2542287 0.26297647 0
2.5100002 -1.2563193 0.26317668 0
2.5070002 -1.2583991 0.26337692 0
2.5730002 -1.2062238 0.25505236 0
2.5700002 -1.2085364 0.25525796 0
2.5670002 -1.210838 0.25546363 0
2.5640001 -1.2131288 0.25566924 0
2.5610001 -1.2154088 0.25587487 0
2.5580001 -1.217678 0.25608054 0
2.5550003 -1.2199365 0.25628614 0
2.5520003 -1.2221839 0.25649178 0
2.5490003 -1.2244207 0.25669742 0
2.5470002 -1.2271967 0.25683451 0
2.5440001 -1.2294136 0.25704014 0
2.5410001 -1.2316196 0.25724578 0
2.5380001 -1.233815 0.25745142 0
2.5350001 -1.2359993 0.25765705 0
2.5320003 -1.238173 0.25786269 0
2.5300002 -1.2408967 0.25799978 0
