# .PCD v0.7 - Point Cloud Data file format
VERSION 0.7
FIELDS x y z intensity
SIZE 4 4 4 4
TYPE F F F F
COUNT 1 1 1 1
WIDTH 594
HEIGHT 1
VIEWPOINT 0 0 0 1 0 0 0
POINTS 594
DATA ascii
5.9900002 -0.42916495 2.4509075 0
5.9860005 -0.43896687 2.4494429 0
5.9740005 -0.4481771 2.4450488 0
5.9900002 -0.42916495 2.4408243 0
5.9860005 -0.43896687 2.4393668 0
5.9740005 -0.4481771 2.4349945 0
5.9900002 -0.42916495 2.4307411 0
5.9860005 -0.43896687 2.4292908 0
5.9740005 -0.4481771 2.4249399 0
5.9900002 -0.42916495 2.4206576 0
5.9860005 -0.43896687 2.4192147 0
5.9740005 -0.4481771 2.4148855 0
5.9900002 -0.42916495 2.4105744 0
5.9860005 -0.43896687 2.4091387 0
5.9740005 -0.4481771 2.4048312 0
5.9900002 -0.42916495 2.400491 0
5.9860005 -0.43896687 2.3990624 0
5.9740005 -0.4481771 2.3947766 0
5.9900002 -0.42916495 2.3904076 0
5.9860005 -0.43896687 2.3889866 0
5.9740005 -0.4481771 2.3847222 0
5.9900002 -0.42916495 2.3803244 0
5.9860005 -0.43896687 2.3789103 0
5.9740005 -0.4481771 2.3746676 0
5.9900002 -0.42916495 2.3702412 0
5.9860005 -0.43896687 2.3688343 0
5.9740005 -0.4481771 2.3646133 0
5.9900002 -0.42916495 2.360158 0
5.9860005 -0.43896687 2.3587582 0
5.9740005 -0.4481771 2.3545589 0
5.9900002 -0.42916495 2.3500745 0
5.9860005 -0.43896687 2.3486822 0
5.9740005 -0.4481771 2.3445046 0
5.9900002 -0.42916495 2.3399913 0
5.9860005 -0.43896687 2.3386061 0
5.9740005 -0.4481771 2.33445 0
5.9900002 -0.42916495 2.3299081 0
5.9860005 -0.43896687 2.3285298 0
5.9740005 -0.4481771 2.3243954 0
5.9900002 -0.42916495 2.3198245 0
5.9860005 -0.43896687 2.3184538 0
5.9740005 -0.4481771 2.3143411 0
5.9900002 -0.42916495 2.3097413 0
5.9860005 -0.43896687 2.3083777 0
5.9740005 -0.4481771 2.3042867 0
5.9900002 -0.42916495 2.2996581 0
5.9860005 -0.43896687 2.2983017 0
5.9740005 -0.4481771 2.2942324 0
5.9900002 -0.42916495 2.2895749 0
5.9860005 -0.43896687 2.2882257 0
5.9740005 -0.4481771 2.2841778 0
5.9900002 -0.42916495 2.2794914 0
5.9860005 -0.43896687 2.2781496 0
5.9740005 -0.4481771 2.2741234 0
5.9900002 -0.42916495 2.2694082 0
5.9860005 -0.43896687 2.2680733 0
5.9740005 -0.4481771 2.2640691 0
5.9900002 -0.42916495 2.259325 0
5.9860005 -0.43896687 2.2579975 0
5.9740005 -0.4481771 2.2540147 0
5.9900002 -0.42916495 2.2492416 0
5.9860005 -0.43896687 2.2479215 0
5.9740005 -0.4481771 2.2439601 0
5.9900002 -0.42916495 2.2391584 0
5.9860005 -0.43896687 2.2378454 0
5.9740005 -0.4481771 2.2339058 0
5.9900002 -0.42916495 2.2290752 0
5.9860005 -0.43896687 2.2277691 0
5.9740005 -0.4481771 2.2238512 0
5.9900002 -0.42916495 2.2189918 0
5.9860005 -0.43896687 2.2176931 0
5.9740005 -0.4481771 2.2137969 0
5.9900002 -0.42916495 2.2089086 0
5.9860005 -0.43896687 2.207617 0
5.9740005 -0.4481771 2.2037425 0
5.9900002 -0.42916495 2.1988251 0
5.9860005 -0.43896687 2.197541 0
5.9740005 -0.4481771 2.1936879 0
5.9900002 -0.42916495 2.1887419 0
5.9860005 -0.43896687 2.187465 0
5.9740005 -0.4481771 2.1836336 0
5.9900002 -0.42916495 2.1786587 0
5.9860005 -0.43896687 2.1773889 0
5.9740005 -0.4481771 2.1735792 0
5.9900002 -0.42916495 2.1685753 0
5.9860005 -0.43896687 2.1673126 0
5.9740005 -0.4481771 2.1635249 0
5.9900002 -0.42916495 2.1584921 0
5.9860005 -0.43896687 2.1572366 0
5.9740005 -0.4481771 2.1534703 0
5.9900002 -0.42916495 2.1484087 0
5.9860005 -0.43896687 2.1471605 0
5.9740005 -0.4481771 2.1434159 0
5.9900002 -0.42916495 2.1383255 0
5.9860005 -0.43896687 2.1370845 0
5.9740005 -0.4481771 2.1333616 0
5.9900002 -0.42916495 2.1282423 0
5.9860005 -0.43896687 2.1270084 0
5.9740005 -0.4481771 2.123307 0
5.9900002 -0.42916495 2.1181591 0
5.9860005 -0.43896687 2.1169324 0
5.9740005 -0.4481771 2.1132526 0
5.9900002 -0.42916495 2.1080756 0
5.9860005 -0.43896687 2.1068563 0
5.9740005 -0.4481771 2.1031981 0
5.9900002 -0.42916495 2.0979922 0
5.9860005 -0.43896687 2.0967803 0
5.9740005 -0.4481771 2.0931437 0
5.9900002 -0.42916495 2.087909 0
5.9860005 -0.43896687 2.0867043 0
5.9740005 -0.4481771 2.0830894 0
5.9900002 -0.42916495 2.0778258 0
5.9860005 -0.43896687 2.0766282 0
5.9740005 -0.4481771 2.073035 0
5.9900002 -0.42916495 2.0677426 0
5.9860005 -0.43896687 2.0665519 0
5.9740005 -0.4481771 2.0629804 0
5.9900002 -0.42916495 2.0576591 0
5.9860005 -0.43896687 2.0564759 0
5.9740005 -0.4481771 2.0529261 0
5.9900002 -0.42916495 2.047576 0
5.9860005 -0.43896687 2.0463998 0
5.9740005 -0.4481771 2.0428717 0
5.9900002 -0.42916495 2.0374925 0
5.9860005 -0.43896687 2.0363238 0
5.9740005 -0.4481771 2.0328171 0
5.9900002 -0.42916495 2.0274093 0
5.9860005 -0.43896687 2.0262477 0
5.9740005 -0.4481771 2.0227628 0
5.9900002 -0.42916495 2.0173261 0
5.9860005 -0.43896687 2.0161717 0
5.9740005 -0.4481771 2.0127084 0
5.9900002 -0.42916495 2.0072427 0
5.9860005 -0.43896687 2.0060956 0
5.9740005 -0.4481771 2.0026538 0
5.9900002 -0.42916495 1.9971595 0
5.9860005 -0.43896687 1.9960196 0
5.9740005 -0.4481771 1.9925996 0
5.9900002 -0.42916495 1.9870762 0
5.9860005 -0.43896687 1.9859436 0
5.9740005 -0.4481771 1.9825451 0
5.9900002 -0.42916495 1.976993 0
5.9860005 -0.43896687 1.9758675 0
5.9740005 -0.4481771 1.9724907 0
5.9900002 -0.42916495 1.9669096 0
5.9860005 -0.43896687 1.9657913 0
5.9740005 -0.4481771 1.9624362 0
5.9900002 -0.42916495 1.9568264 0
5.9860005 -0.43896687 1.9557153 0
5.9740005 -0.4481771 1.9523818 0
5.9900002 -0.42916495 1.9467431 0
5.9860005 -0.43896687 1.9456393 0
5.9740005 -0.4481771 1.9423275 0
5.9900002 -0.42916495 1.9366598 0
5.9860005 -0.43896687 1.9355632 0
5.9740005 -0.4481771 1.932273 0
5.9900002 -0.42916495 1.9265765 0
5.9860005 -0.43896687 1.9254872 0
5.9740005 -0.4481771 1.9222186 0
5.9900002 -0.42916495 1.9164932 0
5.9860005 -0.43896687 1.915411 0
5.9740005 -0.4481771 1.9121641 0
5.9900002 -0.42916495 1.90641 0
5.9860005 -0.43896687 1.9053349 0
5.9740005 -0.4481771 1.9021097 0
5.9900002 -0.42916495 1.8963267 0
5.9860005 -0.43896687 1.8952589 0
5.9740005 -0.4481771 1.8920553 0
5.9900002 -0.42916495 1.8862433 0
5.9860005 -0.43896687 1.8851829 0
5.9740005 -0.4481771 1.8820008 0
5.9900002 -0.42916495 1.87616 0
5.9860005 -0.43896687 1.8751068 0
5.9740005 -0.4481771 1.8719465 0
5.9900002 -0.42916495 1.8660768 0
5.9860005 -0.43896687 1.8650306 0
5.9740005 -0.4481771 1.861892 0
5.9900002 -0.42916495 1.8559935 0
5.9860005 -0.43896687 1.8549545 0
5.9740005 -0.4481771 1.8518376 0
5.9900002 -0.42916495 1.8459102 0
5.9860005 -0.43896687 1.8448784 0
5.9740005 -0.4481771 1.841783 0
5.9900002 -0.42916495 1.8358269 0
5.9860005 -0.43896687 1.8348024 0
5.9740005 -0.4481771 1.8317287 0
5.9900002 -0.42916495 1.8257436 0
5.9860005 -0.43896687 1.8247263 0
5.9740005 -0.4481771 1.8216742 0
5.9900002 -0.42916495 1.8156604 0
5.9860005 -0.43896687 1.8146503 0
5.9740005 -0.4481771 1.8116199 0
5.9900002 -0.42916495 1.805577 0
5.9860005 -0.43896687 1.8045741 0
5.9740005 -0.4481771 1.8015655 0
5.9900002 -0.42916495 1.7954938 0
5.9860005 -0.43896687 1.7944981 0
5.9740005 -0.4481771 1.7915109 0
5.9900002 -0.42916495 1.7854105 0
5.9860005 -0.43896687 1.784422 0
5.9740005 -0.4481771 1.7814566 0
5.9900002 -0.42916495 1.7753271 0
5.9860005 -0.43896687 1.774346 0
5.9740005 -0.4481771 1.7714021 0
5.9900002 -0.42916495 1.7652439 0
5.9860005 -0.43896687 1.7642699 0
5.9740005 -0.4481771 1.7613478 0
5.9900002 -0.42916495 1.7551606 0
5.9860005 -0.43896687 1.7541938 0
5.9740005 -0.4481771 1.7512933 0
5.9900002 -0.42916495 1.7450774 0
5.9860005 -0.43896687 1.7441177 0
5.9740005 -0.4481771 1.7412388 0
5.9900002 -0.42916495 1.7349941 0
5.9860005 -0.43896687 1.7340417 0
5.9740005 -0.4481771 1.7311845 0
5.9900002 -0.42916495 1.7249107 0
5.9860005 -0.43896687 1.7239656 0
5.9740005 -0.4481771 1.72113 0
5.9900002 -0.42916495 1.7148274 0
5.9860005 -0.43896687 1.7138896 0
5.9740005 -0.4481771 1.7110757 0
5.9900002 -0.42916495 1.7047442 0
5.9860005 -0.43896687 1.7038134 0
5.9740005 -0.4481771 1.7010211 0
5.9950004 -0.41941538 1.6958153 0
5.9900002 -0.42916495 1.6946609 0
5.9860005 -0.43896687 1.6937374 0
5.9740005 -0.4481771 1.6909667 0
5.9950004 -0.41941538 1.6857231 0
5.9900002 -0.42916495 1.6845776 0
5.9860005 -0.43896687 1.6836613 0
5.9740005 -0.4481771 1.6809124 0
5.9950004 -0.41941538 1.6756307 0
5.9900002 -0.42916495 1.6744943 0
5.9860005 -0.43896687 1.6735853 0
5.9740005 -0.4481771 1.6708579 0
5.9950004 -0.41941538 1.6655384 0
5.9900002 -0.42916495 1.6644109 0
5.9860005 -0.43896687 1.6635092 0
5.9740005 -0.4481771 1.6608034 0
5.9950004 -0.41941538 1.6554462 0
5.9900002 -0.42916495 1.6543278 0
5.9860005 -0.43896687 1.6534331 0
5.9740005 -0.4481771 1.650749 0
5.9950004 -0.41941538 1.6453539 0
5.9900002 -0.42916495 1.6442444 0
5.9860005 -0.43896687 1.643357 0
5.9740005 -0.4481771 1.6406946 0
5.9950004 -0.41941538 1.6352615 0
5.9900002 -0.42916495 1.6341612 0
5.9860005 -0.43896687 1.633281 0
5.9740005 -0.4481771 1.6306401 0
5.9950004 -0.41941538 1.6251693 0
5.9900002 -0.42916495 1.6240779 0
5.9860005 -0.43896687 1.6232049 0
5.9740005 -0.4481771 1.6205857 0
5.9950004 -0.41941538 1.6150769 0
5.9900002 -0.42916495 1.6139946 0
5.9860005 -0.43896687 1.6131289 0
5.9740005 -0.4481771 1.6105313 0
5.9990005 -0.40958279 1.6058433 0
5.9950004 -0.41941538 1.6049846 0
5.9900002 -0.42916495 1.6039113 0
5.9860005 -0.43896687 1.6030527 0
5.9740005 -0.4481771 1.6004769 0
5.9990005 -0.40958279 1.5957438 0
5.9950004 -0.41941538 1.5948923 0
5.9900002 -0.42916495 1.593828 0
5.9860005 -0.43896687 1.5929767 0
5.9740005 -0.4481771 1.5904225 0
5.9990005 -0.40958279 1.5856442 0
5.9950004 -0.41941538 1.5848 0
5.9900002 -0.42916495 1.5837448 0
5.9860005 -0.43896687 1.5829006 0
5.9740005 -0.4481771 1.580368 0
5.9990005 -0.40958279 1.5755447 0
5.9950004 -0.41941538 1.5747076 0
5.9900002 -0.42916495 1.5736614 0
5.9860005 -0.43896687 1.5728246 0
5.9740005 -0.4481771 1.5703136 0
5.9990005 -0.40958279 1.5654452 0
5.9950004 -0.41941538 1.5646154 0
5.9900002 -0.42916495 1.5635781 0
5.9860005 -0.43896687 1.5627486 0
5.9740005 -0.4481771 1.5602592 0
5.9990005 -0.40958279 1.5553457 0
5.9950004 -0.41941538 1.554523 0
5.9900002 -0.42916495 1.5534948 0
5.9860005 -0.43896687 1.5526724 0
5.9740005 -0.4481771 1.5502048 0
5.9990005 -0.40958279 1.5452461 0
5.9950004 -0.41941538 1.5444307 0
5.9900002 -0.42916495 1.5434116 0
5.9860005 -0.43896687 1.5425963 0
5.9740005 -0.4481771 1.5401504 0
5.9990005 -0.40958279 1.5351466 0
5.9950004 -0.41941538 1.5343384 0
5.9900002 -0.42916495 1.5333283 0
5.9860005 -0.43896687 1.5325203 0
5.9740005 -0.4481771 1.5300958 0
5.9990005 -0.40958279 1.5250471 0
5.9950004 -0.41941538 1.5242461 0
5.9900002 -0.42916495 1.523245 0
5.9860005 -0.43896687 1.5224441 0
5.9740005 -0.4481771 1.5200415 0
5.9990005 -0.40958279 1.5149475 0
5.9950004 -0.41941538 1.5141538 0
5.9900002 -0.42916495 1.5131617 0
5.9860005 -0.43896687 1.5123681 0
5.9740005 -0.4481771 1.509987 0
5.9990005 -0.40958279 1.504848 0
5.9950004 -0.41941538 1.5040616 0
5.9900002 -0.42916495 1.5030783 0
5.9860005 -0.43896687 1.5022919 0
5.9740005 -0.4481771 1.4999326 0
5.9990005 -0.40958279 1.4947486 0
5.9950004 -0.41941538 1.4939692 0
5.9900002 -0.42916495 1.4929951 0
5.9860005 -0.43896687 1.4922159 0
5.9740005 -0.4481771 1.4898782 0
5.9990005 -0.40958279 1.4846491 0
5.9950004 -0.41941538 1.4838769 0
5.9900002 -0.42916495 1.4829118 0
5.9860005 -0.43896687 1.4821398 0
5.9740005 -0.4481771 1.4798237 0
5.9990005 -0.40958279 1.4745494 0
5.9950004 -0.41941538 1.4737846 0
5.9900002 -0.42916495 1.4728286 0
5.9860005 -0.43896687 1.4720638 0
5.9740005 -0.4481771 1.4697694 0
5.9990005 -0.40958279 1.4644499 0
5.9950004 -0.41941538 1.4636923 0
5.9900002 -0.42916495 1.4627453 0
5.9860005 -0.43896687 1.4619877 0
5.9740005 -0.4481771 1.4597149 0
5.9990005 -0.40958279 1.4543504 0
5.9950004 -0.41941538 1.4535999 0
5.9900002 -0.42916495 1.4526619 0
5.9860005 -0.43896687 1.4519116 0
5.9740005 -0.4481771 1.4496605 0
5.9990005 -0.40958279 1.4442508 0
5.9950004 -0.41941538 1.4435077 0
5.9900002 -0.42916495 1.4425787 0
5.9860005 -0.43896687 1.4418355 0
5.9740005 -0.4481771 1.439606 0
5.9990005 -0.40958279 1.4341513 0
5.9950004 -0.41941538 1.4334153 0
5.9900002 -0.42916495 1.4324954 0
5.9860005 -0.43896687 1.4317595 0
5.9740005 -0.4481771 1.4295516 0
5.9990005 -0.40958279 1.4240518 0
5.9950004 -0.41941538 1.423323 0
5.9900002 -0.42916495 1.4224122 0
5.9860005 -0.43896687 1.4216834 0
5.9740005 -0.4481771 1.4194973 0
5.9990005 -0.40958279 1.4139522 0
5.9950004 -0.41941538 1.4132307 0
5.9900002 -0.42916495 1.4123288 0
5.9860005 -0.43896687 1.4116074 0
5.9740005 -0.4481771 1.4094428 0
5.9990005 -0.40958279 1.4038527 0
5.9950004 -0.41941538 1.4031384 0
5.9900002 -0.42916495 1.4022455 0
5.9860005 -0.43896687 1.4015312 0
5.9740005 -0.4481771 1.3993883 0
5.9990005 -0.40958279 1.3937532 0
5.9950004 -0.41941538 1.393046 0
5.9900002 -0.42916495 1.3921622 0
5.9860005 -0.43896687 1.3914552 0
5.9740005 -0.4481771 1.3893338 0
5.9990005 -0.40958279 1.3836536 0
5.9950004 -0.41941538 1.3829538 0
5.9900002 -0.42916495 1.382079 0
5.9860005 -0.43896687 1.3813791 0
5.9740005 -0.4481771 1.3792795 0
5.9990005 -0.40958279 1.3735541 0
5.9950004 -0.41941538 1.3728614 0
5.9900002 -0.42916495 1.3719957 0
5.9860005 -0.43896687 1.3713031 0
5.9740005 -0.4481771 1.369225 0
5.9990005 -0.40958279 1.3634546 0
5.9950004 -0.41941538 1.3627691 0
5.9900002 -0.42916495 1.3619123 0
5.9860005 -0.43896687 1.3612269 0
5.9740005 -0.4481771 1.3591706 0
5.9990005 -0.40958279 1.3533552 0
5.9950004 -0.41941538 1.352677 0
5.9900002 -0.42916495 1.3518291 0
5.9860005 -0.43896687 1.3511509 0
5.9740005 -0.4481771 1.3491162 0
5.9990005 -0.40958279 1.3432556 0
5.9950004 -0.41941538 1.3425846 0
5.9900002 -0.42916495 1.3417457 0
5.9860005 -0.43896687 1.3410748 0
5.9740005 -0.4481771 1.3390617 0
5.9990005 -0.40958279 1.3331561 0
5.9950004 -0.41941538 1.3324924 0
5.9900002 -0.42916495 1.3316625 0
5.9860005 -0.43896687 1.3309988 0
5.9740005 -0.4481771 1.3290074 0
5.9990005 -0.40958279 1.3230566 0
5.9950004 -0.41941538 1.3224 0
5.9900002 -0.42916495 1.3215792 0
5.9860005 -0.43896687 1.3209227 0
5.9740005 -0.4481771 1.3189529 0
5.9990005 -0.40958279 1.312957 0
5.9950004 -0.41941538 1.3123076 0
5.9900002 -0.42916495 1.3114959 0
5.9860005 -0.43896687 1.3108466 0
5.9740005 -0.4481771 1.3088984 0
5.9990005 -0.40958279 1.3028575 0
5.9950004 -0.41941538 1.3022153 0
5.9900002 -0.42916495 1.3014126 0
5.9860005 -0.43896687 1.3007705 0
5.9740005 -0.4481771 1.298844 0
5.9990005 -0.40958279 1.292758 0
5.9950004 -0.41941538 1.2921231 0
5.9900002 -0.42916495 1.2913294 0
5.9860005 -0.43896687 1.2906945 0
5.9740005 -0.4481771 1.2887896 0
5.9990005 -0.40958279 1.2826585 0
5.9950004 -0.41941538 1.2820307 0
5.9900002 -0.42916495 1.2812461 0
5.9860005 -0.43896687 1.2806183 0
5.9740005 -0.4481771 1.2787352 0
5.9990005 -0.40958279 1.2725589 0
5.9950004 -0.41941538 1.2719384 0
5.9900002 -0.42916495 1.2711627 0
5.9860005 -0.43896687 1.2705423 0
5.9740005 -0.4481771 1.2686808 0
5.9990005 -0.40958279 1.2624594 0
5.9950004 -0.41941538 1.2618461 0
5.9900002 -0.42916495 1.2610795 0
5.9860005 -0.43896687 1.2604662 0
5.9740005 -0.4481771 1.2586263 0
5.9990005 -0.40958279 1.2523599 0
5.9950004 -0.41941538 1.2517538 0
5.9900002 -0.42916495 1.2509961 0
5.9860005 -0.43896687 1.2503902 0
5.9740005 -0.4481771 1.2485719 0
5.9990005 -0.40958279 1.2422605 0
5.9950004 -0.41941538 1.2416614 0
5.9900002 -0.42916495 1.2409129 0
5.9860005 -0.43896687 1.2403141 0
5.9740005 -0.4481771 1.2385175 0
5.9990005 -0.40958279 1.2321609 0
5.9950004 -0.41941538 1.2315692 0
5.9900002 -0.42916495 1.2308296 0
5.9860005 -0.43896687 1.230238 0
5.9740005 -0.4481771 1.2284631 0
5.9990005 -0.40958279 1.2220614 0
5.9950004 -0.41941538 1.2214769 0
5.9900002 -0.42916495 1.2207463 0
5.9860005 -0.43896687 1.2201619 0
5.9740005 -0.4481771 1.2184086 0
5.9990005 -0.40958279 1.2119619 0
5.9950004 -0.41941538 1.2113847 0
5.9900002 -0.42916495 1.2106631 0
5.9860005 -0.43896687 1.2100859 0
5.9740005 -0.4481771 1.2083542 0
5.9990005 -0.40958279 1.2018623 0
5.9950004 -0.41941538 1.2012923 0
5.9900002 -0.42916495 1.2005798 0
5.9860005 -0.43896687 1.2000098 0
5.9740005 -0.4481771 1.1982998 0
5.9990005 -0.40958279 1.1917628 0
5.9950004 -0.41941538 1.1912 0
5.9900002 -0.42916495 1.1904964 0
5.9860005 -0.43896687 1.1899338 0
5.9740005 -0.4481771 1.1882453 0
5.9990005 -0.40958279 1.1816633 0
5.9950004 -0.41941538 1.1811076 0
5.9900002 -0.42916495 1.1804132 0
5.9860005 -0.43896687 1.1798576 0
5.9740005 -0.4481771 1.1781909 0
5.9990005 -0.40958279 1.1715637 0
5.9950004 -0.41941538 1.1710154 0
5.9900002 -0.42916495 1.1703299 0
5.9860005 -0.43896687 1.1697816 0
5.9740005 -0.4481771 1.1681365 0
5.9990005 -0.40958279 1.1614642 0
5.9950004 -0.41941538 1.160923 0
5.9900002 -0.42916495 1.1602466 0
5.9860005 -0.43896687 1.1597055 0
5.9740005 -0.4481771 1.158082 0
5.9990005 -0.40958279 1.1513647 0
5.9950004 -0.41941538 1.1508307 0
5.9900002 -0.42916495 1.1501633 0
5.9860005 -0.43896687 1.1496295 0
5.9740005 -0.4481771 1.1480277 0
5.9990005 -0.40958279 1.1412652 0
5.9950004 -0.41941538 1.1407385 0
5.9900002 -0.42916495 1.14008 0
5.9860005 -0.43896687 1.1395534 0
5.9740005 -0.4481771 1.1379732 0
5.9990005 -0.40958279 1.1311656 0
5.9950004 -0.41941538 1.1306461 0
5.9900002 -0.42916495 1.1299968 0
5.9860005 -0.43896687 1.1294773 0
5.9740005 -0.4481771 1.1279188 0
5.9990005 -0.40958279 1.1210661 0
5.9950004 -0.41941538 1.1205539 0
5.9900002 -0.42916495 1.1199135 0
5.9860005 -0.43896687 1.1194012 0
5.9740005 -0.4481771 1.1178644 0
5.9990005 -0.40958279 1.1109666 0
5.9950004 -0.41941538 1.1104615 0
5.9900002 -0.42916495 1.1098301 0
5.9860005 -0.43896687 1.1093252 0
5.9740005 -0.4481771 1.1078099 0
5.9990005 -0.40958279 1.100867 0
5.9950004 -0.41941538 1.1003692 0
5.9900002 -0.42916495 1.0997469 0
5.9860005 -0.43896687 1.099249 0
5.9740005 -0.4481771 1.0977554 0
5.9990005 -0.40958279 1.0907675 0
5.9950004 -0.41941538 1.090277 0
5.9900002 -0.42916495 1.0896635 0
5.9860005 -0.43896687 1.089173 0
5.9740005 -0.4481771 1.0877011 0
5.9990005 -0.40958279 1.080668 0
5.9950004 -0.41941538 1.0801846 0
5.9900002 -0.42916495 1.0795803 0
5.9860005 -0.43896687 1.0790969 0
5.9740005 -0.4481771 1.0776466 0
5.9990005 -0.40958279 1.0705686 0
5.9950004 -0.41941538 1.0700923 0
5.9900002 -0.42916495 1.069497 0
5.9860005 -0.43896687 1.0690209 0
5.9740005 -0.4481771 1.0675923 0
5.9990005 -0.40958279 1.060469 0
5.9950004 -0.41941538 1.0599999 0
5.9900002 -0.42916495 1.0594137 0
5.9860005 -0.43896687 1.0589448 0
5.9740005 -0.4481771 1.0575378 0
5.9990005 -0.40958279 1.0503695 0
5.9950004 -0.41941538 1.0499077 0
5.9900002 -0.42916495 1.0493305 0
5.9860005 -0.43896687 1.0488687 0
5.9740005 -0.4481771 1.0474833 0
5.9990005 -0.40958279 1.04027 0
5.9950004 -0.41941538 1.0398153 0
5.9900002 -0.42916495 1.0392472 0
5.9860005 -0.43896687 1.0387926 0
5.9740005 -0.4481771 1.037429 0
5.9990005 -0.40958279 1.0301704 0
5.9950004 -0.41941538 1.029723 0
5.9900002 -0.42916495 1.0291638 0
5.9860005 -0.43896687 1.0287166 0
5.9740005 -0.4481771 1.0273745 0
5.9990005 -0.40958279 1.0200709 0
5.9950004 -0.41941538 1.0196308 0
5.9900002 -0.42916495 1.0190806 0
5.9860005 -0.43896687 1.0186405 0
5.9740005 -0.4481771 1.01732 0
5.9990005 -0.40958279 1.0099714 0
5.9950004 -0.41941538 1.0095384 0
5.9900002 -0.42916495 1.0089973 0
5.9860005 -0.43896687 1.0085645 0
5.9740005 -0.4481771 1.0072657 0
5.9990005 -0.40958279 0.99987185 0
5.9950004 -0.41941538 0.99944615 0
5.9900002 -0.42916495 0.998914 0
5.9860005 -0.43896687 0.99848831 0
5.9740005 -0.4481771 0.99721122 0
5.9990005 -0.40958279 0.98977232 0
5.9950004 -0.41941538 0.98935378 0
5.9900002 -0.42916495 0.98883069 0
5.9860005 -0.43896687 0.98841226 0
5.9740005 -0.4481771 0.98715675 0
5.9990005 -0.40958279 0.97967279 0
5.9950004 -0.41941538 0.97926152 0
5.9900002 -0.42916495 0.97874737 0
5.9860005 -0.43896687 0.97833622 0
5.9740005 -0.4481771 0.9771024 0
5.9950004 -0.41941538 0.96916914 0
5.9900002 -0.42916495 0.96866417 0
5.9860005 -0.43896687 0.96826017 0
5.9740005 -0.4481771 0.96704793 0
5.9950004 -0.41941538 0.95907688 0
5.9900002 -0.42916495 0.95858085 0
5.9860005 -0.43896687 0.958184 0
5.9740005 -0.4481771 0.95699346 0
5.9950004 -0.41941538 0.94898462 0
5.9900002 -0.42916495 0.94849753 0
5.9860005 -0.43896687 0.94810796 0
5.9740005 -0.4481771 0.94693911 0
5.9950004 -0.41941538 0.93889225 0
5.9900002 -0.42916495 0.93841434 0
5.9860005 -0.43896687 0.93803191 0
5.9740005 -0.4481771 0.93688464 0
5.9900002 -0.42916495 0.9283309 0
5.9860005 -0.43896687 0.92795575 0
