# .PCD v0.7 - Point Cloud Data file format
VERSION 0.7
FIELDS x y z intensity
SIZE 4 4 4 4
TYPE F F F F
COUNT 1 1 1 1
WIDTH 1462
HEIGHT 1
VIEWPOINT 0 0 0 1 0 0 0
POINTS 1462
DATA ascii
4.8030005 2.0745587 0.49136385 0
4.8050003 2.0675764 0.49140355 0
4.8070002 2.0605862 0.49144322 0
4.8090005 2.0535896 0.49148291 0
4.8370004 2.0589197 0.49203849 0
4.6940002 2.4325769 0.48145553 0
4.6960001 2.425982 0.48149163 0
4.6980004 2.4193804 0.48152769 0
4.7000003 2.412771 0.48156375 0
4.7020001 2.4061546 0.48159984 0
4.7040005 2.3995311 0.48163593 0
4.7060003 2.3929002 0.48167199 0
4.7080002 2.3862622 0.48170808 0
4.7100005 2.379617 0.48174417 0
4.7120004 2.3729646 0.48178023 0
4.7140002 2.3663049 0.48181629 0
4.7160001 2.359638 0.48185238 0
4.7180004 2.3529639 0.48188847 0
4.7200003 2.3462827 0.48192453 0
4.7220001 2.3395939 0.48196059 0
4.7240005 2.3328984 0.48199669 0
4.7260003 2.3261952 0.48203278 0
4.7280002 2.3194852 0.48206884 0
4.7310004 2.3133128 0.48212296 0
4.7330003 2.3065863 0.48215902 0
4.7350001 2.2998526 0.48219508 0
4.7370005 2.2931118 0.48223117 0
4.7390003 2.2863638 0.48226726 0
4.7410002 2.2796082 0.48230332 0
4.7430005 2.272846 0.48233941 0
4.7450004 2.2660763 0.4823755 0
4.7470002 2.2592993 0.48241156 0
4.7490001 2.2525151 0.48244762 0
4.7510004 2.245724 0.48248371 0
4.7530003 2.2389252 0.48251981 0
4.7550001 2.2321193 0.48255587 0
4.7570004 2.2253067 0.48259193 0
4.7590003 2.2184865 0.48262802 0
4.7610002 2.211659 0.48266408 0
4.7630005 2.2048244 0.48270017 0
4.7650003 2.1979825 0.48273623 0
4.7670002 2.1911335 0.48277232 0
4.7690005 2.1842773 0.48280841 0
4.7710004 2.1774137 0.48284447 0
4.7730002 2.170543 0.48288053 0
4.7760005 2.1641703 0.48293465 0
4.7780004 2.1572831 0.48297074 0
4.7800002 2.150389 0.48300683 0
4.7820005 2.1434877 0.4830429 0
4.7840004 2.1365793 0.48307896 0
4.7860003 2.1296632 0.48311505 0
4.7880001 2.1227403 0.48315111 0
4.7900004 2.1158102 0.4831872 0
4.7920003 2.1088727 0.48322326 0
4.7940001 2.101928 0.48325935 0
4.7960005 2.0949759 0.48329544 0
4.7980003 2.088017 0.4833315 0
4.8000002 2.0810506 0.48336756 0
4.8030005 2.0745587 0.48342168 0
4.8050003 2.0675764 0.48345777 0
4.8070002 2.0605862 0.48349383 0
4.8090005 2.0535896 0.48352993 0
4.8370004 2.0589197 0.48403499 0
4.6940002 2.4325769 0.47371 0
4.6960001 2.425982 0.47374246 0
4.6980004 2.4193804 0.47377491 0
4.7000003 2.412771 0.47380739 0
4.7020001 2.4061546 0.47383988 0
4.7040005 2.3995311 0.47387233 0
4.7060003 2.3929002 0.47390479 0
4.7080002 2.3862622 0.47393727 0
4.7100005 2.379617 0.47396976 0
4.7120004 2.3729646 0.47400221 0
4.7140002 2.3663049 0.47403467 0
4.7160001 2.359638 0.47406715 0
4.7180004 2.3529639 0.47409961 0
4.7200003 2.3462827 0.47413206 0
4.7220001 2.3395939 0.47416455 0
4.7240005 2.3328984 0.47419703 0
4.7260003 2.3261952 0.47422948 0
4.7280002 2.3194852 0.47426194 0
4.7310004 2.3133128 0.47431067 0
4.7330003 2.3065863 0.47434312 0
4.7350001 2.2998526 0.47437561 0
4.7370005 2.2931118 0.47440806 0
4.7390003 2.2863638 0.47444052 0
4.7410002 2.2796082 0.474473 0
4.7430005 2.272846 0.47450548 0
4.7450004 2.2660763 0.47453794 0
4.7470002 2.2592993 0.47457039 0
4.7490001 2.2525151 0.47460288 0
4.7510004 2.245724 0.47463536 0
4.7530003 2.2389252 0.47466782 0
4.7550001 2.2321193 0.47470027 0
4.7570004 2.2253067 0.47473276 0
4.7590003 2.2184865 0.47476521 0
4.7610002 2.211659 0.47479767 0
4.7630005 2.2048244 0.47483015 0
4.7650003 2.1979825 0.47486264 0
4.7670002 2.1911335 0.47489509 0
4.7690005 2.1842773 0.47492754 0
4.7710004 2.1774137 0.47496003 0
4.7730002 2.170543 0.47499251 0
4.7760005 2.1641703 0.47504121 0
4.7780004 2.1572831 0.47507367 0
4.7800002 2.150389 0.47510612 0
4.7820005 2.1434877 0.4751386 0
4.7840004 2.1365793 0.47517109 0
4.7860003 2.1296632 0.47520354 0
4.7880001 2.1227403 0.475236 0
4.7900004 2.1158102 0.47526848 0
4.7920003 2.1088727 0.47530094 0
4.7940001 2.101928 0.47533342 0
4.7960005 2.0949759 0.47536588 0
4.7980003 2.088017 0.47539836 0
4.8000002 2.0810506 0.47543082 0
4.8030005 2.0745587 0.47547951 0
4.8050003 2.0675764 0.475512 0
4.8070002 2.0605862 0.47554445 0
4.8090005 2.0535896 0.47557694 0
4.8370004 2.0589197 0.47603148 0
4.6940002 2.4325769 0.46596444 0
4.6960001 2.425982 0.46599329 0
4.6980004 2.4193804 0.46602216 0
4.7000003 2.412771 0.46605101 0
4.7020001 2.4061546 0.46607989 0
4.7040005 2.3995311 0.46610874 0
4.7060003 2.3929002 0.46613759 0
4.7080002 2.3862622 0.46616647 0
4.7100005 2.379617 0.46619532 0
4.7120004 2.3729646 0.46622419 0
4.7140002 2.3663049 0.46625304 0
4.7160001 2.359638 0.46628189 0
4.7180004 2.3529639 0.46631077 0
4.7200003 2.3462827 0.46633962 0
4.7220001 2.3395939 0.4663685 0
4.7240005 2.3328984 0.46639735 0
4.7260003 2.3261952 0.46642619 0
4.7280002 2.3194852 0.46645507 0
4.7310004 2.3133128 0.46649837 0
4.7330003 2.3065863 0.46652722 0
4.7350001 2.2998526 0.46655607 0
4.7370005 2.2931118 0.46658495 0
4.7390003 2.2863638 0.4666138 0
4.7410002 2.2796082 0.46664268 0
4.7430005 2.272846 0.46667153 0
4.7450004 2.2660763 0.46670038 0
4.7470002 2.2592993 0.46672925 0
4.7490001 2.2525151 0.4667581 0
4.7510004 2.245724 0.46678698 0
4.7530003 2.2389252 0.46681583 0
4.7550001 2.2321193 0.46684468 0
4.7570004 2.2253067 0.46687356 0
4.7590003 2.2184865 0.46690241 0
4.7610002 2.211659 0.46693128 0
4.7630005 2.2048244 0.46696013 0
4.7650003 2.1979825 0.46698898 0
4.7670002 2.1911335 0.46701786 0
4.7690005 2.1842773 0.46704674 0
4.7710004 2.1774137 0.46707559 0
4.7730002 2.170543 0.46710443 0
4.7760005 2.1641703 0.46714774 0
4.7780004 2.1572831 0.46717659 0
4.7800002 2.150389 0.46720546 0
4.7820005 2.1434877 0.46723431 0
4.7840004 2.1365793 0.46726316 0
4.7860003 2.1296632 0.46729204 0
4.7880001 2.1227403 0.46732089 0
4.7900004 2.1158102 0.46734977 0
4.7920003 2.1088727 0.46737862 0
4.7940001 2.101928 0.46740746 0
4.7960005 2.0949759 0.46743634 0
4.7980003 2.088017 0.46746522 0
4.8000002 2.0810506 0.46749407 0
4.8030005 2.0745587 0.46753734 0
4.8050003 2.0675764 0.46756622 0
4.8070002 2.0605862 0.46759507 0
4.8090005 2.0535896 0.46762395 0
4.8370004 2.0589197 0.46802801 0
4.6940002 2.4325769 0.45821887 0
4.6960001 2.425982 0.45824414 0
4.6980004 2.4193804 0.45826939 0
4.7000003 2.412771 0.45829463 0
4.7020001 2.4061546 0.4583199 0
4.7040005 2.3995311 0.45834514 0
4.7060003 2.3929002 0.45837039 0
4.7080002 2.3862622 0.45839566 0
4.7100005 2.379617 0.4584209 0
4.7120004 2.3729646 0.45844617 0
4.7140002 2.3663049 0.45847142 0
4.7160001 2.359638 0.45849666 0
4.7180004 2.3529639 0.45852193 0
4.7200003 2.3462827 0.45854717 0
4.7220001 2.3395939 0.45857242 0
4.7240005 2.3328984 0.45859769 0
4.7260003 2.3261952 0.45862293 0
4.7280002 2.3194852 0.4586482 0
4.7310004 2.3133128 0.45868605 0
4.7330003 2.3065863 0.45871133 0
4.7350001 2.2998526 0.45873657 0
4.7370005 2.2931118 0.45876184 0
4.7390003 2.2863638 0.45878708 0
4.7410002 2.2796082 0.45881233 0
4.7430005 2.272846 0.4588376 0
4.7450004 2.2660763 0.45886284 0
4.7470002 2.2592993 0.45888808 0
4.7490001 2.2525151 0.45891336 0
4.7510004 2.245724 0.4589386 0
4.7530003 2.2389252 0.45896384 0
4.7550001 2.2321193 0.45898911 0
4.7570004 2.2253067 0.45901436 0
4.7590003 2.2184865 0.45903963 0
4.7610002 2.211659 0.45906487 0
4.7630005 2.2048244 0.45909011 0
4.7650003 2.1979825 0.45911539 0
4.7670002 2.1911335 0.45914063 0
4.7690005 2.1842773 0.45916587 0
4.7710004 2.1774137 0.45919114 0
4.7730002 2.170543 0.45921639 0
4.7760005 2.1641703 0.45925426 0
4.7780004 2.1572831 0.45927954 0
4.7800002 2.150389 0.45930478 0
4.7820005 2.1434877 0.45933002 0
4.7840004 2.1365793 0.45935529 0
4.7860003 2.1296632 0.45938054 0
4.7880001 2.1227403 0.45940578 0
4.7900004 2.1158102 0.45943105 0
4.7920003 2.1088727 0.45945629 0
4.7940001 2.101928 0.45948154 0
4.7960005 2.0949759 0.45950681 0
4.7980003 2.088017 0.45953205 0
4.8000002 2.0810506 0.45955729 0
4.8030005 2.0745587 0.4595952 0
4.8050003 2.0675764 0.45962045 0
4.8070002 2.0605862 0.45964569 0
4.8090005 2.0535896 0.45967096 0
4.8370004 2.0589197 0.46002451 0
4.6940002 2.4325769 0.45047334 0
4.6960001 2.425982 0.45049497 0
4.6980004 2.4193804 0.45051661 0
4.7000003 2.412771 0.45053828 0
4.7020001 2.4061546 0.45055991 0
4.7040005 2.3995311 0.45058155 0
4.7060003 2.3929002 0.45060322 0
4.7080002 2.3862622 0.45062485 0
4.7100005 2.379617 0.45064649 0
4.7120004 2.3729646 0.45066816 0
4.7140002 2.3663049 0.45068979 0
4.7160001 2.359638 0.45071143 0
4.7180004 2.3529639 0.45073307 0
4.7200003 2.3462827 0.45075473 0
4.7220001 2.3395939 0.45077637 0
4.7240005 2.3328984 0.450798 0
4.7260003 2.3261952 0.45081967 0
4.7280002 2.3194852 0.45084131 0
4.7310004 2.3133128 0.45087379 0
4.7330003 2.3065863 0.45089543 0
4.7350001 2.2998526 0.45091707 0
4.7370005 2.2931118 0.4509387 0
4.7390003 2.2863638 0.45096037 0
4.7410002 2.2796082 0.450982 0
4.7430005 2.272846 0.45100364 0
4.7450004 2.2660763 0.45102531 0
4.7470002 2.2592993 0.45104694 0
4.7490001 2.2525151 0.45106858 0
4.7510004 2.245724 0.45109025 0
4.7530003 2.2389252 0.45111188 0
4.7550001 2.2321193 0.45113352 0
4.7570004 2.2253067 0.45115519 0
4.7590003 2.2184865 0.45117682 0
4.7610002 2.211659 0.45119846 0
4.7630005 2.2048244 0.4512201 0
4.7650003 2.1979825 0.45124176 0
4.7670002 2.1911335 0.4512634 0
4.7690005 2.1842773 0.45128503 0
4.7710004 2.1774137 0.4513067 0
4.7730002 2.170543 0.45132834 0
4.7760005 2.1641703 0.45136082 0
4.7780004 2.1572831 0.45138246 0
4.7800002 2.150389 0.45140409 0
4.7820005 2.1434877 0.45142573 0
4.7840004 2.1365793 0.4514474 0
4.7860003 2.1296632 0.45146903 0
4.7880001 2.1227403 0.45149067 0
4.7900004 2.1158102 0.45151234 0
4.7920003 2.1088727 0.45153397 0
4.7940001 2.101928 0.45155561 0
4.7960005 2.0949759 0.45157728 0
4.7980003 2.088017 0.45159891 0
4.8000002 2.0810506 0.45162055 0
4.8030005 2.0745587 0.45165303 0
4.8050003 2.0675764 0.45167467 0
4.8070002 2.0605862 0.45169631 0
4.8090005 2.0535896 0.45171797 0
4.8370004 2.0589197 0.452021 0
4.6940002 2.4325769 0.44272777 0
4.6960001 2.425982 0.4427458 0
4.6980004 2.4193804 0.44276386 0
4.7000003 2.412771 0.4427819 0
4.7020001 2.4061546 0.44279993 0
4.7040005 2.3995311 0.44281799 0
4.7060003 2.3929002 0.44283602 0
4.7080002 2.3862622 0.44285405 0
4.7100005 2.379617 0.44287208 0
4.7120004 2.3729646 0.44289011 0
4.7140002 2.3663049 0.44290817 0
4.7160001 2.359638 0.4429262 0
4.7180004 2.3529639 0.44294423 0
4.7200003 2.3462827 0.44296226 0
4.7220001 2.3395939 0.44298032 0
4.7240005 2.3328984 0.44299835 0
4.7260003 2.3261952 0.44301638 0
4.7280002 2.3194852 0.44303441 0
4.7310004 2.3133128 0.44306147 0
4.7330003 2.3065863 0.44307953 0
4.7350001 2.2998526 0.44309756 0
4.7370005 2.2931118 0.44311559 0
4.7390003 2.2863638 0.44313362 0
4.7410002 2.2796082 0.44315168 0
4.7430005 2.272846 0.44316971 0
4.7450004 2.2660763 0.44318774 0
4.7470002 2.2592993 0.44320577 0
4.7490001 2.2525151 0.44322383 0
4.7510004 2.245724 0.44324186 0
4.7530003 2.2389252 0.44325989 0
4.7550001 2.2321193 0.44327793 0
4.7570004 2.2253067 0.44329599 0
4.7590003 2.2184865 0.44331402 0
4.7610002 2.211659 0.44333205 0
4.7630005 2.2048244 0.44335008 0
4.7650003 2.1979825 0.44336814 0
4.7670002 2.1911335 0.44338617 0
4.7690005 2.1842773 0.4434042 0
4.7710004 2.1774137 0.44342226 0
4.7730002 2.170543 0.44344029 0
4.7760005 2.1641703 0.44346735 0
4.7780004 2.1572831 0.44348538 0
4.7800002 2.150389 0.44350341 0
4.7820005 2.1434877 0.44352144 0
4.7840004 2.1365793 0.4435395 0
4.7860003 2.1296632 0.44355753 0
4.7880001 2.1227403 0.44357556 0
4.7900004 2.1158102 0.44359359 0
4.7920003 2.1088727 0.44361165 0
4.7940001 2.101928 0.44362968 0
4.7960005 2.0949759 0.44364771 0
4.7980003 2.088017 0.44366574 0
4.8000002 2.0810506 0.4436838 0
4.8030005 2.0745587 0.44371086 0
4.8050003 2.0675764 0.44372889 0
4.8070002 2.0605862 0.44374692 0
4.8090005 2.0535896 0.44376498 0
4.8370004 2.0589197 0.4440175 0
4.6940002 2.4325769 0.43498221 0
4.6960001 2.425982 0.43499666 0
4.6980004 2.4193804 0.43501109 0
4.7000003 2.412771 0.43502551 0
4.7020001 2.4061546 0.43503994 0
4.7040005 2.3995311 0.43505439 0
4.7060003 2.3929002 0.43506882 0
4.7080002 2.3862622 0.43508324 0
4.7100005 2.379617 0.43509766 0
4.7120004 2.3729646 0.43511209 0
4.7140002 2.3663049 0.43512654 0
4.7160001 2.359638 0.43514097 0
4.7180004 2.3529639 0.43515539 0
4.7200003 2.3462827 0.43516982 0
4.7220001 2.3395939 0.43518424 0
4.7240005 2.3328984 0.43519869 0
4.7260003 2.3261952 0.43521312 0
4.7280002 2.3194852 0.43522754 0
4.7310004 2.3133128 0.43524918 0
4.7330003 2.3065863 0.43526363 0
4.7350001 2.2998526 0.43527806 0
4.7370005 2.2931118 0.43529248 0
4.7390003 2.2863638 0.43530691 0
4.7410002 2.2796082 0.43532133 0
4.7430005 2.272846 0.43533579 0
4.7450004 2.2660763 0.43535021 0
4.7470002 2.2592993 0.43536463 0
4.7490001 2.2525151 0.43537906 0
4.7510004 2.245724 0.43539348 0
4.7530003 2.2389252 0.43540794 0
4.7550001 2.2321193 0.43542236 0
4.7570004 2.2253067 0.43543679 0
4.7590003 2.2184865 0.43545121 0
4.7610002 2.211659 0.43546563 0
4.7630005 2.2048244 0.43548009 0
4.7650003 2.1979825 0.43549451 0
4.7670002 2.1911335 0.43550894 0
4.7690005 2.1842773 0.43552336 0
4.7710004 2.1774137 0.43553779 0
4.7730002 2.170543 0.43555224 0
4.7760005 2.1641703 0.43557388 0
4.7780004 2.1572831 0.4355883 0
4.7800002 2.150389 0.43560272 0
4.7820005 2.1434877 0.43561718 0
4.7840004 2.1365793 0.4356316 0
4.7860003 2.1296632 0.43564603 0
4.7880001 2.1227403 0.43566045 0
4.7900004 2.1158102 0.43567488 0
4.7920003 2.1088727 0.43568933 0
4.7940001 2.101928 0.43570375 0
4.7960005 2.0949759 0.43571818 0
4.7980003 2.088017 0.4357326 0
4.8000002 2.0810506 0.43574703 0
4.8030005 2.0745587 0.43576869 0
4.8050003 2.0675764 0.43578312 0
4.8070002 2.0605862 0.43579754 0
4.8090005 2.0535896 0.43581197 0
4.8370004 2.0589197 0.436014 0
4.6940002 2.4325769 0.42723668 0
4.6960001 2.425982 0.42724749 0
4.6980004 2.4193804 0.42725831 0
4.7000003 2.412771 0.42726913 0
4.7020001 2.4061546 0.42727995 0
4.7040005 2.3995311 0.4272908 0
4.7060003 2.3929002 0.42730162 0
4.7080002 2.3862622 0.42731243 0
4.7100005 2.379617 0.42732325 0
4.7120004 2.3729646 0.42733407 0
4.7140002 2.3663049 0.42734489 0
4.7160001 2.359638 0.42735571 0
4.7180004 2.3529639 0.42736655 0
4.7200003 2.3462827 0.42737737 0
4.7220001 2.3395939 0.42738819 0
4.7240005 2.3328984 0.42739901 0
4.7260003 2.3261952 0.42740983 0
4.7280002 2.3194852 0.42742065 0
4.7310004 2.3133128 0.42743689 0
4.7330003 2.3065863 0.42744771 0
4.7350001 2.2998526 0.42745852 0
4.7370005 2.2931118 0.42746937 0
4.7390003 2.2863638 0.42748019 0
4.7410002 2.2796082 0.42749101 0
4.7430005 2.272846 0.42750183 0
4.7450004 2.2660763 0.42751265 0
4.7470002 2.2592993 0.42752346 0
4.7490001 2.2525151 0.42753431 0
4.7510004 2.245724 0.42754513 0
4.7530003 2.2389252 0.42755595 0
4.7550001 2.2321193 0.42756677 0
4.7570004 2.2253067 0.42757758 0
4.7590003 2.2184865 0.4275884 0
4.7610002 2.211659 0.42759925 0
4.7630005 2.2048244 0.42761007 0
4.7650003 2.1979825 0.42762089 0
4.7670002 2.1911335 0.42763171 0
4.7690005 2.1842773 0.42764252 0
4.7710004 2.1774137 0.42765334 0
4.7730002 2.170543 0.42766416 0
4.7760005 2.1641703 0.4276804 0
4.7780004 2.1572831 0.42769122 0
4.7800002 2.150389 0.42770207 0
4.7820005 2.1434877 0.42771289 0
4.7840004 2.1365793 0.42772371 0
4.7860003 2.1296632 0.42773452 0
4.7880001 2.1227403 0.42774534 0
4.7900004 2.1158102 0.42775616 0
4.7920003 2.1088727 0.42776698 0
4.7940001 2.101928 0.42777783 0
4.7960005 2.0949759 0.42778865 0
4.7980003 2.088017 0.42779946 0
4.8000002 2.0810506 0.42781028 0
4.8030005 2.0745587 0.42782652 0
4.8050003 2.0675764 0.42783734 0
4.8070002 2.0605862 0.42784816 0
4.8090005 2.0535896 0.42785898 0
4.8370004 2.0589197 0.42801049 0
4.6940002 2.4325769 0.41949111 0
4.6960001 2.425982 0.41949832 0
4.6980004 2.4193804 0.41950554 0
4.7000003 2.412771 0.41951278 0
4.7020001 2.4061546 0.41951999 0
4.7040005 2.3995311 0.4195272 0
4.7060003 2.3929002 0.41953442 0
4.7080002 2.3862622 0.41954163 0
4.7100005 2.379617 0.41954884 0
4.7120004 2.3729646 0.41955605 0
4.7140002 2.3663049 0.41956326 0
4.7160001 2.359638 0.41957048 0
4.7180004 2.3529639 0.41957769 0
4.7200003 2.3462827 0.41958493 0
4.7220001 2.3395939 0.41959214 0
4.7240005 2.3328984 0.41959935 0
4.7260003 2.3261952 0.41960657 0
4.7280002 2.3194852 0.41961378 0
4.7310004 2.3133128 0.4196246 0
4.7330003 2.3065863 0.41963181 0
4.7350001 2.2998526 0.41963902 0
4.7370005 2.2931118 0.41964623 0
4.7390003 2.2863638 0.41965348 0
4.7410002 2.2796082 0.41966069 0
4.7430005 2.272846 0.4196679 0
4.7450004 2.2660763 0.41967511 0
4.7470002 2.2592993 0.41968232 0
4.7490001 2.2525151 0.41968954 0
4.7510004 2.245724 0.41969675 0
4.7530003 2.2389252 0.41970396 0
4.7550001 2.2321193 0.41971117 0
4.7570004 2.2253067 0.41971838 0
4.7590003 2.2184865 0.41972563 0
4.7610002 2.211659 0.41973284 0
4.7630005 2.2048244 0.41974005 0
4.7650003 2.1979825 0.41974726 0
4.7670002 2.1911335 0.41975448 0
4.7690005 2.1842773 0.41976169 0
4.7710004 2.1774137 0.4197689 0
4.7730002 2.170543 0.41977611 0
4.7760005 2.1641703 0.41978693 0
4.7780004 2.1572831 0.41979417 0
4.7800002 2.150389 0.41980138 0
4.7820005 2.1434877 0.4198086 0
4.7840004 2.1365793 0.41981581 0
4.7860003 2.1296632 0.41982302 0
4.7880001 2.1227403 0.41983023 0
4.7900004 2.1158102 0.41983745 0
4.7920003 2.1088727 0.41984466 0
4.7940001 2.101928 0.41985187 0
4.7960005 2.0949759 0.41985911 0
4.7980003 2.088017 0.41986632 0
4.8000002 2.0810506 0.41987354 0
4.8030005 2.0745587 0.41988435 0
4.8050003 2.0675764 0.41989157 0
4.8070002 2.0605862 0.41989878 0
4.8090005 2.0535896 0.41990599 0
4.8370004 2.0589197 0.42000702 0
4.6940002 2.4325769 0.41174558 0
4.6960001 2.425982 0.41174918 0
4.6980004 2.4193804 0.41175279 0
4.7000003 2.412771 0.4117564 0
4.7020001 2.4061546 0.41176 0
4.7040005 2.3995311 0.41176361 0
4.7060003 2.3929002 0.41176721 0
4.7080002 2.3862622 0.41177082 0
4.7100005 2.379617 0.41177443 0
4.7120004 2.3729646 0.41177803 0
4.7140002 2.3663049 0.41178164 0
4.7160001 2.359638 0.41178524 0
4.7180004 2.3529639 0.41178885 0
4.7200003 2.3462827 0.41179246 0
4.7220001 2.3395939 0.41179606 0
4.7240005 2.3328984 0.41179967 0
4.7260003 2.3261952 0.41180328 0
4.7280002 2.3194852 0.41180688 0
4.7310004 2.3133128 0.41181231 0
4.7330003 2.3065863 0.41181591 0
4.7350001 2.2998526 0.41181952 0
4.7370005 2.2931118 0.41182312 0
4.7390003 2.2863638 0.41182673 0
4.7410002 2.2796082 0.41183034 0
4.7430005 2.272846 0.41183394 0
4.7450004 2.2660763 0.41183755 0
4.7470002 2.2592993 0.41184115 0
4.7490001 2.2525151 0.41184479 0
4.7510004 2.245724 0.4118484 0
4.7530003 2.2389252 0.411852 0
4.7550001 2.2321193 0.41185561 0
4.7570004 2.2253067 0.41185921 0
4.7590003 2.2184865 0.41186282 0
4.7610002 2.211659 0.41186643 0
4.7630005 2.2048244 0.41187003 0
4.7650003 2.1979825 0.41187364 0
4.7670002 2.1911335 0.41187724 0
4.7690005 2.1842773 0.41188085 0
4.7710004 2.1774137 0.41188446 0
4.7730002 2.170543 0.41188806 0
4.7760005 2.1641703 0.41189349 0
4.7780004 2.1572831 0.41189709 0
4.7800002 2.150389 0.4119007 0
4.7820005 2.1434877 0.41190431 0
4.7840004 2.1365793 0.41190791 0
4.7860003 2.1296632 0.41191152 0
4.7880001 2.1227403 0.41191512 0
4.7900004 2.1158102 0.41191873 0
4.7920003 2.1088727 0.41192234 0
4.7940001 2.101928 0.41192594 0
4.7960005 2.0949759 0.41192955 0
4.7980003 2.088017 0.41193315 0
4.8000002 2.0810506 0.41193676 0
4.8030005 2.0745587 0.41194218 0
4.8050003 2.0675764 0.41194579 0
4.8070002 2.0605862 0.4119494 0
4.8090005 2.0535896 0.411953 0
4.8370004 2.0589197 0.41200352 0
4.6940002 2.4325769 0.40400001 0
4.6960001 2.425982 0.40400001 0
4.6980004 2.4193804 0.40400001 0
4.7000003 2.412771 0.40400001 0
4.7020001 2.4061546 0.40400001 0
4.7040005 2.3995311 0.40400001 0
4.7060003 2.3929002 0.40400001 0
4.7080002 2.3862622 0.40400001 0
4.7100005 2.379617 0.40400001 0
4.7120004 2.3729646 0.40400001 0
4.7140002 2.3663049 0.40400001 0
4.7160001 2.359638 0.40400001 0
4.7180004 2.3529639 0.40400001 0
4.7200003 2.3462827 0.40400001 0
4.7220001 2.3395939 0.40400001 0
4.7240005 2.3328984 0.40400001 0
4.7260003 2.3261952 0.40400001 0
4.7280002 2.3194852 0.40400001 0
4.7310004 2.3133128 0.40400001 0
4.7330003 2.3065863 0.40400001 0
4.7350001 2.2998526 0.40400001 0
4.7370005 2.2931118 0.40400001 0
4.7390003 2.2863638 0.40400001 0
4.7410002 2.2796082 0.40400001 0
4.7430005 2.272846 0.40400001 0
4.7450004 2.2660763 0.40400001 0
4.7470002 2.2592993 0.40400001 0
4.7490001 2.2525151 0.40400001 0
4.7510004 2.245724 0.40400001 0
4.7530003 2.2389252 0.40400001 0
4.7550001 2.2321193 0.40400001 0
4.7570004 2.2253067 0.40400001 0
4.7590003 2.2184865 0.40400001 0
4.7610002 2.211659 0.40400001 0
4.7630005 2.2048244 0.40400001 0
4.7650003 2.1979825 0.40400001 0
4.7670002 2.1911335 0.40400001 0
4.7690005 2.1842773 0.40400001 0
4.7710004 2.1774137 0.40400001 0
4.7730002 2.170543 0.40400001 0
4.7760005 2.1641703 0.40400001 0
4.7780004 2.1572831 0.40400001 0
4.7800002 2.150389 0.40400001 0
4.7820005 2.1434877 0.40400001 0
4.7840004 2.1365793 0.40400001 0
4.7860003 2.1296632 0.40400001 0
4.7880001 2.1227403 0.40400001 0
4.7900004 2.1158102 0.40400001 0
4.7920003 2.1088727 0.40400001 0
4.7940001 2.101928 0.40400001 0
4.7960005 2.0949759 0.40400001 0
4.7980003 2.088017 0.40400001 0
4.8000002 2.0810506 0.40400001 0
4.8030005 2.0745587 0.40400001 0
4.8050003 2.0675764 0.40400001 0
4.8070002 2.0605862 0.40400001 0
4.8090005 2.0535896 0.40400001 0
4.8370004 2.0589197 0.40400001 0
4.6940002 2.4325769 0.39625445 0
4.6960001 2.425982 0.39625084 0
4.6980004 2.4193804 0.39624724 0
4.7000003 2.412771 0.39624363 0
4.7020001 2.4061546 0.39624003 0
4.7040005 2.3995311 0.39623642 0
4.7060003 2.3929002 0.39623281 0
4.7080002 2.3862622 0.39622921 0
4.7100005 2.379617 0.3962256 0
4.7120004 2.3729646 0.396222 0
4.7140002 2.3663049 0.39621839 0
4.7160001 2.359638 0.39621478 0
4.7180004 2.3529639 0.39621118 0
4.7200003 2.3462827 0.39620757 0
4.7220001 2.3395939 0.39620396 0
4.7240005 2.3328984 0.39620036 0
4.7260003 2.3261952 0.39619675 0
4.7280002 2.3194852 0.39619315 0
4.7310004 2.3133128 0.39618772 0
4.7330003 2.3065863 0.39618412 0
4.7350001 2.2998526 0.39618051 0
4.7370005 2.2931118 0.3961769 0
4.7390003 2.2863638 0.3961733 0
4.7410002 2.2796082 0.39616969 0
4.7430005 2.272846 0.39616609 0
4.7450004 2.2660763 0.39616248 0
4.7470002 2.2592993 0.39615887 0
4.7490001 2.2525151 0.39615524 0
4.7510004 2.245724 0.39615163 0
4.7530003 2.2389252 0.39614803 0
4.7550001 2.2321193 0.39614442 0
4.7570004 2.2253067 0.39614081 0
4.7590003 2.2184865 0.39613721 0
4.7610002 2.211659 0.3961336 0
4.7630005 2.2048244 0.39613 0
4.7650003 2.1979825 0.39612639 0
4.7670002 2.1911335 0.39612278 0
4.7690005 2.1842773 0.39611918 0
4.7710004 2.1774137 0.39611557 0
4.7730002 2.170543 0.39611197 0
4.7760005 2.1641703 0.39610654 0
4.7780004 2.1572831 0.39610294 0
4.7800002 2.150389 0.39609933 0
4.7820005 2.1434877 0.39609572 0
4.7840004 2.1365793 0.39609212 0
4.7860003 2.1296632 0.39608851 0
4.7880001 2.1227403 0.3960849 0
4.7900004 2.1158102 0.3960813 0
4.7920003 2.1088727 0.39607769 0
4.7940001 2.101928 0.39607409 0
4.7960005 2.0949759 0.39607048 0
4.7980003 2.088017 0.39606687 0
4.8000002 2.0810506 0.39606327 0
4.8030005 2.0745587 0.39605784 0
4.8050003 2.0675764 0.39605424 0
4.8070002 2.0605862 0.39605063 0
4.8090005 2.0535896 0.39604703 0
4.8370004 2.0589197 0.39599651 0
4.6940002 2.4325769 0.38850892 0
4.6960001 2.425982 0.3885017 0
4.6980004 2.4193804 0.38849449 0
4.7000003 2.412771 0.38848725 0
4.7020001 2.4061546 0.38848004 0
4.7040005 2.3995311 0.38847283 0
4.7060003 2.3929002 0.38846561 0
4.7080002 2.3862622 0.3884584 0
4.7100005 2.379617 0.38845119 0
4.7120004 2.3729646 0.38844398 0
4.7140002 2.3663049 0.38843676 0
4.7160001 2.359638 0.38842955 0
4.7180004 2.3529639 0.38842234 0
4.7200003 2.3462827 0.3884151 0
4.7220001 2.3395939 0.38840789 0
4.7240005 2.3328984 0.38840067 0
4.7260003 2.3261952 0.38839346 0
4.7280002 2.3194852 0.38838625 0
4.7310004 2.3133128 0.38837543 0
4.7330003 2.3065863 0.38836822 0
4.7350001 2.2998526 0.38836101 0
4.7370005 2.2931118 0.38835379 0
4.7390003 2.2863638 0.38834655 0
4.7410002 2.2796082 0.38833934 0
4.7430005 2.272846 0.38833213 0
4.7450004 2.2660763 0.38832492 0
4.7470002 2.2592993 0.3883177 0
4.7490001 2.2525151 0.38831049 0
4.7510004 2.245724 0.38830328 0
4.7530003 2.2389252 0.38829607 0
4.7550001 2.2321193 0.38828886 0
4.7570004 2.2253067 0.38828164 0
4.7590003 2.2184865 0.3882744 0
4.7610002 2.211659 0.38826719 0
4.7630005 2.2048244 0.38825998 0
4.7650003 2.1979825 0.38825276 0
4.7670002 2.1911335 0.38824555 0
4.7690005 2.1842773 0.38823834 0
4.7710004 2.1774137 0.38823113 0
4.7730002 2.170543 0.38822392 0
4.7760005 2.1641703 0.3882131 0
4.7780004 2.1572831 0.38820586 0
4.7800002 2.150389 0.38819864 0
4.7820005 2.1434877 0.38819143 0
4.7840004 2.1365793 0.38818422 0
4.7860003 2.1296632 0.38817701 0
4.7880001 2.1227403 0.3881698 0
4.7900004 2.1158102 0.38816258 0
4.7920003 2.1088727 0.38815537 0
4.7940001 2.101928 0.38814816 0
4.7960005 2.0949759 0.38814092 0
4.7980003 2.088017 0.3881337 0
4.8000002 2.0810506 0.38812649 0
4.8030005 2.0745587 0.38811567 0
4.8050003 2.0675764 0.38810846 0
4.8070002 2.0605862 0.38810125 0
4.8090005 2.0535896 0.38809404 0
4.8370004 2.0589197 0.38799301 0
4.6940002 2.4325769 0.38076335 0
4.6960001 2.425982 0.38075253 0
4.6980004 2.4193804 0.38074172 0
4.7000003 2.412771 0.3807309 0
4.7020001 2.4061546 0.38072008 0
4.7040005 2.3995311 0.38070923 0
4.7060003 2.3929002 0.38069841 0
4.7080002 2.3862622 0.38068759 0
4.7100005 2.379617 0.38067678 0
4.7120004 2.3729646 0.38066596 0
4.7140002 2.3663049 0.38065514 0
4.7160001 2.359638 0.38064432 0
4.7180004 2.3529639 0.38063347 0
4.7200003 2.3462827 0.38062266 0
4.7220001 2.3395939 0.38061184 0
4.7240005 2.3328984 0.38060102 0
4.7260003 2.3261952 0.3805902 0
4.7280002 2.3194852 0.38057938 0
4.7310004 2.3133128 0.38056314 0
4.7330003 2.3065863 0.38055232 0
4.7350001 2.2998526 0.3805415 0
4.7370005 2.2931118 0.38053066 0
4.7390003 2.2863638 0.38051984 0
4.7410002 2.2796082 0.38050902 0
4.7430005 2.272846 0.3804982 0
4.7450004 2.2660763 0.38048738 0
4.7470002 2.2592993 0.38047656 0
4.7490001 2.2525151 0.38046572 0
4.7510004 2.245724 0.3804549 0
4.7530003 2.2389252 0.38044408 0
4.7550001 2.2321193 0.38043326 0
4.7570004 2.2253067 0.38042244 0
4.7590003 2.2184865 0.38041162 0
4.7610002 2.211659 0.38040078 0
4.7630005 2.2048244 0.38038996 0
4.7650003 2.1979825 0.38037914 0
4.7670002 2.1911335 0.38036832 0
4.7690005 2.1842773 0.3803575 0
4.7710004 2.1774137 0.38034669 0
4.7730002 2.170543 0.38033587 0
4.7760005 2.1641703 0.38031963 0
4.7780004 2.1572831 0.38030881 0
4.7800002 2.150389 0.38029796 0
4.7820005 2.1434877 0.38028714 0
4.7840004 2.1365793 0.38027632 0
4.7860003 2.1296632 0.3802655 0
4.7880001 2.1227403 0.38025469 0
4.7900004 2.1158102 0.38024387 0
4.7920003 2.1088727 0.38023305 0
4.7940001 2.101928 0.3802222 0
4.7960005 2.0949759 0.38021138 0
4.7980003 2.088017 0.38020056 0
4.8000002 2.0810506 0.38018975 0
4.8030005 2.0745587 0.3801735 0
4.8050003 2.0675764 0.38016269 0
4.8070002 2.0605862 0.38015187 0
4.8090005 2.0535896 0.38014105 0
4.8370004 2.0589197 0.37998953 0
4.6940002 2.4325769 0.37301782 0
4.6960001 2.425982 0.37300336 0
4.6980004 2.4193804 0.37298894 0
4.7000003 2.412771 0.37297451 0
4.7020001 2.4061546 0.37296009 0
4.7040005 2.3995311 0.37294564 0
4.7060003 2.3929002 0.37293121 0
4.7080002 2.3862622 0.37291679 0
4.7100005 2.379617 0.37290236 0
4.7120004 2.3729646 0.37288794 0
4.7140002 2.3663049 0.37287349 0
4.7160001 2.359638 0.37285906 0
4.7180004 2.3529639 0.37284464 0
4.7200003 2.3462827 0.37283021 0
4.7220001 2.3395939 0.37281579 0
4.7240005 2.3328984 0.37280133 0
4.7260003 2.3261952 0.37278691 0
4.7280002 2.3194852 0.37277249 0
4.7310004 2.3133128 0.37275085 0
4.7330003 2.3065863 0.37273639 0
4.7350001 2.2998526 0.37272197 0
4.7370005 2.2931118 0.37270755 0
4.7390003 2.2863638 0.37269312 0
4.7410002 2.2796082 0.3726787 0
4.7430005 2.272846 0.37266424 0
4.7450004 2.2660763 0.37264982 0
4.7470002 2.2592993 0.37263539 0
4.7490001 2.2525151 0.37262097 0
4.7510004 2.245724 0.37260655 0
4.7530003 2.2389252 0.37259209 0
4.7550001 2.2321193 0.37257767 0
4.7570004 2.2253067 0.37256324 0
4.7590003 2.2184865 0.37254882 0
4.7610002 2.211659 0.37253439 0
4.7630005 2.2048244 0.37251994 0
4.7650003 2.1979825 0.37250552 0
4.7670002 2.1911335 0.37249109 0
4.7690005 2.1842773 0.37247667 0
4.7710004 2.1774137 0.37246224 0
4.7730002 2.170543 0.37244779 0
4.7760005 2.1641703 0.37242615 0
4.7780004 2.1572831 0.37241173 0
4.7800002 2.150389 0.3723973 0
4.7820005 2.1434877 0.37238285 0
4.7840004 2.1365793 0.37236843 0
4.7860003 2.1296632 0.372354 0
4.7880001 2.1227403 0.37233958 0
4.7900004 2.1158102 0.37232515 0
4.7920003 2.1088727 0.3723107 0
4.7940001 2.101928 0.37229627 0
4.7960005 2.0949759 0.37228185 0
4.7980003 2.088017 0.37226743 0
4.8000002 2.0810506 0.372253 0
4.8030005 2.0745587 0.37223133 0
4.8050003 2.0675764 0.37221691 0
4.8070002 2.0605862 0.37220249 0
4.8090005 2.0535896 0.37218806 0
4.8370004 2.0589197 0.37198603 0
4.6940002 2.4325769 0.36527225 0
4.6960001 2.425982 0.36525422 0
4.6980004 2.4193804 0.36523616 0
4.7000003 2.412771 0.36521813 0
4.7020001 2.4061546 0.3652001 0
4.7040005 2.3995311 0.36518204 0
4.7060003 2.3929002 0.36516401 0
4.7080002 2.3862622 0.36514598 0
4.7100005 2.379617 0.36512795 0
4.7120004 2.3729646 0.36510992 0
4.7140002 2.3663049 0.36509186 0
4.7160001 2.359638 0.36507383 0
4.7180004 2.3529639 0.3650558 0
4.7200003 2.3462827 0.36503777 0
4.7220001 2.3395939 0.36501971 0
4.7240005 2.3328984 0.36500168 0
4.7260003 2.3261952 0.36498365 0
4.7280002 2.3194852 0.36496562 0
4.7310004 2.3133128 0.36493856 0
4.7330003 2.3065863 0.3649205 0
4.7350001 2.2998526 0.36490247 0
4.7370005 2.2931118 0.36488444 0
4.7390003 2.2863638 0.36486641 0
4.7410002 2.2796082 0.36484835 0
4.7430005 2.272846 0.36483032 0
4.7450004 2.2660763 0.36481228 0
4.7470002 2.2592993 0.36479425 0
4.7490001 2.2525151 0.36477619 0
4.7510004 2.245724 0.36475816 0
4.7530003 2.2389252 0.36474013 0
4.7550001 2.2321193 0.3647221 0
4.7570004 2.2253067 0.36470404 0
4.7590003 2.2184865 0.36468601 0
4.7610002 2.211659 0.36466798 0
4.7630005 2.2048244 0.36464995 0
4.7650003 2.1979825 0.36463189 0
4.7670002 2.1911335 0.36461386 0
4.7690005 2.1842773 0.36459583 0
4.7710004 2.1774137 0.36457777 0
4.7730002 2.170543 0.36455974 0
4.7760005 2.1641703 0.36453268 0
4.7780004 2.1572831 0.36451465 0
4.7800002 2.150389 0.36449662 0
4.7820005 2.1434877 0.36447859 0
4.7840004 2.1365793 0.36446053 0
4.7860003 2.1296632 0.3644425 0
4.7880001 2.1227403 0.36442447 0
4.7900004 2.1158102 0.36440644 0
4.7920003 2.1088727 0.36438838 0
4.7940001 2.101928 0.36437035 0
4.7960005 2.0949759 0.36435232 0
4.7980003 2.088017 0.36433429 0
4.8000002 2.0810506 0.36431623 0
4.8030005 2.0745587 0.36428916 0
4.8050003 2.0675764 0.36427113 0
4.8070002 2.0605862 0.3642531 0
4.8090005 2.0535896 0.36423504 0
4.8370004 2.0589197 0.36398253 0
4.7300005 2.4143043 0.35713708 0
4.7270002 2.4047947 0.35716954 0
4.7270002 2.3969896 0.35716954 0
4.7280002 2.3897471 0.35715872 0
4.7310004 2.3836234 0.35712624 0
4.7360005 2.378607 0.35707214 0
4.7420001 2.3741298 0.35700721 0
4.7500005 2.3707426 0.35692063 0
5.1760001 2.4868064 0.35231009 0
5.1810002 2.480834 0.35225597 0
4.8180003 2.1295984 0.35618466 0
4.8140001 2.1196666 0.35622796 0
4.8130002 2.1112156 0.35623878 0
4.8150005 2.1042297 0.35621715 0
4.8180003 2.0977213 0.35618466 0
4.8220005 2.091686 0.35614139 0
4.8290005 2.087081 0.3560656 0
4.8380003 2.08341 0.35596821 0
4.7300005 2.4143043 0.34932658 0
4.7270002 2.4047947 0.34936446 0
4.7270002 2.3969896 0.34936446 0
4.7280002 2.3897471 0.34935182 0
4.7310004 2.3836234 0.34931397 0
4.7360005 2.378607 0.34925082 0
4.7420001 2.3741298 0.34917507 0
4.7500005 2.3707426 0.34907407 0
4.7660003 2.3717561 0.34887204 0
5.0140004 2.4841225 0.34574062 0
5.0160003 2.4768927 0.34571537 0
5.0190005 2.4702008 0.34567747 0
5.0240002 2.4645834 0.34561434 0
5.1690001 2.5089014 0.3437835 0
5.1700006 2.500833 0.34377086 0
5.1730003 2.493825 0.34373298 0
5.1760001 2.4868064 0.3436951 0
5.1810002 2.480834 0.34363195 0
5.1870003 2.4753704 0.3435562 0
5.1940002 2.4704099 0.34346783 0
4.8180003 2.1295984 0.34821543 0
4.8140001 2.1196666 0.34826595 0
4.8130002 2.1112156 0.34827858 0
4.8150005 2.1042297 0.34825331 0
4.8180003 2.0977213 0.34821543 0
4.8220005 2.091686 0.34816492 0
4.8290005 2.087081 0.34807655 0
4.8380003 2.08341 0.34796292 0
4.7300005 2.4143043 0.34151608 0
4.7270002 2.4047947 0.34155938 0
4.7270002 2.3969896 0.34155938 0
4.7280002 2.3897471 0.34154496 0
4.7310004 2.3836234 0.34150165 0
4.7360005 2.378607 0.3414295 0
4.7420001 2.3741298 0.34134293 0
4.7500005 2.3707426 0.34122747 0
4.7660003 2.3717561 0.34099659 0
5.0140004 2.4924452 0.33741784 0
5.0140004 2.4841225 0.33741784 0
5.0160003 2.4768927 0.33738899 0
5.0190005 2.4702008 0.33734569 0
5.0240002 2.4645834 0.33727354 0
5.0310001 2.4600308 0.33717254 0
5.1690001 2.5175035 0.33518112 0
5.1690001 2.5089014 0.33518112 0
5.1700006 2.500833 0.33516669 0
5.1730003 2.493825 0.33512339 0
5.1760001 2.4868064 0.33508012 0
5.1810002 2.480834 0.33500797 0
5.1870003 2.4753704 0.33492136 0
5.1940002 2.4704099 0.33482036 0
5.2030005 2.4664705 0.33469048 0
4.8180003 2.1295984 0.3402462 0
4.8140001 2.1196666 0.34030396 0
4.8130002 2.1112156 0.34031838 0
4.8150005 2.1042297 0.3402895 0
4.8180003 2.0977213 0.3402462 0
4.8220005 2.091686 0.3401885 0
4.8290005 2.087081 0.34008747 0
4.8380003 2.08341 0.33995759 0
5.1040001 2.1855848 0.33611912 0
5.1090002 2.1794629 0.33604693 0
5.1150002 2.1737933 0.33596036 0
4.7300005 2.4143043 0.3337056 0
4.7270002 2.4047947 0.3337543 0
4.7270002 2.3969896 0.3337543 0
4.7280002 2.3897471 0.33373809 0
4.7310004 2.3836234 0.33368936 0
4.7360005 2.378607 0.33360821 0
4.7420001 2.3741298 0.33351082 0
4.7500005 2.3707426 0.33338094 0
4.7660003 2.3717561 0.33312118 0
5.0190005 2.5035281 0.32901388 0
5.0140004 2.4924452 0.32909507 0
5.0140004 2.4841225 0.32909507 0
5.0160003 2.4768927 0.32906261 0
5.0190005 2.4702008 0.32901388 0
5.0240002 2.4645834 0.32893273 0
5.0310001 2.4600308 0.3288191 0
5.0410004 2.4570708 0.32865673 0
5.1690001 2.5175035 0.32657877 0
5.1690001 2.5089014 0.32657877 0
5.1700006 2.500833 0.32656252 0
5.1730003 2.493825 0.32651383 0
5.1760001 2.4868064 0.32646513 0
5.1810002 2.480834 0.32638395 0
5.1870003 2.4753704 0.32628655 0
5.1940002 2.4704099 0.32617292 0
5.2030005 2.4664705 0.3260268 0
4.8180003 2.1295984 0.332277 0
4.8140001 2.1196666 0.33234194 0
4.8130002 2.1112156 0.33235815 0
4.8150005 2.1042297 0.3323257 0
4.8180003 2.0977213 0.332277 0
4.8220005 2.091686 0.33221206 0
4.8290005 2.087081 0.33209842 0
4.8380003 2.08341 0.3319523 0
5.1010003 2.1926415 0.32768267 0
5.1040001 2.1855848 0.32763398 0
5.1090002 2.1794629 0.32755283 0
5.1150002 2.1737933 0.3274554 0
4.7300005 2.4143043 0.32589513 0
4.7270002 2.4047947 0.32594925 0
4.7270002 2.3969896 0.32594925 0
4.7280002 2.3897471 0.32593119 0
4.7310004 2.3836234 0.32587707 0
4.7360005 2.378607 0.32578689 0
4.7420001 2.3741298 0.32567868 0
4.7500005 2.3707426 0.32553434 0
4.7660003 2.3717561 0.32524574 0
5.0190005 2.5035281 0.32068211 0
5.0140004 2.4924452 0.32077229 0
5.0140004 2.4841225 0.32077229 0
5.0160003 2.4768927 0.32073623 0
5.0190005 2.4702008 0.32068211 0
5.0240002 2.4645834 0.32059193 0
5.0310001 2.4600308 0.32046565 0
5.0410004 2.4570708 0.32028526 0
5.1690001 2.5175035 0.31797642 0
5.1690001 2.5089014 0.31797642 0
5.1700006 2.500833 0.31795835 0
5.1730003 2.493825 0.31790423 0
5.1760001 2.4868064 0.31785014 0
5.1810002 2.480834 0.31775993 0
5.1870003 2.4753704 0.31765172 0
5.1940002 2.4704099 0.31752545 0
5.2030005 2.4664705 0.31736308 0
5.2150002 2.4640622 0.31714666 0
4.8180003 2.1295984 0.32430777 0
4.8140001 2.1196666 0.32437992 0
4.8130002 2.1112156 0.32439795 0
4.8150005 2.1042297 0.32436186 0
4.8180003 2.0977213 0.32430777 0
4.8220005 2.091686 0.32423562 0
4.8290005 2.087081 0.32410935 0
4.8380003 2.08341 0.32394701 0
5.1000004 2.2006433 0.31922102 0
5.1010003 2.1926415 0.31920299 0
5.1040001 2.1855848 0.31914887 0
5.1090002 2.1794629 0.31905869 0
5.1150002 2.1737933 0.31895047 0
5.1260004 2.1704476 0.31875205 0
4.7300005 2.4143043 0.31808463 0
4.7270002 2.4047947 0.31814414 0
4.7270002 2.3969896 0.31814414 0
4.7280002 2.3897471 0.31812429 0
4.7310004 2.3836234 0.31806478 0
4.7360005 2.378607 0.31796557 0
4.7420001 2.3741298 0.31784654 0
4.7500005 2.3707426 0.31768778 0
4.7660003 2.3717561 0.31737033 0
5.0190005 2.5035281 0.31235033 0
5.0140004 2.4924452 0.31244951 0
5.0140004 2.4841225 0.31244951 0
5.0160003 2.4768927 0.31240985 0
5.0190005 2.4702008 0.31235033 0
5.0240002 2.4645834 0.31225112 0
5.0310001 2.4600308 0.31211221 0
5.0410004 2.4570708 0.31191379 0
5.1690001 2.5175035 0.30937403 0
5.1690001 2.5089014 0.30937403 0
5.1700006 2.500833 0.30935419 0
5.1730003 2.493825 0.30929467 0
5.1760001 2.4868064 0.30923516 0
5.1810002 2.480834 0.30913594 0
5.1870003 2.4753704 0.30901688 0
5.1940002 2.4704099 0.308878 0
5.2030005 2.4664705 0.30869943 0
5.2150002 2.4640622 0.30846131 0
4.8180003 2.1295984 0.31633854 0
4.8140001 2.1196666 0.3164179 0
4.8130002 2.1112156 0.31643775 0
4.8150005 2.1042297 0.31639805 0
4.8180003 2.0977213 0.31633854 0
4.8220005 2.091686 0.31625918 0
4.8290005 2.087081 0.31612027 0
4.8380003 2.08341 0.31594169 0
5.1000004 2.2006433 0.31074312 0
5.1010003 2.1926415 0.3107233 0
5.1040001 2.1855848 0.31066376 0
5.1090002 2.1794629 0.31056455 0
5.1150002 2.1737933 0.31044549 0
5.1260004 2.1704476 0.31022725 0
4.7300005 2.4143043 0.31027412 0
4.7270002 2.4047947 0.31033906 0
4.7270002 2.3969896 0.31033906 0
4.7280002 2.3897471 0.31031743 0
4.7310004 2.3836234 0.31025249 0
4.7360005 2.378607 0.31014425 0
4.7420001 2.3741298 0.3100144 0
4.7500005 2.3707426 0.30984122 0
4.7660003 2.3717561 0.30949488 0
5.0190005 2.5035281 0.30401853 0
5.0140004 2.4924452 0.30412674 0
5.0140004 2.4841225 0.30412674 0
5.0160003 2.4768927 0.30408347 0
5.0190005 2.4702008 0.30401853 0
5.0240002 2.4645834 0.30391032 0
5.0310001 2.4600308 0.3037588 0
5.0410004 2.4570708 0.30354232 0
5.1690001 2.5175035 0.30077168 0
5.1690001 2.5089014 0.30077168 0
5.1700006 2.500833 0.30075002 0
5.1730003 2.493825 0.30068511 0
5.1760001 2.4868064 0.30062017 0
5.1810002 2.480834 0.30051193 0
5.1870003 2.4753704 0.30038205 0
5.1940002 2.4704099 0.30023053 0
5.2030005 2.4664705 0.30003572 0
5.2150002 2.4640622 0.29977599 0
4.8180003 2.1295984 0.30836931 0
4.8140001 2.1196666 0.30845588 0
4.8130002 2.1112156 0.30847755 0
4.8150005 2.1042297 0.30843425 0
4.8180003 2.0977213 0.30836931 0
4.8220005 2.091686 0.30828273 0
4.8290005 2.087081 0.30813122 0
4.8380003 2.08341 0.3079364 0
5.1000004 2.2006433 0.30226523 0
5.1010003 2.1926415 0.30224359 0
5.1040001 2.1855848 0.30217865 0
5.1090002 2.1794629 0.30207041 0
5.1150002 2.1737933 0.30194056 0
5.1260004 2.1704476 0.30170244 0
4.7300005 2.4143043 0.30246365 0
4.7270002 2.4047947 0.30253398 0
4.7270002 2.3969896 0.30253398 0
4.7280002 2.3897471 0.30251056 0
4.7310004 2.3836234 0.3024402 0
4.7360005 2.378607 0.30232295 0
4.7420001 2.3741298 0.30218226 0
4.7500005 2.3707426 0.30199465 0
4.7660003 2.3717561 0.30161947 0
5.0190005 2.5035281 0.29568672 0
5.0140004 2.4924452 0.29580399 0
5.0140004 2.4841225 0.29580399 0
5.0160003 2.4768927 0.29575709 0
5.0190005 2.4702008 0.29568672 0
5.0240002 2.4645834 0.29556951 0
5.0310001 2.4600308 0.29540536 0
5.0410004 2.4570708 0.29517084 0
5.1690001 2.5175035 0.29216933 0
5.1690001 2.5089014 0.29216933 0
5.1700006 2.500833 0.29214585 0
5.1730003 2.493825 0.29207551 0
5.1760001 2.4868064 0.29200518 0
5.1810002 2.480834 0.29188794 0
5.1870003 2.4753704 0.29174721 0
5.1940002 2.4704099 0.29158306 0
5.2030005 2.4664705 0.29137203 0
5.2150002 2.4640622 0.29109064 0
4.8180003 2.1295984 0.30040008 0
4.8140001 2.1196666 0.3004939 0
4.8130002 2.1112156 0.30051732 0
4.8150005 2.1042297 0.30047044 0
4.8180003 2.0977213 0.30040008 0
4.8220005 2.091686 0.30030629 0
4.8290005 2.087081 0.30014214 0
4.8380003 2.08341 0.29993111 0
5.1000004 2.2006433 0.29378733 0
5.1010003 2.1926415 0.29376388 0
5.1040001 2.1855848 0.29369354 0
5.1090002 2.1794629 0.2935763 0
5.1150002 2.1737933 0.29343557 0
5.1260004 2.1704476 0.29317763 0
4.7300005 2.4143043 0.29465315 0
4.7270002 2.4047947 0.29472893 0
4.7270002 2.3969896 0.29472893 0
4.7280002 2.3897471 0.29470366 0
4.7310004 2.3836234 0.2946279 0
4.7360005 2.378607 0.29450163 0
4.7420001 2.3741298 0.29435012 0
4.7500005 2.3707426 0.29414809 0
4.7660003 2.3717561 0.29374403 0
5.0190005 2.5035281 0.28735495 0
5.0140004 2.4924452 0.28748122 0
5.0140004 2.4841225 0.28748122 0
5.0160003 2.4768927 0.2874307 0
5.0190005 2.4702008 0.28735495 0
5.0240002 2.4645834 0.2872287 0
5.0310001 2.4600308 0.28705192 0
5.0410004 2.4570708 0.28679937 0
5.1690001 2.5175035 0.28356695 0
5.1690001 2.5089014 0.28356695 0
5.1700006 2.500833 0.28354168 0
5.1730003 2.493825 0.28346592 0
5.1760001 2.4868064 0.28339019 0
5.1810002 2.480834 0.28326392 0
5.1870003 2.4753704 0.28311241 0
5.1940002 2.4704099 0.28293562 0
5.2030005 2.4664705 0.28270835 0
5.2150002 2.4640622 0.28240532 0
4.8180003 2.1295984 0.29243088 0
4.8140001 2.1196666 0.29253188 0
4.8130002 2.1112156 0.29255712 0
4.8150005 2.1042297 0.29250664 0
4.8180003 2.0977213 0.29243088 0
4.8220005 2.091686 0.29232985 0
4.8290005 2.087081 0.29215306 0
4.8380003 2.08341 0.29192579 0
5.1000004 2.2006433 0.28530943 0
5.1010003 2.1926415 0.28528416 0
5.1040001 2.1855848 0.2852084 0
5.1090002 2.1794629 0.28508216 0
5.1150002 2.1737933 0.28493065 0
5.1260004 2.1704476 0.28465286 0
4.7300005 2.4143043 0.28684267 0
4.7270002 2.4047947 0.28692386 0
4.7270002 2.3969896 0.28692386 0
4.7280002 2.3897471 0.2868968 0
4.7310004 2.3836234 0.28681561 0
4.7360005 2.378607 0.28668031 0
4.7420001 2.3741298 0.28651798 0
4.7500005 2.3707426 0.28630152 0
4.7660003 2.3717561 0.28586861 0
5.0190005 2.5035281 0.27902317 0
5.0140004 2.4924452 0.27915844 0
5.0140004 2.4841225 0.27915844 0
5.0160003 2.4768927 0.27910432 0
5.0190005 2.4702008 0.27902317 0
5.0240002 2.4645834 0.27888787 0
5.0310001 2.4600308 0.27869847 0
5.0410004 2.4570708 0.2784279 0
5.1690001 2.5175035 0.27496457 0
5.1690001 2.5089014 0.27496457 0
5.1700006 2.500833 0.27493754 0
5.1730003 2.493825 0.27485639 0
5.1760001 2.4868064 0.27477521 0
5.1810002 2.480834 0.2746399 0
5.1870003 2.4753704 0.27447757 0
5.1940002 2.4704099 0.27428818 0
5.2030005 2.4664705 0.27404463 0
5.2150002 2.4640622 0.27371997 0
4.8180003 2.1295984 0.28446165 0
4.8140001 2.1196666 0.28456989 0
4.8130002 2.1112156 0.28459692 0
4.8150005 2.1042297 0.2845428 0
4.8180003 2.0977213 0.28446165 0
4.8220005 2.091686 0.28435341 0
4.8290005 2.087081 0.28416401 0
4.8380003 2.08341 0.2839205 0
5.1000004 2.2006433 0.27683151 0
5.1010003 2.1926415 0.27680448 0
5.1040001 2.1855848 0.27672333 0
5.1090002 2.1794629 0.27658802 0
5.1150002 2.1737933 0.27642566 0
5.1260004 2.1704476 0.27612805 0
4.7300005 2.4143043 0.27903217 0
4.7270002 2.4047947 0.27911878 0
4.7270002 2.3969896 0.27911878 0
4.7280002 2.3897471 0.2790899 0
4.7310004 2.3836234 0.27900332 0
4.7360005 2.378607 0.27885902 0
4.7420001 2.3741298 0.27868587 0
4.7500005 2.3707426 0.27845496 0
4.7660003 2.3717561 0.2779932 0
5.0190005 2.5035281 0.27069137 0
5.0140004 2.4924452 0.27083567 0
5.0140004 2.4841225 0.27083567 0
5.0160003 2.4768927 0.27077794 0
5.0190005 2.4702008 0.27069137 0
5.0240002 2.4645834 0.27054709 0
5.0310001 2.4600308 0.27034503 0
5.0410004 2.4570708 0.27005643 0
5.1690001 2.5175035 0.26636225 0
5.1690001 2.5089014 0.26636225 0
5.1700006 2.500833 0.26633334 0
5.1730003 2.493825 0.2662468 0
5.1760001 2.4868064 0.26616019 0
5.1810002 2.480834 0.26601589 0
5.1870003 2.4753704 0.26584274 0
5.1940002 2.4704099 0.26564071 0
5.2030005 2.4664705 0.26538095 0
5.2150002 2.4640622 0.26503462 0
4.8180003 2.1295984 0.27649242 0
4.8140001 2.1196666 0.27660787 0
4.8130002 2.1112156 0.27663672 0
4.8150005 2.1042297 0.27657899 0
4.8180003 2.0977213 0.27649242 0
4.8220005 2.091686 0.27637696 0
4.8290005 2.087081 0.27617496 0
4.8380003 2.08341 0.27591521 0
5.1000004 2.2006433 0.26835364 0
5.1010003 2.1926415 0.26832479 0
5.1040001 2.1855848 0.26823819 0
5.1090002 2.1794629 0.26809388 0
5.1150002 2.1737933 0.26792073 0
5.1260004 2.1704476 0.26760325 0
4.7300005 2.4143043 0.2712217 0
4.7270002 2.4047947 0.27131367 0
4.7270002 2.3969896 0.27131367 0
4.7280002 2.3897471 0.27128303 0
4.7310004 2.3836234 0.271191 0
4.7360005 2.378607 0.2710377 0
4.7420001 2.3741298 0.2708537 0
4.7500005 2.3707426 0.2706084 0
4.7660003 2.3717561 0.27011776 0
5.0190005 2.5035281 0.26235956 0
5.0140004 2.4924452 0.26251292 0
5.0140004 2.4841225 0.26251292 0
5.0160003 2.4768927 0.26245159 0
5.0190005 2.4702008 0.26235956 0
5.0240002 2.4645834 0.26220626 0
5.0310001 2.4600308 0.26199162 0
5.0410004 2.4570708 0.26168495 0
5.1690001 2.5175035 0.25775987 0
5.1690001 2.5089014 0.25775987 0
5.1700006 2.500833 0.25772917 0
5.1730003 2.493825 0.2576372 0
5.1760001 2.4868064 0.25754523 0
5.1810002 2.480834 0.2573919 0
5.1870003 2.4753704 0.2572079 0
5.1940002 2.4704099 0.25699323 0
5.2030005 2.4664705 0.25671726 0
5.2150002 2.4640622 0.2563493 0
4.8180003 2.1295984 0.26852322 0
4.8140001 2.1196666 0.26864585 0
4.8130002 2.1112156 0.26867652 0
4.8150005 2.1042297 0.26861519 0
4.8180003 2.0977213 0.26852322 0
4.8220005 2.091686 0.26840055 0
4.8290005 2.087081 0.26818585 0
4.8380003 2.08341 0.26790988 0
5.1000004 2.2006433 0.25987574 0
5.1010003 2.1926415 0.25984508 0
5.1040001 2.1855848 0.25975308 0
5.1090002 2.1794629 0.25959975 0
5.1150002 2.1737933 0.25941578 0
5.1260004 2.1704476 0.25907844 0
4.7300005 2.4143043 0.26341119 0
4.7270002 2.4047947 0.26350862 0
4.7270002 2.3969896 0.26350862 0
4.7280002 2.3897471 0.26347613 0
4.7310004 2.3836234 0.26337874 0
4.7360005 2.378607 0.26321638 0
4.7420001 2.3741298 0.26302159 0
4.7500005 2.3707426 0.26276183 0
4.7660003 2.3717561 0.26224232 0
5.0190005 2.5035281 0.25402778 0
5.0140004 2.4924452 0.25419015 0
5.0140004 2.4841225 0.25419015 0
5.0160003 2.4768927 0.25412518 0
5.0190005 2.4702008 0.25402778 0
5.0240002 2.4645834 0.25386545 0
5.0310001 2.4600308 0.25363818 0
5.0410004 2.4570708 0.25331348 0
5.1690001 2.5175035 0.2491575 0
5.1690001 2.5089014 0.2491575 0
5.1700006 2.500833 0.24912503 0
5.1730003 2.493825 0.24902764 0
5.1760001 2.4868064 0.24893023 0
5.1810002 2.480834 0.2487679 0
5.1870003 2.4753704 0.24857308 0
5.1940002 2.4704099 0.24834581 0
5.2030005 2.4664705 0.24805357 0
5.2150002 2.4640622 0.24766396 0
4.8180003 2.1295984 0.26055396 0
4.8140001 2.1196666 0.26068383 0
4.8130002 2.1112156 0.26071632 0
4.8150005 2.1042297 0.26065135 0
4.8180003 2.0977213 0.26055396 0
4.8220005 2.091686 0.26042408 0
4.8290005 2.087081 0.26019681 0
4.8380003 2.08341 0.25990459 0
5.1000004 2.2006433 0.25139785 0
5.1010003 2.1926415 0.25136536 0
5.1040001 2.1855848 0.25126797 0
5.1090002 2.1794629 0.25110561 0
5.1150002 2.1737933 0.25091082 0
5.1260004 2.1704476 0.25055367 0
4.7300005 2.4143043 0.25560069 0
4.7270002 2.4047947 0.25570351 0
4.7270002 2.3969896 0.25570351 0
4.7280002 2.3897471 0.25566924 0
4.7310004 2.3836234 0.25556642 0
4.7360005 2.378607 0.25539505 0
4.7420001 2.3741298 0.25518945 0
4.7500005 2.3707426 0.25491524 0
4.7660003 2.3717561 0.2543669 0
5.0190005 2.5035281 0.24569599 0
5.0140004 2.4924452 0.24586736 0
5.0140004 2.4841225 0.24586736 0
5.0160003 2.4768927 0.24579883 0
5.0190005 2.4702008 0.24569599 0
5.0240002 2.4645834 0.24552464 0
5.0310001 2.4600308 0.24528474 0
5.0410004 2.4570708 0.24494199 0
5.1690001 2.5175035 0.24055515 0
5.1690001 2.5089014 0.24055515 0
5.1700006 2.500833 0.24052088 0
5.1730003 2.493825 0.24041806 0
5.1760001 2.4868064 0.24031524 0
5.1810002 2.480834 0.24014388 0
5.1870003 2.4753704 0.23993824 0
5.1940002 2.4704099 0.23969834 0
5.2030005 2.4664705 0.23938987 0
5.2150002 2.4640622 0.23897862 0
4.8180003 2.1295984 0.25258476 0
4.8140001 2.1196666 0.25272185 0
4.8130002 2.1112156 0.25275612 0
4.8150005 2.1042297 0.25268754 0
4.8180003 2.0977213 0.25258476 0
4.8220005 2.091686 0.25244766 0
4.8290005 2.087081 0.25220776 0
4.8380003 2.08341 0.2518993 0
5.1000004 2.2006433 0.24291994 0
5.1010003 2.1926415 0.24288568 0
5.1040001 2.1855848 0.24278286 0
5.1090002 2.1794629 0.2426115 0
5.1150002 2.1737933 0.24240585 0
5.1260004 2.1704476 0.24202885 0
