# .PCD v0.7 - Point Cloud Data file format
VERSION 0.7
FIELDS x y z intensity
SIZE 4 4 4 4
TYPE F F F F
COUNT 1 1 1 1
WIDTH 1376
HEIGHT 1
VIEWPOINT 0 0 0 1 0 0 0
POINTS 1376
DATA ascii
5.9860005 -0.55987972 0.83727115 0
5.9900002 -0.57033092 0.8375814 0
5.9940004 -0.58079672 0.83789164 0
5.9980001 -0.59127676 0.83820188 0
6.0020003 -0.60177135 0.83851218 0
6.0060005 -0.61228037 0.83882242 0
6.0090003 -0.62270093 0.83905512 0
6.0130005 -0.633237 0.83936536 0
6.0170002 -0.64378744 0.83967561 0
6.0210004 -0.65435237 0.83998585 0
5.9680004 -0.5080058 0.82583141 0
5.9710002 -0.51830369 0.82605863 0
5.9750004 -0.52869904 0.82636172 0
5.9790006 -0.53910887 0.82666481 0
5.9830003 -0.54953307 0.82696778 0
5.9860005 -0.55987972 0.82719505 0
5.9900002 -0.57033092 0.82749808 0
5.9940004 -0.58079672 0.82780117 0
5.9980001 -0.59127676 0.82810414 0
6.0020003 -0.60177135 0.82840723 0
6.0060005 -0.61228037 0.82871026 0
6.0090003 -0.62270093 0.82893753 0
6.0130005 -0.633237 0.82924056 0
6.0170002 -0.64378744 0.82954359 0
6.0210004 -0.65435237 0.82984668 0
6.0250006 -0.66493171 0.83014971 0
6.0290003 -0.67552549 0.83045274 0
6.0320005 -0.68602008 0.83068001 0
6.0360003 -0.69664085 0.83098304 0
6.0400004 -0.70727617 0.83128613 0
6.0440001 -0.71792573 0.8315891 0
6.0480003 -0.72858989 0.83189213 0
6.0520005 -0.73926848 0.83219528 0
6.0560002 -0.74996138 0.83249825 0
6.0600004 -0.76066881 0.83280134 0
6.0640001 -0.77139068 0.83310437 0
6.0680003 -0.7821269 0.8334074 0
6.0710006 -0.79274595 0.83363467 0
6.0750003 -0.80350924 0.8339377 0
6.0790005 -0.81428701 0.83424079 0
6.0830002 -0.8250792 0.83454376 0
5.9680004 -0.5080058 0.81578779 0
5.9710002 -0.51830369 0.81600964 0
5.9750004 -0.52869904 0.81630552 0
5.9790006 -0.53910887 0.81660128 0
5.9830003 -0.54953307 0.81689715 0
5.9860005 -0.55987972 0.817119 0
5.9900002 -0.57033092 0.81741482 0
5.9940004 -0.58079672 0.81771064 0
5.9980001 -0.59127676 0.81800646 0
6.0020003 -0.60177135 0.81830227 0
6.0060005 -0.61228037 0.81859815 0
6.0090003 -0.62270093 0.81882 0
6.0130005 -0.633237 0.81911582 0
6.0170002 -0.64378744 0.81941164 0
6.0210004 -0.65435237 0.81970751 0
6.0250006 -0.66493171 0.82000327 0
6.0290003 -0.67552549 0.82029909 0
6.0320005 -0.68602008 0.820521 0
6.0360003 -0.69664085 0.82081676 0
6.0400004 -0.70727617 0.82111263 0
6.0440001 -0.71792573 0.82140845 0
6.0480003 -0.72858989 0.82170427 0
6.0520005 -0.73926848 0.82200015 0
6.0560002 -0.74996138 0.8222959 0
6.0600004 -0.76066881 0.82259178 0
6.0640001 -0.77139068 0.82288754 0
6.0680003 -0.7821269 0.82318342 0
6.0710006 -0.79274595 0.82340527 0
6.0750003 -0.80350924 0.82370108 0
6.0790005 -0.81428701 0.8239969 0
6.0830002 -0.8250792 0.82429278 0
6.0870004 -0.83588582 0.82458854 0
5.9680004 -0.5080058 0.80574417 0
5.9710002 -0.51830369 0.80596066 0
5.9750004 -0.52869904 0.80624926 0
5.9790006 -0.53910887 0.80653787 0
5.9830003 -0.54953307 0.80682647 0
5.9860005 -0.55987972 0.80704296 0
5.9900002 -0.57033092 0.80733156 0
5.9940004 -0.58079672 0.80762017 0
5.9980001 -0.59127676 0.80790877 0
6.0020003 -0.60177135 0.80819738 0
6.0060005 -0.61228037 0.80848598 0
6.0090003 -0.62270093 0.80870247 0
6.0130005 -0.633237 0.80899107 0
6.0170002 -0.64378744 0.80927968 0
6.0210004 -0.65435237 0.80956829 0
6.0250006 -0.66493171 0.80985689 0
6.0290003 -0.67552549 0.8101455 0
6.0320005 -0.68602008 0.81036198 0
6.0360003 -0.69664085 0.81065053 0
6.0400004 -0.70727617 0.81093913 0
6.0440001 -0.71792573 0.8112278 0
6.0480003 -0.72858989 0.8115164 0
6.0520005 -0.73926848 0.81180501 0
6.0560002 -0.74996138 0.81209362 0
6.0600004 -0.76066881 0.81238222 0
6.0640001 -0.77139068 0.81267083 0
6.0680003 -0.7821269 0.81295943 0
6.0710006 -0.79274595 0.81317592 0
6.0750003 -0.80350924 0.81346446 0
6.0790005 -0.81428701 0.81375313 0
6.0830002 -0.8250792 0.81404173 0
6.0870004 -0.83588582 0.81433034 0
6.0910006 -0.84670693 0.81461895 0
5.9640002 -0.49763751 0.79541916 0
5.9680004 -0.5080058 0.79570055 0
5.9710002 -0.51830369 0.79591161 0
5.9750004 -0.52869904 0.796193 0
5.9790006 -0.53910887 0.79647446 0
5.9830003 -0.54953307 0.79675579 0
5.9860005 -0.55987972 0.79696691 0
5.9900002 -0.57033092 0.79724824 0
5.9940004 -0.58079672 0.79752964 0
5.9980001 -0.59127676 0.79781103 0
6.0020003 -0.60177135 0.79809242 0
6.0060005 -0.61228037 0.79837382 0
6.0090003 -0.62270093 0.79858482 0
6.0130005 -0.633237 0.79886627 0
6.0170002 -0.64378744 0.79914761 0
6.0210004 -0.65435237 0.79942906 0
6.0250006 -0.66493171 0.79971045 0
6.0290003 -0.67552549 0.79999185 0
6.0320005 -0.68602008 0.80020285 0
6.0360003 -0.69664085 0.8004843 0
6.0400004 -0.70727617 0.80076563 0
6.0440001 -0.71792573 0.80104709 0
6.0480003 -0.72858989 0.80132842 0
6.0520005 -0.73926848 0.80160987 0
6.0560002 -0.74996138 0.80189121 0
6.0600004 -0.76066881 0.80217266 0
6.0640001 -0.77139068 0.80245399 0
6.0680003 -0.7821269 0.80273545 0
6.0710006 -0.79274595 0.80294651 0
6.0750003 -0.80350924 0.8032279 0
6.0790005 -0.81428701 0.80350924 0
6.0830002 -0.8250792 0.80379069 0
6.0870004 -0.83588582 0.80407202 0
6.0910006 -0.84670693 0.80435348 0
5.9640002 -0.49763751 0.78538275 0
5.9680004 -0.5080058 0.78565699 0
5.9710002 -0.51830369 0.78586257 0
5.9750004 -0.52869904 0.78613675 0
5.9790006 -0.53910887 0.78641099 0
5.9830003 -0.54953307 0.78668511 0
5.9860005 -0.55987972 0.7868908 0
5.9900002 -0.57033092 0.78716493 0
5.9940004 -0.58079672 0.78743911 0
5.9980001 -0.59127676 0.78771329 0
6.0020003 -0.60177135 0.78798747 0
6.0060005 -0.61228037 0.78826165 0
6.0090003 -0.62270093 0.78846729 0
6.0130005 -0.633237 0.78874147 0
6.0170002 -0.64378744 0.78901565 0
6.0210004 -0.65435237 0.78928983 0
6.0250006 -0.66493171 0.78956401 0
6.0290003 -0.67552549 0.78983819 0
6.0320005 -0.68602008 0.79004383 0
6.0360003 -0.69664085 0.79031801 0
6.0400004 -0.70727617 0.79059219 0
6.0440001 -0.71792573 0.79086637 0
6.0480003 -0.72858989 0.79114056 0
6.0520005 -0.73926848 0.79141474 0
6.0560002 -0.74996138 0.79168892 0
6.0600004 -0.76066881 0.7919631 0
6.0640001 -0.77139068 0.79223728 0
6.0680003 -0.7821269 0.79251146 0
6.0710006 -0.79274595 0.7927171 0
6.0750003 -0.80350924 0.79299128 0
6.0790005 -0.81428701 0.79326546 0
6.0830002 -0.8250792 0.79353964 0
6.0870004 -0.83588582 0.79381382 0
6.0910006 -0.84670693 0.79408801 0
5.9640002 -0.49763751 0.7753464 0
5.9680004 -0.5080058 0.77561337 0
5.9710002 -0.51830369 0.77581358 0
5.9750004 -0.52869904 0.77608055 0
5.9790006 -0.53910887 0.77634752 0
5.9830003 -0.54953307 0.77661449 0
5.9860005 -0.55987972 0.7768147 0
5.9900002 -0.57033092 0.77708167 0
5.9940004 -0.58079672 0.77734864 0
5.9980001 -0.59127676 0.77761561 0
6.0020003 -0.60177135 0.77788258 0
6.0060005 -0.61228037 0.77814949 0
6.0090003 -0.62270093 0.77834976 0
6.0130005 -0.633237 0.77861673 0
6.0170002 -0.64378744 0.7788837 0
6.0210004 -0.65435237 0.77915061 0
6.0250006 -0.66493171 0.77941763 0
6.0290003 -0.67552549 0.77968454 0
6.0320005 -0.68602008 0.77988482 0
6.0360003 -0.69664085 0.78015172 0
6.0400004 -0.70727617 0.78041875 0
6.0440001 -0.71792573 0.78068566 0
6.0480003 -0.72858989 0.78095269 0
6.0520005 -0.73926848 0.7812196 0
6.0560002 -0.74996138 0.78148657 0
6.0600004 -0.76066881 0.78175354 0
6.0640001 -0.77139068 0.78202051 0
6.0680003 -0.7821269 0.78228748 0
6.0710006 -0.79274595 0.78248769 0
6.0750003 -0.80350924 0.78275466 0
6.0790005 -0.81428701 0.78302163 0
6.0830002 -0.8250792 0.78328854 0
6.0870004 -0.83588582 0.78355551 0
6.0910006 -0.84670693 0.78382254 0
5.9640002 -0.49763751 0.76530999 0
5.9680004 -0.5080058 0.76556981 0
5.9710002 -0.51830369 0.76576459 0
5.9750004 -0.52869904 0.76602435 0
5.9790006 -0.53910887 0.76628411 0
5.9830003 -0.54953307 0.76654381 0
5.9860005 -0.55987972 0.76673865 0
5.9900002 -0.57033092 0.76699841 0
5.9940004 -0.58079672 0.76725817 0
5.9980001 -0.59127676 0.76751786 0
6.0020003 -0.60177135 0.76777762 0
6.0060005 -0.61228037 0.76803738 0
6.0090003 -0.62270093 0.76823223 0
6.0130005 -0.633237 0.76849192 0
6.0170002 -0.64378744 0.76875168 0
6.0210004 -0.65435237 0.76901144 0
6.0250006 -0.66493171 0.76927119 0
6.0290003 -0.67552549 0.76953089 0
6.0330005 -0.68613368 0.76979065 0
6.0360003 -0.69664085 0.7699855 0
6.0400004 -0.70727617 0.77024519 0
6.0440001 -0.71792573 0.77050495 0
6.0480003 -0.72858989 0.77076471 0
6.0520005 -0.73926848 0.77102447 0
6.0560002 -0.74996138 0.77128422 0
6.0600004 -0.76066881 0.77154398 0
6.0640001 -0.77139068 0.77180374 0
6.0680003 -0.7821269 0.77206349 0
6.0710006 -0.79274595 0.77225828 0
6.0750003 -0.80350924 0.77251804 0
6.0790005 -0.81428701 0.7727778 0
6.0830002 -0.8250792 0.77303755 0
6.0870004 -0.83588582 0.77329731 0
6.0910006 -0.84670693 0.77355707 0
5.9640002 -0.49763751 0.75527358 0
5.9680004 -0.5080058 0.75552619 0
5.9710002 -0.51830369 0.75571555 0
5.9750004 -0.52869904 0.75596809 0
5.9790006 -0.53910887 0.75622064 0
5.9830003 -0.54953307 0.75647318 0
5.9860005 -0.55987972 0.75666261 0
5.9900002 -0.57033092 0.75691509 0
5.9940004 -0.58079672 0.75716764 0
5.9980001 -0.59127676 0.75742018 0
6.0020003 -0.60177135 0.75767267 0
6.0060005 -0.61228037 0.75792527 0
6.0090003 -0.62270093 0.75811458 0
6.0130005 -0.633237 0.75836718 0
6.0170002 -0.64378744 0.75861967 0
6.0210004 -0.65435237 0.75887227 0
6.0250006 -0.66493171 0.75912476 0
6.0290003 -0.67552549 0.75937724 0
6.0330005 -0.68613368 0.75962985 0
6.0360003 -0.69664085 0.75981927 0
6.0400004 -0.70727617 0.76007175 0
6.0440001 -0.71792573 0.7603243 0
6.0480003 -0.72858989 0.76057684 0
6.0520005 -0.73926848 0.76082933 0
6.0560002 -0.74996138 0.76108187 0
6.0600004 -0.76066881 0.76133442 0
6.0640001 -0.77139068 0.76158696 0
6.0680003 -0.7821269 0.76183951 0
6.0710006 -0.79274595 0.76202893 0
6.0750003 -0.80350924 0.76228142 0
6.0790005 -0.81428701 0.76253396 0
6.0830002 -0.8250792 0.76278651 0
6.0870004 -0.83588582 0.76303899 0
6.0910006 -0.84670693 0.7632916 0
5.9640002 -0.49763751 0.74523723 0
5.9680004 -0.5080058 0.74548256 0
5.9710002 -0.51830369 0.7456665 0
5.9750004 -0.52869904 0.74591184 0
5.9790006 -0.53910887 0.74615717 0
5.9830003 -0.54953307 0.7464025 0
5.9860005 -0.55987972 0.7465865 0
5.9900002 -0.57033092 0.74683177 0
5.9940004 -0.58079672 0.74707711 0
5.9980001 -0.59127676 0.74732244 0
6.0020003 -0.60177135 0.74756777 0
6.0060005 -0.61228037 0.74781311 0
6.0090003 -0.62270093 0.74799705 0
6.0130005 -0.633237 0.74824238 0
6.0170002 -0.64378744 0.74848771 0
6.0210004 -0.65435237 0.74873304 0
6.0250006 -0.66493171 0.74897838 0
6.0290003 -0.67552549 0.74922365 0
6.0330005 -0.68613368 0.74946898 0
6.0360003 -0.69664085 0.74965298 0
6.0400004 -0.70727617 0.74989831 0
6.0440001 -0.71792573 0.75014359 0
6.0480003 -0.72858989 0.75038892 0
6.0520005 -0.73926848 0.75063425 0
6.0560002 -0.74996138 0.75087953 0
6.0600004 -0.76066881 0.75112486 0
6.0640001 -0.77139068 0.75137019 0
6.0680003 -0.7821269 0.75161552 0
6.0710006 -0.79274595 0.75179946 0
6.0750003 -0.80350924 0.7520448 0
6.0790005 -0.81428701 0.75229013 0
6.0830002 -0.8250792 0.75253546 0
6.0870004 -0.83588582 0.7527808 0
6.0910006 -0.84670693 0.75302613 0
5.9640002 -0.49763751 0.73520082 0
5.9680004 -0.5080058 0.73543894 0
5.9710002 -0.51830369 0.73561752 0
5.9750004 -0.52869904 0.73585564 0
5.9790006 -0.53910887 0.73609376 0
5.9830003 -0.54953307 0.73633182 0
5.9860005 -0.55987972 0.7365104 0
5.9900002 -0.57033092 0.73674852 0
5.9940004 -0.58079672 0.73698664 0
5.9980001 -0.59127676 0.7372247 0
6.0020003 -0.60177135 0.73746288 0
6.0060005 -0.61228037 0.73770094 0
6.0090003 -0.62270093 0.73787951 0
6.0130005 -0.633237 0.73811764 0
6.0170002 -0.64378744 0.7383557 0
6.0210004 -0.65435237 0.73859382 0
6.0250006 -0.66493171 0.73883194 0
6.0290003 -0.67552549 0.73907 0
6.0330005 -0.68613368 0.73930812 0
6.0360003 -0.69664085 0.73948669 0
6.0400004 -0.70727617 0.73972481 0
6.0440001 -0.71792573 0.73996288 0
6.0480003 -0.72858989 0.740201 0
6.0520005 -0.73926848 0.74043918 0
6.0560002 -0.74996138 0.74067724 0
6.0600004 -0.76066881 0.7409153 0
6.0640001 -0.77139068 0.74115342 0
6.0680003 -0.7821269 0.74139154 0
6.0710006 -0.79274595 0.74157012 0
6.0750003 -0.80350924 0.74180818 0
6.0790005 -0.81428701 0.7420463 0
6.0830002 -0.8250792 0.74228442 0
6.0870004 -0.83588582 0.74252248 0
6.0910006 -0.84670693 0.7427606 0
5.9640002 -0.49763751 0.72516441 0
5.9680004 -0.5080058 0.72539532 0
5.9710002 -0.51830369 0.72556853 0
5.9750004 -0.52869904 0.72579944 0
5.9790006 -0.53910887 0.72603029 0
5.9830003 -0.54953307 0.72626114 0
5.9860005 -0.55987972 0.72643435 0
5.9900002 -0.57033092 0.72666526 0
5.9940004 -0.58079672 0.72689617 0
5.9980001 -0.59127676 0.72712696 0
6.0020003 -0.60177135 0.72735786 0
6.0060005 -0.61228037 0.72758877 0
6.0090003 -0.62270093 0.72776198 0
6.0130005 -0.633237 0.72799283 0
6.0170002 -0.64378744 0.72822368 0
6.0210004 -0.65435237 0.72845459 0
6.0250006 -0.66493171 0.7286855 0
6.0290003 -0.67552549 0.72891641 0
6.0330005 -0.68613368 0.72914732 0
6.0360003 -0.69664085 0.72932041 0
6.0400004 -0.70727617 0.72955132 0
6.0440001 -0.71792573 0.72978222 0
6.0480003 -0.72858989 0.73001313 0
6.0520005 -0.73926848 0.73024398 0
6.0560002 -0.74996138 0.73047483 0
6.0600004 -0.76066881 0.73070574 0
6.0640001 -0.77139068 0.73093665 0
6.0680003 -0.7821269 0.73116755 0
6.0710006 -0.79274595 0.73134071 0
6.0750003 -0.80350924 0.73157156 0
6.0790005 -0.81428701 0.73180246 0
6.0830002 -0.8250792 0.73203337 0
6.0870004 -0.83588582 0.73226428 0
6.0910006 -0.84670693 0.73249519 0
5.9640002 -0.49763751 0.71512806 0
5.9680004 -0.5080058 0.71535176 0
5.9710002 -0.51830369 0.71551949 0
5.9750004 -0.52869904 0.71574318 0
5.9790006 -0.53910887 0.71596688 0
5.9830003 -0.54953307 0.71619046 0
5.9860005 -0.55987972 0.7163583 0
5.9900002 -0.57033092 0.71658194 0
5.9940004 -0.58079672 0.71680564 0
5.9980001 -0.59127676 0.71702927 0
6.0020003 -0.60177135 0.71725297 0
6.0060005 -0.61228037 0.71747661 0
6.0090003 -0.62270093 0.71764439 0
6.0130005 -0.633237 0.71786809 0
6.0170002 -0.64378744 0.71809173 0
6.0210004 -0.65435237 0.71831536 0
6.0250006 -0.66493171 0.71853912 0
6.0290003 -0.67552549 0.71876276 0
6.0330005 -0.68613368 0.71898639 0
6.0360003 -0.69664085 0.71915418 0
6.0400004 -0.70727617 0.71937788 0
6.0440001 -0.71792573 0.71960151 0
6.0480003 -0.72858989 0.71982521 0
6.0520005 -0.73926848 0.72004884 0
6.0560002 -0.74996138 0.72027254 0
6.0600004 -0.76066881 0.72049618 0
6.0640001 -0.77139068 0.72071987 0
6.0680003 -0.7821269 0.72094357 0
6.0710006 -0.79274595 0.7211113 0
6.0750003 -0.80350924 0.72133493 0
6.0790005 -0.81428701 0.72155869 0
6.0830002 -0.8250792 0.72178233 0
6.0870004 -0.83588582 0.72200596 0
6.0910006 -0.84670693 0.72222972 0
5.9640002 -0.49763751 0.70509166 0
5.9680004 -0.5080058 0.70530814 0
5.9710002 -0.51830369 0.70547044 0
5.9750004 -0.52869904 0.70568693 0
5.9790006 -0.53910887 0.70590341 0
5.9830003 -0.54953307 0.70611989 0
5.9860005 -0.55987972 0.70628226 0
5.9900002 -0.57033092 0.70649862 0
5.9940004 -0.58079672 0.70671511 0
5.9980001 -0.59127676 0.70693159 0
6.0020003 -0.60177135 0.70714808 0
6.0060005 -0.61228037 0.70736444 0
6.0090003 -0.62270093 0.7075268 0
6.0130005 -0.633237 0.70774329 0
6.0170002 -0.64378744 0.70795977 0
6.0210004 -0.65435237 0.7081762 0
6.0250006 -0.66493171 0.70839268 0
6.0290003 -0.67552549 0.7086091 0
6.0330005 -0.68613368 0.70882559 0
6.0360003 -0.69664085 0.70898789 0
6.0400004 -0.70727617 0.70920438 0
6.0440001 -0.71792573 0.7094208 0
6.0480003 -0.72858989 0.70963728 0
6.0520005 -0.73926848 0.70985377 0
6.0560002 -0.74996138 0.71007019 0
6.0600004 -0.76066881 0.71028662 0
6.0640001 -0.77139068 0.7105031 0
6.0680003 -0.7821269 0.71071959 0
6.0710006 -0.79274595 0.71088195 0
6.0750003 -0.80350924 0.71109831 0
6.0790005 -0.81428701 0.7113148 0
6.0830002 -0.8250792 0.71153128 0
6.0870004 -0.83588582 0.71174777 0
6.0910006 -0.84670693 0.71196419 0
5.9640002 -0.49763751 0.69505525 0
5.9680004 -0.5080058 0.69526458 0
5.9710002 -0.51830369 0.69542146 0
5.9750004 -0.52869904 0.69563067 0
5.9790006 -0.53910887 0.69584 0
5.9830003 -0.54953307 0.69604921 0
5.9860005 -0.55987972 0.69620615 0
5.9900002 -0.57033092 0.69641536 0
5.9940004 -0.58079672 0.69662464 0
5.9980001 -0.59127676 0.69683385 0
6.0020003 -0.60177135 0.69704306 0
6.0060005 -0.61228037 0.69725233 0
6.0090003 -0.62270093 0.69740927 0
6.0130005 -0.633237 0.69761848 0
6.0170002 -0.64378744 0.69782776 0
6.0210004 -0.65435237 0.69803697 0
6.0250006 -0.66493171 0.69824624 0
6.0290003 -0.67552549 0.69845545 0
6.0330005 -0.68613368 0.69866472 0
6.0360003 -0.69664085 0.69882166 0
6.0400004 -0.70727617 0.69903088 0
6.0440001 -0.71792573 0.69924009 0
6.0480003 -0.72858989 0.69944936 0
6.0520005 -0.73926848 0.69965863 0
6.0560002 -0.74996138 0.69986784 0
6.0600004 -0.76066881 0.70007712 0
6.0640001 -0.77139068 0.70028633 0
6.0680003 -0.7821269 0.7004956 0
6.0710006 -0.79274595 0.70065254 0
6.0750003 -0.80350924 0.70086175 0
6.0790005 -0.81428701 0.70107102 0
6.0830002 -0.8250792 0.70128024 0
6.0870004 -0.83588582 0.70148945 0
6.0910006 -0.84670693 0.70169878 0
5.9640002 -0.49763751 0.6850189 0
5.9680004 -0.5080058 0.68522096 0
5.9710002 -0.51830369 0.68537247 0
5.9750004 -0.52869904 0.68557447 0
5.9790006 -0.53910887 0.68577647 0
5.9830003 -0.54953307 0.68597853 0
5.9860005 -0.55987972 0.68613005 0
5.9900002 -0.57033092 0.68633211 0
5.9940004 -0.58079672 0.68653411 0
5.9980001 -0.59127676 0.68673611 0
6.0020003 -0.60177135 0.68693817 0
6.0060005 -0.61228037 0.68714023 0
6.0090003 -0.62270093 0.68729168 0
6.0130005 -0.633237 0.68749374 0
6.0170002 -0.64378744 0.68769574 0
6.0210004 -0.65435237 0.6878978 0
6.0250006 -0.66493171 0.68809986 0
6.0290003 -0.67552549 0.6883018 0
6.0330005 -0.68613368 0.68850386 0
6.0360003 -0.69664085 0.68865538 0
6.0400004 -0.70727617 0.68885744 0
6.0440001 -0.71792573 0.68905938 0
6.0480003 -0.72858989 0.68926144 0
6.0520005 -0.73926848 0.6894635 0
6.0560002 -0.74996138 0.68966556 0
6.0600004 -0.76066881 0.68986756 0
6.0640001 -0.77139068 0.69006956 0
6.0680003 -0.7821269 0.69027162 0
6.0710006 -0.79274595 0.69042313 0
6.0750003 -0.80350924 0.69062513 0
6.0790005 -0.81428701 0.69082713 0
6.0830002 -0.8250792 0.69102919 0
6.0870004 -0.83588582 0.69123125 0
6.0910006 -0.84670693 0.69143325 0
5.9640002 -0.49763751 0.67498249 0
5.9680004 -0.5080058 0.67517734 0
5.9710002 -0.51830369 0.67532343 0
5.9750004 -0.52869904 0.67551827 0
5.9790006 -0.53910887 0.67571306 0
5.9830003 -0.54953307 0.67590785 0
5.9860005 -0.55987972 0.676054 0
5.9900002 -0.57033092 0.67624879 0
5.9940004 -0.58079672 0.67644358 0
5.9980001 -0.59127676 0.67663836 0
6.0020003 -0.60177135 0.67683327 0
6.0060005 -0.61228037 0.67702806 0
6.0090003 -0.62270093 0.67717415 0
6.0130005 -0.633237 0.677369 0
6.0170002 -0.64378744 0.67756379 0
6.0210004 -0.65435237 0.67775857 0
6.0250006 -0.66493171 0.67795336 0
6.0290003 -0.67552549 0.67814815 0
6.0330005 -0.68613368 0.678343 0
6.0360003 -0.69664085 0.67848909 0
6.0400004 -0.70727617 0.67868394 0
6.0440001 -0.71792573 0.67887872 0
6.0480003 -0.72858989 0.67907357 0
6.0520005 -0.73926848 0.67926836 0
6.0560002 -0.74996138 0.67946315 0
6.0600004 -0.76066881 0.679658 0
6.0640001 -0.77139068 0.67985278 0
6.0680003 -0.7821269 0.68004763 0
6.0710006 -0.79274595 0.68019378 0
6.0750003 -0.80350924 0.68038857 0
6.0790005 -0.81428701 0.68058336 0
6.0830002 -0.8250792 0.68077815 0
6.0870004 -0.83588582 0.68097293 0
6.0910006 -0.84670693 0.68116778 0
5.9640002 -0.49763751 0.66494608 0
5.9680004 -0.5080058 0.66513371 0
5.9710002 -0.51830369 0.66527438 0
5.9750004 -0.52869904 0.66546202 0
5.9790006 -0.53910887 0.66564965 0
5.9830003 -0.54953307 0.66583717 0
5.9860005 -0.55987972 0.6659779 0
5.9900002 -0.57033092 0.66616547 0
5.9940004 -0.58079672 0.66635311 0
5.9980001 -0.59127676 0.66654068 0
6.0020003 -0.60177135 0.66672826 0
6.0060005 -0.61228037 0.66691589 0
6.0090003 -0.62270093 0.66705656 0
6.0130005 -0.633237 0.6672442 0
6.0170002 -0.64378744 0.66743177 0
6.0210004 -0.65435237 0.66761935 0
6.0250006 -0.66493171 0.66780698 0
6.0290003 -0.67552549 0.66799456 0
6.0330005 -0.68613368 0.66818213 0
6.0360003 -0.69664085 0.66832286 0
6.0400004 -0.70727617 0.66851044 0
6.0440001 -0.71792573 0.66869807 0
6.0480003 -0.72858989 0.66888565 0
6.0520005 -0.73926848 0.66907322 0
6.0560002 -0.74996138 0.66926086 0
6.0600004 -0.76066881 0.66944844 0
6.0640001 -0.77139068 0.66963601 0
6.0680003 -0.7821269 0.66982365 0
6.0710006 -0.79274595 0.66996431 0
6.0750003 -0.80350924 0.67015195 0
6.0790005 -0.81428701 0.67033952 0
6.0830002 -0.8250792 0.6705271 0
6.0870004 -0.83588582 0.67071474 0
6.0910006 -0.84670693 0.67090231 0
5.9640002 -0.49763751 0.65490973 0
5.9680004 -0.5080058 0.65509009 0
5.9710002 -0.51830369 0.6552254 0
5.9750004 -0.52869904 0.65540576 0
5.9790006 -0.53910887 0.65558612 0
5.9830003 -0.54953307 0.65576655 0
5.9860005 -0.55987972 0.65590185 0
5.9900002 -0.57033092 0.65608221 0
5.9940004 -0.58079672 0.65626264 0
5.9980001 -0.59127676 0.656443 0
6.0020003 -0.60177135 0.65662336 0
6.0060005 -0.61228037 0.65680373 0
6.0090003 -0.62270093 0.65693903 0
6.0130005 -0.633237 0.65711939 0
6.0170002 -0.64378744 0.65729976 0
6.0210004 -0.65435237 0.65748018 0
6.0250006 -0.66493171 0.6576606 0
6.0290003 -0.67552549 0.65784097 0
6.0330005 -0.68613368 0.65802133 0
6.0360003 -0.69664085 0.65815663 0
6.0400004 -0.70727617 0.658337 0
6.0440001 -0.71792573 0.65851736 0
6.0480003 -0.72858989 0.65869772 0
6.0520005 -0.73926848 0.65887815 0
6.0560002 -0.74996138 0.65905851 0
6.0600004 -0.76066881 0.65923893 0
6.0640001 -0.77139068 0.6594193 0
6.0680003 -0.7821269 0.65959966 0
6.0710006 -0.79274595 0.65973496 0
6.0750003 -0.80350924 0.65991533 0
6.0790005 -0.81428701 0.66009569 0
6.0830002 -0.8250792 0.66027606 0
6.0870004 -0.83588582 0.66045642 0
6.0910006 -0.84670693 0.66063684 0
5.9640002 -0.49763751 0.64487338 0
5.9680004 -0.5080058 0.64504653 0
5.9710002 -0.51830369 0.64517641 0
5.9750004 -0.52869904 0.64534956 0
5.9790006 -0.53910887 0.64552271 0
5.9830003 -0.54953307 0.64569587 0
5.9860005 -0.55987972 0.64582574 0
5.9900002 -0.57033092 0.64599895 0
5.9940004 -0.58079672 0.64617211 0
5.9980001 -0.59127676 0.64634526 0
6.0020003 -0.60177135 0.64651841 0
6.0060005 -0.61228037 0.64669156 0
6.0090003 -0.62270093 0.64682144 0
6.0130005 -0.633237 0.64699459 0
6.0170002 -0.64378744 0.6471678 0
6.0210004 -0.65435237 0.64734095 0
6.0250006 -0.66493171 0.6475141 0
6.0290003 -0.67552549 0.64768732 0
6.0330005 -0.68613368 0.64786047 0
6.0360003 -0.69664085 0.64799035 0
6.0400004 -0.70727617 0.6481635 0
6.0440001 -0.71792573 0.64833665 0
6.0480003 -0.72858989 0.6485098 0
6.0520005 -0.73926848 0.64868301 0
6.0560002 -0.74996138 0.64885616 0
6.0600004 -0.76066881 0.64902931 0
6.0640001 -0.77139068 0.64920247 0
6.0680003 -0.7821269 0.64937568 0
6.0710006 -0.79274595 0.6495055 0
6.0750003 -0.80350924 0.64967871 0
6.0790005 -0.81428701 0.64985186 0
6.0830002 -0.8250792 0.65002501 0
6.0870004 -0.83588582 0.65019822 0
6.0910006 -0.84670693 0.65037137 0
5.9640002 -0.49763751 0.63483697 0
5.9680004 -0.5080058 0.63500291 0
5.9710002 -0.51830369 0.63512737 0
5.9750004 -0.52869904 0.6352933 0
5.9790006 -0.53910887 0.6354593 0
5.9830003 -0.54953307 0.63562524 0
5.9860005 -0.55987972 0.6357497 0
5.9900002 -0.57033092 0.63591564 0
5.9940004 -0.58079672 0.63608158 0
5.9980001 -0.59127676 0.63624752 0
6.0020003 -0.60177135 0.63641351 0
6.0060005 -0.61228037 0.63657945 0
6.0090003 -0.62270093 0.63670391 0
6.0130005 -0.633237 0.63686985 0
6.0170002 -0.64378744 0.63703585 0
6.0210004 -0.65435237 0.63720179 0
6.0250006 -0.66493171 0.63736773 0
6.0290003 -0.67552549 0.63753366 0
6.0330005 -0.68613368 0.6376996 0
6.0360003 -0.69664085 0.63782406 0
6.0400004 -0.70727617 0.63799 0
6.0440001 -0.71792573 0.63815594 0
6.0480003 -0.72858989 0.63832194 0
6.0520005 -0.73926848 0.63848788 0
6.0560002 -0.74996138 0.63865381 0
6.0600004 -0.76066881 0.63881975 0
6.0640001 -0.77139068 0.63898569 0
6.0680003 -0.7821269 0.63915169 0
6.0710006 -0.79274595 0.63927615 0
6.0750003 -0.80350924 0.63944209 0
6.0790005 -0.81428701 0.63960803 0
6.0830002 -0.8250792 0.63977396 0
6.0870004 -0.83588582 0.63993996 0
6.0910006 -0.84670693 0.6401059 0
5.9640002 -0.49763751 0.62480056 0
5.9680004 -0.5080058 0.62495935 0
5.9710002 -0.51830369 0.62507832 0
5.9750004 -0.52869904 0.62523711 0
5.9790006 -0.53910887 0.62539583 0
5.9830003 -0.54953307 0.62555456 0
5.9860005 -0.55987972 0.62567365 0
5.9900002 -0.57033092 0.62583232 0
5.9940004 -0.58079672 0.62599111 0
5.9980001 -0.59127676 0.62614977 0
6.0020003 -0.60177135 0.62630856 0
6.0060005 -0.61228037 0.62646729 0
6.0090003 -0.62270093 0.62658632 0
6.0130005 -0.633237 0.6267451 0
6.0170002 -0.64378744 0.62690383 0
6.0210004 -0.65435237 0.62706256 0
6.0250006 -0.66493171 0.62722129 0
6.0290003 -0.67552549 0.62738001 0
6.0330005 -0.68613368 0.62753874 0
6.0360003 -0.69664085 0.62765777 0
6.0400004 -0.70727617 0.62781656 0
6.0440001 -0.71792573 0.62797529 0
6.0480003 -0.72858989 0.62813401 0
6.0520005 -0.73926848 0.62829274 0
6.0560002 -0.74996138 0.62845147 0
6.0600004 -0.76066881 0.62861019 0
6.0640001 -0.77139068 0.62876892 0
6.0680003 -0.7821269 0.62892771 0
6.0710006 -0.79274595 0.62904674 0
6.0750003 -0.80350924 0.62920547 0
6.0790005 -0.81428701 0.62936425 0
6.0830002 -0.8250792 0.62952292 0
6.0870004 -0.83588582 0.62968171 0
6.0910006 -0.84670693 0.62984043 0
5.9640002 -0.49763751 0.61476421 0
5.9680004 -0.5080058 0.61491573 0
5.9710002 -0.51830369 0.61502934 0
5.9750004 -0.52869904 0.61518085 0
5.9790006 -0.53910887 0.61533237 0
5.9830003 -0.54953307 0.61548388 0
5.9860005 -0.55987972 0.61559755 0
5.9900002 -0.57033092 0.61574906 0
5.9940004 -0.58079672 0.61590058 0
5.9980001 -0.59127676 0.61605209 0
6.0020003 -0.60177135 0.61620361 0
6.0060005 -0.61228037 0.61635512 0
6.0090003 -0.62270093 0.61646879 0
6.0130005 -0.633237 0.6166203 0
6.0170002 -0.64378744 0.61677182 0
6.0210004 -0.65435237 0.61692333 0
6.0250006 -0.66493171 0.61707485 0
6.0290003 -0.67552549 0.61722636 0
6.0330005 -0.68613368 0.61737788 0
6.0360003 -0.69664085 0.61749154 0
6.0400004 -0.70727617 0.61764306 0
6.0440001 -0.71792573 0.61779457 0
6.0480003 -0.72858989 0.61794609 0
6.0520005 -0.73926848 0.61809766 0
6.0560002 -0.74996138 0.61824912 0
6.0600004 -0.76066881 0.61840069 0
6.0640001 -0.77139068 0.61855221 0
6.0680003 -0.7821269 0.61870372 0
6.0710006 -0.79274595 0.61881733 0
6.0750003 -0.80350924 0.61896884 0
6.0790005 -0.81428701 0.61912036 0
6.0830002 -0.8250792 0.61927187 0
6.0870004 -0.83588582 0.61942339 0
6.0910006 -0.84670693 0.61957496 0
5.9640002 -0.49763751 0.6047278 0
5.9680004 -0.5080058 0.60487211 0
5.9710002 -0.51830369 0.60498035 0
5.9750004 -0.52869904 0.60512465 0
5.9790006 -0.53910887 0.60526896 0
5.9830003 -0.54953307 0.60541326 0
5.9860005 -0.55987972 0.60552144 0
5.9900002 -0.57033092 0.6056658 0
5.9940004 -0.58079672 0.60581005 0
5.9980001 -0.59127676 0.60595441 0
6.0020003 -0.60177135 0.60609871 0
6.0060005 -0.61228037 0.60624301 0
6.0090003 -0.62270093 0.60635126 0
6.0130005 -0.633237 0.6064955 0
6.0170002 -0.64378744 0.60663986 0
6.0210004 -0.65435237 0.60678411 0
6.0250006 -0.66493171 0.60692847 0
6.0290003 -0.67552549 0.60707271 0
6.0330005 -0.68613368 0.60721707 0
6.0360003 -0.69664085 0.60732526 0
6.0400004 -0.70727617 0.60746956 0
6.0440001 -0.71792573 0.60761392 0
6.0480003 -0.72858989 0.60775816 0
6.0520005 -0.73926848 0.60790253 0
6.0560002 -0.74996138 0.60804677 0
6.0600004 -0.76066881 0.60819113 0
6.0640001 -0.77139068 0.60833538 0
6.0680003 -0.7821269 0.60847974 0
6.0710006 -0.79274595 0.60858798 0
6.0750003 -0.80350924 0.60873222 0
6.0790005 -0.81428701 0.60887659 0
6.0830002 -0.8250792 0.60902083 0
6.0870004 -0.83588582 0.60916519 0
6.0910006 -0.84670693 0.60930943 0
5.9640002 -0.49763751 0.5946914 0
5.9680004 -0.5080058 0.59482849 0
5.9710002 -0.51830369 0.5949313 0
5.9750004 -0.52869904 0.5950684 0
5.9790006 -0.53910887 0.59520549 0
5.9830003 -0.54953307 0.59534258 0
5.9860005 -0.55987972 0.59544539 0
5.9900002 -0.57033092 0.59558249 0
5.9940004 -0.58079672 0.59571958 0
5.9980001 -0.59127676 0.59585667 0
6.0020003 -0.60177135 0.59599376 0
6.0060005 -0.61228037 0.59613085 0
6.0090003 -0.62270093 0.59623367 0
6.0130005 -0.633237 0.59637076 0
6.0170002 -0.64378744 0.59650785 0
6.0210004 -0.65435237 0.59664494 0
6.0250006 -0.66493171 0.59678203 0
6.0290003 -0.67552549 0.59691912 0
6.0330005 -0.68613368 0.59705621 0
6.0360003 -0.69664085 0.59715903 0
6.0400004 -0.70727617 0.59729612 0
6.0440001 -0.71792573 0.59743321 0
6.0480003 -0.72858989 0.5975703 0
6.0520005 -0.73926848 0.59770739 0
6.0560002 -0.74996138 0.59784448 0
6.0600004 -0.76066881 0.59798157 0
6.0640001 -0.77139068 0.59811866 0
6.0680003 -0.7821269 0.59825575 0
6.0710006 -0.79274595 0.59835857 0
6.0750003 -0.80350924 0.5984956 0
6.0790005 -0.81428701 0.59863275 0
6.0830002 -0.8250792 0.59876978 0
6.0870004 -0.83588582 0.59890693 0
6.0910006 -0.84670693 0.59904397 0
5.9640002 -0.49763751 0.58465499 0
5.9680004 -0.5080058 0.58478487 0
5.9710002 -0.51830369 0.58488226 0
5.9750004 -0.52869904 0.5850122 0
5.9790006 -0.53910887 0.58514208 0
5.9830003 -0.54953307 0.58527189 0
5.9860005 -0.55987972 0.58536935 0
5.9900002 -0.57033092 0.58549917 0
5.9940004 -0.58079672 0.58562911 0
5.9980001 -0.59127676 0.58575892 0
6.0020003 -0.60177135 0.5858888 0
6.0060005 -0.61228037 0.58601868 0
6.0090003 -0.62270093 0.58611608 0
6.0130005 -0.633237 0.58624595 0
6.0170002 -0.64378744 0.58637583 0
6.0210004 -0.65435237 0.58650571 0
6.0250006 -0.66493171 0.58663559 0
6.0290003 -0.67552549 0.58676547 0
6.0330005 -0.68613368 0.58689535 0
6.0360003 -0.69664085 0.58699274 0
6.0400004 -0.70727617 0.58712262 0
6.0440001 -0.71792573 0.5872525 0
6.0480003 -0.72858989 0.58738238 0
6.0520005 -0.73926848 0.58751225 0
6.0560002 -0.74996138 0.58764213 0
6.0600004 -0.76066881 0.58777201 0
6.0640001 -0.77139068 0.58790189 0
6.0680003 -0.7821269 0.58803177 0
6.0710006 -0.79274595 0.58812916 0
6.0750003 -0.80350924 0.58825904 0
6.0790005 -0.81428701 0.58838892 0
6.0830002 -0.8250792 0.58851874 0
6.0870004 -0.83588582 0.58864868 0
6.0910006 -0.84670693 0.58877856 0
5.9640002 -0.49763751 0.57461864 0
5.9680004 -0.5080058 0.5747413 0
5.9710002 -0.51830369 0.57483327 0
5.9750004 -0.52869904 0.57495594 0
5.9790006 -0.53910887 0.57507861 0
5.9830003 -0.54953307 0.57520127 0
5.9860005 -0.55987972 0.57529324 0
5.9900002 -0.57033092 0.57541591 0
5.9940004 -0.58079672 0.57553858 0
5.9980001 -0.59127676 0.57566124 0
6.0020003 -0.60177135 0.57578385 0
6.0060005 -0.61228037 0.57590657 0
6.0090003 -0.62270093 0.57599854 0
6.0130005 -0.633237 0.57612121 0
6.0170002 -0.64378744 0.57624388 0
6.0210004 -0.65435237 0.57636654 0
6.0250006 -0.66493171 0.57648921 0
6.0290003 -0.67552549 0.57661182 0
6.0330005 -0.68613368 0.57673448 0
6.0360003 -0.69664085 0.57682645 0
6.0400004 -0.70727617 0.57694912 0
6.0440001 -0.71792573 0.57707179 0
6.0480003 -0.72858989 0.57719445 0
6.0520005 -0.73926848 0.57731712 0
6.0560002 -0.74996138 0.57743979 0
6.0600004 -0.76066881 0.57756245 0
6.0640001 -0.77139068 0.57768512 0
6.0680003 -0.7821269 0.57780778 0
6.0710006 -0.79274595 0.57789975 0
6.0750003 -0.80350924 0.57802242 0
6.0790005 -0.81428701 0.57814509 0
6.0830002 -0.8250792 0.57826769 0
6.0870004 -0.83588582 0.57839036 0
6.0910006 -0.84670693 0.57851303 0
5.9640002 -0.49763751 0.56458223 0
5.9680004 -0.5080058 0.56469768 0
5.9710002 -0.51830369 0.56478429 0
5.9750004 -0.52869904 0.56489968 0
5.9790006 -0.53910887 0.56501514 0
5.9830003 -0.54953307 0.56513059 0
5.9860005 -0.55987972 0.5652172 0
5.9900002 -0.57033092 0.56533265 0
5.9940004 -0.58079672 0.56544805 0
5.9980001 -0.59127676 0.5655635 0
6.0020003 -0.60177135 0.56567895 0
6.0060005 -0.61228037 0.56579441 0
6.0090003 -0.62270093 0.56588101 0
6.0130005 -0.633237 0.56599641 0
6.0170002 -0.64378744 0.56611186 0
6.0210004 -0.65435237 0.56622732 0
6.0250006 -0.66493171 0.56634277 0
6.0290003 -0.67552549 0.56645823 0
6.0330005 -0.68613368 0.56657362 0
6.0360003 -0.69664085 0.56666023 0
6.0400004 -0.70727617 0.56677568 0
6.0440001 -0.71792573 0.56689107 0
6.0480003 -0.72858989 0.56700659 0
6.0520005 -0.73926848 0.56712198 0
6.0560002 -0.74996138 0.56723744 0
6.0600004 -0.76066881 0.56735289 0
6.0640001 -0.77139068 0.56746835 0
6.0680003 -0.7821269 0.5675838 0
6.0710006 -0.79274595 0.56767035 0
6.0750003 -0.80350924 0.5677858 0
6.0790005 -0.81428701 0.56790125 0
6.0830002 -0.8250792 0.56801665 0
6.0870004 -0.83588582 0.56813216 0
6.0910006 -0.84670693 0.56824756 0
5.9640002 -0.49763751 0.55454582 0
5.9680004 -0.5080058 0.55465406 0
5.9710002 -0.51830369 0.55473524 0
5.9750004 -0.52869904 0.55484349 0
5.9790006 -0.53910887 0.55495173 0
5.9830003 -0.54953307 0.55505991 0
5.9860005 -0.55987972 0.55514109 0
5.9900002 -0.57033092 0.55524933 0
5.9940004 -0.58079672 0.55535758 0
5.9980001 -0.59127676 0.55546582 0
6.0020003 -0.60177135 0.55557406 0
6.0060005 -0.61228037 0.55568224 0
6.0090003 -0.62270093 0.55576342 0
6.0130005 -0.633237 0.55587167 0
6.0170002 -0.64378744 0.55597985 0
6.0210004 -0.65435237 0.55608809 0
6.0250006 -0.66493171 0.55619633 0
6.0290003 -0.67552549 0.55630457 0
6.0330005 -0.68613368 0.55641282 0
6.0360003 -0.69664085 0.55649394 0
6.0400004 -0.70727617 0.55660218 0
6.0440001 -0.71792573 0.55671042 0
6.0480003 -0.72858989 0.55681866 0
6.0520005 -0.73926848 0.55692685 0
6.0560002 -0.74996138 0.55703509 0
6.0600004 -0.76066881 0.55714333 0
6.0640001 -0.77139068 0.55725157 0
6.0680003 -0.7821269 0.55735981 0
6.0710006 -0.79274595 0.557441 0
6.0750003 -0.80350924 0.55754918 0
6.0790005 -0.81428701 0.55765742 0
6.0830002 -0.8250792 0.55776566 0
6.0870004 -0.83588582 0.5578739 0
6.0910006 -0.84670693 0.55798209 0
5.9640002 -0.49763751 0.54450947 0
5.9680004 -0.5080058 0.5446105 0
5.9710002 -0.51830369 0.5446862 0
5.9750004 -0.52869904 0.54478723 0
5.9790006 -0.53910887 0.54488826 0
5.9830003 -0.54953307 0.54498929 0
5.9860005 -0.55987972 0.54506505 0
5.9900002 -0.57033092 0.54516602 0
5.9940004 -0.58079672 0.54526705 0
5.9980001 -0.59127676 0.54536808 0
6.0020003 -0.60177135 0.54546905 0
6.0060005 -0.61228037 0.54557014 0
6.0090003 -0.62270093 0.54564583 0
6.0130005 -0.633237 0.54574686 0
6.0170002 -0.64378744 0.54584789 0
6.0210004 -0.65435237 0.54594886 0
6.0250006 -0.66493171 0.54604995 0
6.0290003 -0.67552549 0.54615092 0
6.0330005 -0.68613368 0.54625195 0
6.0360003 -0.69664085 0.54632771 0
6.0400004 -0.70727617 0.54642868 0
6.0440001 -0.71792573 0.54652971 0
6.0480003 -0.72858989 0.54663074 0
6.0520005 -0.73926848 0.54673177 0
6.0560002 -0.74996138 0.5468328 0
6.0600004 -0.76066881 0.54693377 0
6.0640001 -0.77139068 0.5470348 0
6.0680003 -0.7821269 0.54713583 0
6.0710006 -0.79274595 0.54721159 0
6.0750003 -0.80350924 0.54731256 0
6.0790005 -0.81428701 0.54741359 0
6.0830002 -0.8250792 0.54751462 0
6.0870004 -0.83588582 0.54761565 0
6.0910006 -0.84670693 0.54771662 0
5.9640002 -0.49763751 0.53447306 0
5.9680004 -0.5080058 0.53456688 0
5.9710002 -0.51830369 0.53463721 0
5.9750004 -0.52869904 0.53473103 0
5.9790006 -0.53910887 0.53482485 0
5.9830003 -0.54953307 0.53491861 0
5.9860005 -0.55987972 0.53498894 0
5.9900002 -0.57033092 0.53508276 0
5.9940004 -0.58079672 0.53517658 0
5.9980001 -0.59127676 0.53527033 0
6.0020003 -0.60177135 0.53536415 0
6.0060005 -0.61228037 0.53545797 0
6.0090003 -0.62270093 0.5355283 0
6.0130005 -0.633237 0.53562212 0
6.0170002 -0.64378744 0.53571588 0
6.0210004 -0.65435237 0.5358097 0
6.0250006 -0.66493171 0.53590351 0
6.0290003 -0.67552549 0.53599727 0
6.0330005 -0.68613368 0.53609109 0
6.0360003 -0.69664085 0.53616142 0
6.0400004 -0.70727617 0.53625524 0
6.0440001 -0.71792573 0.53634906 0
6.0480003 -0.72858989 0.53644282 0
6.0520005 -0.73926848 0.53653663 0
6.0560002 -0.74996138 0.53663039 0
6.0600004 -0.76066881 0.53672421 0
6.0640001 -0.77139068 0.53681803 0
6.0680003 -0.7821269 0.53691185 0
6.0710006 -0.79274595 0.53698218 0
6.0750003 -0.80350924 0.537076 0
6.0790005 -0.81428701 0.53716975 0
6.0830002 -0.8250792 0.53726357 0
6.0870004 -0.83588582 0.53735733 0
6.0910006 -0.84670693 0.53745115 0
5.9640002 -0.49763751 0.52443671 0
5.9680004 -0.5080058 0.52452326 0
5.9710002 -0.51830369 0.52458823 0
5.9750004 -0.52869904 0.52467477 0
5.9790006 -0.53910887 0.52476138 0
5.9830003 -0.54953307 0.52484792 0
5.9860005 -0.55987972 0.52491289 0
5.9900002 -0.57033092 0.5249995 0
5.9940004 -0.58079672 0.52508605 0
5.9980001 -0.59127676 0.52517265 0
6.0020003 -0.60177135 0.5252592 0
6.0060005 -0.61228037 0.5253458 0
6.0090003 -0.62270093 0.52541071 0
6.0130005 -0.633237 0.52549732 0
6.0170002 -0.64378744 0.52558392 0
6.0210004 -0.65435237 0.52567047 0
6.0250006 -0.66493171 0.52575707 0
6.0290003 -0.67552549 0.52584368 0
6.0330005 -0.68613368 0.52593023 0
6.0360003 -0.69664085 0.52599519 0
6.0400004 -0.70727617 0.52608174 0
6.0440001 -0.71792573 0.52616835 0
6.0480003 -0.72858989 0.52625489 0
6.0520005 -0.73926848 0.5263415 0
6.0560002 -0.74996138 0.5264281 0
6.0600004 -0.76066881 0.52651465 0
6.0640001 -0.77139068 0.52660125 0
6.0680003 -0.7821269 0.52668786 0
6.0710006 -0.79274595 0.52675277 0
6.0750003 -0.80350924 0.52683938 0
6.0790005 -0.81428701 0.52692592 0
6.0830002 -0.8250792 0.52701253 0
6.0870004 -0.83588582 0.52709913 0
6.0910006 -0.84670693 0.52718568 0
5.9640002 -0.49763751 0.5144003 0
5.9680004 -0.5080058 0.51447964 0
5.9710002 -0.51830369 0.51453918 0
5.9750004 -0.52869904 0.51461858 0
5.9790006 -0.53910887 0.51469791 0
5.9830003 -0.54953307 0.5147773 0
5.9860005 -0.55987972 0.51483679 0
5.9900002 -0.57033092 0.51491618 0
5.9940004 -0.58079672 0.51499557 0
5.9980001 -0.59127676 0.51507491 0
6.0020003 -0.60177135 0.5151543 0
6.0060005 -0.61228037 0.51523364 0
6.0090003 -0.62270093 0.51529318 0
6.0130005 -0.633237 0.51537251 0
6.0170002 -0.64378744 0.51545191 0
6.0210004 -0.65435237 0.5155313 0
6.0250006 -0.66493171 0.51561064 0
6.0290003 -0.67552549 0.51569003 0
6.0330005 -0.68613368 0.51576936 0
6.0360003 -0.69664085 0.51582891 0
6.0400004 -0.70727617 0.5159083 0
6.0440001 -0.71792573 0.51598763 0
6.0480003 -0.72858989 0.51606703 0
6.0520005 -0.73926848 0.51614636 0
6.0560002 -0.74996138 0.51622576 0
6.0600004 -0.76066881 0.51630509 0
6.0640001 -0.77139068 0.51638448 0
6.0680003 -0.7821269 0.51646388 0
6.0710006 -0.79274595 0.51652336 0
6.0750003 -0.80350924 0.51660275 0
6.0790005 -0.81428701 0.51668215 0
6.0830002 -0.8250792 0.51676148 0
6.0870004 -0.83588582 0.51684082 0
6.0910006 -0.84670693 0.51692021 0
5.9640002 -0.49763751 0.50436389 0
5.9680004 -0.5080058 0.50443608 0
5.9710002 -0.51830369 0.50449014 0
5.9750004 -0.52869904 0.50456232 0
5.9790006 -0.53910887 0.5046345 0
5.9830003 -0.54953307 0.50470662 0
5.9860005 -0.55987972 0.50476074 0
5.9900002 -0.57033092 0.50483286 0
5.9940004 -0.58079672 0.50490505 0
5.9980001 -0.59127676 0.50497723 0
6.0020003 -0.60177135 0.50504935 0
6.0060005 -0.61228037 0.50512153 0
6.0090003 -0.62270093 0.50517559 0
6.0130005 -0.633237 0.50524777 0
6.0170002 -0.64378744 0.50531995 0
6.0210004 -0.65435237 0.50539207 0
6.0250006 -0.66493171 0.5054642 0
6.0290003 -0.67552549 0.50553638 0
6.0330005 -0.68613368 0.50560856 0
6.0360003 -0.69664085 0.50566262 0
6.0400004 -0.70727617 0.5057348 0
6.0440001 -0.71792573 0.50580692 0
6.0480003 -0.72858989 0.5058791 0
6.0520005 -0.73926848 0.50595129 0
6.0560002 -0.74996138 0.50602341 0
6.0600004 -0.76066881 0.50609553 0
6.0640001 -0.77139068 0.50616771 0
6.0680003 -0.7821269 0.50623989 0
6.0710006 -0.79274595 0.50629401 0
6.0750003 -0.80350924 0.50636613 0
6.0790005 -0.81428701 0.50643826 0
6.0830002 -0.8250792 0.50651044 0
6.0870004 -0.83588582 0.50658262 0
6.0910006 -0.84670693 0.50665474 0
5.9640002 -0.49763751 0.49432752 0
5.9680004 -0.5080058 0.49439245 0
5.9710002 -0.51830369 0.49444115 0
5.9750004 -0.52869904 0.49450609 0
5.9790006 -0.53910887 0.49457103 0
5.9830003 -0.54953307 0.49463597 0
5.9860005 -0.55987972 0.49468467 0
5.9900002 -0.57033092 0.49474961 0
5.9940004 -0.58079672 0.49481454 0
5.9980001 -0.59127676 0.49487948 0
6.0020003 -0.60177135 0.49494442 0
6.0060005 -0.61228037 0.49500936 0
6.0090003 -0.62270093 0.49505806 0
6.0130005 -0.633237 0.495123 0
6.0170002 -0.64378744 0.49518794 0
6.0210004 -0.65435237 0.49525288 0
6.0250006 -0.66493171 0.49531782 0
6.0290003 -0.67552549 0.49538273 0
6.0330005 -0.68613368 0.4954477 0
6.0360003 -0.69664085 0.49549639 0
6.0400004 -0.70727617 0.4955613 0
6.0440001 -0.71792573 0.49562627 0
6.0480003 -0.72858989 0.49569118 0
6.0520005 -0.73926848 0.49575615 0
6.0560002 -0.74996138 0.49582106 0
6.0600004 -0.76066881 0.495886 0
6.0640001 -0.77139068 0.49595094 0
6.0680003 -0.7821269 0.49601588 0
6.0710006 -0.79274595 0.4960646 0
6.0750003 -0.80350924 0.49612951 0
6.0790005 -0.81428701 0.49619445 0
6.0830002 -0.8250792 0.49625939 0
6.0870004 -0.83588582 0.49632433 0
6.0910006 -0.84670693 0.49638927 0
5.9640002 -0.49763751 0.48429114 0
5.9680004 -0.5080058 0.48434883 0
5.9710002 -0.51830369 0.48439214 0
5.9750004 -0.52869904 0.48444986 0
5.9790006 -0.53910887 0.48450759 0
5.9830003 -0.54953307 0.48456532 0
5.9860005 -0.55987972 0.48460859 0
5.9900002 -0.57033092 0.48466632 0
5.9940004 -0.58079672 0.48472404 0
5.9980001 -0.59127676 0.48478174 0
6.0020003 -0.60177135 0.4848395 0
6.0060005 -0.61228037 0.4848972 0
6.0090003 -0.62270093 0.4849405 0
6.0130005 -0.633237 0.48499823 0
6.0170002 -0.64378744 0.48505592 0
6.0210004 -0.65435237 0.48511368 0
6.0250006 -0.66493171 0.48517138 0
6.0290003 -0.67552549 0.4852291 0
6.0330005 -0.68613368 0.48528683 0
6.0360003 -0.69664085 0.4853301 0
6.0400004 -0.70727617 0.48538783 0
6.0440001 -0.71792573 0.48544556 0
6.0480003 -0.72858989 0.48550329 0
6.0520005 -0.73926848 0.48556101 0
6.0560002 -0.74996138 0.48561871 0
6.0600004 -0.76066881 0.48567647 0
6.0640001 -0.77139068 0.48573416 0
6.0680003 -0.7821269 0.48579189 0
6.0710006 -0.79274595 0.48583519 0
6.0750003 -0.80350924 0.48589289 0
6.0790005 -0.81428701 0.48595065 0
6.0830002 -0.8250792 0.48600835 0
6.0870004 -0.83588582 0.48606607 0
6.0910006 -0.84670693 0.4861238 0
5.9640002 -0.49763751 0.47425473 0
5.9680004 -0.5080058 0.47430524 0
5.9710002 -0.51830369 0.47434312 0
5.9750004 -0.52869904 0.47439364 0
5.9790006 -0.53910887 0.47444415 0
5.9830003 -0.54953307 0.47449464 0
5.9860005 -0.55987972 0.47453254 0
5.9900002 -0.57033092 0.47458303 0
5.9940004 -0.58079672 0.47463354 0
5.9980001 -0.59127676 0.47468406 0
6.0020003 -0.60177135 0.47473454 0
6.0060005 -0.61228037 0.47478506 0
6.0090003 -0.62270093 0.47482294 0
6.0130005 -0.633237 0.47487345 0
6.0170002 -0.64378744 0.47492394 0
6.0210004 -0.65435237 0.47497445 0
6.0250006 -0.66493171 0.47502497 0
6.0290003 -0.67552549 0.47507548 0
6.0330005 -0.68613368 0.47512597 0
6.0360003 -0.69664085 0.47516385 0
6.0400004 -0.70727617 0.47521436 0
6.0440001 -0.71792573 0.47526485 0
6.0480003 -0.72858989 0.47531539 0
6.0520005 -0.73926848 0.47536588 0
6.0560002 -0.74996138 0.47541639 0
6.0600004 -0.76066881 0.47546691 0
6.0640001 -0.77139068 0.47551739 0
6.0680003 -0.7821269 0.47556791 0
6.0710006 -0.79274595 0.47560579 0
6.0750003 -0.80350924 0.4756563 0
6.0790005 -0.81428701 0.47570682 0
6.0830002 -0.8250792 0.4757573 0
6.0870004 -0.83588582 0.47580782 0
6.0910006 -0.84670693 0.47585833 0
5.9640002 -0.49763751 0.46421835 0
5.9680004 -0.5080058 0.46426165 0
5.9710002 -0.51830369 0.46429411 0
5.9750004 -0.52869904 0.46433741 0
5.9790006 -0.53910887 0.46438068 0
5.9830003 -0.54953307 0.46442398 0
5.9860005 -0.55987972 0.46445644 0
5.9900002 -0.57033092 0.46449974 0
5.9940004 -0.58079672 0.46454304 0
5.9980001 -0.59127676 0.46458632 0
6.0020003 -0.60177135 0.46462962 0
6.0060005 -0.61228037 0.46467292 0
6.0090003 -0.62270093 0.46470538 0
6.0130005 -0.633237 0.46474868 0
6.0170002 -0.64378744 0.46479195 0
6.0210004 -0.65435237 0.46483526 0
6.0250006 -0.66493171 0.46487856 0
6.0290003 -0.67552549 0.46492183 0
6.0330005 -0.68613368 0.46496513 0
6.0360003 -0.69664085 0.46499759 0
6.0400004 -0.70727617 0.46504089 0
6.0440001 -0.71792573 0.46508417 0
6.0480003 -0.72858989 0.46512747 0
6.0520005 -0.73926848 0.46517077 0
6.0560002 -0.74996138 0.46521404 0
6.0600004 -0.76066881 0.46525735 0
6.0640001 -0.77139068 0.46530062 0
6.0680003 -0.7821269 0.46534392 0
6.0710006 -0.79274595 0.46537638 0
6.0750003 -0.80350924 0.46541968 0
6.0790005 -0.81428701 0.46546298 0
6.0830002 -0.8250792 0.46550626 0
6.0870004 -0.83588582 0.46554956 0
6.0910006 -0.84670693 0.46559286 0
5.9640002 -0.49763751 0.45418197 0
5.9680004 -0.5080058 0.45421803 0
5.9710002 -0.51830369 0.45424509 0
5.9750004 -0.52869904 0.45428118 0
5.9790006 -0.53910887 0.45431724 0
5.9830003 -0.54953307 0.45435333 0
5.9860005 -0.55987972 0.45438039 0
5.9900002 -0.57033092 0.45441645 0
5.9940004 -0.58079672 0.45445251 0
5.9980001 -0.59127676 0.45448861 0
6.0020003 -0.60177135 0.4545247 0
6.0060005 -0.61228037 0.45456076 0
6.0090003 -0.62270093 0.45458782 0
6.0130005 -0.633237 0.45462388 0
6.0170002 -0.64378744 0.45465997 0
6.0210004 -0.65435237 0.45469606 0
6.0250006 -0.66493171 0.45473212 0
6.0290003 -0.67552549 0.45476818 0
6.0330005 -0.68613368 0.45480427 0
6.0360003 -0.69664085 0.45483133 0
6.0400004 -0.70727617 0.45486739 0
6.0440001 -0.71792573 0.45490348 0
6.0480003 -0.72858989 0.45493954 0
6.0520005 -0.73926848 0.45497563 0
6.0560002 -0.74996138 0.45501173 0
6.0600004 -0.76066881 0.45504779 0
6.0640001 -0.77139068 0.45508385 0
6.0680003 -0.7821269 0.45511994 0
6.0710006 -0.79274595 0.455147 0
6.0750003 -0.80350924 0.45518306 0
6.0790005 -0.81428701 0.45521915 0
6.0830002 -0.8250792 0.45525521 0
6.0870004 -0.83588582 0.4552913 0
6.0910006 -0.84670693 0.45532739 0
5.9640002 -0.49763751 0.44414556 0
5.9680004 -0.5080058 0.44417444 0
5.9710002 -0.51830369 0.44419608 0
5.9750004 -0.52869904 0.44422495 0
5.9790006 -0.53910887 0.4442538 0
5.9830003 -0.54953307 0.44428265 0
5.9860005 -0.55987972 0.44430432 0
5.9900002 -0.57033092 0.44433317 0
5.9940004 -0.58079672 0.44436204 0
5.9980001 -0.59127676 0.44439089 0
6.0020003 -0.60177135 0.44441974 0
6.0060005 -0.61228037 0.44444862 0
6.0090003 -0.62270093 0.44447026 0
6.0130005 -0.633237 0.44449911 0
6.0170002 -0.64378744 0.44452798 0
6.0210004 -0.65435237 0.44455683 0
6.0250006 -0.66493171 0.44458571 0
6.0290003 -0.67552549 0.44461456 0
6.0330005 -0.68613368 0.44464344 0
6.0360003 -0.69664085 0.44466507 0
6.0400004 -0.70727617 0.44469392 0
6.0440001 -0.71792573 0.44472277 0
6.0480003 -0.72858989 0.44475165 0
6.0520005 -0.73926848 0.4447805 0
6.0560002 -0.74996138 0.44480938 0
6.0600004 -0.76066881 0.44483823 0
6.0640001 -0.77139068 0.4448671 0
6.0680003 -0.7821269 0.44489595 0
6.0710006 -0.79274595 0.44491759 0
6.0750003 -0.80350924 0.44494647 0
6.0790005 -0.81428701 0.44497532 0
6.0830002 -0.8250792 0.44500417 0
6.0870004 -0.83588582 0.44503304 0
6.0910006 -0.84670693 0.44506192 0
5.9640002 -0.49763751 0.43410918 0
5.9680004 -0.5080058 0.43413082 0
5.9710002 -0.51830369 0.43414706 0
5.9750004 -0.52869904 0.4341687 0
5.9790006 -0.53910887 0.43419036 0
5.9830003 -0.54953307 0.434212 0
5.9860005 -0.55987972 0.43422824 0
5.9900002 -0.57033092 0.43424988 0
5.9940004 -0.58079672 0.43427151 0
5.9980001 -0.59127676 0.43429318 0
6.0020003 -0.60177135 0.43431482 0
6.0060005 -0.61228037 0.43433645 0
6.0090003 -0.62270093 0.4343527 0
6.0130005 -0.633237 0.43437433 0
6.0170002 -0.64378744 0.434396 0
6.0210004 -0.65435237 0.43441764 0
6.0250006 -0.66493171 0.43443927 0
6.0290003 -0.67552549 0.43446094 0
6.0330005 -0.68613368 0.43448257 0
6.0360003 -0.69664085 0.43449882 0
6.0400004 -0.70727617 0.43452045 0
6.0440001 -0.71792573 0.43454209 0
6.0480003 -0.72858989 0.43456373 0
6.0520005 -0.73926848 0.43458539 0
6.0560002 -0.74996138 0.43460703 0
6.0600004 -0.76066881 0.43462867 0
6.0640001 -0.77139068 0.43465033 0
6.0680003 -0.7821269 0.43467197 0
6.0710006 -0.79274595 0.43468821 0
6.0750003 -0.80350924 0.43470985 0
6.0790005 -0.81428701 0.43473148 0
6.0830002 -0.8250792 0.43475315 0
6.0870004 -0.83588582 0.43477479 0
6.0910006 -0.84670693 0.43479642 0
5.9640002 -0.49763751 0.4240728 0
5.9680004 -0.5080058 0.42408723 0
5.9710002 -0.51830369 0.42409804 0
5.9750004 -0.52869904 0.42411247 0
5.9790006 -0.53910887 0.42412689 0
5.9830003 -0.54953307 0.42414135 0
5.9860005 -0.55987972 0.42415217 0
5.9900002 -0.57033092 0.42416659 0
5.9940004 -0.58079672 0.42418101 0
5.9980001 -0.59127676 0.42419544 0
6.0020003 -0.60177135 0.42420989 0
6.0060005 -0.61228037 0.42422432 0
