# .PCD v0.7 - Point Cloud Data file format
VERSION 0.7
FIELDS x y z intensity
SIZE 4 4 4 4
TYPE F F F F
COUNT 1 1 1 1
WIDTH 1458
HEIGHT 1
VIEWPOINT 0 0 0 1 0 0 0
POINTS 1458
DATA ascii
7.3200006 -0.40798825 2.2888353 0
7.3210006 -0.42052472 2.2891076 0
7.3230004 -0.4331207 2.2896523 0
7.3240004 -0.44566619 2.2899249 0
7.3250003 -0.45821527 2.2901971 0
7.3260002 -0.47076797 2.2904696 0
7.3280005 -0.48338741 2.2910142 0
7.3290005 -0.49594915 2.2912867 0
7.3300004 -0.50851446 2.291559 0
7.3310003 -0.52108341 2.2918315 0
7.3330007 -0.53372633 2.2923763 0
7.3340006 -0.54630429 2.2926486 0
7.3350005 -0.55888581 2.2929208 0
7.3360004 -0.57147098 2.2931933 0
7.3380003 -0.58413732 2.2937381 0
7.3390002 -0.59673148 2.2940104 0
7.3400006 -0.60932934 2.2942829 0
7.3420005 -0.62201375 2.2948275 0
7.3430004 -0.63462049 2.2951 0
7.3440003 -0.64723092 2.2953722 0
7.3450003 -0.65984499 2.2956448 0
7.3470006 -0.67255282 2.2961895 0
7.3480005 -0.68517584 2.2964618 0
7.3490005 -0.69780248 2.2967341 0
7.3500004 -0.71043277 2.2970066 0
7.3520002 -0.72316402 2.2975514 0
7.3530006 -0.73580337 2.2978237 0
7.3540006 -0.74844623 2.2980962 0
7.3550005 -0.76109272 2.2983685 0
7.3570004 -0.77384746 2.2989132 0
7.3580003 -0.78650296 2.2991855 0
7.3590002 -0.79916209 2.2994578 0
7.3600006 -0.81182486 2.2997303 0
7.3620005 -0.82460296 2.3002751 0
7.3630004 -0.83727473 2.3005474 0
7.3640003 -0.84995013 2.3008199 0
7.3660007 -0.86274636 2.3013647 0
7.3670006 -0.8754307 2.3016369 0
7.3680005 -0.88811868 2.3019094 0
7.3690004 -0.9008103 2.3021817 0
7.3710003 -0.91362995 2.3027263 0
7.3720002 -0.92633057 2.3029985 0
7.3730006 -0.93903482 2.3032713 0
7.3740005 -0.95174265 2.3035436 0
7.3760004 -0.96458572 2.3040884 0
7.3770003 -0.97730261 2.3043606 0
7.3780003 -0.99002308 2.3046329 0
7.3790007 -1.0027472 2.3049054 0
7.3810005 -1.0156137 2.3054502 0
7.3820004 -1.0283467 2.3057227 0
7.3830004 -1.0410835 2.3059947 0
7.3850002 -1.053968 2.3065395 0
7.3860006 -1.0667138 2.306812 0
7.3870006 -1.079463 2.3070846 0
7.3880005 -1.092216 2.3073568 0
7.3900003 -1.1051241 2.3079014 0
7.3910003 -1.1178859 2.3081739 0
7.3920002 -1.1306515 2.3084462 0
7.3940005 -1.1435776 2.3089912 0
7.3950005 -1.1563523 2.3092632 0
7.3960004 -1.1691304 2.3095357 0
7.3970003 -1.1819122 2.309808 0
7.3990006 -1.1948618 2.310353 0
7.4000006 -1.2076526 2.3106253 0
7.4010005 -1.2204469 2.3108976 0
7.4020004 -1.233245 2.3111699 0
7.4040003 -1.2462178 2.3117146 0
7.4050002 -1.2590249 2.3119872 0
7.4060006 -1.2718356 2.3122597 0
7.4080005 -1.2848266 2.3128042 0
7.4090004 -1.2976463 2.3130765 0
7.4100003 -1.3104695 2.313349 0
7.4110003 -1.3232964 2.3136213 0
7.0790005 2.0141456 2.2111452 0
7.0800004 2.0024047 2.2114158 0
7.0810003 1.99066 2.2116864 0
7.0820003 1.9789119 2.211957 0
7.0830002 1.96716 2.2122276 0
7.0840006 1.9554045 2.2124982 0
7.0860004 1.9439433 2.2130392 0
7.0870004 1.9321789 2.2133098 0
7.0880003 1.9204108 2.2135804 0
7.0890002 1.9086391 2.213851 0
7.0900006 1.8968638 2.2141216 0
7.0910006 1.885085 2.2143922 0
7.0930004 1.8735892 2.2149334 0
7.0940003 1.8618015 2.2152038 0
7.0950003 1.8500098 2.2154744 0
7.0960002 1.8382148 2.215745 0
7.0970006 1.826416 2.2160156 0
7.0980005 1.8146138 2.2162862 0
7.1000004 1.8030839 2.2168274 0
7.1010003 1.7912724 2.2170978 0
7.1020002 1.7794574 2.2173684 0
7.1030006 1.767639 2.217639 0
7.1040006 1.7558168 2.2179096 0
7.1060004 1.744258 2.2184505 0
7.1070004 1.7324268 2.2187212 0
7.1080003 1.720592 2.2189918 0
7.1090002 1.7087536 2.2192624 0
7.1100006 1.6969117 2.219533 0
7.1110005 1.685066 2.2198036 0
7.1130004 1.673473 2.2203448 0
7.1140003 1.6616182 2.2206151 0
7.1150002 1.6497601 2.2208858 0
7.1160007 1.6378983 2.2211564 0
7.1170006 1.6260328 2.221427 0
7.1180005 1.6141638 2.2216976 0
7.1200004 1.6025364 2.2222388 0
7.1210003 1.5906583 2.2225091 0
7.1220002 1.5787767 2.2227798 0
7.1230006 1.5668914 2.2230504 0
7.1240005 1.5550025 2.223321 0
7.1260004 1.5433462 2.2238622 0
7.1270003 1.5314482 2.2241328 0
7.1280003 1.5195469 2.2244031 0
7.1290002 1.5076417 2.2246737 0
7.1300006 1.495733 2.2249444 0
7.1310005 1.4838207 2.225215 0
7.1330004 1.4721302 2.2257559 0
7.1340003 1.4602088 2.2260268 0
7.1350002 1.4482838 2.2262971 0
7.1360006 1.4363552 2.226568 0
7.1370006 1.424423 2.2268384 0
7.1390004 1.4127036 2.2273796 0
7.1400003 1.4007624 2.2276502 0
7.1410003 1.3888177 2.2279205 0
7.1420002 1.3768692 2.2281911 0
7.1430006 1.3649172 2.228462 0
7.1450005 1.353169 2.229003 0
7.1460004 1.3412079 2.2292736 0
7.1470003 1.3292432 2.2295442 0
7.1480002 1.3172749 2.2298145 0
7.1490006 1.3053031 2.2300854 0
7.1500006 1.2933277 2.2303557 0
7.1520004 1.281545 2.2308969 0
7.1530004 1.2695606 2.2311676 0
7.1540003 1.2575725 2.2314382 0
7.1550002 1.2455808 2.2317085 0
7.1560006 1.2335856 2.2319794 0
7.1580005 1.2217741 2.2325203 0
7.1590004 1.2097697 2.2327909 0
7.1600003 1.1977618 2.2330616 0
7.1610003 1.1857502 2.2333322 0
7.1620002 1.1737351 2.2336025 0
7.1640005 1.1618949 2.2341437 0
7.1650004 1.1498708 2.2344143 0
7.1660004 1.1378429 2.2346849 0
7.1670003 1.1258116 2.2349555 0
7.1680002 1.1137766 2.2352262 0
7.1700006 1.1019075 2.2357674 0
7.1710005 1.0898635 2.236038 0
7.1720004 1.0778159 2.2363083 0
7.1730003 1.0657645 2.2365789 0
7.1740003 1.0537097 2.2368495 0
7.1760006 1.0418118 2.2373908 0
7.1770005 1.029748 2.2376614 0
7.1780005 1.0176805 2.237932 0
7.1790004 1.0056094 2.2382023 0
7.1800003 0.99353456 2.2384729 0
7.1820006 0.98160791 2.2390141 0
7.1830006 0.96952415 2.2392848 0
7.1840005 0.95743692 2.2395551 0
7.1850004 0.94534594 2.2398257 0
7.1860003 0.93325138 2.2400963 0
7.1880002 0.92129576 2.2406375 0
7.1890006 0.90919226 2.2409081 0
7.1900005 0.89708501 2.2411788 0
7.1910005 0.8849743 2.2414491 0
7.1920004 0.8728599 2.2417197 0
7.1940002 0.86087537 2.2422609 0
7.1950006 0.84875202 2.2425315 0
7.1960006 0.83662504 2.2428021 0
7.1970005 0.82449442 2.2430727 0
7.1980004 0.81236017 2.2433434 0
7.2000003 0.80034679 2.2438843 0
7.2010002 0.7882036 2.2441549 0
7.2020006 0.77605677 2.2444255 0
7.2030005 0.7639063 2.2446961 0
7.2040005 0.7517522 2.2449667 0
7.2060003 0.73970997 2.2455077 0
7.2070003 0.72754687 2.2457783 0
7.2080002 0.71538019 2.2460489 0
7.2090006 0.70320994 2.2463195 0
7.2110004 0.69114429 2.2468605 0
7.2120004 0.67896497 2.2471313 0
7.2130003 0.66678202 2.2474017 0
7.2140002 0.65459549 2.2476723 0
7.2150006 0.64240539 2.2479429 0
7.2170005 0.63031083 2.2484841 0
7.2180004 0.61811167 2.2487547 0
7.2190003 0.60590893 2.2490251 0
7.2200003 0.59370255 2.2492957 0
7.2210002 0.58149254 2.2495663 0
7.2230005 0.5693692 2.2501075 0
7.2240005 0.55715019 2.2503781 0
7.2250004 0.54492754 2.2506487 0
7.2260003 0.53270137 2.2509191 0
7.2280006 0.52055448 2.2514603 0
7.2290006 0.50831932 2.2517309 0
7.2300005 0.49608046 2.2520015 0
7.2310004 0.48383796 2.2522721 0
7.2320004 0.47159195 2.2525427 0
7.2340002 0.45941621 2.2530837 0
7.2350006 0.4471612 2.2533545 0
7.2360005 0.43490246 2.2536249 0
7.2370005 0.42264017 2.2538955 0
7.2390003 0.41044104 2.2544365 0
7.2400002 0.39816973 2.2547071 0
7.2410007 0.38589483 2.2549777 0
7.2420006 0.37361631 2.2552483 0
7.2430005 0.36133417 2.2555189 0
7.2450004 0.34910616 2.2560599 0
7.2460003 0.336815 2.2563307 0
7.2470002 0.32452023 2.2566013 0
7.2480006 0.31222188 2.2568719 0
7.2500005 0.29997042 2.2574129 0
7.2510004 0.28766301 2.2576835 0
7.2520003 0.27535203 2.2579541 0
7.2530003 0.26303741 2.2582247 0
7.2540002 0.25071922 2.2584951 0
7.2560005 0.2384389 2.2590363 0
7.2570004 0.22611168 2.2593069 0
7.2580004 0.21378085 2.2595775 0
7.2590003 0.20144641 2.2598479 0
7.2610006 0.18914264 2.2603891 0
7.2620006 0.17679918 2.2606597 0
7.2630005 0.16445211 2.2609303 0
7.2640004 0.15210143 2.2612011 0
7.2660003 0.1397742 2.2617421 0
7.2670002 0.12741451 2.2620127 0
7.2680006 0.11505121 2.2622833 0
7.2690005 0.1026843 2.2625539 0
7.2700005 0.090313792 2.2628243 0
7.2720003 0.077957705 2.2633655 0
7.2730002 0.065578163 2.2636361 0
7.2740006 0.053195026 2.2639067 0
7.2750006 0.040808272 2.2641773 0
7.2770004 0.028428737 2.2647183 0
7.2780004 0.01603296 2.2649889 0
7.2790003 0.0036335848 2.2652593 0
7.2800002 -0.0087694004 2.2655301 0
7.2820005 -0.021172384 2.2660713 0
7.2830005 -0.033584386 2.2663419 0
7.2840004 -0.046 2.2666125 0
7.2850003 -0.05841922 2.2668829 0
7.2870007 -0.070845656 2.2674241 0
7.2880006 -0.083273895 2.2676947 0
7.2890005 -0.09570574 2.2679653 0
7.2900004 -0.10814119 2.2682357 0
7.2910004 -0.12058026 2.2685063 0
7.2930002 -0.13303554 2.2690475 0
7.2940006 -0.14548363 2.2693181 0
7.2950006 -0.15793532 2.2695887 0
7.2960005 -0.17039062 2.2698591 0
7.2980003 -0.18286937 2.2704005 0
7.2990003 -0.19533367 2.2706709 0
7.3000002 -0.20780161 2.2709415 0
7.3010006 -0.22027314 2.2712121 0
7.3030005 -0.23277533 2.2717533 0
7.3040004 -0.24525587 2.2720239 0
7.3050003 -0.25774002 2.2722943 0
7.3060002 -0.27022779 2.2725649 0
7.3080006 -0.28275344 2.2731061 0
7.3090005 -0.29525021 2.2733767 0
7.3100004 -0.30775061 2.2736471 0
7.3110003 -0.32025462 2.2739177 0
7.3130002 -0.3328037 2.2744589 0
7.3140006 -0.34531671 2.2747295 0
7.3150005 -0.35783336 2.2750001 0
7.3160005 -0.37035358 2.2752707 0
7.3180003 -0.38292614 2.2758119 0
7.3190002 -0.39545539 2.2760823 0
7.3200006 -0.40798825 2.2763531 0
7.3210006 -0.42052472 2.2766235 0
7.3230004 -0.4331207 2.2771647 0
7.3240004 -0.44566619 2.2774353 0
7.3250003 -0.45821527 2.2777057 0
7.3260002 -0.47076797 2.2779763 0
7.3280005 -0.48338741 2.2785175 0
7.3290005 -0.49594915 2.2787881 0
7.3300004 -0.50851446 2.2790585 0
7.3310003 -0.52108341 2.2793291 0
7.3330007 -0.53372633 2.2798705 0
7.3340006 -0.54630429 2.2801411 0
7.3350005 -0.55888581 2.2804117 0
7.3360004 -0.57147098 2.2806821 0
7.3380003 -0.58413732 2.2812233 0
7.3390002 -0.59673148 2.2814937 0
7.3400006 -0.60932934 2.2817645 0
7.3420005 -0.62201375 2.2823055 0
7.3430004 -0.63462049 2.2825761 0
7.3440003 -0.64723092 2.2828467 0
7.3450003 -0.65984499 2.2831171 0
7.3470006 -0.67255282 2.2836583 0
7.3480005 -0.68517584 2.2839289 0
7.3490005 -0.69780248 2.2841995 0
7.3500004 -0.71043277 2.2844701 0
7.3520002 -0.72316402 2.2850113 0
7.3530006 -0.73580337 2.2852819 0
7.3540006 -0.74844623 2.2855525 0
7.3550005 -0.76109272 2.2858229 0
7.3570004 -0.77384746 2.2863641 0
7.3580003 -0.78650296 2.2866347 0
7.3590002 -0.79916209 2.2869051 0
7.3600006 -0.81182486 2.2871759 0
7.3620005 -0.82460296 2.2877169 0
7.3630004 -0.83727473 2.2879875 0
7.3640003 -0.84995013 2.2882578 0
7.3660007 -0.86274636 2.288799 0
7.3670006 -0.8754307 2.2890699 0
7.3680005 -0.88811868 2.2893405 0
7.3690004 -0.9008103 2.2896111 0
7.3710003 -0.91362995 2.2901521 0
7.3720002 -0.92633057 2.2904227 0
7.3730006 -0.93903482 2.2906933 0
7.3740005 -0.95174265 2.2909639 0
7.3760004 -0.96458572 2.2915049 0
7.3770003 -0.97730261 2.2917755 0
7.3780003 -0.99002308 2.2920461 0
7.3790007 -1.0027472 2.2923167 0
7.3810005 -1.0156137 2.2928576 0
7.3820004 -1.0283467 2.2931283 0
7.3830004 -1.0410835 2.2933989 0
7.3850002 -1.053968 2.2939401 0
7.3860006 -1.0667138 2.2942107 0
7.3870006 -1.079463 2.2944813 0
7.3880005 -1.092216 2.2947519 0
7.3900003 -1.1051241 2.2952929 0
7.3910003 -1.1178859 2.2955635 0
7.3920002 -1.1306515 2.2958341 0
7.3940005 -1.1435776 2.2963753 0
7.3950005 -1.1563523 2.2966456 0
7.3960004 -1.1691304 2.2969162 0
7.3970003 -1.1819122 2.2971869 0
7.3990006 -1.1948618 2.2977281 0
7.4000006 -1.2076526 2.2979987 0
7.4010005 -1.2204469 2.2982693 0
7.4020004 -1.233245 2.2985399 0
7.4040003 -1.2462178 2.2990808 0
7.4050002 -1.2590249 2.2993515 0
7.4060006 -1.2718356 2.2996221 0
7.4080005 -1.2848266 2.3001633 0
7.4090004 -1.2976463 2.3004339 0
7.4100003 -1.3104695 2.3007042 0
7.4110003 -1.3232964 2.3009748 0
7.0790005 2.0141456 2.1990976 0
7.0800004 2.0024047 2.1993663 0
7.0810003 1.99066 2.1996353 0
7.0820003 1.9789119 2.199904 0
7.0830002 1.96716 2.2001727 0
7.0840006 1.9554045 2.2004416 0
7.0860004 1.9439433 2.200979 0
7.0870004 1.9321789 2.2012477 0
7.0880003 1.9204108 2.2015164 0
7.0890002 1.9086391 2.2017853 0
7.0900006 1.8968638 2.202054 0
7.0910006 1.885085 2.2023227 0
7.0930004 1.8735892 2.2028604 0
7.0940003 1.8618015 2.2031291 0
7.0950003 1.8500098 2.203398 0
7.0960002 1.8382148 2.2036667 0
7.0970006 1.826416 2.2039356 0
7.0980005 1.8146138 2.2042043 0
7.1000004 1.8030839 2.2047417 0
7.1010003 1.7912724 2.2050104 0
7.1020002 1.7794574 2.2052794 0
7.1030006 1.767639 2.205548 0
7.1040006 1.7558168 2.2058167 0
7.1060004 1.744258 2.2063544 0
7.1070004 1.7324268 2.2066231 0
7.1080003 1.720592 2.2068918 0
7.1090002 1.7087536 2.2071605 0
7.1100006 1.6969117 2.2074294 0
7.1110005 1.685066 2.2076983 0
7.1130004 1.673473 2.2082357 0
7.1140003 1.6616182 2.2085044 0
7.1150002 1.6497601 2.2087731 0
7.1160007 1.6378983 2.2090421 0
7.1170006 1.6260328 2.2093108 0
7.1180005 1.6141638 2.2095795 0
7.1200004 1.6025364 2.2101171 0
7.1210003 1.5906583 2.2103858 0
7.1220002 1.5787767 2.2106545 0
7.1230006 1.5668914 2.2109234 0
7.1240005 1.5550025 2.2111921 0
7.1260004 1.5433462 2.2117298 0
7.1270003 1.5314482 2.2119985 0
7.1280003 1.5195469 2.2122672 0
7.1290002 1.5076417 2.2125359 0
7.1300006 1.495733 2.2128048 0
7.1310005 1.4838207 2.2130735 0
7.1330004 1.4721302 2.2136111 0
7.1340003 1.4602088 2.2138798 0
7.1350002 1.4482838 2.2141485 0
7.1360006 1.4363552 2.2144175 0
7.1370006 1.424423 2.2146862 0
7.1390004 1.4127036 2.2152236 0
7.1400003 1.4007624 2.2154925 0
7.1410003 1.3888177 2.2157612 0
7.1420002 1.3768692 2.2160299 0
7.1430006 1.3649172 2.2162988 0
7.1450005 1.353169 2.2168362 0
7.1460004 1.3412079 2.2171052 0
7.1470003 1.3292432 2.2173738 0
7.1480002 1.3172749 2.2176425 0
7.1490006 1.3053031 2.2179115 0
7.1500006 1.2933277 2.2181802 0
7.1520004 1.281545 2.2187176 0
7.1530004 1.2695606 2.2189863 0
7.1540003 1.2575725 2.2192552 0
7.1550002 1.2455808 2.2195239 0
7.1560006 1.2335856 2.2197928 0
7.1580005 1.2217741 2.2203302 0
7.1590004 1.2097697 2.2205989 0
7.1600003 1.1977618 2.2208679 0
7.1610003 1.1857502 2.2211366 0
7.1620002 1.1737351 2.2214053 0
7.1640005 1.1618949 2.2219429 0
7.1650004 1.1498708 2.2222116 0
7.1660004 1.1378429 2.2224803 0
7.1670003 1.1258116 2.222749 0
7.1680002 1.1137766 2.2230179 0
7.1700006 1.1019075 2.2235556 0
7.1710005 1.0898635 2.2238243 0
7.1720004 1.0778159 2.224093 0
7.1730003 1.0657645 2.2243619 0
7.1740003 1.0537097 2.2246306 0
7.1760006 1.0418118 2.2251682 0
7.1770005 1.029748 2.2254369 0
7.1780005 1.0176805 2.2257056 0
7.1790004 1.0056094 2.2259743 0
7.1800003 0.99353456 2.226243 0
7.1820006 0.98160791 2.2267807 0
7.1830006 0.96952415 2.2270494 0
7.1840005 0.95743692 2.2273183 0
7.1850004 0.94534594 2.227587 0
7.1860003 0.93325138 2.2278557 0
7.1880002 0.92129576 2.2283931 0
7.1890006 0.90919226 2.228662 0
7.1900005 0.89708501 2.228931 0
7.1910005 0.8849743 2.2291996 0
7.1920004 0.8728599 2.2294683 0
7.1940002 0.86087537 2.2300057 0
7.1950006 0.84875202 2.2302747 0
7.1960006 0.83662504 2.2305434 0
7.1970005 0.82449442 2.2308121 0
7.1980004 0.81236017 2.231081 0
7.2000003 0.80034679 2.2316184 0
7.2010002 0.7882036 2.2318871 0
7.2020006 0.77605677 2.232156 0
7.2030005 0.7639063 2.232425 0
7.2040005 0.7517522 2.2326937 0
7.2060003 0.73970997 2.2332311 0
7.2070003 0.72754687 2.2334998 0
7.2080002 0.71538019 2.2337687 0
7.2090006 0.70320994 2.2340374 0
7.2110004 0.69114429 2.234575 0
7.2120004 0.67896497 2.2348437 0
7.2130003 0.66678202 2.2351124 0
7.2140002 0.65459549 2.2353811 0
7.2150006 0.64240539 2.2356501 0
7.2170005 0.63031083 2.2361875 0
7.2180004 0.61811167 2.2364562 0
7.2190003 0.60590893 2.2367251 0
7.2200003 0.59370255 2.2369938 0
7.2210002 0.58149254 2.2372625 0
7.2230005 0.5693692 2.2378001 0
7.2240005 0.55715019 2.2380688 0
7.2250004 0.54492754 2.2383378 0
7.2260003 0.53270137 2.2386065 0
7.2280006 0.52055448 2.2391441 0
7.2290006 0.50831932 2.2394128 0
7.2300005 0.49608046 2.2396815 0
7.2310004 0.48383796 2.2399502 0
7.2320004 0.47159195 2.2402189 0
7.2340002 0.45941621 2.2407565 0
7.2350006 0.4471612 2.2410254 0
7.2360005 0.43490246 2.2412941 0
7.2370005 0.42264017 2.2415628 0
7.2390003 0.41044104 2.2421005 0
7.2400002 0.39816973 2.2423692 0
7.2410007 0.38589483 2.2426381 0
7.2420006 0.37361631 2.2429068 0
7.2430005 0.36133417 2.2431755 0
7.2450004 0.34910616 2.2437129 0
7.2460003 0.336815 2.2439818 0
7.2470002 0.32452023 2.2442505 0
7.2480006 0.31222188 2.2445192 0
7.2500005 0.29997042 2.2450569 0
7.2510004 0.28766301 2.2453256 0
7.2520003 0.27535203 2.2455945 0
7.2530003 0.26303741 2.2458632 0
7.2540002 0.25071922 2.2461319 0
7.2560005 0.2384389 2.2466695 0
7.2570004 0.22611168 2.2469382 0
7.2580004 0.21378085 2.2472069 0
7.2590003 0.20144641 2.2474756 0
7.2610006 0.18914264 2.2480133 0
7.2620006 0.17679918 2.248282 0
7.2630005 0.16445211 2.2485509 0
7.2640004 0.15210143 2.2488196 0
7.2660003 0.1397742 2.249357 0
7.2670002 0.12741451 2.2496259 0
7.2680006 0.11505121 2.2498949 0
7.2690005 0.1026843 2.2501636 0
7.2700005 0.090313792 2.2504323 0
7.2720003 0.077957705 2.2509696 0
7.2730002 0.065578163 2.2512386 0
7.2740006 0.053195026 2.2515073 0
7.2750006 0.040808272 2.2517762 0
7.2770004 0.028428737 2.2523136 0
7.2780004 0.01603296 2.2525823 0
7.2790003 0.0036335848 2.2528512 0
7.2800002 -0.0087694004 2.2531197 0
7.2820005 -0.021172384 2.2536576 0
7.2830005 -0.033584386 2.253926 0
7.2840004 -0.046 2.254195 0
7.2850003 -0.05841922 2.2544637 0
7.2870007 -0.070845656 2.2550013 0
7.2880006 -0.083273895 2.25527 0
7.2890005 -0.09570574 2.2555387 0
7.2900004 -0.10814119 2.2558076 0
7.2910004 -0.12058026 2.2560763 0
7.2930002 -0.13303554 2.2566137 0
7.2940006 -0.14548363 2.2568827 0
7.2950006 -0.15793532 2.2571516 0
7.2960005 -0.17039062 2.2574201 0
7.2980003 -0.18286937 2.2579577 0
7.2990003 -0.19533367 2.2582264 0
7.3000002 -0.20780161 2.2584951 0
7.3010006 -0.22027314 2.258764 0
7.3030005 -0.23277533 2.2593014 0
7.3040004 -0.24525587 2.2595704 0
7.3050003 -0.25774002 2.2598388 0
7.3060002 -0.27022779 2.2601078 0
7.3080006 -0.28275344 2.2606454 0
7.3090005 -0.29525021 2.2609141 0
7.3100004 -0.30775061 2.261183 0
7.3110003 -0.32025462 2.2614517 0
7.3130002 -0.3328037 2.2619891 0
7.3140006 -0.34531671 2.2622581 0
7.3150005 -0.35783336 2.2625268 0
7.3160005 -0.37035358 2.2627954 0
7.3180003 -0.38292614 2.2633328 0
7.3190002 -0.39545539 2.2636018 0
7.3200006 -0.40798825 2.2638707 0
7.3210006 -0.42052472 2.2641394 0
7.3230004 -0.4331207 2.264677 0
7.3240004 -0.44566619 2.2649455 0
7.3250003 -0.45821527 2.2652144 0
7.3260002 -0.47076797 2.2654831 0
7.3280005 -0.48338741 2.2660208 0
7.3290005 -0.49594915 2.2662895 0
7.3300004 -0.50851446 2.2665582 0
7.3310003 -0.52108341 2.2668269 0
7.3330007 -0.53372633 2.2673647 0
7.3340006 -0.54630429 2.2676332 0
7.3350005 -0.55888581 2.2679021 0
7.3360004 -0.57147098 2.2681711 0
7.3380003 -0.58413732 2.2687085 0
7.3390002 -0.59673148 2.2689772 0
7.3400006 -0.60932934 2.2692459 0
7.3420005 -0.62201375 2.2697835 0
7.3430004 -0.63462049 2.2700522 0
7.3440003 -0.64723092 2.2703209 0
7.3450003 -0.65984499 2.2705898 0
7.3470006 -0.67255282 2.2711272 0
7.3480005 -0.68517584 2.2713962 0
7.3490005 -0.69780248 2.2716649 0
7.3500004 -0.71043277 2.2719336 0
7.3520002 -0.72316402 2.2724712 0
7.3530006 -0.73580337 2.2727399 0
7.3540006 -0.74844623 2.2730088 0
7.3550005 -0.76109272 2.2732775 0
7.3570004 -0.77384746 2.2738149 0
7.3580003 -0.78650296 2.2740839 0
7.3590002 -0.79916209 2.2743523 0
7.3600006 -0.81182486 2.2746212 0
7.3620005 -0.82460296 2.2751586 0
7.3630004 -0.83727473 2.2754276 0
7.3640003 -0.84995013 2.2756963 0
7.3660007 -0.86274636 2.2762339 0
7.3670006 -0.8754307 2.2765028 0
7.3680005 -0.88811868 2.2767713 0
7.3690004 -0.9008103 2.2770402 0
7.3710003 -0.91362995 2.2775779 0
7.3720002 -0.92633057 2.2778463 0
7.3730006 -0.93903482 2.2781153 0
7.3740005 -0.95174265 2.2783842 0
7.3760004 -0.96458572 2.2789216 0
7.3770003 -0.97730261 2.2791903 0
7.3780003 -0.99002308 2.279459 0
7.3790007 -1.0027472 2.2797279 0
7.3810005 -1.0156137 2.2802653 0
7.3820004 -1.0283467 2.280534 0
7.3830004 -1.0410835 2.280803 0
7.3850002 -1.053968 2.2813404 0
7.3860006 -1.0667138 2.2816093 0
7.3870006 -1.079463 2.281878 0
7.3880005 -1.092216 2.2821467 0
7.3900003 -1.1051241 2.2826843 0
7.3910003 -1.1178859 2.282953 0
7.3920002 -1.1306515 2.2832217 0
7.3940005 -1.1435776 2.2837594 0
7.3950005 -1.1563523 2.2840281 0
7.3960004 -1.1691304 2.284297 0
7.3970003 -1.1819122 2.2845654 0
7.3990006 -1.1948618 2.2851033 0
7.4000006 -1.2076526 2.285372 0
7.4010005 -1.2204469 2.2856407 0
7.4020004 -1.233245 2.2859097 0
7.4040003 -1.2462178 2.286447 0
7.4050002 -1.2590249 2.2867157 0
7.4060006 -1.2718356 2.2869847 0
7.4080005 -1.2848266 2.2875221 0
7.4090004 -1.2976463 2.287791 0
7.4100003 -1.3104695 2.2880595 0
7.4110003 -1.3232964 2.2883284 0
7.0790005 2.0141456 2.1870501 0
7.0800004 2.0024047 2.1873169 0
7.0810003 1.99066 2.1875839 0
7.0820003 1.9789119 2.187851 0
7.0830002 1.96716 2.1881177 0
7.0840006 1.9554045 2.1883848 0
7.0860004 1.9439433 2.1889188 0
7.0870004 1.9321789 2.1891856 0
7.0880003 1.9204108 2.1894526 0
7.0890002 1.9086391 2.1897197 0
7.0900006 1.8968638 2.1899867 0
7.0910006 1.885085 2.1902535 0
7.0930004 1.8735892 2.1907876 0
7.0940003 1.8618015 2.1910543 0
7.0950003 1.8500098 2.1913214 0
7.0960002 1.8382148 2.1915882 0
7.0970006 1.826416 2.1918554 0
7.0980005 1.8146138 2.1921225 0
7.1000004 1.8030839 2.1926563 0
7.1010003 1.7912724 2.1929233 0
7.1020002 1.7794574 2.1931901 0
7.1030006 1.767639 2.1934571 0
7.1040006 1.7558168 2.1937242 0
7.1060004 1.744258 2.194258 0
7.1070004 1.7324268 2.194525 0
7.1080003 1.720592 2.194792 0
7.1090002 1.7087536 2.1950588 0
7.1100006 1.6969117 2.1953259 0
7.1110005 1.685066 2.1955929 0
7.1130004 1.673473 2.1961267 0
7.1140003 1.6616182 2.1963937 0
7.1150002 1.6497601 2.1966605 0
7.1160007 1.6378983 2.1969278 0
7.1170006 1.6260328 2.1971946 0
7.1180005 1.6141638 2.1974616 0
7.1200004 1.6025364 2.1979954 0
7.1210003 1.5906583 2.1982625 0
7.1220002 1.5787767 2.1985295 0
7.1230006 1.5668914 2.1987965 0
7.1240005 1.5550025 2.1990633 0
7.1260004 1.5433462 2.1995974 0
7.1270003 1.5314482 2.1998641 0
7.1280003 1.5195469 2.2001312 0
7.1290002 1.5076417 2.2003982 0
7.1300006 1.495733 2.2006652 0
7.1310005 1.4838207 2.200932 0
7.1330004 1.4721302 2.2014661 0
7.1340003 1.4602088 2.2017329 0
7.1350002 1.4482838 2.2019999 0
7.1360006 1.4363552 2.2022669 0
7.1370006 1.424423 2.202534 0
7.1390004 1.4127036 2.2030678 0
7.1400003 1.4007624 2.2033348 0
7.1410003 1.3888177 2.2036016 0
7.1420002 1.3768692 2.2038686 0
7.1430006 1.3649172 2.2041357 0
7.1450005 1.353169 2.2046697 0
7.1460004 1.3412079 2.2049365 0
7.1470003 1.3292432 2.2052035 0
7.1480002 1.3172749 2.2054706 0
7.1490006 1.3053031 2.2057374 0
7.1500006 1.2933277 2.2060044 0
7.1520004 1.281545 2.2065382 0
7.1530004 1.2695606 2.2068052 0
7.1540003 1.2575725 2.2070723 0
7.1550002 1.2455808 2.207339 0
7.1560006 1.2335856 2.2076063 0
7.1580005 1.2217741 2.2081401 0
7.1590004 1.2097697 2.2084072 0
7.1600003 1.1977618 2.208674 0
7.1610003 1.1857502 2.208941 0
7.1620002 1.1737351 2.2092078 0
7.1640005 1.1618949 2.2097421 0
7.1650004 1.1498708 2.2100089 0
7.1660004 1.1378429 2.2102759 0
7.1670003 1.1258116 2.2105429 0
7.1680002 1.1137766 2.2108097 0
7.1700006 1.1019075 2.2113438 0
7.1710005 1.0898635 2.2116106 0
7.1720004 1.0778159 2.2118776 0
7.1730003 1.0657645 2.2121446 0
7.1740003 1.0537097 2.2124114 0
7.1760006 1.0418118 2.2129455 0
7.1770005 1.029748 2.2132125 0
7.1780005 1.0176805 2.2134793 0
7.1790004 1.0056094 2.2137463 0
7.1800003 0.99353456 2.2140133 0
7.1820006 0.98160791 2.2145474 0
7.1830006 0.96952415 2.2148142 0
7.1840005 0.95743692 2.2150812 0
7.1850004 0.94534594 2.2153482 0
7.1860003 0.93325138 2.215615 0
7.1880002 0.92129576 2.2161491 0
7.1890006 0.90919226 2.2164161 0
7.1900005 0.89708501 2.2166829 0
7.1910005 0.8849743 2.2169499 0
7.1920004 0.8728599 2.217217 0
7.1940002 0.86087537 2.2177508 0
7.1950006 0.84875202 2.2180178 0
7.1960006 0.83662504 2.2182848 0
7.1970005 0.82449442 2.2185516 0
7.1980004 0.81236017 2.2188187 0
7.2000003 0.80034679 2.2193525 0
7.2010002 0.7882036 2.2196195 0
7.2020006 0.77605677 2.2198865 0
7.2030005 0.7639063 2.2201536 0
7.2040005 0.7517522 2.2204204 0
7.2060003 0.73970997 2.2209544 0
7.2070003 0.72754687 2.2212212 0
7.2080002 0.71538019 2.2214882 0
7.2090006 0.70320994 2.2217553 0
7.2110004 0.69114429 2.2222893 0
7.2120004 0.67896497 2.2225561 0
7.2130003 0.66678202 2.2228231 0
7.2140002 0.65459549 2.2230902 0
7.2150006 0.64240539 2.223357 0
7.2170005 0.63031083 2.223891 0
7.2180004 0.61811167 2.2241578 0
7.2190003 0.60590893 2.2244248 0
7.2200003 0.59370255 2.2246919 0
7.2210002 0.58149254 2.2249587 0
7.2230005 0.5693692 2.2254927 0
7.2240005 0.55715019 2.2257597 0
7.2250004 0.54492754 2.2260268 0
7.2260003 0.53270137 2.2262936 0
7.2280006 0.52055448 2.2268276 0
7.2290006 0.50831932 2.2270947 0
7.2300005 0.49608046 2.2273617 0
7.2310004 0.48383796 2.2276285 0
7.2320004 0.47159195 2.2278955 0
7.2340002 0.45941621 2.2284293 0
7.2350006 0.4471612 2.2286963 0
7.2360005 0.43490246 2.2289634 0
7.2370005 0.42264017 2.2292302 0
7.2390003 0.41044104 2.2297642 0
7.2400002 0.39816973 2.230031 0
7.2410007 0.38589483 2.230298 0
7.2420006 0.37361631 2.2305651 0
7.2430005 0.36133417 2.2308321 0
7.2450004 0.34910616 2.2313659 0
7.2460003 0.336815 2.2316329 0
7.2470002 0.32452023 2.2318997 0
7.2480006 0.31222188 2.232167 0
7.2500005 0.29997042 2.2327008 0
7.2510004 0.28766301 2.2329679 0
7.2520003 0.27535203 2.2332346 0
7.2530003 0.26303741 2.2335017 0
7.2540002 0.25071922 2.2337687 0
7.2560005 0.2384389 2.2343025 0
7.2570004 0.22611168 2.2345695 0
7.2580004 0.21378085 2.2348366 0
7.2590003 0.20144641 2.2351034 0
7.2610006 0.18914264 2.2356374 0
7.2620006 0.17679918 2.2359045 0
7.2630005 0.16445211 2.2361712 0
7.2640004 0.15210143 2.2364383 0
7.2660003 0.1397742 2.2369721 0
7.2670002 0.12741451 2.2372391 0
7.2680006 0.11505121 2.2375062 0
7.2690005 0.1026843 2.2377732 0
7.2700005 0.090313792 2.23804 0
7.2720003 0.077957705 2.238574 0
7.2730002 0.065578163 2.2388408 0
7.2740006 0.053195026 2.2391078 0
7.2750006 0.040808272 2.2393749 0
7.2770004 0.028428737 2.2399087 0
7.2780004 0.01603296 2.2401757 0
7.2790003 0.0036335848 2.2404428 0
7.2800002 -0.0087694004 2.2407095 0
7.2820005 -0.021172384 2.2412436 0
7.2830005 -0.033584386 2.2415106 0
7.2840004 -0.046 2.2417774 0
7.2850003 -0.05841922 2.2420444 0
7.2870007 -0.070845656 2.2425785 0
7.2880006 -0.083273895 2.2428455 0
7.2890005 -0.09570574 2.2431123 0
7.2900004 -0.10814119 2.2433794 0
7.2910004 -0.12058026 2.2436464 0
7.2930002 -0.13303554 2.2441802 0
7.2940006 -0.14548363 2.2444472 0
7.2950006 -0.15793532 2.2447143 0
7.2960005 -0.17039062 2.2449811 0
7.2980003 -0.18286937 2.2455151 0
7.2990003 -0.19533367 2.2457819 0
7.3000002 -0.20780161 2.2460489 0
7.3010006 -0.22027314 2.246316 0
7.3030005 -0.23277533 2.2468498 0
7.3040004 -0.24525587 2.2471168 0
7.3050003 -0.25774002 2.2473836 0
7.3060002 -0.27022779 2.2476506 0
7.3080006 -0.28275344 2.2481847 0
7.3090005 -0.29525021 2.2484517 0
7.3100004 -0.30775061 2.2487185 0
7.3110003 -0.32025462 2.2489855 0
7.3130002 -0.3328037 2.2495193 0
7.3140006 -0.34531671 2.2497866 0
7.3150005 -0.35783336 2.2500534 0
7.3160005 -0.37035358 2.2503204 0
7.3180003 -0.38292614 2.2508543 0
7.3190002 -0.39545539 2.251121 0
7.3200006 -0.40798825 2.2513883 0
7.3210006 -0.42052472 2.2516553 0
7.3230004 -0.4331207 2.2521889 0
7.3240004 -0.44566619 2.2524562 0
7.3250003 -0.45821527 2.252723 0
7.3260002 -0.47076797 2.2529898 0
7.3280005 -0.48338741 2.2535241 0
7.3290005 -0.49594915 2.2537909 0
7.3300004 -0.50851446 2.2540579 0
7.3310003 -0.52108341 2.2543249 0
7.3330007 -0.53372633 2.254859 0
7.3340006 -0.54630429 2.2551258 0
7.3350005 -0.55888581 2.2553926 0
7.3360004 -0.57147098 2.2556596 0
7.3380003 -0.58413732 2.2561934 0
7.3390002 -0.59673148 2.2564604 0
7.3400006 -0.60932934 2.2567277 0
7.3420005 -0.62201375 2.2572613 0
7.3430004 -0.63462049 2.2575285 0
7.3440003 -0.64723092 2.2577953 0
7.3450003 -0.65984499 2.2580621 0
7.3470006 -0.67255282 2.2585964 0
7.3480005 -0.68517584 2.2588632 0
7.3490005 -0.69780248 2.2591302 0
7.3500004 -0.71043277 2.2593973 0
7.3520002 -0.72316402 2.2599308 0
7.3530006 -0.73580337 2.2601981 0
7.3540006 -0.74844623 2.2604649 0
7.3550005 -0.76109272 2.2607319 0
7.3570004 -0.77384746 2.2612658 0
7.3580003 -0.78650296 2.2615328 0
7.3590002 -0.79916209 2.2617998 0
7.3600006 -0.81182486 2.2620668 0
7.3620005 -0.82460296 2.2626009 0
7.3630004 -0.83727473 2.2628677 0
7.3640003 -0.84995013 2.2631345 0
7.3660007 -0.86274636 2.2636688 0
7.3670006 -0.8754307 2.2639356 0
7.3680005 -0.88811868 2.2642024 0
7.3690004 -0.9008103 2.2644696 0
7.3710003 -0.91362995 2.2650032 0
7.3720002 -0.92633057 2.2652702 0
7.3730006 -0.93903482 2.2655373 0
7.3740005 -0.95174265 2.2658043 0
7.3760004 -0.96458572 2.2663381 0
7.3770003 -0.97730261 2.2666051 0
7.3780003 -0.99002308 2.2668722 0
7.3790007 -1.0027472 2.2671392 0
7.3810005 -1.0156137 2.267673 0
7.3820004 -1.0283467 2.26794 0
7.3830004 -1.0410835 2.2682068 0
7.3850002 -1.053968 2.2687409 0
7.3860006 -1.0667138 2.2690079 0
7.3870006 -1.079463 2.2692747 0
7.3880005 -1.092216 2.2695417 0
7.3900003 -1.1051241 2.2700756 0
7.3910003 -1.1178859 2.2703426 0
7.3920002 -1.1306515 2.2706096 0
7.3940005 -1.1435776 2.2711434 0
7.3950005 -1.1563523 2.2714105 0
7.3960004 -1.1691304 2.2716775 0
7.3970003 -1.1819122 2.2719443 0
7.3990006 -1.1948618 2.2724783 0
7.4000006 -1.2076526 2.2727454 0
7.4010005 -1.2204469 2.2730124 0
7.4020004 -1.233245 2.2732792 0
7.4040003 -1.2462178 2.2738132 0
7.4050002 -1.2590249 2.27408 0
7.4060006 -1.2718356 2.2743471 0
7.4080005 -1.2848266 2.2748811 0
7.4090004 -1.2976463 2.2751479 0
7.4100003 -1.3104695 2.2754149 0
7.4110003 -1.3232964 2.275682 0
7.0790005 2.0141456 2.1750023 0
7.0800004 2.0024047 2.1752675 0
7.0810003 1.99066 2.1755326 0
7.0820003 1.9789119 2.1757977 0
7.0830002 1.96716 2.1760628 0
7.0840006 1.9554045 2.1763282 0
7.0860004 1.9439433 2.1768584 0
7.0870004 1.9321789 2.1771235 0
7.0880003 1.9204108 2.1773889 0
7.0890002 1.9086391 2.1776538 0
7.0900006 1.8968638 2.1779191 0
7.0910006 1.885085 2.1781843 0
7.0930004 1.8735892 2.1787145 0
7.0940003 1.8618015 2.1789799 0
7.0950003 1.8500098 2.179245 0
7.0960002 1.8382148 2.1795101 0
7.0970006 1.826416 2.1797752 0
7.0980005 1.8146138 2.1800404 0
7.1000004 1.8030839 2.1805706 0
7.1010003 1.7912724 2.180836 0
7.1020002 1.7794574 2.1811011 0
7.1030006 1.767639 2.1813662 0
7.1040006 1.7558168 2.1816313 0
7.1060004 1.744258 2.1821616 0
7.1070004 1.7324268 2.1824267 0
7.1080003 1.720592 2.1826921 0
7.1090002 1.7087536 2.1829572 0
7.1100006 1.6969117 2.1832223 0
7.1110005 1.685066 2.1834877 0
7.1130004 1.673473 2.1840177 0
7.1140003 1.6616182 2.1842828 0
7.1150002 1.6497601 2.1845481 0
7.1160007 1.6378983 2.1848133 0
7.1170006 1.6260328 2.1850784 0
7.1180005 1.6141638 2.1853437 0
7.1200004 1.6025364 2.185874 0
7.1210003 1.5906583 2.1861389 0
7.1220002 1.5787767 2.1864042 0
7.1230006 1.5668914 2.1866693 0
7.1240005 1.5550025 2.1869345 0
7.1260004 1.5433462 2.187465 0
7.1270003 1.5314482 2.1877301 0
7.1280003 1.5195469 2.1879952 0
7.1290002 1.5076417 2.1882603 0
7.1300006 1.495733 2.1885254 0
7.1310005 1.4838207 2.1887908 0
7.1330004 1.4721302 2.189321 0
7.1340003 1.4602088 2.1895862 0
7.1350002 1.4482838 2.1898513 0
7.1360006 1.4363552 2.1901164 0
7.1370006 1.424423 2.1903815 0
7.1390004 1.4127036 2.190912 0
7.1400003 1.4007624 2.1911771 0
7.1410003 1.3888177 2.1914423 0
7.1420002 1.3768692 2.1917074 0
7.1430006 1.3649172 2.1919727 0
7.1450005 1.353169 2.192503 0
7.1460004 1.3412079 2.1927681 0
7.1470003 1.3292432 2.1930332 0
7.1480002 1.3172749 2.1932983 0
7.1490006 1.3053031 2.1935637 0
7.1500006 1.2933277 2.1938288 0
7.1520004 1.281545 2.1943591 0
7.1530004 1.2695606 2.1946242 0
7.1540003 1.2575725 2.1948893 0
7.1550002 1.2455808 2.1951544 0
7.1560006 1.2335856 2.1954198 0
7.1580005 1.2217741 2.19595 0
7.1590004 1.2097697 2.1962152 0
7.1600003 1.1977618 2.1964803 0
7.1610003 1.1857502 2.1967454 0
7.1620002 1.1737351 2.1970105 0
7.1640005 1.1618949 2.197541 0
7.1650004 1.1498708 2.1978061 0
7.1660004 1.1378429 2.1980712 0
7.1670003 1.1258116 2.1983364 0
7.1680002 1.1137766 2.1986015 0
7.1700006 1.1019075 2.199132 0
7.1710005 1.0898635 2.1993971 0
7.1720004 1.0778159 2.1996622 0
7.1730003 1.0657645 2.1999273 0
7.1740003 1.0537097 2.2001925 0
7.1760006 1.0418118 2.2007229 0
7.1770005 1.029748 2.2009881 0
7.1780005 1.0176805 2.2012532 0
7.1790004 1.0056094 2.2015183 0
7.1800003 0.99353456 2.2017834 0
7.1820006 0.98160791 2.2023139 0
7.1830006 0.96952415 2.202579 0
7.1840005 0.95743692 2.2028441 0
7.1850004 0.94534594 2.2031093 0
7.1860003 0.93325138 2.2033744 0
7.1880002 0.92129576 2.2039046 0
7.1890006 0.90919226 2.20417 0
7.1900005 0.89708501 2.2044351 0
7.1910005 0.8849743 2.2047002 0
7.1920004 0.8728599 2.2049654 0
7.1940002 0.86087537 2.2054956 0
7.1950006 0.84875202 2.205761 0
7.1960006 0.83662504 2.2060261 0
7.1970005 0.82449442 2.2062912 0
7.1980004 0.81236017 2.2065563 0
7.2000003 0.80034679 2.2070866 0
7.2010002 0.7882036 2.2073517 0
7.2020006 0.77605677 2.207617 0
7.2030005 0.7639063 2.2078822 0
7.2040005 0.7517522 2.2081473 0
7.2060003 0.73970997 2.2086778 0
7.2070003 0.72754687 2.2089429 0
7.2080002 0.71538019 2.2092078 0
7.2090006 0.70320994 2.2094731 0
7.2110004 0.69114429 2.2100034 0
7.2120004 0.67896497 2.2102685 0
7.2130003 0.66678202 2.2105339 0
7.2140002 0.65459549 2.210799 0
7.2150006 0.64240539 2.2110641 0
7.2170005 0.63031083 2.2115943 0
7.2180004 0.61811167 2.2118595 0
7.2190003 0.60590893 2.2121248 0
7.2200003 0.59370255 2.2123899 0
7.2210002 0.58149254 2.2126551 0
7.2230005 0.5693692 2.2131853 0
7.2240005 0.55715019 2.2134504 0
7.2250004 0.54492754 2.2137156 0
7.2260003 0.53270137 2.2139809 0
7.2280006 0.52055448 2.2145112 0
7.2290006 0.50831932 2.2147765 0
7.2300005 0.49608046 2.2150416 0
7.2310004 0.48383796 2.2153068 0
7.2320004 0.47159195 2.2155716 0
7.2340002 0.45941621 2.2161021 0
7.2350006 0.4471612 2.2163672 0
7.2360005 0.43490246 2.2166326 0
7.2370005 0.42264017 2.2168977 0
7.2390003 0.41044104 2.217428 0
7.2400002 0.39816973 2.2176931 0
7.2410007 0.38589483 2.2179582 0
7.2420006 0.37361631 2.2182233 0
7.2430005 0.36133417 2.2184887 0
7.2450004 0.34910616 2.2190189 0
7.2460003 0.336815 2.2192841 0
7.2470002 0.32452023 2.2195492 0
7.2480006 0.31222188 2.2198143 0
7.2500005 0.29997042 2.2203448 0
7.2510004 0.28766301 2.2206099 0
7.2520003 0.27535203 2.220875 0
7.2530003 0.26303741 2.2211401 0
7.2540002 0.25071922 2.2214053 0
7.2560005 0.2384389 2.2219357 0
7.2570004 0.22611168 2.2222009 0
7.2580004 0.21378085 2.222466 0
7.2590003 0.20144641 2.2227311 0
7.2610006 0.18914264 2.2232616 0
7.2620006 0.17679918 2.2235267 0
7.2630005 0.16445211 2.2237918 0
7.2640004 0.15210143 2.224057 0
7.2660003 0.1397742 2.2245872 0
7.2670002 0.12741451 2.2248523 0
7.2680006 0.11505121 2.2251177 0
7.2690005 0.1026843 2.2253828 0
7.2700005 0.090313792 2.2256479 0
7.2720003 0.077957705 2.2261782 0
7.2730002 0.065578163 2.2264433 0
7.2740006 0.053195026 2.2267087 0
7.2750006 0.040808272 2.2269738 0
7.2770004 0.028428737 2.227504 0
7.2780004 0.01603296 2.2277691 0
7.2790003 0.0036335848 2.2280343 0
7.2800002 -0.0087694004 2.2282994 0
7.2820005 -0.021172384 2.2288299 0
7.2830005 -0.033584386 2.229095 0
7.2840004 -0.046 2.2293601 0
7.2850003 -0.05841922 2.2296252 0
7.2870007 -0.070845656 2.2301557 0
7.2880006 -0.083273895 2.2304208 0
7.2890005 -0.09570574 2.2306859 0
7.2900004 -0.10814119 2.2309511 0
7.2910004 -0.12058026 2.2312162 0
7.2930002 -0.13303554 2.2317464 0
7.2940006 -0.14548363 2.2320118 0
7.2950006 -0.15793532 2.2322769 0
7.2960005 -0.17039062 2.232542 0
7.2980003 -0.18286937 2.2330723 0
7.2990003 -0.19533367 2.2333374 0
7.3000002 -0.20780161 2.2336025 0
7.3010006 -0.22027314 2.2338679 0
7.3030005 -0.23277533 2.2343981 0
7.3040004 -0.24525587 2.2346632 0
7.3050003 -0.25774002 2.2349284 0
7.3060002 -0.27022779 2.2351935 0
7.3080006 -0.28275344 2.235724 0
7.3090005 -0.29525021 2.2359891 0
7.3100004 -0.30775061 2.2362542 0
7.3110003 -0.32025462 2.2365193 0
7.3130002 -0.3328037 2.2370496 0
7.3140006 -0.34531671 2.2373149 0
7.3150005 -0.35783336 2.2375801 0
7.3160005 -0.37035358 2.2378452 0
7.3180003 -0.38292614 2.2383757 0
7.3190002 -0.39545539 2.2386405 0
7.3200006 -0.40798825 2.2389059 0
7.3210006 -0.42052472 2.239171 0
7.3230004 -0.4331207 2.2397013 0
7.3240004 -0.44566619 2.2399666 0
7.3250003 -0.45821527 2.2402318 0
7.3260002 -0.47076797 2.2404969 0
7.3280005 -0.48338741 2.2410271 0
7.3290005 -0.49594915 2.2412922 0
7.3300004 -0.50851446 2.2415574 0
7.3310003 -0.52108341 2.2418227 0
7.3330007 -0.53372633 2.242353 0
7.3340006 -0.54630429 2.2426181 0
7.3350005 -0.55888581 2.2428832 0
7.3360004 -0.57147098 2.2431483 0
7.3380003 -0.58413732 2.2436788 0
7.3390002 -0.59673148 2.2439439 0
7.3400006 -0.60932934 2.2442091 0
7.3420005 -0.62201375 2.2447393 0
7.3430004 -0.63462049 2.2450044 0
7.3440003 -0.64723092 2.2452698 0
7.3450003 -0.65984499 2.2455349 0
7.3470006 -0.67255282 2.2460651 0
7.3480005 -0.68517584 2.2463305 0
7.3490005 -0.69780248 2.2465956 0
7.3500004 -0.71043277 2.2468605 0
7.3520002 -0.72316402 2.247391 0
7.3530006 -0.73580337 2.2476561 0
7.3540006 -0.74844623 2.2479215 0
7.3550005 -0.76109272 2.2481866 0
7.3570004 -0.77384746 2.2487168 0
7.3580003 -0.78650296 2.248982 0
7.3590002 -0.79916209 2.2492471 0
7.3600006 -0.81182486 2.2495122 0
7.3620005 -0.82460296 2.2500427 0
7.3630004 -0.83727473 2.2503078 0
7.3640003 -0.84995013 2.2505729 0
7.3660007 -0.86274636 2.2511032 0
7.3670006 -0.8754307 2.2513683 0
7.3680005 -0.88811868 2.2516334 0
7.3690004 -0.9008103 2.2518985 0
7.3710003 -0.91362995 2.252429 0
7.3720002 -0.92633057 2.2526941 0
7.3730006 -0.93903482 2.2529595 0
7.3740005 -0.95174265 2.2532246 0
7.3760004 -0.96458572 2.2537549 0
7.3770003 -0.97730261 2.25402 0
7.3780003 -0.99002308 2.2542851 0
7.3790007 -1.0027472 2.2545505 0
7.3810005 -1.0156137 2.2550807 0
7.3820004 -1.0283467 2.2553456 0
7.3830004 -1.0410835 2.2556109 0
7.3850002 -1.053968 2.2561412 0
7.3860006 -1.0667138 2.2564065 0
7.3870006 -1.079463 2.2566717 0
7.3880005 -1.092216 2.2569368 0
7.3900003 -1.1051241 2.257467 0
7.3910003 -1.1178859 2.2577322 0
7.3920002 -1.1306515 2.2579973 0
7.3940005 -1.1435776 2.2585278 0
7.3950005 -1.1563523 2.2587929 0
7.3960004 -1.1691304 2.259058 0
7.3970003 -1.1819122 2.2593231 0
7.3990006 -1.1948618 2.2598534 0
7.4000006 -1.2076526 2.2601187 0
7.4010005 -1.2204469 2.2603838 0
7.4020004 -1.233245 2.260649 0
7.4040003 -1.2462178 2.2611792 0
7.4050002 -1.2590249 2.2614443 0
7.4060006 -1.2718356 2.2617097 0
7.4080005 -1.2848266 2.2622399 0
7.4090004 -1.2976463 2.2625051 0
7.4100003 -1.3104695 2.2627704 0
7.4110003 -1.3232964 2.2630355 0
7.0790005 2.0141456 2.1629548 0
7.0800004 2.0024047 2.163218 0
7.0810003 1.99066 2.1634815 0
7.0820003 1.9789119 2.1637447 0
7.0830002 1.96716 2.1640081 0
7.0840006 1.9554045 2.1642716 0
7.0860004 1.9439433 2.1647983 0
7.0870004 1.9321789 2.1650617 0
7.0880003 1.9204108 2.1653249 0
7.0890002 1.9086391 2.1655881 0
7.0900006 1.8968638 2.1658516 0
7.0910006 1.885085 2.166115 0
7.0930004 1.8735892 2.1666417 0
7.0940003 1.8618015 2.1669049 0
7.0950003 1.8500098 2.1671684 0
7.0960002 1.8382148 2.1674318 0
7.0970006 1.826416 2.1676953 0
7.0980005 1.8146138 2.1679585 0
7.1000004 1.8030839 2.1684852 0
7.1010003 1.7912724 2.1687484 0
7.1020002 1.7794574 2.1690118 0
7.1030006 1.767639 2.1692753 0
7.1040006 1.7558168 2.1695387 0
7.1060004 1.744258 2.1700654 0
7.1070004 1.7324268 2.1703286 0
7.1080003 1.720592 2.1705921 0
7.1090002 1.7087536 2.1708553 0
7.1100006 1.6969117 2.1711187 0
7.1110005 1.685066 2.1713822 0
7.1130004 1.673473 2.1719089 0
7.1140003 1.6616182 2.1721721 0
7.1150002 1.6497601 2.1724355 0
7.1160007 1.6378983 2.172699 0
7.1170006 1.6260328 2.1729622 0
7.1180005 1.6141638 2.1732256 0
7.1200004 1.6025364 2.1737523 0
7.1210003 1.5906583 2.1740158 0
7.1220002 1.5787767 2.174279 0
7.1230006 1.5668914 2.1745424 0
7.1240005 1.5550025 2.1748056 0
7.1260004 1.5433462 2.1753325 0
7.1270003 1.5314482 2.1755958 0
7.1280003 1.5195469 2.1758592 0
7.1290002 1.5076417 2.1761224 0
7.1300006 1.495733 2.1763859 0
7.1310005 1.4838207 2.1766493 0
7.1330004 1.4721302 2.177176 0
7.1340003 1.4602088 2.1774392 0
7.1350002 1.4482838 2.1777027 0
7.1360006 1.4363552 2.1779661 0
7.1370006 1.424423 2.1782293 0
7.1390004 1.4127036 2.178756 0
7.1400003 1.4007624 2.1790195 0
7.1410003 1.3888177 2.1792827 0
7.1420002 1.3768692 2.1795461 0
7.1430006 1.3649172 2.1798096 0
7.1450005 1.353169 2.1803362 0
7.1460004 1.3412079 2.1805995 0
7.1470003 1.3292432 2.1808629 0
7.1480002 1.3172749 2.1811261 0
7.1490006 1.3053031 2.1813896 0
7.1500006 1.2933277 2.181653 0
7.1520004 1.281545 2.1821797 0
7.1530004 1.2695606 2.1824431 0
7.1540003 1.2575725 2.1827064 0
7.1550002 1.2455808 2.1829698 0
7.1560006 1.2335856 2.1832333 0
7.1580005 1.2217741 2.1837599 0
7.1590004 1.2097697 2.1840231 0
7.1600003 1.1977618 2.1842866 0
7.1610003 1.1857502 2.1845498 0
7.1620002 1.1737351 2.1848133 0
7.1640005 1.1618949 2.1853399 0
7.1650004 1.1498708 2.1856034 0
7.1660004 1.1378429 2.1858668 0
7.1670003 1.1258116 2.18613 0
7.1680002 1.1137766 2.1863933 0
7.1700006 1.1019075 2.1869202 0
7.1710005 1.0898635 2.1871834 0
7.1720004 1.0778159 2.1874468 0
7.1730003 1.0657645 2.18771 0
7.1740003 1.0537097 2.1879735 0
7.1760006 1.0418118 2.1885004 0
7.1770005 1.029748 2.1887636 0
7.1780005 1.0176805 2.1890271 0
7.1790004 1.0056094 2.1892903 0
7.1800003 0.99353456 2.1895535 0
7.1820006 0.98160791 2.1900804 0
7.1830006 0.96952415 2.1903439 0
7.1840005 0.95743692 2.1906071 0
7.1850004 0.94534594 2.1908705 0
7.1860003 0.93325138 2.1911337 0
7.1880002 0.92129576 2.1916604 0
7.1890006 0.90919226 2.1919239 0
7.1900005 0.89708501 2.1921873 0
7.1910005 0.8849743 2.1924508 0
7.1920004 0.8728599 2.192714 0
7.1940002 0.86087537 2.1932406 0
7.1950006 0.84875202 2.1935041 0
7.1960006 0.83662504 2.1937673 0
7.1970005 0.82449442 2.1940308 0
7.1980004 0.81236017 2.1942942 0
7.2000003 0.80034679 2.1948209 0
7.2010002 0.7882036 2.1950841 0
7.2020006 0.77605677 2.1953475 0
7.2030005 0.7639063 2.1956108 0
7.2040005 0.7517522 2.1958742 0
7.2060003 0.73970997 2.1964009 0
7.2070003 0.72754687 2.1966643 0
7.2080002 0.71538019 2.1969275 0
7.2090006 0.70320994 2.197191 0
7.2110004 0.69114429 2.1977177 0
7.2120004 0.67896497 2.1979811 0
7.2130003 0.66678202 2.1982443 0
7.2140002 0.65459549 2.1985078 0
7.2150006 0.64240539 2.1987712 0
7.2170005 0.63031083 2.1992979 0
7.2180004 0.61811167 2.1995611 0
7.2190003 0.60590893 2.1998246 0
7.2200003 0.59370255 2.2000878 0
7.2210002 0.58149254 2.2003512 0
7.2230005 0.5693692 2.2008781 0
7.2240005 0.55715019 2.2011414 0
7.2250004 0.54492754 2.2014046 0
7.2260003 0.53270137 2.201668 0
7.2280006 0.52055448 2.2021947 0
7.2290006 0.50831932 2.2024581 0
7.2300005 0.49608046 2.2027216 0
7.2310004 0.48383796 2.2029848 0
7.2320004 0.47159195 2.2032483 0
7.2340002 0.45941621 2.2037749 0
7.2350006 0.4471612 2.2040384 0
7.2360005 0.43490246 2.2043016 0
7.2370005 0.42264017 2.204565 0
7.2390003 0.41044104 2.2050917 0
7.2400002 0.39816973 2.2053549 0
7.2410007 0.38589483 2.2056184 0
7.2420006 0.37361631 2.2058818 0
7.2430005 0.36133417 2.206145 0
7.2450004 0.34910616 2.2066717 0
7.2460003 0.336815 2.2069352 0
7.2470002 0.32452023 2.2071984 0
7.2480006 0.31222188 2.2074621 0
7.2500005 0.29997042 2.2079885 0
7.2510004 0.28766301 2.208252 0
7.2520003 0.27535203 2.2085152 0
7.2530003 0.26303741 2.2087786 0
7.2540002 0.25071922 2.2090421 0
7.2560005 0.2384389 2.2095687 0
7.2570004 0.22611168 2.2098322 0
7.2580004 0.21378085 2.2100954 0
7.2590003 0.20144641 2.2103586 0
7.2610006 0.18914264 2.2108855 0
7.2620006 0.17679918 2.211149 0
7.2630005 0.16445211 2.2114122 0
7.2640004 0.15210143 2.2116756 0
7.2660003 0.1397742 2.2122023 0
7.2670002 0.12741451 2.2124655 0
7.2680006 0.11505121 2.212729 0
7.2690005 0.1026843 2.2129924 0
7.2700005 0.090313792 2.2132559 0
7.2720003 0.077957705 2.2137823 0
7.2730002 0.065578163 2.2140458 0
7.2740006 0.053195026 2.2143092 0
7.2750006 0.040808272 2.2145724 0
7.2770004 0.028428737 2.2150993 0
7.2780004 0.01603296 2.2153625 0
7.2790003 0.0036335848 2.215626 0
7.2800002 -0.0087694004 2.2158892 0
7.2820005 -0.021172384 2.2164161 0
7.2830005 -0.033584386 2.2166793 0
7.2840004 -0.046 2.2169425 0
7.2850003 -0.05841922 2.217206 0
7.2870007 -0.070845656 2.2177329 0
7.2880006 -0.083273895 2.2179961 0
7.2890005 -0.09570574 2.2182596 0
7.2900004 -0.10814119 2.2185228 0
7.2910004 -0.12058026 2.2187862 0
7.2930002 -0.13303554 2.2193129 0
7.2940006 -0.14548363 2.2195764 0
7.2950006 -0.15793532 2.2198396 0
7.2960005 -0.17039062 2.220103 0
7.2980003 -0.18286937 2.2206297 0
7.2990003 -0.19533367 2.2208929 0
7.3000002 -0.20780161 2.2211564 0
7.3010006 -0.22027314 2.2214198 0
7.3030005 -0.23277533 2.2219465 0
7.3040004 -0.24525587 2.2222099 0
7.3050003 -0.25774002 2.2224731 0
7.3060002 -0.27022779 2.2227364 0
7.3080006 -0.28275344 2.2232633 0
7.3090005 -0.29525021 2.2235267 0
7.3100004 -0.30775061 2.2237899 0
7.3110003 -0.32025462 2.2240534 0
7.3130002 -0.3328037 2.22458 0
7.3140006 -0.34531671 2.2248435 0
7.3150005 -0.35783336 2.2251067 0
7.3160005 -0.37035358 2.2253702 0
7.3180003 -0.38292614 2.2258968 0
7.3190002 -0.39545539 2.22616 0
7.3200006 -0.40798825 2.2264235 0
7.3210006 -0.42052472 2.226687 0
7.3230004 -0.4331207 2.2272136 0
7.3240004 -0.44566619 2.2274768 0
7.3250003 -0.45821527 2.2277403 0
7.3260002 -0.47076797 2.2280037 0
7.3280005 -0.48338741 2.2285304 0
7.3290005 -0.49594915 2.2287936 0
7.3300004 -0.50851446 2.2290571 0
7.3310003 -0.52108341 2.2293203 0
7.3330007 -0.53372633 2.2298472 0
7.3340006 -0.54630429 2.2301106 0
7.3350005 -0.55888581 2.2303739 0
7.3360004 -0.57147098 2.2306373 0
7.3380003 -0.58413732 2.231164 0
7.3390002 -0.59673148 2.2314272 0
7.3400006 -0.60932934 2.2316906 0
7.3420005 -0.62201375 2.2322173 0
7.3430004 -0.63462049 2.2324808 0
7.3440003 -0.64723092 2.232744 0
7.3450003 -0.65984499 2.2330074 0
7.3470006 -0.67255282 2.2335341 0
7.3480005 -0.68517584 2.2337976 0
7.3490005 -0.69780248 2.234061 0
7.3500004 -0.71043277 2.2343242 0
7.3520002 -0.72316402 2.2348509 0
7.3530006 -0.73580337 2.2351143 0
7.3540006 -0.74844623 2.2353776 0
7.3550005 -0.76109272 2.235641 0
7.3570004 -0.77384746 2.2361677 0
7.3580003 -0.78650296 2.2364311 0
7.3590002 -0.79916209 2.2366943 0
7.3600006 -0.81182486 2.2369578 0
7.3620005 -0.82460296 2.2374845 0
7.3630004 -0.83727473 2.2377477 0
7.3640003 -0.84995013 2.2380111 0
7.3660007 -0.86274636 2.238538 0
7.3670006 -0.8754307 2.2388012 0
7.3680005 -0.88811868 2.2390647 0
7.3690004 -0.9008103 2.2393279 0
7.3710003 -0.91362995 2.2398546 0
7.3720002 -0.92633057 2.240118 0
7.3730006 -0.93903482 2.2403815 0
7.3740005 -0.95174265 2.2406447 0
7.3760004 -0.96458572 2.2411714 0
7.3770003 -0.97730261 2.2414348 0
7.3780003 -0.99002308 2.241698 0
7.3790007 -1.0027472 2.2419615 0
7.3810005 -1.0156137 2.2424884 0
7.3820004 -1.0283467 2.2427516 0
7.3830004 -1.0410835 2.2430151 0
7.3850002 -1.053968 2.2435415 0
7.3860006 -1.0667138 2.2438049 0
7.3870006 -1.079463 2.2440684 0
7.3880005 -1.092216 2.2443318 0
7.3900003 -1.1051241 2.2448585 0
7.3910003 -1.1178859 2.2451217 0
7.3920002 -1.1306515 2.2453852 0
7.3940005 -1.1435776 2.2459118 0
7.3950005 -1.1563523 2.2461753 0
7.3960004 -1.1691304 2.2464385 0
7.3970003 -1.1819122 2.246702 0
7.3990006 -1.1948618 2.2472286 0
7.4000006 -1.2076526 2.2474921 0
7.4010005 -1.2204469 2.2477553 0
7.4020004 -1.233245 2.2480187 0
7.4040003 -1.2462178 2.2485454 0
7.4050002 -1.2590249 2.2488089 0
7.4060006 -1.2718356 2.2490723 0
7.4080005 -1.2848266 2.2495987 0
7.4090004 -1.2976463 2.2498622 0
7.4100003 -1.3104695 2.2501254 0
7.4110003 -1.3232964 2.2503889 0
7.0790005 2.0141456 2.150907 0
7.0800004 2.0024047 2.1511686 0
7.0810003 1.99066 2.1514301 0
7.0820003 1.9789119 2.1516917 0
7.0830002 1.96716 2.1519532 0
7.0840006 1.9554045 2.1522148 0
7.0860004 1.9439433 2.1527379 0
7.0870004 1.9321789 2.1529994 0
7.0880003 1.9204108 2.1532609 0
7.0890002 1.9086391 2.1535225 0
7.0900006 1.8968638 2.1537843 0
7.0910006 1.885085 2.1540458 0
7.0930004 1.8735892 2.1545689 0
7.0940003 1.8618015 2.1548302 0
7.0950003 1.8500098 2.155092 0
7.0960002 1.8382148 2.1553535 0
7.0970006 1.826416 2.1556151 0
7.0980005 1.8146138 2.1558766 0
7.1000004 1.8030839 2.1563997 0
7.1010003 1.7912724 2.1566613 0
