# .PCD v0.7 - Point Cloud Data file format
VERSION 0.7
FIELDS x y z intensity
SIZE 4 4 4 4
TYPE F F F F
COUNT 1 1 1 1
WIDTH 1415
HEIGHT 1
VIEWPOINT 0 0 0 1 0 0 0
POINTS 1415
DATA ascii
7.5050006 -4.0061617 0.98072267 0
7.4940004 -4.0128269 0.97982967 0
7.4840002 -4.0200129 0.97901797 0
7.4740005 -4.0271635 0.97820628 0
7.4640002 -4.0342774 0.97739458 0
7.4540005 -4.0413556 0.97658288 0
7.4440002 -4.048398 0.97577119 0
7.4340005 -4.0554042 0.97495949 0
7.4240003 -4.0623741 0.97414768 0
7.9620004 -3.6879861 1.0041776 0
7.9510007 -3.6963093 1.0033045 0
7.9390006 -3.7041068 1.0023521 0
7.9270005 -3.7118616 1.0013996 0
7.9160004 -3.7200615 1.0005265 0
7.9050007 -3.7282219 0.99965358 0
7.8930006 -3.7358503 0.99870121 0
7.8820004 -3.7439296 0.99782813 0
7.8700004 -3.7514729 0.99687576 0
7.8590007 -3.7594712 0.99600267 0
7.8480005 -3.7674298 0.99512959 0
7.8370004 -3.7753482 0.99425662 0
7.8260002 -3.7832272 0.99338353 0
7.8140006 -3.7905617 0.99243116 0
7.8030005 -3.7983596 0.99155807 0
7.7920003 -3.8061173 0.99068499 0
7.7810006 -3.8138363 0.98981202 0
7.7700005 -3.8215148 0.98893893 0
7.7590003 -3.8291538 0.98806596 0
7.7480006 -3.8367534 0.98719287 0
7.7370005 -3.8443131 0.98631978 0
7.7260003 -3.8518336 0.98544669 0
7.7150006 -3.8593137 0.98457372 0
7.7050004 -3.8672776 0.98378003 0
7.6940002 -3.87468 0.98290694 0
7.6830006 -3.8820438 0.98203397 0
7.6720004 -3.8893669 0.98116088 0
7.6620007 -3.897181 0.9803673 0
7.6510005 -3.9044271 0.97949421 0
7.6400003 -3.911633 0.97862113 0
7.6300006 -3.9193354 0.97782755 0
7.6190004 -3.9264643 0.97695446 0
7.6080003 -3.9335532 0.97608137 0
7.5980005 -3.9411435 0.97528768 0
7.5870004 -3.9481549 0.97441471 0
7.5770006 -3.9556713 0.97362101 0
7.5670004 -3.9631517 0.97282732 0
7.5560002 -3.9700477 0.97195435 0
7.5460005 -3.9774539 0.97116065 0
7.5350003 -3.9842725 0.97028756 0
7.5250006 -3.9916053 0.96949387 0
7.5150003 -3.9989016 0.96870017 0
7.5050006 -4.0061617 0.96790659 0
7.4940004 -4.0128269 0.96703351 0
7.4840002 -4.0200129 0.96623981 0
7.4740005 -4.0271635 0.96544611 0
7.4640002 -4.0342774 0.96465242 0
7.4540005 -4.0413556 0.96385884 0
7.4440002 -4.048398 0.96306515 0
7.4340005 -4.0554042 0.96227145 0
7.4240003 -4.0623741 0.96147776 0
7.9620004 -3.6879861 0.99053717 0
7.9510007 -3.6963093 0.98968399 0
7.9390006 -3.7041068 0.9887532 0
7.9270005 -3.7118616 0.98782241 0
7.9160004 -3.7200615 0.98696923 0
7.9050007 -3.7282219 0.98611605 0
7.8930006 -3.7358503 0.98518527 0
7.8820004 -3.7439296 0.98433197 0
7.8700004 -3.7514729 0.9834013 0
7.8590007 -3.7594712 0.98254812 0
7.8480005 -3.7674298 0.98169482 0
7.8370004 -3.7753482 0.98084164 0
7.8260002 -3.7832272 0.97998846 0
7.8140006 -3.7905617 0.97905767 0
7.8030005 -3.7983596 0.97820449 0
7.7920003 -3.8061173 0.97735131 0
7.7810006 -3.8138363 0.97649813 0
7.7700005 -3.8215148 0.97564483 0
7.7590003 -3.8291538 0.97479165 0
7.7480006 -3.8367534 0.97393847 0
7.7370005 -3.8443131 0.97308528 0
7.7260003 -3.8518336 0.9722321 0
7.7150006 -3.8593137 0.97137892 0
7.7050004 -3.8672776 0.97060323 0
7.6940002 -3.87468 0.96975005 0
7.6830006 -3.8820438 0.96889687 0
7.6720004 -3.8893669 0.96804368 0
7.6620007 -3.897181 0.96726799 0
7.6510005 -3.9044271 0.96641481 0
7.6400003 -3.911633 0.96556163 0
7.6300006 -3.9193354 0.96478593 0
7.6190004 -3.9264643 0.96393275 0
7.6080003 -3.9335532 0.96307957 0
7.5980005 -3.9411435 0.96230388 0
7.5870004 -3.9481549 0.9614507 0
7.5770006 -3.9556713 0.96067512 0
7.5670004 -3.9631517 0.95989943 0
7.5560002 -3.9700477 0.95904624 0
7.5460005 -3.9774539 0.95827055 0
7.5350003 -3.9842725 0.95741737 0
7.5250006 -3.9916053 0.95664179 0
7.5150003 -3.9989016 0.9558661 0
7.5050006 -4.0061617 0.95509052 0
7.4940004 -4.0128269 0.95423734 0
7.4840002 -4.0200129 0.95346165 0
7.4740005 -4.0271635 0.95268595 0
7.4640002 -4.0342774 0.95191038 0
7.4540005 -4.0413556 0.9511348 0
7.4440002 -4.048398 0.95035911 0
7.4340005 -4.0554042 0.94958341 0
7.4240003 -4.0623741 0.94880784 0
7.9620004 -3.6879861 0.97689676 0
7.9510007 -3.6963093 0.97606337 0
7.9390006 -3.7041068 0.97515428 0
7.9270005 -3.7118616 0.97424519 0
7.9160004 -3.7200615 0.97341168 0
7.9050007 -3.7282219 0.97257841 0
7.8930006 -3.7358503 0.97166932 0
7.8820004 -3.7439296 0.97083592 0
7.8700004 -3.7514729 0.96992683 0
7.8590007 -3.7594712 0.96909344 0
7.8480005 -3.7674298 0.96826005 0
7.8370004 -3.7753482 0.96742666 0
7.8260002 -3.7832272 0.96659338 0
7.8140006 -3.7905617 0.96568429 0
7.8030005 -3.7983596 0.9648509 0
7.7920003 -3.8061173 0.96401751 0
7.7810006 -3.8138363 0.96318412 0
7.7700005 -3.8215148 0.96235085 0
7.7590003 -3.8291538 0.96151745 0
7.7480006 -3.8367534 0.96068406 0
7.7370005 -3.8443131 0.95985079 0
7.7260003 -3.8518336 0.9590174 0
7.7150006 -3.8593137 0.958184 0
7.7050004 -3.8672776 0.95742643 0
7.6940002 -3.87468 0.95659304 0
7.6830006 -3.8820438 0.95575964 0
7.6720004 -3.8893669 0.95492637 0
7.6620007 -3.897181 0.9541688 0
7.6510005 -3.9044271 0.9533354 0
7.6400003 -3.911633 0.95250201 0
7.6300006 -3.9193354 0.95174444 0
7.6190004 -3.9264643 0.95091105 0
7.6080003 -3.9335532 0.95007777 0
7.5980005 -3.9411435 0.94932008 0
7.5870004 -3.9481549 0.94848669 0
7.5770006 -3.9556713 0.94772911 0
7.5670004 -3.9631517 0.94697154 0
7.5560002 -3.9700477 0.94613814 0
7.5460005 -3.9774539 0.94538057 0
7.5350003 -3.9842725 0.94454718 0
7.5250006 -3.9916053 0.9437896 0
7.5150003 -3.9989016 0.94303203 0
7.5050006 -4.0061617 0.94227445 0
7.4940004 -4.0128269 0.94144106 0
7.4840002 -4.0200129 0.94068348 0
7.4740005 -4.0271635 0.93992579 0
7.4640002 -4.0342774 0.93916833 0
7.4540005 -4.0413556 0.93841064 0
7.4440002 -4.048398 0.93765306 0
7.4340005 -4.0554042 0.93689549 0
7.4240003 -4.0623741 0.9361378 0
7.9620004 -3.6879861 0.96325636 0
7.9510007 -3.6963093 0.96244287 0
7.9390006 -3.7041068 0.96155536 0
7.9270005 -3.7118616 0.96066785 0
7.9160004 -3.7200615 0.95985436 0
7.9050007 -3.7282219 0.95904088 0
7.8930006 -3.7358503 0.95815337 0
7.8820004 -3.7439296 0.95733988 0
7.8700004 -3.7514729 0.95645237 0
7.8590007 -3.7594712 0.95563889 0
7.8480005 -3.7674298 0.95482528 0
7.8370004 -3.7753482 0.9540118 0
7.8260002 -3.7832272 0.95319831 0
7.8140006 -3.7905617 0.9523108 0
7.8030005 -3.7983596 0.95149732 0
7.7920003 -3.8061173 0.95068383 0
7.7810006 -3.8138363 0.94987035 0
7.7700005 -3.8215148 0.94905674 0
7.7590003 -3.8291538 0.94824314 0
7.7480006 -3.8367534 0.94742978 0
7.7370005 -3.8443131 0.94661617 0
7.7260003 -3.8518336 0.94580269 0
7.7150006 -3.8593137 0.9449892 0
7.7050004 -3.8672776 0.94424963 0
7.6940002 -3.87468 0.94343603 0
7.6830006 -3.8820438 0.94262254 0
7.6720004 -3.8893669 0.94180906 0
7.6620007 -3.897181 0.94106948 0
7.6510005 -3.9044271 0.940256 0
7.6400003 -3.911633 0.9394424 0
7.6300006 -3.9193354 0.93870294 0
7.6190004 -3.9264643 0.93788934 0
7.6080003 -3.9335532 0.93707585 0
7.5980005 -3.9411435 0.93633628 0
7.5870004 -3.9481549 0.93552279 0
7.5770006 -3.9556713 0.93478322 0
7.5670004 -3.9631517 0.93404365 0
7.5560002 -3.9700477 0.93323016 0
7.5460005 -3.9774539 0.93249059 0
7.5350003 -3.9842725 0.93167698 0
7.5250006 -3.9916053 0.93093753 0
7.5150003 -3.9989016 0.93019795 0
7.5050006 -4.0061617 0.92945838 0
7.4940004 -4.0128269 0.92864478 0
7.4840002 -4.0200129 0.92790532 0
7.4740005 -4.0271635 0.92716575 0
7.4640002 -4.0342774 0.92642617 0
7.4540005 -4.0413556 0.9256866 0
7.4440002 -4.048398 0.92494702 0
7.4340005 -4.0554042 0.92420745 0
7.4240003 -4.0623741 0.92346787 0
7.9620004 -3.6879861 0.94961596 0
7.9510007 -3.6963093 0.94882226 0
7.9390006 -3.7041068 0.94795644 0
7.9270005 -3.7118616 0.94709063 0
7.9160004 -3.7200615 0.94629693 0
7.9050007 -3.7282219 0.94550323 0
7.8930006 -3.7358503 0.94463742 0
7.8820004 -3.7439296 0.94384372 0
7.8700004 -3.7514729 0.94297791 0
7.8590007 -3.7594712 0.94218421 0
7.8480005 -3.7674298 0.94139051 0
7.8370004 -3.7753482 0.94059694 0
7.8260002 -3.7832272 0.93980324 0
7.8140006 -3.7905617 0.93893743 0
7.8030005 -3.7983596 0.93814373 0
7.7920003 -3.8061173 0.93735003 0
7.7810006 -3.8138363 0.93655634 0
7.7700005 -3.8215148 0.93576264 0
7.7590003 -3.8291538 0.93496907 0
7.7480006 -3.8367534 0.93417537 0
7.7370005 -3.8443131 0.93338168 0
7.7260003 -3.8518336 0.93258798 0
7.7150006 -3.8593137 0.93179429 0
7.7050004 -3.8672776 0.93107283 0
7.6940002 -3.87468 0.93027914 0
7.6830006 -3.8820438 0.92948544 0
7.6720004 -3.8893669 0.92869174 0
7.6620007 -3.897181 0.92797017 0
7.6510005 -3.9044271 0.92717659 0
7.6400003 -3.911633 0.9263829 0
7.6300006 -3.9193354 0.92566133 0
7.6190004 -3.9264643 0.92486763 0
7.6080003 -3.9335532 0.92407393 0
7.5980005 -3.9411435 0.92335248 0
7.5870004 -3.9481549 0.92255878 0
7.5770006 -3.9556713 0.92183733 0
7.5670004 -3.9631517 0.92111576 0
7.5560002 -3.9700477 0.92032206 0
7.5460005 -3.9774539 0.91960061 0
7.5350003 -3.9842725 0.91880691 0
7.5250006 -3.9916053 0.91808534 0
7.5150003 -3.9989016 0.91736388 0
7.5050006 -4.0061617 0.91664231 0
7.4940004 -4.0128269 0.91584861 0
7.4840002 -4.0200129 0.91512716 0
7.4740005 -4.0271635 0.91440558 0
7.4640002 -4.0342774 0.91368401 0
7.4540005 -4.0413556 0.91296256 0
7.4440002 -4.048398 0.91224098 0
7.4340005 -4.0554042 0.91151953 0
7.4240003 -4.0623741 0.91079795 0
7.9620004 -3.6879861 0.93597555 0
7.9510007 -3.6963093 0.93520164 0
7.9390006 -3.7041068 0.93435752 0
7.9270005 -3.7118616 0.93351328 0
7.9160004 -3.7200615 0.9327395 0
7.9050007 -3.7282219 0.93196571 0
7.8930006 -3.7358503 0.93112147 0
7.8820004 -3.7439296 0.93034768 0
7.8700004 -3.7514729 0.92950344 0
7.8590007 -3.7594712 0.92872965 0
7.8480005 -3.7674298 0.92795575 0
7.8370004 -3.7753482 0.92718196 0
7.8260002 -3.7832272 0.92640817 0
7.8140006 -3.7905617 0.92556393 0
7.8030005 -3.7983596 0.92479014 0
7.7920003 -3.8061173 0.92401624 0
7.7810006 -3.8138363 0.92324245 0
7.7700005 -3.8215148 0.92246866 0
7.7590003 -3.8291538 0.92169476 0
7.7480006 -3.8367534 0.92092097 0
7.7370005 -3.8443131 0.92014706 0
7.7260003 -3.8518336 0.91937327 0
7.7150006 -3.8593137 0.91859949 0
7.7050004 -3.8672776 0.91789591 0
7.6940002 -3.87468 0.91712213 0
7.6830006 -3.8820438 0.91634834 0
7.6720004 -3.8893669 0.91557443 0
7.6620007 -3.897181 0.91487098 0
7.6510005 -3.9044271 0.91409707 0
7.6400003 -3.911633 0.91332328 0
7.6300006 -3.9193354 0.91261983 0
7.6190004 -3.9264643 0.91184604 0
7.6080003 -3.9335532 0.91107213 0
7.5980005 -3.9411435 0.91036868 0
7.5870004 -3.9481549 0.90959477 0
7.5770006 -3.9556713 0.90889132 0
7.5670004 -3.9631517 0.90818787 0
7.5560002 -3.9700477 0.90741408 0
7.5460005 -3.9774539 0.90671051 0
7.5350003 -3.9842725 0.90593672 0
7.5250006 -3.9916053 0.90523326 0
7.5150003 -3.9989016 0.90452969 0
7.5050006 -4.0061617 0.9038263 0
7.4940004 -4.0128269 0.90305245 0
7.4840002 -4.0200129 0.90234888 0
7.4740005 -4.0271635 0.90164542 0
7.4640002 -4.0342774 0.90094197 0
7.4540005 -4.0413556 0.90023851 0
7.4440002 -4.048398 0.89953494 0
7.4340005 -4.0554042 0.89883149 0
7.4240003 -4.0623741 0.89812803 0
7.9620004 -3.6879861 0.92233515 0
7.9510007 -3.6963093 0.92158115 0
7.9390006 -3.7041068 0.92075861 0
7.9280005 -3.7123485 0.92000461 0
7.9160004 -3.7200615 0.91918206 0
7.9050007 -3.7282219 0.91842806 0
7.8930006 -3.7358503 0.91760552 0
7.8820004 -3.7439296 0.91685152 0
7.8700004 -3.7514729 0.91602898 0
7.8590007 -3.7594712 0.91527498 0
7.8480005 -3.7674298 0.9145211 0
7.8370004 -3.7753482 0.9137671 0
7.8260002 -3.7832272 0.9130131 0
7.8140006 -3.7905617 0.91219056 0
7.8030005 -3.7983596 0.91143656 0
7.7920003 -3.8061173 0.91068256 0
7.7810006 -3.8138363 0.90992856 0
7.7700005 -3.8215148 0.90917456 0
7.7590003 -3.8291538 0.90842056 0
7.7480006 -3.8367534 0.90766656 0
7.7370005 -3.8443131 0.90691257 0
7.7260003 -3.8518336 0.90615857 0
7.7150006 -3.8593137 0.90540457 0
7.7050004 -3.8672776 0.90471911 0
7.6940002 -3.87468 0.90396512 0
7.6830006 -3.8820438 0.90321118 0
7.6720004 -3.8893669 0.90245712 0
7.6620007 -3.897181 0.90177172 0
7.6510005 -3.9044271 0.90101779 0
7.6400003 -3.911633 0.90026367 0
7.6300006 -3.9193354 0.89957833 0
7.6190004 -3.9264643 0.89882433 0
7.6080003 -3.9335532 0.89807028 0
7.5980005 -3.9411435 0.89738488 0
7.5870004 -3.9481549 0.89663088 0
7.5770006 -3.9556713 0.89594543 0
7.5670004 -3.9631517 0.89525998 0
7.5560002 -3.9700477 0.89450598 0
7.5460005 -3.9774539 0.89382052 0
7.5350003 -3.9842725 0.89306653 0
7.5250006 -3.9916053 0.89238113 0
7.5150003 -3.9989016 0.89169562 0
7.5050006 -4.0061617 0.89101022 0
7.4940004 -4.0128269 0.89025623 0
7.4840002 -4.0200129 0.88957077 0
7.4740005 -4.0271635 0.88888532 0
7.4640002 -4.0342774 0.88819987 0
7.4540005 -4.0413556 0.88751441 0
7.4440002 -4.048398 0.8868289 0
7.4340005 -4.0554042 0.88614357 0
7.4240003 -4.0623741 0.88545811 0
7.9620004 -3.6879861 0.90869474 0
7.9510007 -3.6963093 0.90796065 0
7.9390006 -3.7041068 0.90715969 0
7.9280005 -3.7123485 0.9064256 0
7.9160004 -3.7200615 0.90562463 0
7.9050007 -3.7282219 0.90489054 0
7.8930006 -3.7358503 0.90408969 0
7.8820004 -3.7439296 0.90335548 0
7.8700004 -3.7514729 0.90255457 0
7.8590007 -3.7594712 0.90182042 0
7.8480005 -3.7674298 0.90108627 0
7.8370004 -3.7753482 0.90035212 0
7.8260002 -3.7832272 0.89961791 0
7.8140006 -3.7905617 0.89881706 0
7.8030005 -3.7983596 0.89808291 0
7.7920003 -3.8061173 0.89734876 0
7.7810006 -3.8138363 0.89661467 0
7.7700005 -3.8215148 0.89588046 0
7.7590003 -3.8291538 0.89514637 0
7.7480006 -3.8367534 0.89441216 0
7.7370005 -3.8443131 0.89367807 0
7.7260003 -3.8518336 0.89294386 0
7.7150006 -3.8593137 0.89220977 0
7.7050004 -3.8672776 0.89154232 0
7.6940002 -3.87468 0.89080811 0
7.6830006 -3.8820438 0.89007401 0
7.6720004 -3.8893669 0.88933992 0
7.6620007 -3.897181 0.88867247 0
7.6510005 -3.9044271 0.88793832 0
7.6400003 -3.911633 0.88720417 0
7.6300006 -3.9193354 0.88653672 0
7.6190004 -3.9264643 0.88580263 0
7.6080003 -3.9335532 0.88506842 0
7.5980005 -3.9411435 0.88440108 0
7.5870004 -3.9481549 0.88366687 0
7.5770006 -3.9556713 0.88299948 0
7.5670004 -3.9631517 0.88233209 0
7.5560002 -3.9700477 0.88159788 0
7.5460005 -3.9774539 0.88093054 0
7.5350003 -3.9842725 0.88019633 0
7.5250006 -3.9916053 0.879529 0
7.5150003 -3.9989016 0.87886155 0
7.5050006 -4.0061617 0.87819409 0
7.4940004 -4.0128269 0.87746 0
7.4840002 -4.0200129 0.87679255 0
7.4740005 -4.0271635 0.87612516 0
7.4640002 -4.0342774 0.87545776 0
7.4540005 -4.0413556 0.87479037 0
7.4440002 -4.048398 0.87412292 0
7.4340005 -4.0554042 0.87345552 0
7.4240003 -4.0623741 0.87278807 0
7.9620004 -3.6879861 0.89505434 0
7.9510007 -3.6963093 0.89434004 0
7.9390006 -3.7041068 0.89356077 0
7.9280005 -3.7123485 0.89284647 0
7.9160004 -3.7200615 0.89206725 0
7.9050007 -3.7282219 0.89135295 0
7.8930006 -3.7358503 0.89057368 0
7.8820004 -3.7439296 0.88985938 0
7.8700004 -3.7514729 0.88908017 0
7.8590007 -3.7594712 0.88836586 0
7.8480005 -3.7674298 0.88765156 0
7.8370004 -3.7753482 0.88693714 0
7.8260002 -3.7832272 0.88622284 0
7.8140006 -3.7905617 0.88544369 0
7.8030005 -3.7983596 0.88472939 0
7.7920003 -3.8061173 0.88401496 0
7.7810006 -3.8138363 0.88330066 0
7.7700005 -3.8215148 0.88258642 0
7.7590003 -3.8291538 0.88187212 0
7.7480006 -3.8367534 0.88115782 0
7.7370005 -3.8443131 0.88044351 0
7.7260003 -3.8518336 0.87972921 0
7.7150006 -3.8593137 0.87901491 0
7.7050004 -3.8672776 0.87836552 0
7.6940002 -3.87468 0.87765121 0
7.6830006 -3.8820438 0.87693691 0
7.6720004 -3.8893669 0.87622261 0
7.6620007 -3.897181 0.87557316 0
7.6510005 -3.9044271 0.87485886 0
7.6400003 -3.911633 0.87414455 0
7.6300006 -3.9193354 0.87349522 0
7.6190004 -3.9264643 0.87278092 0
7.6080003 -3.9335532 0.87206662 0
7.5980005 -3.9411435 0.87141728 0
7.5870004 -3.9481549 0.87070286 0
7.5770006 -3.9556713 0.87005353 0
7.5670004 -3.9631517 0.8694042 0
7.5560002 -3.9700477 0.86868984 0
7.5460005 -3.9774539 0.8680405 0
7.5350003 -3.9842725 0.8673262 0
7.5250006 -3.9916053 0.86667687 0
7.5150003 -3.9989016 0.86602747 0
7.5050006 -4.0061617 0.86537808 0
7.4940004 -4.0128269 0.86466378 0
7.4840002 -4.0200129 0.86401439 0
7.4740005 -4.0271635 0.86336505 0
7.4640002 -4.0342774 0.8627156 0
7.4540005 -4.0413556 0.86206627 0
7.4440002 -4.048398 0.86141694 0
7.4340005 -4.0554042 0.86076754 0
7.4240003 -4.0623741 0.86011815 0
7.9620004 -3.6879861 0.88141394 0
7.9510007 -3.6963093 0.88071954 0
7.9390006 -3.7041068 0.87996185 0
7.9280005 -3.7123485 0.87926739 0
7.9160004 -3.7200615 0.87850976 0
7.9050007 -3.7282219 0.87781537 0
7.8930006 -3.7358503 0.87705773 0
7.8820004 -3.7439296 0.87636328 0
7.8700004 -3.7514729 0.8756057 0
7.8590007 -3.7594712 0.87491125 0
7.8480005 -3.7674298 0.87421679 0
7.8370004 -3.7753482 0.87352228 0
7.8260002 -3.7832272 0.87282777 0
7.8140006 -3.7905617 0.87207019 0
7.8030005 -3.7983596 0.87137574 0
7.7920003 -3.8061173 0.87068129 0
7.7810006 -3.8138363 0.86998683 0
7.7700005 -3.8215148 0.86929238 0
7.7590003 -3.8291538 0.86859787 0
7.7480006 -3.8367534 0.86790347 0
7.7370005 -3.8443131 0.86720896 0
7.7260003 -3.8518336 0.86651444 0
7.7150006 -3.8593137 0.86582005 0
7.7050004 -3.8672776 0.86518872 0
7.6940002 -3.87468 0.8644942 0
7.6830006 -3.8820438 0.86379975 0
7.6720004 -3.8893669 0.8631053 0
7.6620007 -3.897181 0.86247396 0
7.6510005 -3.9044271 0.86177951 0
7.6400003 -3.911633 0.86108506 0
7.6300006 -3.9193354 0.86045372 0
7.6190004 -3.9264643 0.85975921 0
7.6080003 -3.9335532 0.8590647 0
7.5980005 -3.9411435 0.85843343 0
7.5870004 -3.9481549 0.85773897 0
7.5770006 -3.9556713 0.85710764 0
7.5670004 -3.9631517 0.85647631 0
7.5560002 -3.9700477 0.85578179 0
7.5460005 -3.9774539 0.85515046 0
7.5350003 -3.9842725 0.85445601 0
7.5250006 -3.9916053 0.85382473 0
7.5150003 -3.9989016 0.85319334 0
7.5050006 -4.0061617 0.85256207 0
7.4940004 -4.0128269 0.85186756 0
7.4840002 -4.0200129 0.85123622 0
7.4740005 -4.0271635 0.85060489 0
7.4640002 -4.0342774 0.84997356 0
7.4540005 -4.0413556 0.84934223 0
7.4440002 -4.048398 0.84871089 0
7.4340005 -4.0554042 0.84807956 0
7.4240003 -4.0623741 0.84744823 0
7.9620004 -3.6879861 0.86777353 0
7.9510007 -3.6963093 0.86709893 0
7.9390006 -3.7041068 0.86636299 0
7.9280005 -3.7123485 0.86568832 0
7.9160004 -3.7200615 0.86495239 0
7.9050007 -3.7282219 0.86427772 0
7.8930006 -3.7358503 0.86354184 0
7.8820004 -3.7439296 0.86286718 0
7.8700004 -3.7514729 0.86213124 0
7.8590007 -3.7594712 0.86145663 0
7.8480005 -3.7674298 0.86078197 0
7.8370004 -3.7753482 0.8601073 0
7.8260002 -3.7832272 0.8594327 0
7.8140006 -3.7905617 0.85869682 0
7.8030005 -3.7983596 0.85802215 0
7.7920003 -3.8061173 0.85734749 0
7.7810006 -3.8138363 0.85667288 0
7.7700005 -3.8215148 0.85599828 0
7.7590003 -3.8291538 0.85532367 0
7.7480006 -3.8367534 0.85464907 0
7.7370005 -3.8443131 0.8539744 0
7.7260003 -3.8518336 0.8532998 0
7.7150006 -3.8593137 0.85262519 0
7.7050004 -3.8672776 0.85201186 0
7.6940002 -3.87468 0.85133719 0
7.6830006 -3.8820438 0.85066259 0
7.6720004 -3.8893669 0.84998798 0
7.6620007 -3.897181 0.84937471 0
7.6510005 -3.9044271 0.84870005 0
7.6400003 -3.911633 0.84802544 0
7.6300006 -3.9193354 0.84741217 0
7.6190004 -3.9264643 0.8467375 0
7.6080003 -3.9335532 0.8460629 0
7.5980005 -3.9411435 0.84544957 0
7.5870004 -3.9481549 0.84477496 0
7.5770006 -3.9556713 0.84416175 0
7.5670004 -3.9631517 0.84354842 0
7.5560002 -3.9700477 0.84287375 0
7.5460005 -3.9774539 0.84226048 0
7.5350003 -3.9842725 0.84158587 0
7.5250006 -3.9916053 0.84097254 0
7.5150003 -3.9989016 0.84035921 0
7.5050006 -4.0061617 0.839746 0
7.4940004 -4.0128269 0.83907139 0
7.4840002 -4.0200129 0.83845806 0
7.4740005 -4.0271635 0.83784473 0
7.4640002 -4.0342774 0.83723146 0
7.4540005 -4.0413556 0.83661819 0
7.4440002 -4.048398 0.83600485 0
7.4340005 -4.0554042 0.83539152 0
7.4240003 -4.0623741 0.83477831 0
7.9620004 -3.6879861 0.85413313 0
7.9510007 -3.6963093 0.85347837 0
7.9390006 -3.7041068 0.85276407 0
7.9280005 -3.7123485 0.85210931 0
7.9160004 -3.7200615 0.85139501 0
7.9050007 -3.7282219 0.85074019 0
7.8930006 -3.7358503 0.85002589 0
7.8820004 -3.7439296 0.84937108 0
7.8700004 -3.7514729 0.84865677 0
7.8590007 -3.7594712 0.84800202 0
7.8480005 -3.7674298 0.84734726 0
7.8370004 -3.7753482 0.84669244 0
7.8260002 -3.7832272 0.84603763 0
7.8140006 -3.7905617 0.84532332 0
7.8030005 -3.7983596 0.84466857 0
7.7920003 -3.8061173 0.84401381 0
7.7810006 -3.8138363 0.84335899 0
7.7700005 -3.8215148 0.84270418 0
7.7590003 -3.8291538 0.84204942 0
7.7480006 -3.8367534 0.84139466 0
7.7370005 -3.8443131 0.84073985 0
7.7260003 -3.8518336 0.84008509 0
7.7150006 -3.8593137 0.83943033 0
7.7050004 -3.8672776 0.838835 0
7.6940002 -3.87468 0.8381803 0
7.6830006 -3.8820438 0.83752549 0
7.6720004 -3.8893669 0.83687067 0
7.6620007 -3.897181 0.83627546 0
7.6510005 -3.9044271 0.83562064 0
7.6400003 -3.911633 0.83496588 0
7.6300006 -3.9193354 0.83437061 0
7.6190004 -3.9264643 0.8337158 0
7.6080003 -3.9335532 0.8330611 0
7.5980005 -3.9411435 0.83246577 0
7.5870004 -3.9481549 0.83181101 0
7.5770006 -3.9556713 0.83121574 0
7.5670004 -3.9631517 0.83062053 0
7.5560002 -3.9700477 0.82996571 0
7.5460005 -3.9774539 0.8293705 0
7.5350003 -3.9842725 0.82871568 0
7.5250006 -3.9916053 0.82812047 0
7.5150003 -3.9989016 0.82752514 0
7.5050006 -4.0061617 0.82692993 0
7.4940004 -4.0128269 0.82627511 0
7.4840002 -4.0200129 0.8256799 0
7.4740005 -4.0271635 0.82508463 0
7.4640002 -4.0342774 0.82448936 0
7.4540005 -4.0413556 0.82389414 0
7.4440002 -4.048398 0.82329881 0
7.4340005 -4.0554042 0.8227036 0
7.4240003 -4.0623741 0.82210833 0
7.9620004 -3.6879861 0.84049273 0
7.9510007 -3.6963093 0.83985782 0
7.9390006 -3.7041068 0.83916515 0
7.9280005 -3.7123485 0.83853018 0
7.9160004 -3.7200615 0.83783758 0
7.9050007 -3.7282219 0.83720261 0
7.8930006 -3.7358503 0.83650994 0
7.8820004 -3.7439296 0.83587503 0
7.8700004 -3.7514729 0.83518231 0
7.8590007 -3.7594712 0.8345474 0
7.8480005 -3.7674298 0.83391249 0
7.8370004 -3.7753482 0.83327746 0
7.8260002 -3.7832272 0.83264256 0
7.8140006 -3.7905617 0.83194995 0
7.8030005 -3.7983596 0.83131498 0
7.7920003 -3.8061173 0.83068001 0
7.7810006 -3.8138363 0.8300451 0
7.7700005 -3.8215148 0.82941014 0
7.7590003 -3.8291538 0.82877517 0
7.7480006 -3.8367534 0.82814026 0
7.7370005 -3.8443131 0.82750535 0
7.7260003 -3.8518336 0.82687038 0
7.7150006 -3.8593137 0.82623541 0
7.7050004 -3.8672776 0.8256582 0
7.6940002 -3.87468 0.82502329 0
7.6830006 -3.8820438 0.82438838 0
7.6720004 -3.8893669 0.82375342 0
7.6620007 -3.897181 0.82317621 0
7.6510005 -3.9044271 0.82254124 0
7.6400003 -3.911633 0.82190633 0
7.6300006 -3.9193354 0.82132912 0
7.6190004 -3.9264643 0.82069415 0
7.6080003 -3.9335532 0.82005918 0
7.5980005 -3.9411435 0.81948197 0
7.5870004 -3.9481549 0.81884706 0
7.5770006 -3.9556713 0.81826985 0
7.5670004 -3.9631517 0.81769264 0
7.5560002 -3.9700477 0.81705767 0
7.5460005 -3.9774539 0.81648046 0
7.5350003 -3.9842725 0.81584549 0
7.5250006 -3.9916053 0.81526828 0
7.5150003 -3.9989016 0.81469107 0
7.5050006 -4.0061617 0.81411386 0
7.4940004 -4.0128269 0.81347895 0
7.4840002 -4.0200129 0.81290168 0
7.4740005 -4.0271635 0.81232446 0
7.4640002 -4.0342774 0.81174725 0
7.4540005 -4.0413556 0.81117004 0
7.4440002 -4.048398 0.81059277 0
7.4340005 -4.0554042 0.81001562 0
7.4240003 -4.0623741 0.80943835 0
7.9620004 -3.6879861 0.82685232 0
7.9510007 -3.6963093 0.82623726 0
7.9390006 -3.7041068 0.82556623 0
7.9280005 -3.7123485 0.82495117 0
7.9160004 -3.7200615 0.82428014 0
7.9050007 -3.7282219 0.82366502 0
7.8930006 -3.7358503 0.82299399 0
7.8820004 -3.7439296 0.82237887 0
7.8700004 -3.7514729 0.82170784 0
7.8590007 -3.7594712 0.82109284 0
7.8480005 -3.7674298 0.82047772 0
7.8370004 -3.7753482 0.8198626 0
7.8260002 -3.7832272 0.81924748 0
7.8140006 -3.7905617 0.81857646 0
7.8030005 -3.7983596 0.81796134 0
7.7920003 -3.8061173 0.81734627 0
7.7810006 -3.8138363 0.81673121 0
7.7700005 -3.8215148 0.81611609 0
7.7590003 -3.8291538 0.81550097 0
7.7480006 -3.8367534 0.81488585 0
7.7370005 -3.8443131 0.81427073 0
7.7260003 -3.8518336 0.81365567 0
7.7150006 -3.8593137 0.81304061 0
7.7050004 -3.8672776 0.8124814 0
7.6940002 -3.87468 0.81186628 0
7.6830006 -3.8820438 0.81125122 0
7.6720004 -3.8893669 0.8106361 0
7.6620007 -3.897181 0.81007695 0
7.6510005 -3.9044271 0.80946183 0
7.6400003 -3.911633 0.80884671 0
7.6300006 -3.9193354 0.80828756 0
7.6190004 -3.9264643 0.8076725 0
7.6080003 -3.9335532 0.80705732 0
7.5980005 -3.9411435 0.80649817 0
7.5870004 -3.9481549 0.80588305 0
7.5770006 -3.9556713 0.8053239 0
7.5670004 -3.9631517 0.80476469 0
7.5560002 -3.9700477 0.80414963 0
7.5460005 -3.9774539 0.80359042 0
7.5350003 -3.9842725 0.80297536 0
7.5250006 -3.9916053 0.80241621 0
7.5150003 -3.9989016 0.80185699 0
7.5050006 -4.0061617 0.80129778 0
7.4940004 -4.0128269 0.80068272 0
7.4840002 -4.0200129 0.80012351 0
7.4740005 -4.0271635 0.79956436 0
7.4640002 -4.0342774 0.79900515 0
7.4540005 -4.0413556 0.79844594 0
7.4440002 -4.048398 0.79788673 0
7.4340005 -4.0554042 0.79732764 0
7.4240003 -4.0623741 0.79676843 0
7.9620004 -3.6879861 0.81321192 0
7.9510007 -3.6963093 0.81261671 0
7.9390006 -3.7041068 0.81196731 0
7.9280005 -3.7123485 0.81137204 0
7.9160004 -3.7200615 0.81072271 0
7.9050007 -3.7282219 0.8101275 0
7.8930006 -3.7358503 0.80947804 0
7.8820004 -3.7439296 0.80888283 0
7.8700004 -3.7514729 0.80823344 0
7.8590007 -3.7594712 0.80763817 0
7.8480005 -3.7674298 0.80704296 0
7.8370004 -3.7753482 0.80644768 0
7.8260002 -3.7832272 0.80585241 0
7.8140006 -3.7905617 0.80520308 0
7.8030005 -3.7983596 0.80460775 0
7.7920003 -3.8061173 0.80401254 0
7.7810006 -3.8138363 0.80341733 0
7.7700005 -3.8215148 0.80282199 0
7.7590003 -3.8291538 0.80222678 0
7.7480006 -3.8367534 0.80163151 0
7.7370005 -3.8443131 0.80103624 0
7.7260003 -3.8518336 0.80044097 0
7.7150006 -3.8593137 0.7998457 0
7.7050004 -3.8672776 0.7993046 0
7.6940002 -3.87468 0.79870933 0
7.6830006 -3.8820438 0.79811406 0
7.6720004 -3.8893669 0.79751885 0
7.6620007 -3.897181 0.7969777 0
7.6510005 -3.9044271 0.79638243 0
7.6400003 -3.911633 0.79578716 0
7.6300006 -3.9193354 0.79524601 0
7.6190004 -3.9264643 0.79465079 0
7.6080003 -3.9335532 0.79405546 0
7.5980005 -3.9411435 0.79351437 0
7.5870004 -3.9481549 0.79291916 0
7.5770006 -3.9556713 0.79237795 0
7.5670004 -3.9631517 0.79183686 0
7.5560002 -3.9700477 0.79124153 0
7.5460005 -3.9774539 0.79070044 0
7.5350003 -3.9842725 0.79010516 0
7.5250006 -3.9916053 0.78956401 0
7.5150003 -3.9989016 0.78902292 0
7.5050006 -4.0061617 0.78848171 0
7.4940004 -4.0128269 0.7878865 0
7.4840002 -4.0200129 0.78734529 0
7.4740005 -4.0271635 0.7868042 0
7.4640002 -4.0342774 0.78626299 0
7.4540005 -4.0413556 0.7857219 0
7.4440002 -4.048398 0.78518081 0
7.4340005 -4.0554042 0.78463966 0
7.4240003 -4.0623741 0.78409851 0
7.9620004 -3.6879861 0.79957151 0
7.9510007 -3.6963093 0.79899615 0
7.9390006 -3.7041068 0.79836845 0
7.9280005 -3.7123485 0.79779303 0
7.9160004 -3.7200615 0.79716527 0
7.9050007 -3.7282219 0.79658985 0
7.8930006 -3.7358503 0.7959621 0
7.8820004 -3.7439296 0.79538673 0
7.8700004 -3.7514729 0.79475898 0
7.8590007 -3.7594712 0.79418361 0
7.8480005 -3.7674298 0.79360819 0
7.8370004 -3.7753482 0.79303277 0
7.8260002 -3.7832272 0.79245734 0
7.8140006 -3.7905617 0.79182959 0
7.8030005 -3.7983596 0.79125416 0
7.7920003 -3.8061173 0.79067874 0
7.7810006 -3.8138363 0.79010338 0
7.7700005 -3.8215148 0.78952795 0
7.7590003 -3.8291538 0.78895253 0
7.7480006 -3.8367534 0.78837711 0
7.7370005 -3.8443131 0.78780174 0
7.7260003 -3.8518336 0.78722632 0
7.7150006 -3.8593137 0.7866509 0
7.7050004 -3.8672776 0.78612775 0
7.6940002 -3.87468 0.78555238 0
7.6830006 -3.8820438 0.78497696 0
7.6720004 -3.8893669 0.78440154 0
7.6620007 -3.897181 0.78387845 0
7.6510005 -3.9044271 0.78330302 0
7.6400003 -3.911633 0.7827276 0
7.6300006 -3.9193354 0.78220451 0
7.6190004 -3.9264643 0.78162909 0
7.6080003 -3.9335532 0.78105366 0
7.5980005 -3.9411435 0.78053057 0
7.5870004 -3.9481549 0.77995515 0
7.5770006 -3.9556713 0.77943206 0
7.5670004 -3.9631517 0.77890891 0
7.5560002 -3.9700477 0.77833349 0
7.5460005 -3.9774539 0.77781039 0
7.5350003 -3.9842725 0.77723503 0
7.5250006 -3.9916053 0.77671194 0
7.5150003 -3.9989016 0.77618879 0
7.5050006 -4.0061617 0.7756657 0
7.4940004 -4.0128269 0.77509028 0
7.4840002 -4.0200129 0.77456713 0
7.4740005 -4.0271635 0.77404404 0
7.4640002 -4.0342774 0.77352095 0
7.4540005 -4.0413556 0.77299786 0
7.4440002 -4.048398 0.77247477 0
7.4340005 -4.0554042 0.77195168 0
7.4240003 -4.0623741 0.77142853 0
7.9620004 -3.6879861 0.78593111 0
7.9510007 -3.6963093 0.7853756 0
7.9390006 -3.7041068 0.78476954 0
7.9280005 -3.7123485 0.7842139 0
7.9160004 -3.7200615 0.78360784 0
7.9050007 -3.7282219 0.78305233 0
7.8930006 -3.7358503 0.78244621 0
7.8820004 -3.7439296 0.78189063 0
7.8700004 -3.7514729 0.78128457 0
7.8590007 -3.7594712 0.780729 0
7.8480005 -3.7674298 0.78017342 0
7.8370004 -3.7753482 0.77961779 0
7.8260002 -3.7832272 0.77906227 0
7.8140006 -3.7905617 0.77845621 0
7.8030005 -3.7983596 0.77790058 0
7.7920003 -3.8061173 0.77734506 0
7.7810006 -3.8138363 0.77678943 0
7.7700005 -3.8215148 0.77623391 0
7.7590003 -3.8291538 0.77567828 0
7.7480006 -3.8367534 0.77512276 0
7.7370005 -3.8443131 0.77456713 0
7.7260003 -3.8518336 0.77401161 0
7.7150006 -3.8593137 0.77345598 0
7.7050004 -3.8672776 0.77295095 0
7.6940002 -3.87468 0.77239537 0
7.6830006 -3.8820438 0.7718398 0
7.6720004 -3.8893669 0.77128422 0
7.6620007 -3.897181 0.77077913 0
7.6510005 -3.9044271 0.77022362 0
7.6400003 -3.911633 0.76966798 0
7.6300006 -3.9193354 0.76916295 0
7.6190004 -3.9264643 0.76860738 0
7.6080003 -3.9335532 0.7680518 0
7.5980005 -3.9411435 0.76754677 0
7.5870004 -3.9481549 0.76699114 0
7.5770006 -3.9556713 0.76648611 0
7.5670004 -3.9631517 0.76598108 0
7.5560002 -3.9700477 0.76542544 0
7.5460005 -3.9774539 0.76492041 0
7.5350003 -3.9842725 0.76436484 0
7.5250006 -3.9916053 0.76385975 0
7.5150003 -3.9989016 0.76335466 0
7.5050006 -4.0061617 0.76284963 0
7.4940004 -4.0128269 0.76229405 0
7.4840002 -4.0200129 0.76178896 0
7.4740005 -4.0271635 0.76128387 0
7.4640002 -4.0342774 0.76077884 0
7.4540005 -4.0413556 0.76027381 0
7.4440002 -4.048398 0.75976872 0
7.4340005 -4.0554042 0.75926363 0
7.4240003 -4.0623741 0.75875854 0
7.9620004 -3.6879861 0.77229077 0
7.9510007 -3.6963093 0.77175504 0
7.9390006 -3.7041068 0.77117062 0
7.9280005 -3.7123485 0.77063489 0
7.9160004 -3.7200615 0.77005041 0
7.9050007 -3.7282219 0.76951468 0
7.8930006 -3.7358503 0.76893032 0
7.8820004 -3.7439296 0.76839453 0
7.8700004 -3.7514729 0.76781011 0
7.8590007 -3.7594712 0.76727438 0
7.8480005 -3.7674298 0.76673865 0
7.8370004 -3.7753482 0.76620293 0
7.8260002 -3.7832272 0.76566714 0
7.8140006 -3.7905617 0.76508272 0
7.8030005 -3.7983596 0.76454699 0
7.7920003 -3.8061173 0.76401126 0
7.7810006 -3.8138363 0.76347554 0
7.7700005 -3.8215148 0.76293981 0
7.7590003 -3.8291538 0.76240408 0
7.7480006 -3.8367534 0.76186836 0
7.7370005 -3.8443131 0.76133263 0
7.7260003 -3.8518336 0.7607969 0
7.7150006 -3.8593137 0.76026118 0
7.7050004 -3.8672776 0.75977415 0
7.6940002 -3.87468 0.75923836 0
7.6830006 -3.8820438 0.75870264 0
7.6720004 -3.8893669 0.75816691 0
7.6620007 -3.897181 0.75767994 0
7.6510005 -3.9044271 0.75714421 0
7.6400003 -3.911633 0.75660849 0
7.6300006 -3.9193354 0.7561214 0
7.6190004 -3.9264643 0.75558567 0
7.6080003 -3.9335532 0.75504994 0
7.5980005 -3.9411435 0.75456291 0
7.5870004 -3.9481549 0.75402719 0
7.5770006 -3.9556713 0.75354016 0
7.5670004 -3.9631517 0.75305313 0
7.5560002 -3.9700477 0.7525174 0
7.5460005 -3.9774539 0.75203037 0
7.5350003 -3.9842725 0.75149465 0
7.5250006 -3.9916053 0.75100768 0
7.5150003 -3.9989016 0.75052059 0
7.5050006 -4.0061617 0.75003356 0
7.4940004 -4.0128269 0.74949783 0
7.4840002 -4.0200129 0.7490108 0
7.4740005 -4.0271635 0.74852383 0
7.4640002 -4.0342774 0.74803674 0
7.4540005 -4.0413556 0.74754971 0
7.4440002 -4.048398 0.74706268 0
7.4340005 -4.0554042 0.74657571 0
7.4240003 -4.0623741 0.74608862 0
7.9620004 -3.6879861 0.7586503 0
7.9510007 -3.6963093 0.75813448 0
7.9390006 -3.7041068 0.7575717 0
7.9280005 -3.7123485 0.75705576 0
7.9160004 -3.7200615 0.75649297 0
7.9050007 -3.7282219 0.75597715 0
7.8930006 -3.7358503 0.75541437 0
7.8820004 -3.7439296 0.75489843 0
7.8700004 -3.7514729 0.75433564 0
7.8590007 -3.7594712 0.75381982 0
7.8480005 -3.7674298 0.75330389 0
7.8370004 -3.7753482 0.75278795 0
7.8260002 -3.7832272 0.75227207 0
7.8140006 -3.7905617 0.75170934 0
7.8030005 -3.7983596 0.7511934 0
7.7920003 -3.8061173 0.75067753 0
7.7810006 -3.8138363 0.75016165 0
7.7700005 -3.8215148 0.74964571 0
7.7590003 -3.8291538 0.74912983 0
7.7480006 -3.8367534 0.74861395 0
7.7370005 -3.8443131 0.74809808 0
7.7260003 -3.8518336 0.7475822 0
7.7150006 -3.8593137 0.74706632 0
7.7050004 -3.8672776 0.74659729 0
7.6940002 -3.87468 0.74608141 0
7.6830006 -3.8820438 0.74556553 0
7.6720004 -3.8893669 0.7450496 0
7.6620007 -3.897181 0.74458063 0
7.6510005 -3.9044271 0.74406481 0
7.6400003 -3.911633 0.74354887 0
7.6300006 -3.9193354 0.7430799 0
7.6190004 -3.9264643 0.74256402 0
7.6080003 -3.9335532 0.74204814 0
7.5980005 -3.9411435 0.74157912 0
7.5870004 -3.9481549 0.74106324 0
7.5770006 -3.9556713 0.74059427 0
7.5670004 -3.9631517 0.74012524 0
7.5560002 -3.9700477 0.73960936 0
7.5460005 -3.9774539 0.73914039 0
7.5350003 -3.9842725 0.73862445 0
7.5250006 -3.9916053 0.73815548 0
7.5150003 -3.9989016 0.73768651 0
7.5050006 -4.0061617 0.73721755 0
7.4940004 -4.0128269 0.73670161 0
7.4840002 -4.0200129 0.73623264 0
7.4740005 -4.0271635 0.73576367 0
7.4640002 -4.0342774 0.73529464 0
7.4540005 -4.0413556 0.73482567 0
7.4440002 -4.048398 0.73435664 0
7.4340005 -4.0554042 0.73388767 0
7.4240003 -4.0623741 0.7334187 0
7.9620004 -3.6879861 0.74500996 0
7.9510007 -3.6963093 0.74451387 0
7.9390006 -3.7041068 0.74397278 0
7.9280005 -3.7123485 0.74347675 0
7.9160004 -3.7200615 0.74293554 0
7.9050007 -3.7282219 0.74243951 0
7.8930006 -3.7358503 0.74189842 0
7.8820004 -3.7439296 0.74140233 0
7.8700004 -3.7514729 0.74086118 0
7.8590007 -3.7594712 0.74036515 0
7.8480005 -3.7674298 0.73986912 0
7.8370004 -3.7753482 0.73937309 0
7.8260002 -3.7832272 0.738877 0
7.8140006 -3.7905617 0.73833585 0
7.8030005 -3.7983596 0.73783982 0
7.7920003 -3.8061173 0.73734379 0
7.7810006 -3.8138363 0.73684776 0
7.7700005 -3.8215148 0.73635173 0
7.7590003 -3.8291538 0.73585564 0
7.7480006 -3.8367534 0.73535955 0
7.7370005 -3.8443131 0.73486352 0
7.7260003 -3.8518336 0.73436749 0
7.7150006 -3.8593137 0.73387146 0
7.7050004 -3.8672776 0.73342049 0
7.6940002 -3.87468 0.73292446 0
7.6830006 -3.8820438 0.73242843 0
7.6720004 -3.8893669 0.73193234 0
7.6620007 -3.897181 0.73148143 0
7.6510005 -3.9044271 0.73098534 0
7.6400003 -3.911633 0.73048925 0
7.6300006 -3.9193354 0.7300384 0
7.6190004 -3.9264643 0.72954232 0
7.6080003 -3.9335532 0.72904623 0
7.5980005 -3.9411435 0.72859532 0
7.5870004 -3.9481549 0.72809923 0
7.5770006 -3.9556713 0.72764832 0
7.5670004 -3.9631517 0.72719735 0
7.5560002 -3.9700477 0.72670132 0
7.5460005 -3.9774539 0.72625035 0
7.5350003 -3.9842725 0.72575426 0
7.5250006 -3.9916053 0.72530341 0
7.5150003 -3.9989016 0.72485238 0
7.5050006 -4.0061617 0.72440147 0
7.4940004 -4.0128269 0.72390544 0
7.4840002 -4.0200129 0.72345448 0
7.4740005 -4.0271635 0.72300351 0
7.4640002 -4.0342774 0.72255254 0
7.4540005 -4.0413556 0.72210157 0
7.4440002 -4.048398 0.7216506 0
7.4340005 -4.0554042 0.72119969 0
7.4240003 -4.0623741 0.72074872 0
7.9620004 -3.6879861 0.73136955 0
7.9510007 -3.6963093 0.73089337 0
7.9390006 -3.7041068 0.73037386 0
7.9280005 -3.7123485 0.72989762 0
7.9160004 -3.7200615 0.7293781 0
7.9050007 -3.7282219 0.72890198 0
7.8930006 -3.7358503 0.72838247 0
7.8820004 -3.7439296 0.72790623 0
7.8700004 -3.7514729 0.72738671 0
7.8590007 -3.7594712 0.72691059 0
7.8480005 -3.7674298 0.72643435 0
7.8370004 -3.7753482 0.72595811 0
7.8260002 -3.7832272 0.72548193 0
7.8140006 -3.7905617 0.72496247 0
7.8030005 -3.7983596 0.72448623 0
7.7920003 -3.8061173 0.72400999 0
7.7810006 -3.8138363 0.72353387 0
7.7700005 -3.8215148 0.72305763 0
7.7590003 -3.8291538 0.72258139 0
7.7480006 -3.8367534 0.72210526 0
7.7370005 -3.8443131 0.72162902 0
7.7260003 -3.8518336 0.72115278 0
7.7150006 -3.8593137 0.7206766 0
7.7050004 -3.8672776 0.72024369 0
7.6940002 -3.87468 0.71976745 0
7.6830006 -3.8820438 0.71929127 0
7.6720004 -3.8893669 0.71881509 0
7.6620007 -3.897181 0.71838212 0
7.6510005 -3.9044271 0.717906 0
7.6400003 -3.911633 0.71742976 0
7.6300006 -3.9193354 0.71699685 0
7.6190004 -3.9264643 0.71652061 0
7.6080003 -3.9335532 0.71604443 0
7.5980005 -3.9411435 0.71561152 0
7.5870004 -3.9481549 0.71513528 0
7.5770006 -3.9556713 0.71470237 0
7.5670004 -3.9631517 0.71426946 0
7.5560002 -3.9700477 0.71379328 0
7.5460005 -3.9774539 0.71336031 0
7.5350003 -3.9842725 0.71288413 0
7.5250006 -3.9916053 0.71245122 0
7.5150003 -3.9989016 0.71201831 0
7.5050006 -4.0061617 0.7115854 0
7.4940004 -4.0128269 0.71110916 0
7.4840002 -4.0200129 0.71067631 0
7.4740005 -4.0271635 0.71024334 0
7.4640002 -4.0342774 0.7098105 0
7.4540005 -4.0413556 0.70937753 0
7.4440002 -4.048398 0.70894456 0
7.4340005 -4.0554042 0.70851171 0
7.4240003 -4.0623741 0.70807874 0
7.9620004 -3.6879861 0.71772921 0
7.9510007 -3.6963093 0.71727282 0
7.9390006 -3.7041068 0.71677494 0
7.9280005 -3.7123485 0.71631861 0
7.9160004 -3.7200615 0.71582073 0
7.9050007 -3.7282219 0.7153644 0
7.8930006 -3.7358503 0.71486652 0
7.8820004 -3.7439296 0.71441019 0
7.8700004 -3.7514729 0.71391231 0
7.8590007 -3.7594712 0.71345592 0
7.8480005 -3.7674298 0.71299958 0
7.8370004 -3.7753482 0.71254325 0
7.8260002 -3.7832272 0.71208686 0
7.8140006 -3.7905617 0.71158898 0
7.8030005 -3.7983596 0.71113265 0
7.7920003 -3.8061173 0.71067631 0
7.7810006 -3.8138363 0.71021992 0
7.7700005 -3.8215148 0.70976353 0
7.7590003 -3.8291538 0.70930719 0
7.7480006 -3.8367534 0.70885086 0
7.7370005 -3.8443131 0.70839447 0
7.7260003 -3.8518336 0.70793808 0
7.7150006 -3.8593137 0.70748174 0
7.7050004 -3.8672776 0.70706689 0
7.6940002 -3.87468 0.7066105 0
7.6830006 -3.8820438 0.70615411 0
7.6720004 -3.8893669 0.70569777 0
7.6620007 -3.897181 0.70528293 0
7.6510005 -3.9044271 0.70482653 0
7.6400003 -3.911633 0.70437014 0
7.6300006 -3.9193354 0.70395529 0
7.6190004 -3.9264643 0.7034989 0
7.6080003 -3.9335532 0.70304251 0
7.5980005 -3.9411435 0.70262766 0
7.5870004 -3.9481549 0.70217133 0
7.5770006 -3.9556713 0.70175648 0
7.5670004 -3.9631517 0.70134157 0
7.5560002 -3.9700477 0.70088518 0
7.5460005 -3.9774539 0.70047033 0
7.5350003 -3.9842725 0.700014 0
7.5250006 -3.9916053 0.69959909 0
7.5150003 -3.9989016 0.69918418 0
7.5050006 -4.0061617 0.69876933 0
7.4940004 -4.0128269 0.698313 0
7.4840002 -4.0200129 0.69789809 0
7.4740005 -4.0271635 0.69748324 0
7.4640002 -4.0342774 0.69706833 0
7.4540005 -4.0413556 0.69665349 0
7.4440002 -4.048398 0.69623864 0
7.4340005 -4.0554042 0.69582373 0
7.4240003 -4.0623741 0.69540882 0
7.9620004 -3.6879861 0.70408881 0
7.9510007 -3.6963093 0.70365226 0
7.9390006 -3.7041068 0.70317602 0
7.9280005 -3.7123485 0.70273954 0
7.9160004 -3.7200615 0.7022633 0
7.9050007 -3.7282219 0.70182681 0
7.8930006 -3.7358503 0.70135057 0
7.8820004 -3.7439296 0.70091403 0
7.8700004 -3.7514729 0.7004379 0
7.8590007 -3.7594712 0.70000136 0
7.8480005 -3.7674298 0.69956481 0
7.8370004 -3.7753482 0.69912827 0
7.8260002 -3.7832272 0.69869179 0
7.8140006 -3.7905617 0.6982156 0
7.8030005 -3.7983596 0.69777906 0
7.7920003 -3.8061173 0.69734251 0
7.7810006 -3.8138363 0.69690603 0
7.7700005 -3.8215148 0.69646949 0
7.7590003 -3.8291538 0.696033 0
7.7480006 -3.8367534 0.69559646 0
7.7370005 -3.8443131 0.69515991 0
7.7260003 -3.8518336 0.69472337 0
7.7150006 -3.8593137 0.69428688 0
7.7050004 -3.8672776 0.69389004 0
7.6940002 -3.87468 0.69345349 0
7.6830006 -3.8820438 0.69301701 0
7.6720004 -3.8893669 0.69258046 0
7.6620007 -3.897181 0.69218361 0
7.6510005 -3.9044271 0.69174707 0
7.6400003 -3.911633 0.69131058 0
7.6300006 -3.9193354 0.6909138 0
7.6190004 -3.9264643 0.69047725 0
7.6080003 -3.9335532 0.69004071 0
7.5980005 -3.9411435 0.68964386 0
7.5870004 -3.9481549 0.68920732 0
7.5770006 -3.9556713 0.68881053 0
7.5670004 -3.9631517 0.68841368 0
7.5560002 -3.9700477 0.68797719 0
7.5460005 -3.9774539 0.68758035 0
7.5350003 -3.9842725 0.6871438 0
7.5250006 -3.9916053 0.68674695 0
7.5150003 -3.9989016 0.68635011 0
7.5050006 -4.0061617 0.68595326 0
7.4940004 -4.0128269 0.68551672 0
7.4840002 -4.0200129 0.68511993 0
7.4740005 -4.0271635 0.68472308 0
7.4640002 -4.0342774 0.68432623 0
7.4540005 -4.0413556 0.68392944 0
7.4440002 -4.048398 0.6835326 0
7.4340005 -4.0554042 0.68313575 0
7.4240003 -4.0623741 0.6827389 0
7.9620004 -3.6879861 0.6904484 0
7.9510007 -3.6963093 0.69003171 0
7.9390006 -3.7041068 0.6895771 0
7.9280005 -3.7123485 0.68916047 0
7.9160004 -3.7200615 0.68870586 0
7.9050007 -3.7282219 0.68828923 0
7.8930006 -3.7358503 0.68783462 0
7.8820004 -3.7439296 0.68741798 0
7.8700004 -3.7514729 0.68696344 0
7.8590007 -3.7594712 0.68654674 0
7.8480005 -3.7674298 0.68613005 0
7.8370004 -3.7753482 0.68571335 0
7.8260002 -3.7832272 0.68529665 0
7.8140006 -3.7905617 0.68484211 0
7.8030005 -3.7983596 0.68442547 0
7.7920003 -3.8061173 0.68400878 0
7.7810006 -3.8138363 0.68359208 0
7.7700005 -3.8215148 0.68317544 0
7.7590003 -3.8291538 0.68275869 0
7.7480006 -3.8367534 0.68234205 0
7.7370005 -3.8443131 0.68192542 0
7.7260003 -3.8518336 0.68150866 0
7.7150006 -3.8593137 0.68109202 0
7.7050004 -3.8672776 0.68071318 0
7.6940002 -3.87468 0.68029654 0
7.6830006 -3.8820438 0.67987984 0
7.6720004 -3.8893669 0.67946315 0
7.6620007 -3.897181 0.67908442 0
7.6510005 -3.9044271 0.67866766 0
7.6400003 -3.911633 0.67825103 0
7.6300006 -3.9193354 0.67787224 0
7.6190004 -3.9264643 0.67745554 0
7.6080003 -3.9335532 0.67703891 0
7.5980005 -3.9411435 0.67666006 0
7.5870004 -3.9481549 0.67624336 0
7.5770006 -3.9556713 0.67586458 0
7.5670004 -3.9631517 0.67548573 0
7.5560002 -3.9700477 0.67506909 0
7.5460005 -3.9774539 0.67469031 0
7.5350003 -3.9842725 0.67427361 0
7.5250006 -3.9916053 0.67389482 0
7.5150003 -3.9989016 0.67351604 0
7.5050006 -4.0061617 0.67313725 0
7.4940004 -4.0128269 0.67272055 0
7.4840002 -4.0200129 0.6723417 0
7.4740005 -4.0271635 0.67196292 0
7.4640002 -4.0342774 0.67158413 0
7.4540005 -4.0413556 0.67120534 0
7.4440002 -4.048398 0.67082655 0
7.4340005 -4.0554042 0.67044771 0
7.4240003 -4.0623741 0.67006892 0
7.9620004 -3.6879861 0.676808 0
7.9510007 -3.6963093 0.67641115 0
7.9390006 -3.7041068 0.67597824 0
7.9280005 -3.7123485 0.6755814 0
7.9160004 -3.7200615 0.67514849 0
7.9050007 -3.7282219 0.67475164 0
7.8930006 -3.7358503 0.67431873 0
7.8820004 -3.7439296 0.67392188 0
7.8700004 -3.7514729 0.67348897 0
7.8590007 -3.7594712 0.67309213 0
7.8480005 -3.7674298 0.67269528 0
7.8370004 -3.7753482 0.67229843 0
7.8260002 -3.7832272 0.67190158 0
7.8140006 -3.7905617 0.67146873 0
7.8030005 -3.7983596 0.67107189 0
7.7920003 -3.8061173 0.67067504 0
7.7810006 -3.8138363 0.67027819 0
7.7700005 -3.8215148 0.66988134 0
7.7590003 -3.8291538 0.6694845 0
7.7480006 -3.8367534 0.66908765 0
7.7370005 -3.8443131 0.6686908 0
7.7260003 -3.8518336 0.66829395 0
7.7150006 -3.8593137 0.66789716 0
7.7050004 -3.8672776 0.66753638 0
7.6940002 -3.87468 0.66713953 0
7.6830006 -3.8820438 0.66674268 0
7.6720004 -3.8893669 0.66634583 0
7.6620007 -3.897181 0.66598511 0
7.6510005 -3.9044271 0.66558826 0
7.6400003 -3.911633 0.66519141 0
7.6300006 -3.9193354 0.66483068 0
7.6190004 -3.9264643 0.66443384 0
7.6080003 -3.9335532 0.66403699 0
7.5980005 -3.9411435 0.66367626 0
7.5870004 -3.9481549 0.66327941 0
7.5770006 -3.9556713 0.66291869 0
7.5670004 -3.9631517 0.6625579 0
7.5560002 -3.9700477 0.66216099 0
7.5460005 -3.9774539 0.66180027 0
7.5350003 -3.9842725 0.66140342 0
7.5250006 -3.9916053 0.66104269 0
7.5150003 -3.9989016 0.66068196 0
7.5050006 -4.0061617 0.66032118 0
7.4940004 -4.0128269 0.65992433 0
7.4840002 -4.0200129 0.65956354 0
7.4740005 -4.0271635 0.65920281 0
7.4640002 -4.0342774 0.65884203 0
7.4540005 -4.0413556 0.65848124 0
7.4440002 -4.048398 0.65812051 0
7.4340005 -4.0554042 0.65775979 0
7.4240003 -4.0623741 0.657399 0
7.9620004 -3.6879861 0.6631676 0
7.9510007 -3.6963093 0.6627906 0
7.9390006 -3.7041068 0.66237932 0
7.9280005 -3.7123485 0.66200233 0
7.9160004 -3.7200615 0.66159105 0
7.9050007 -3.7282219 0.66121405 0
7.8930006 -3.7358503 0.66080278 0
7.8820004 -3.7439296 0.66042578 0
7.8710003 -3.7519691 0.66004878 0
7.8590007 -3.7594712 0.65963751 0
7.8480005 -3.7674298 0.65926051 0
7.8370004 -3.7753482 0.65888357 0
7.8260002 -3.7832272 0.65850651 0
7.8140006 -3.7905617 0.65809524 0
7.8030005 -3.7983596 0.6577183 0
7.7920003 -3.8061173 0.65734124 0
7.7810006 -3.8138363 0.6569643 0
7.7700005 -3.8215148 0.6565873 0
7.7590003 -3.8291538 0.6562103 0
7.7480006 -3.8367534 0.6558333 0
7.7370005 -3.8443131 0.6554563 0
7.7260003 -3.8518336 0.65507925 0
7.7150006 -3.8593137 0.65470231 0
7.7050004 -3.8672776 0.65435958 0
7.6940002 -3.87468 0.65398258 0
7.6830006 -3.8820438 0.65360558 0
7.6720004 -3.8893669 0.65322858 0
7.6620007 -3.897181 0.65288585 0
7.6510005 -3.9044271 0.65250885 0
7.6400003 -3.911633 0.65213186 0
7.6300006 -3.9193354 0.65178919 0
7.6190004 -3.9264643 0.65141213 0
7.6080003 -3.9335532 0.65103513 0
7.5980005 -3.9411435 0.65069246 0
7.5870004 -3.9481549 0.65031546 0
7.5770006 -3.9556713 0.64997274 0
7.5670004 -3.9631517 0.64963001 0
7.5560002 -3.9700477 0.64925301 0
7.5460005 -3.9774539 0.64891028 0
7.5350003 -3.9842725 0.64853328 0
7.5250006 -3.9916053 0.64819056 0
7.5150003 -3.9989016 0.64784783 0
7.5050006 -4.0061617 0.6475051 0
7.4940004 -4.0128269 0.64712811 0
7.4840002 -4.0200129 0.64678538 0
7.4740005 -4.0271635 0.64644265 0
7.4640002 -4.0342774 0.64609993 0
7.4540005 -4.0413556 0.6457572 0
7.4440002 -4.048398 0.64541447 0
7.4340005 -4.0554042 0.64507174 0
7.4240003 -4.0623741 0.64472902 0
7.9620004 -3.6879861 0.64952719 0
7.9510007 -3.6963093 0.64917004 0
7.9390006 -3.7041068 0.64878041 0
7.9280005 -3.7123485 0.64842325 0
7.9160004 -3.7200615 0.64803362 0
7.9050007 -3.7282219 0.64767647 0
7.8930006 -3.7358503 0.64728683 0
7.8820004 -3.7439296 0.64692968 0
7.8710003 -3.7519691 0.64657253 0
7.8590007 -3.7594712 0.64618289 0
7.8480005 -3.7674298 0.64582574 0
7.8370004 -3.7753482 0.64546859 0
7.8260002 -3.7832272 0.64511144 0
7.8140006 -3.7905617 0.64472187 0
7.8030005 -3.7983596 0.64436471 0
7.7920003 -3.8061173 0.6440075 0
7.7810006 -3.8138363 0.64365035 0
7.7700005 -3.8215148 0.6432932 0
7.7590003 -3.8291538 0.64293605 0
7.7480006 -3.8367534 0.6425789 0
7.7370005 -3.8443131 0.64222175 0
7.7260003 -3.8518336 0.6418646 0
7.7150006 -3.8593137 0.64150745 0
7.7050004 -3.8672776 0.64118278 0
7.6940002 -3.87468 0.64082563 0
7.6830006 -3.8820438 0.64046848 0
7.6720004 -3.8893669 0.64011133 0
7.6620007 -3.897181 0.6397866 0
7.6510005 -3.9044271 0.63942945 0
7.6400003 -3.911633 0.6390723 0
7.6300006 -3.9193354 0.63874763 0
7.6190004 -3.9264643 0.63839042 0
7.6080003 -3.9335532 0.63803327 0
7.5980005 -3.9411435 0.63770866 0
7.5870004 -3.9481549 0.63735145 0
7.5770006 -3.9556713 0.63702679 0
7.5670004 -3.9631517 0.63670212 0
7.5560002 -3.9700477 0.63634491 0
7.5460005 -3.9774539 0.63602024 0
7.5350003 -3.9842725 0.63566309 0
7.5250006 -3.9916053 0.63533843 0
7.5150003 -3.9989016 0.6350137 0
7.5050006 -4.0061617 0.63468903 0
7.4940004 -4.0128269 0.63433188 0
7.4840002 -4.0200129 0.63400722 0
7.4740005 -4.0271635 0.63368255 0
7.4640002 -4.0342774 0.63335782 0
7.4540005 -4.0413556 0.63303316 0
7.4440002 -4.048398 0.63270843 0
7.4340005 -4.0554042 0.63238376 0
7.4240003 -4.0623741 0.6320591 0
7.9620004 -3.6879861 0.63588679 0
7.9510007 -3.6963093 0.63554943 0
7.9390006 -3.7041068 0.63518149 0
7.9280005 -3.7123485 0.63484418 0
7.9160004 -3.7200615 0.63447618 0
7.9050007 -3.7282219 0.63413888 0
7.8930006 -3.7358503 0.63377094 0
7.8820004 -3.7439296 0.63343358 0
7.8710003 -3.7519691 0.63309628 0
7.8590007 -3.7594712 0.63272834 0
7.8480005 -3.7674298 0.63239098 0
7.8370004 -3.7753482 0.63205367 0
7.8260002 -3.7832272 0.63171637 0
7.8140006 -3.7905617 0.63134837 0
7.8030005 -3.7983596 0.63101107 0
7.7920003 -3.8061173 0.63067377 0
7.7810006 -3.8138363 0.63033646 0
7.7700005 -3.8215148 0.62999916 0
7.7590003 -3.8291538 0.6296618 0
7.7480006 -3.8367534 0.62932456 0
7.7370005 -3.8443131 0.62898719 0
7.7260003 -3.8518336 0.62864989 0
7.7150006 -3.8593137 0.62831259 0
7.7050004 -3.8672776 0.62800592 0
7.6940002 -3.87468 0.62766862 0
7.6830006 -3.8820438 0.62733132 0
7.6720004 -3.8893669 0.62699401 0
7.6620007 -3.897181 0.62668735 0
7.6510005 -3.9044271 0.62635005 0
