# .PCD v0.7 - Point Cloud Data file format
VERSION 0.7
FIELDS x y z intensity
SIZE 4 4 4 4
TYPE F F F F
COUNT 1 1 1 1
WIDTH 125
HEIGHT 1
VIEWPOINT 0 0 0 1 0 0 0
POINTS 125
DATA ascii
5.3890004 2.617763 0.33200642 0
5.3900003 2.6092958 0.331992 0
5.3890004 2.617763 0.32300723 0
5.3900003 2.6092958 0.32299098 0
5.3890004 2.5997646 0.32300723 0
5.3880005 2.6262267 0.31402606 0
5.3890004 2.617763 0.31400803 0
5.3900003 2.6092958 0.31399 0
5.3890004 2.5997646 0.31400803 0
5.3880005 2.6262267 0.30502868 0
5.3890004 2.617763 0.30500883 0
5.3900003 2.6092958 0.30498898 0
5.3890004 2.5997646 0.30500883 0
5.3880005 2.6262267 0.29603127 0
5.3890004 2.617763 0.29600963 0
5.3900003 2.6092958 0.29598796 0
5.3890004 2.5997646 0.29600963 0
5.3880005 2.6262267 0.28703389 0
5.3890004 2.617763 0.28701043 0
5.3900003 2.6092958 0.28698698 0
5.3890004 2.5997646 0.28701043 0
5.3880005 2.6262267 0.27803648 0
5.3890004 2.617763 0.2780112 0
5.3900003 2.6092958 0.27798599 0
5.3890004 2.5997646 0.2780112 0
5.3880005 2.6262267 0.26903909 0
5.3890004 2.617763 0.26901203 0
5.3900003 2.6092958 0.26898497 0
5.3890004 2.5997646 0.26901203 0
5.3880005 2.6262267 0.26004168 0
5.3890004 2.617763 0.26001281 0
5.3900003 2.6092958 0.25998396 0
5.3890004 2.5997646 0.26001281 0
5.3880005 2.6262267 0.25104427 0
5.3890004 2.617763 0.25101364 0
5.3900003 2.6092958 0.25098297 0
5.3890004 2.5997646 0.25101364 0
5.3880005 2.6262267 0.24204689 0
5.3890004 2.617763 0.24201444 0
5.3900003 2.6092958 0.24198195 0
5.3890004 2.5997646 0.24201444 0
5.3880005 2.6262267 0.23304948 0
5.3890004 2.617763 0.23301522 0
5.3900003 2.6092958 0.23298095 0
5.3890004 2.5997646 0.23301522 0
5.3880005 2.6262267 0.2240521 0
5.3890004 2.617763 0.22401603 0
5.3900003 2.6092958 0.22397995 0
5.3890004 2.5997646 0.22401603 0
5.3880005 2.6262267 0.21505471 0
5.3890004 2.617763 0.21501683 0
5.3900003 2.6092958 0.21497895 0
5.3890004 2.5997646 0.21501683 0
5.3880005 2.6262267 0.20605731 0
5.3890004 2.617763 0.20601761 0
5.3900003 2.6092958 0.20597795 0
5.3890004 2.5997646 0.20601761 0
5.3880005 2.6262267 0.19705991 0
5.3890004 2.617763 0.19701843 0
5.3900003 2.6092958 0.19697694 0
5.3890004 2.5997646 0.19701843 0
5.3880005 2.6262267 0.18806252 0
5.3890004 2.617763 0.18801923 0
5.3900003 2.6092958 0.18797593 0
5.3890004 2.5997646 0.18801923 0
5.3880005 2.6262267 0.17906512 0
5.3890004 2.617763 0.17902003 0
5.3900003 2.6092958 0.17897494 0
5.3890004 2.5997646 0.17902003 0
5.3880005 2.6262267 0.17006774 0
5.3890004 2.617763 0.17002083 0
5.3900003 2.6092958 0.16997394 0
5.3890004 2.5997646 0.17002083 0
5.3880005 2.6262267 0.16107033 0
5.3890004 2.617763 0.16102163 0
5.3900003 2.6092958 0.16097292 0
5.3890004 2.5997646 0.16102163 0
5.3880005 2.6262267 0.15207294 0
5.3890004 2.617763 0.15202242 0
5.3900003 2.6092958 0.15197194 0
5.3890004 2.5997646 0.15202242 0
5.3880005 2.6262267 0.14307556 0
5.3890004 2.617763 0.14302322 0
5.3900003 2.6092958 0.14297092 0
5.3890004 2.5997646 0.14302322 0
5.3880005 2.6262267 0.13407815 0
5.3890004 2.617763 0.13402402 0
5.3900003 2.6092958 0.1339699 0
5.3890004 2.5997646 0.13402402 0
5.3880005 2.6262267 0.12508076 0
5.3890004 2.617763 0.12502483 0
5.3900003 2.6092958 0.12496892 0
5.3890004 2.5997646 0.12502483 0
5.3880005 2.6262267 0.11608335 0
5.3890004 2.617763 0.11602563 0
5.3900003 2.6092958 0.11596793 0
5.3890004 2.5997646 0.11602563 0
5.3880005 2.6262267 0.10708594 0
5.3890004 2.617763 0.10702643 0
5.3900003 2.6092958 0.10696691 0
5.3890004 2.5997646 0.10702643 0
5.3880005 2.6262267 0.098088562 0
5.3890004 2.617763 0.098027229 0
5.3900003 2.6092958 0.097965926 0
5.3890004 2.5997646 0.098027229 0
5.3880005 2.6262267 0.089091152 0
5.3890004 2.617763 0.089028031 0
5.3900003 2.6092958 0.088964909 0
5.3890004 2.5997646 0.089028031 0
5.3880005 2.6262267 0.080093771 0
5.3890004 2.617763 0.080028862 0
5.3900003 2.6092958 0.079963893 0
5.3890004 2.5997646 0.080028862 0
5.3880005 2.6262267 0.071096361 0
5.3890004 2.617763 0.071029633 0
5.3900003 2.6092958 0.070962906 0
5.3890004 2.5997646 0.071029633 0
5.3880005 2.6262267 0.06209895 0
5.3890004 2.617763 0.062030435 0
5.3900003 2.6092958 0.061961889 0
5.3890004 2.5997646 0.062030435 0
5.3880005 2.6262267 0.053101569 0
5.3890004 2.617763 0.053031236 0
5.3900003 2.6092958 0.052960873 0
5.3890004 2.5997646 0.053031236 0
