# .PCD v0.7 - Point Cloud Data file format
VERSION 0.7
FIELDS x y z intensity
SIZE 4 4 4 4
TYPE F F F F
COUNT 1 1 1 1
WIDTH 183
HEIGHT 1
VIEWPOINT 0 0 0 1 0 0 0
POINTS 183
DATA ascii
5.7840004 3.0228984 0.80217987 0
5.7840004 3.0228984 0.79246819 0
5.7980003 3.0211415 0.79347825 0
5.7840004 3.0228984 0.78275645 0
5.7980003 3.0211415 0.78374135 0
5.7840004 3.0228984 0.77304471 0
5.7980003 3.0211415 0.77400434 0
5.7840004 3.0228984 0.76333308 0
5.7980003 3.0211415 0.76426744 0
5.7840004 3.0228984 0.75362134 0
5.7980003 3.0211415 0.75453043 0
5.7840004 3.0228984 0.74390966 0
5.7980003 3.0211415 0.74479353 0
5.7840004 3.0228984 0.73419797 0
5.7980003 3.0211415 0.73505652 0
5.7840004 3.0228984 0.72448623 0
5.7980003 3.0211415 0.72531962 0
5.7840004 3.0228984 0.71477449 0
5.7980003 3.0211415 0.71558261 0
5.7840004 3.0228984 0.70506287 0
5.7980003 3.0211415 0.70584571 0
5.7840004 3.0228984 0.69535112 0
5.7980003 3.0211415 0.6961087 0
5.7840004 3.0228984 0.68563938 0
5.7980003 3.0211415 0.6863718 0
5.7840004 3.0228984 0.67592776 0
5.7980003 3.0211415 0.67663479 0
5.7840004 3.0228984 0.66621602 0
5.7980003 3.0211415 0.66689783 0
5.7840004 3.0228984 0.65650427 0
5.7980003 3.0211415 0.65716088 0
5.7840004 3.0228984 0.64679259 0
5.7980003 3.0211415 0.64742398 0
5.7840004 3.0228984 0.63708091 0
5.7980003 3.0211415 0.63768697 0
5.8120003 3.0193338 0.63829303 0
5.7840004 3.0228984 0.62736917 0
5.7980003 3.0211415 0.62795001 0
5.8120003 3.0193338 0.62853086 0
5.7840004 3.0228984 0.61765748 0
5.7980003 3.0211415 0.61821306 0
5.8120003 3.0193338 0.61876863 0
5.7840004 3.0228984 0.6079458 0
5.7980003 3.0211415 0.6084761 0
5.8120003 3.0193338 0.6090064 0
5.7840004 3.0228984 0.59823406 0
5.7980003 3.0211415 0.59873915 0
5.8120003 3.0193338 0.59924424 0
5.7840004 3.0228984 0.58852237 0
5.7980003 3.0211415 0.58900219 0
5.8120003 3.0193338 0.58948201 0
5.7840004 3.0228984 0.57881069 0
5.7980003 3.0211415 0.57926524 0
5.8120003 3.0193338 0.57971978 0
5.7840004 3.0228984 0.56909895 0
5.7980003 3.0211415 0.56952828 0
5.8120003 3.0193338 0.56995761 0
5.7840004 3.0228984 0.55938727 0
5.7980003 3.0211415 0.55979133 0
5.8120003 3.0193338 0.56019539 0
5.7840004 3.0228984 0.54967558 0
5.7980003 3.0211415 0.55005437 0
5.8120003 3.0193338 0.55043316 0
5.7840004 3.0228984 0.53996384 0
5.7980003 3.0211415 0.54031742 0
5.8120003 3.0193338 0.54067099 0
5.7840004 3.0228984 0.53025216 0
5.7980003 3.0211415 0.53058046 0
5.8120003 3.0193338 0.53090876 0
5.7840004 3.0228984 0.52054048 0
5.7980003 3.0211415 0.52084351 0
5.8120003 3.0193338 0.52114654 0
5.7840004 3.0228984 0.51082873 0
5.7980003 3.0211415 0.51110655 0
5.8120003 3.0193338 0.51138431 0
5.7840004 3.0228984 0.50111705 0
5.7980003 3.0211415 0.5013696 0
5.8120003 3.0193338 0.50162214 0
5.7840004 3.0228984 0.49140534 0
5.7980003 3.0211415 0.49163264 0
5.8120003 3.0193338 0.49185991 0
5.7840004 3.0228984 0.48169363 0
5.7980003 3.0211415 0.48189569 0
5.8120003 3.0193338 0.48209769 0
5.7840004 3.0228984 0.47198194 0
5.7980003 3.0211415 0.47215873 0
5.8120003 3.0193338 0.47233549 0
5.7840004 3.0228984 0.46227023 0
5.7980003 3.0211415 0.46242175 0
5.8120003 3.0193338 0.46257326 0
5.7840004 3.0228984 0.45255852 0
5.7980003 3.0211415 0.45268479 0
5.8120003 3.0193338 0.45281106 0
5.7840004 3.0228984 0.44284683 0
5.7980003 3.0211415 0.44294783 0
5.8120003 3.0193338 0.44304886 0
5.7840004 3.0228984 0.43313512 0
5.7980003 3.0211415 0.43321088 0
5.8120003 3.0193338 0.43328664 0
5.7840004 3.0228984 0.42342341 0
5.7980003 3.0211415 0.42347392 0
5.8120003 3.0193338 0.42352444 0
5.7840004 3.0228984 0.41371173 0
5.8960004 3.0371702 0.31477645 0
5.9020004 3.0306115 0.31467903 0
5.8930001 3.0453954 0.30491683 0
5.8960004 3.0371702 0.30486271 0
5.9020004 3.0306115 0.3047545 0
5.8930001 3.0453954 0.29500851 0
5.8960004 3.0371702 0.294949 0
5.9020004 3.0306115 0.29482993 0
5.8930001 3.0453954 0.28510019 0
5.8960004 3.0371702 0.28503525 0
5.9020004 3.0306115 0.28490537 0
5.8930001 3.0453954 0.2751919 0
5.8960004 3.0371702 0.27512151 0
5.9020004 3.0306115 0.27498084 0
5.8930001 3.0453954 0.26528355 0
5.8960004 3.0371702 0.2652078 0
5.9020004 3.0306115 0.26505625 0
5.8930001 3.0453954 0.25537524 0
5.8960004 3.0371702 0.25529408 0
5.9020004 3.0306115 0.25513172 0
5.8930001 3.0453954 0.24546692 0
5.8960004 3.0371702 0.24538033 0
5.9020004 3.0306115 0.24520716 0
5.8930001 3.0453954 0.23555861 0
5.8960004 3.0371702 0.2354666 0
5.9020004 3.0306115 0.23528261 0
5.8930001 3.0453954 0.22565028 0
5.8960004 3.0371702 0.22555287 0
5.9020004 3.0306115 0.22535807 0
5.8930001 3.0453954 0.21574196 0
5.8960004 3.0371702 0.21563914 0
5.9020004 3.0306115 0.21543349 0
5.8930001 3.0453954 0.20583364 0
5.8960004 3.0371702 0.20572542 0
5.9020004 3.0306115 0.20550895 0
5.8930001 3.0453954 0.19592534 0
5.8960004 3.0371702 0.19581167 0
5.9020004 3.0306115 0.1955844 0
5.8930001 3.0453954 0.18601701 0
5.8960004 3.0371702 0.18589796 0
5.9020004 3.0306115 0.18565986 0
5.8930001 3.0453954 0.17610869 0
5.8960004 3.0371702 0.17598422 0
5.9020004 3.0306115 0.17573529 0
5.8930001 3.0453954 0.16620038 0
5.8960004 3.0371702 0.16607049 0
5.9020004 3.0306115 0.16581075 0
5.8930001 3.0453954 0.15629207 0
5.8960004 3.0371702 0.15615676 0
5.9020004 3.0306115 0.1558862 0
5.8930001 3.0453954 0.14638376 0
5.8960004 3.0371702 0.14624304 0
5.9020004 3.0306115 0.14596164 0
5.8930001 3.0453954 0.13647541 0
5.8960004 3.0371702 0.13632929 0
5.9020004 3.0306115 0.13603708 0
5.8930001 3.0453954 0.1265671 0
5.8960004 3.0371702 0.12641558 0
5.9020004 3.0306115 0.12611252 0
5.8930001 3.0453954 0.11665881 0
5.8960004 3.0371702 0.11650184 0
5.9020004 3.0306115 0.11618796 0
5.8930001 3.0453954 0.10675046 0
5.8960004 3.0371702 0.10658813 0
5.9020004 3.0306115 0.10626343 0
5.8930001 3.0453954 0.09684214 0
5.8960004 3.0371702 0.096674383 0
5.9020004 3.0306115 0.096338868 0
5.8930001 3.0453954 0.086933821 0
5.8960004 3.0371702 0.08676064 0
5.9020004 3.0306115 0.086414307 0
5.8930001 3.0453954 0.077025533 0
5.8960004 3.0371702 0.076846927 0
5.9020004 3.0306115 0.076489776 0
5.8930001 3.0453954 0.067117214 0
5.8960004 3.0371702 0.066933185 0
5.9020004 3.0306115 0.066565216 0
5.8930001 3.0453954 0.057208866 0
5.8960004 3.0371702 0.057019442 0
5.9020004 3.0306115 0.056640655 0
