# .PCD v0.7 - Point Cloud Data file format
VERSION 0.7
FIELDS x y z intensity
SIZE 4 4 4 4
TYPE F F F F
COUNT 1 1 1 1
WIDTH 1458
HEIGHT 1
VIEWPOINT 0 0 0 1 0 0 0
POINTS 1458
DATA ascii
3.5200002 -1.6386905 1.3832514 0
3.5180001 -1.6432939 1.3826237 0
3.5150003 -1.6473759 1.3816822 0
3.5130002 -1.651963 1.3810544 0
3.5100002 -1.6560252 1.3801128 0
3.5080001 -1.6605959 1.379485 0
3.5050004 -1.6646384 1.3785435 0
3.5010002 -1.6681467 1.3772881 0
3.4900002 -1.6679664 1.3738356 0
3.4800003 -1.668273 1.3706969 0
3.4720001 -1.6696005 1.368186 0
3.4720001 -1.6751418 1.368186 0
3.4720001 -1.6806831 1.368186 0
3.4720001 -1.6862245 1.368186 0
3.4720001 -1.6917658 1.368186 0
3.4720001 -1.697307 1.368186 0
3.4720001 -1.7028483 1.368186 0
3.4720001 -1.7083896 1.368186 0
3.4720001 -1.7139308 1.368186 0
3.4720001 -1.7194722 1.368186 0
3.4710002 -1.7244669 1.3678721 0
3.4690003 -1.7289099 1.3672445 0
3.4670002 -1.7333454 1.3666167 0
3.4640002 -1.7372217 1.3656752 0
3.4620001 -1.741641 1.3650473 0
3.4600003 -1.7460532 1.3644196 0
3.4570003 -1.7499007 1.3634781 0
3.4550002 -1.7542965 1.3628503 0
3.4520001 -1.7581242 1.3619088 0
3.4500003 -1.7625039 1.361281 0
3.4480002 -1.7668763 1.3606533 0
3.4450002 -1.7706751 1.3597118 0
3.4730003 -1.7920774 1.3684999 0
3.4730003 -1.7976204 1.3684999 0
3.4730003 -1.8031635 1.3684999 0
3.4730003 -1.8087066 1.3684999 0
3.4730003 -1.8142498 1.3684999 0
3.5250003 -1.6299691 1.3791839 0
3.5230002 -1.6345886 1.3785598 0
3.5200002 -1.6386905 1.3776236 0
3.5180001 -1.6432939 1.3769994 0
3.5150003 -1.6473759 1.3760632 0
3.5130002 -1.651963 1.3754392 0
3.5100002 -1.6560252 1.374503 0
3.5080001 -1.6605959 1.3738788 0
3.5050004 -1.6646384 1.3729427 0
3.5010002 -1.6681467 1.3716944 0
3.4900002 -1.6679664 1.3682617 0
3.4800003 -1.668273 1.3651412 0
3.4720001 -1.6696005 1.3626447 0
3.4720001 -1.6751418 1.3626447 0
3.4720001 -1.6806831 1.3626447 0
3.4720001 -1.6862245 1.3626447 0
3.4720001 -1.6917658 1.3626447 0
3.4720001 -1.697307 1.3626447 0
3.4720001 -1.7028483 1.3626447 0
3.4720001 -1.7083896 1.3626447 0
3.4720001 -1.7139308 1.3626447 0
3.4720001 -1.7194722 1.3626447 0
3.4710002 -1.7244669 1.3623327 0
3.4690003 -1.7289099 1.3617085 0
3.4670002 -1.7333454 1.3610843 0
3.4640002 -1.7372217 1.3601482 0
3.4620001 -1.741641 1.3595241 0
3.4600003 -1.7460532 1.3589 0
3.4570003 -1.7499007 1.3579638 0
3.4550002 -1.7542965 1.3573397 0
3.4520001 -1.7581242 1.3564036 0
3.4500003 -1.7625039 1.3557794 0
3.4480002 -1.7668763 1.3551553 0
3.4450002 -1.7706751 1.3542192 0
3.4730003 -1.7920774 1.3629568 0
3.4730003 -1.7976204 1.3629568 0
3.4730003 -1.8031635 1.3629568 0
3.4730003 -1.8087066 1.3629568 0
3.4730003 -1.8142498 1.3629568 0
3.5250003 -1.6299691 1.373547 0
3.5230002 -1.6345886 1.3729264 0
3.5200002 -1.6386905 1.3719957 0
3.5180001 -1.6432939 1.3713752 0
3.5150003 -1.6473759 1.3704444 0
3.5130002 -1.651963 1.3698239 0
3.5100002 -1.6560252 1.3688931 0
3.5080001 -1.6605959 1.3682725 0
3.5050004 -1.6646384 1.3673419 0
3.5010002 -1.6681467 1.3661008 0
3.4900002 -1.6679664 1.3626881 0
3.4800003 -1.668273 1.3595854 0
3.4720001 -1.6696005 1.3571035 0
3.4720001 -1.6751418 1.3571035 0
3.4720001 -1.6806831 1.3571035 0
3.4720001 -1.6862245 1.3571035 0
3.4720001 -1.6917658 1.3571035 0
3.4720001 -1.697307 1.3571035 0
3.4720001 -1.7028483 1.3571035 0
3.4720001 -1.7083896 1.3571035 0
3.4720001 -1.7139308 1.3571035 0
3.4720001 -1.7194722 1.3571035 0
3.4710002 -1.7244669 1.3567932 0
3.4690003 -1.7289099 1.3561727 0
3.4670002 -1.7333454 1.3555522 0
3.4640002 -1.7372217 1.3546213 0
3.4620001 -1.741641 1.3540008 0
3.4600003 -1.7460532 1.3533803 0
3.4570003 -1.7499007 1.3524495 0
3.4550002 -1.7542965 1.3518291 0
3.4520001 -1.7581242 1.3508984 0
3.4500003 -1.7625039 1.3502778 0
3.4480002 -1.7668763 1.3496573 0
3.4450002 -1.7706751 1.3487265 0
3.4730003 -1.7920774 1.3574136 0
3.4730003 -1.7976204 1.3574136 0
3.4730003 -1.8031635 1.3574136 0
3.4730003 -1.8087066 1.3574136 0
3.4730003 -1.8142498 1.3574136 0
3.5250003 -1.6299691 1.3679101 0
3.5230002 -1.6345886 1.3672931 0
3.5200002 -1.6386905 1.3663678 0
3.5180001 -1.6432939 1.3657508 0
3.5150003 -1.6473759 1.3648256 0
3.5130002 -1.651963 1.3642086 0
3.5100002 -1.6560252 1.3632833 0
3.5080001 -1.6605959 1.3626664 0
3.5050004 -1.6646384 1.3617409 0
3.5010002 -1.6681467 1.3605071 0
3.4900002 -1.6679664 1.3571142 0
3.4800003 -1.668273 1.3540298 0
3.4720001 -1.6696005 1.3515621 0
3.4720001 -1.6751418 1.3515621 0
3.4720001 -1.6806831 1.3515621 0
3.4720001 -1.6862245 1.3515621 0
3.4720001 -1.6917658 1.3515621 0
3.4720001 -1.697307 1.3515621 0
3.4720001 -1.7028483 1.3515621 0
3.4720001 -1.7083896 1.3515621 0
3.4720001 -1.7139308 1.3515621 0
3.4720001 -1.7194722 1.3515621 0
3.4710002 -1.7244669 1.3512536 0
3.4690003 -1.7289099 1.3506368 0
3.4670002 -1.7333454 1.3500199 0
3.4640002 -1.7372217 1.3490945 0
3.4620001 -1.741641 1.3484776 0
3.4600003 -1.7460532 1.3478607 0
3.4570003 -1.7499007 1.3469353 0
3.4550002 -1.7542965 1.3463185 0
3.4520001 -1.7581242 1.3453931 0
3.4500003 -1.7625039 1.3447763 0
3.4480002 -1.7668763 1.3441592 0
3.4450002 -1.7706751 1.3432339 0
3.4730003 -1.7920774 1.3518705 0
3.4730003 -1.7976204 1.3518705 0
3.4730003 -1.8031635 1.3518705 0
3.4730003 -1.8087066 1.3518705 0
3.4730003 -1.8142498 1.3518705 0
3.5250003 -1.6299691 1.3622732 0
3.5230002 -1.6345886 1.3616599 0
3.5200002 -1.6386905 1.3607399 0
3.5180001 -1.6432939 1.3601266 0
3.5150003 -1.6473759 1.3592067 0
3.5130002 -1.651963 1.3585933 0
3.5100002 -1.6560252 1.3576734 0
3.5080001 -1.6605959 1.3570601 0
3.5050004 -1.6646384 1.3561403 0
3.5010002 -1.6681467 1.3549135 0
3.4900002 -1.6679664 1.3515406 0
3.4800003 -1.668273 1.348474 0
3.4720001 -1.6696005 1.3460208 0
3.4720001 -1.6751418 1.3460208 0
3.4720001 -1.6806831 1.3460208 0
3.4720001 -1.6862245 1.3460208 0
3.4720001 -1.6917658 1.3460208 0
3.4720001 -1.697307 1.3460208 0
3.4720001 -1.7028483 1.3460208 0
3.4720001 -1.7083896 1.3460208 0
3.4720001 -1.7139308 1.3460208 0
3.4720001 -1.7194722 1.3460208 0
3.4710002 -1.7244669 1.3457141 0
3.4690003 -1.7289099 1.3451009 0
3.4670002 -1.7333454 1.3444875 0
3.4640002 -1.7372217 1.3435676 0
3.4620001 -1.741641 1.3429543 0
3.4600003 -1.7460532 1.3423411 0
3.4570003 -1.7499007 1.3414211 0
3.4550002 -1.7542965 1.3408078 0
3.4520001 -1.7581242 1.3398879 0
3.4500003 -1.7625039 1.3392746 0
3.4480002 -1.7668763 1.3386613 0
3.4450002 -1.7706751 1.3377414 0
3.4730003 -1.7920774 1.3463275 0
3.4730003 -1.7976204 1.3463275 0
3.4730003 -1.8031635 1.3463275 0
3.4730003 -1.8087066 1.3463275 0
3.4730003 -1.8142498 1.3463275 0
3.5250003 -1.6299691 1.3566363 0
3.5230002 -1.6345886 1.3560266 0
3.5200002 -1.6386905 1.3551121 0
3.5180001 -1.6432939 1.3545023 0
3.5150003 -1.6473759 1.3535879 0
3.5130002 -1.651963 1.3529781 0
3.5100002 -1.6560252 1.3520635 0
3.5080001 -1.6605959 1.3514539 0
3.5050004 -1.6646384 1.3505394 0
3.5010002 -1.6681467 1.3493201 0
3.4900002 -1.6679664 1.3459667 0
3.4800003 -1.668273 1.3429183 0
3.4720001 -1.6696005 1.3404795 0
3.4720001 -1.6751418 1.3404795 0
3.4720001 -1.6806831 1.3404795 0
3.4720001 -1.6862245 1.3404795 0
3.4720001 -1.6917658 1.3404795 0
3.4720001 -1.697307 1.3404795 0
3.4720001 -1.7028483 1.3404795 0
3.4720001 -1.7083896 1.3404795 0
3.4720001 -1.7139308 1.3404795 0
3.4720001 -1.7194722 1.3404795 0
3.4710002 -1.7244669 1.3401747 0
3.4690003 -1.7289099 1.3395649 0
3.4670002 -1.7333454 1.3389553 0
3.4640002 -1.7372217 1.3380408 0
3.4620001 -1.741641 1.3374311 0
3.4600003 -1.7460532 1.3368214 0
3.4570003 -1.7499007 1.335907 0
3.4550002 -1.7542965 1.3352971 0
3.4520001 -1.7581242 1.3343827 0
3.4500003 -1.7625039 1.3337729 0
3.4480002 -1.7668763 1.3331633 0
3.4450002 -1.7706751 1.3322488 0
3.4730003 -1.7920774 1.3407844 0
3.4730003 -1.7976204 1.3407844 0
3.4730003 -1.8031635 1.3407844 0
3.4730003 -1.8087066 1.3407844 0
3.4730003 -1.8142498 1.3407844 0
3.5250003 -1.6299691 1.3509994 0
3.5230002 -1.6345886 1.3503932 0
3.5200002 -1.6386905 1.3494842 0
3.5180001 -1.6432939 1.348878 0
3.5150003 -1.6473759 1.3479691 0
3.5130002 -1.651963 1.3473629 0
3.5100002 -1.6560252 1.3464538 0
3.5080001 -1.6605959 1.3458476 0
3.5050004 -1.6646384 1.3449385 0
3.5010002 -1.6681467 1.3437264 0
3.4900002 -1.6679664 1.3403929 0
3.4800003 -1.668273 1.3373625 0
3.4720001 -1.6696005 1.3349382 0
3.4720001 -1.6751418 1.3349382 0
3.4720001 -1.6806831 1.3349382 0
3.4720001 -1.6862245 1.3349382 0
3.4720001 -1.6917658 1.3349382 0
3.4720001 -1.697307 1.3349382 0
3.4720001 -1.7028483 1.3349382 0
3.4720001 -1.7083896 1.3349382 0
3.4720001 -1.7139308 1.3349382 0
3.4720001 -1.7194722 1.3349382 0
3.4710002 -1.7244669 1.3346353 0
3.4690003 -1.7289099 1.3340292 0
3.4670002 -1.7333454 1.333423 0
3.4640002 -1.7372217 1.3325139 0
3.4620001 -1.741641 1.3319079 0
3.4600003 -1.7460532 1.3313017 0
3.4570003 -1.7499007 1.3303927 0
3.4550002 -1.7542965 1.3297865 0
3.4520001 -1.7581242 1.3288774 0
3.4500003 -1.7625039 1.3282714 0
3.4480002 -1.7668763 1.3276653 0
3.4450002 -1.7706751 1.3267561 0
3.4730003 -1.7920774 1.3352413 0
3.4730003 -1.7976204 1.3352413 0
3.4730003 -1.8031635 1.3352413 0
3.4730003 -1.8087066 1.3352413 0
3.4730003 -1.8142498 1.3352413 0
3.5250003 -1.6299691 1.3453625 0
3.5230002 -1.6345886 1.3447599 0
3.5200002 -1.6386905 1.3438563 0
3.5180001 -1.6432939 1.3432537 0
3.5150003 -1.6473759 1.34235 0
3.5130002 -1.651963 1.3417476 0
3.5100002 -1.6560252 1.3408438 0
3.5080001 -1.6605959 1.3402414 0
3.5050004 -1.6646384 1.3393377 0
3.5010002 -1.6681467 1.3381327 0
3.4900002 -1.6679664 1.3348192 0
3.4800003 -1.668273 1.3318069 0
3.4720001 -1.6696005 1.3293968 0
3.4720001 -1.6751418 1.3293968 0
3.4720001 -1.6806831 1.3293968 0
3.4720001 -1.6862245 1.3293968 0
3.4720001 -1.6917658 1.3293968 0
3.4720001 -1.697307 1.3293968 0
3.4720001 -1.7028483 1.3293968 0
3.4720001 -1.7083896 1.3293968 0
3.4720001 -1.7139308 1.3293968 0
3.4720001 -1.7194722 1.3293968 0
3.4710002 -1.7244669 1.3290956 0
3.4690003 -1.7289099 1.3284934 0
3.4670002 -1.7333454 1.3278908 0
3.4640002 -1.7372217 1.326987 0
3.4620001 -1.741641 1.3263845 0
3.4600003 -1.7460532 1.3257821 0
3.4570003 -1.7499007 1.3248783 0
3.4550002 -1.7542965 1.3242759 0
3.4520001 -1.7581242 1.3233722 0
3.4500003 -1.7625039 1.3227698 0
3.4480002 -1.7668763 1.3221673 0
3.4450002 -1.7706751 1.3212636 0
3.4730003 -1.7920774 1.3296982 0
3.4730003 -1.7976204 1.3296982 0
3.4730003 -1.8031635 1.3296982 0
3.4730003 -1.8087066 1.3296982 0
3.4730003 -1.8142498 1.3296982 0
3.5250003 -1.6299691 1.3397256 0
3.5230002 -1.6345886 1.3391267 0
3.5200002 -1.6386905 1.3382285 0
3.5180001 -1.6432939 1.3376294 0
3.5150003 -1.6473759 1.3367312 0
3.5130002 -1.651963 1.3361323 0
3.5100002 -1.6560252 1.335234 0
3.5080001 -1.6605959 1.3346351 0
3.5050004 -1.6646384 1.3337369 0
3.5010002 -1.6681467 1.3325391 0
3.4900002 -1.6679664 1.3292453 0
3.4800003 -1.668273 1.3262511 0
3.4720001 -1.6696005 1.3238555 0
3.4720001 -1.6751418 1.3238555 0
3.4720001 -1.6806831 1.3238555 0
3.4720001 -1.6862245 1.3238555 0
3.4720001 -1.6917658 1.3238555 0
3.4720001 -1.697307 1.3238555 0
3.4720001 -1.7028483 1.3238555 0
3.4720001 -1.7083896 1.3238555 0
3.4720001 -1.7139308 1.3238555 0
3.4720001 -1.7194722 1.3238555 0
3.4710002 -1.7244669 1.3235562 0
3.4690003 -1.7289099 1.3229574 0
3.4670002 -1.7333454 1.3223585 0
3.4640002 -1.7372217 1.3214601 0
3.4620001 -1.741641 1.3208612 0
3.4600003 -1.7460532 1.3202624 0
3.4570003 -1.7499007 1.3193642 0
3.4550002 -1.7542965 1.3187653 0
3.4520001 -1.7581242 1.3178669 0
3.4500003 -1.7625039 1.3172681 0
3.4480002 -1.7668763 1.3166692 0
3.4450002 -1.7706751 1.3157709 0
3.4730003 -1.7920774 1.3241551 0
3.4730003 -1.7976204 1.3241551 0
3.4730003 -1.8031635 1.3241551 0
3.4730003 -1.8087066 1.3241551 0
3.4730003 -1.8142498 1.3241551 0
3.5250003 -1.6299691 1.3340887 0
3.5230002 -1.6345886 1.3334935 0
3.5200002 -1.6386905 1.3326006 0
3.5180001 -1.6432939 1.3320053 0
3.5150003 -1.6473759 1.3311124 0
3.5130002 -1.651963 1.3305171 0
3.5100002 -1.6560252 1.3296242 0
3.5080001 -1.6605959 1.329029 0
3.5050004 -1.6646384 1.3281361 0
3.5010002 -1.6681467 1.3269455 0
3.4900002 -1.6679664 1.3236717 0
3.4800003 -1.668273 1.3206953 0
3.4720001 -1.6696005 1.3183143 0
3.4720001 -1.6751418 1.3183143 0
3.4720001 -1.6806831 1.3183143 0
3.4720001 -1.6862245 1.3183143 0
3.4720001 -1.6917658 1.3183143 0
3.4720001 -1.697307 1.3183143 0
3.4720001 -1.7028483 1.3183143 0
3.4720001 -1.7083896 1.3183143 0
3.4720001 -1.7139308 1.3183143 0
3.4720001 -1.7194722 1.3183143 0
3.4710002 -1.7244669 1.3180166 0
3.4690003 -1.7289099 1.3174214 0
3.4670002 -1.7333454 1.3168262 0
3.4640002 -1.7372217 1.3159333 0
3.4620001 -1.741641 1.315338 0
3.4600003 -1.7460532 1.3147428 0
3.4570003 -1.7499007 1.3138499 0
3.4550002 -1.7542965 1.3132546 0
3.4520001 -1.7581242 1.3123617 0
3.4500003 -1.7625039 1.3117665 0
3.4480002 -1.7668763 1.3111712 0
3.4450002 -1.7706751 1.3102783 0
3.4730003 -1.7920774 1.318612 0
3.4730003 -1.7976204 1.318612 0
3.4730003 -1.8031635 1.318612 0
3.4730003 -1.8087066 1.318612 0
3.4730003 -1.8142498 1.318612 0
3.5250003 -1.6299691 1.3284518 0
3.5230002 -1.6345886 1.32786 0
3.5200002 -1.6386905 1.3269726 0
3.5180001 -1.6432939 1.3263808 0
3.5150003 -1.6473759 1.3254936 0
3.5130002 -1.651963 1.3249018 0
3.5100002 -1.6560252 1.3240143 0
3.5080001 -1.6605959 1.3234227 0
3.5050004 -1.6646384 1.3225353 0
3.5010002 -1.6681467 1.321352 0
3.4900002 -1.6679664 1.3180978 0
3.4800003 -1.668273 1.3151397 0
3.4720001 -1.6696005 1.312773 0
3.4720001 -1.6751418 1.312773 0
3.4720001 -1.6806831 1.312773 0
3.4720001 -1.6862245 1.312773 0
3.4720001 -1.6917658 1.312773 0
3.4720001 -1.697307 1.312773 0
3.4720001 -1.7028483 1.312773 0
3.4720001 -1.7083896 1.312773 0
3.4720001 -1.7139308 1.312773 0
3.4720001 -1.7194722 1.312773 0
3.4710002 -1.7244669 1.3124772 0
3.4690003 -1.7289099 1.3118856 0
3.4670002 -1.7333454 1.311294 0
3.4640002 -1.7372217 1.3104064 0
3.4620001 -1.741641 1.3098147 0
3.4600003 -1.7460532 1.3092232 0
3.4570003 -1.7499007 1.3083357 0
3.4550002 -1.7542965 1.307744 0
3.4520001 -1.7581242 1.3068565 0
3.4500003 -1.7625039 1.3062649 0
3.4480002 -1.7668763 1.3056732 0
3.4450002 -1.7706751 1.3047857 0
3.4730003 -1.7920774 1.3130689 0
3.4730003 -1.7976204 1.3130689 0
3.4730003 -1.8031635 1.3130689 0
3.4730003 -1.8087066 1.3130689 0
3.4730003 -1.8142498 1.3130689 0
3.5250003 -1.6299691 1.3228148 0
3.5230002 -1.6345886 1.3222268 0
3.5200002 -1.6386905 1.3213447 0
3.5180001 -1.6432939 1.3207567 0
3.5150003 -1.6473759 1.3198746 0
3.5130002 -1.651963 1.3192866 0
3.5100002 -1.6560252 1.3184046 0
3.5080001 -1.6605959 1.3178165 0
3.5050004 -1.6646384 1.3169345 0
3.5010002 -1.6681467 1.3157583 0
3.4900002 -1.6679664 1.3125241 0
3.4800003 -1.668273 1.3095839 0
3.4720001 -1.6696005 1.3072317 0
3.4720001 -1.6751418 1.3072317 0
3.4720001 -1.6806831 1.3072317 0
3.4720001 -1.6862245 1.3072317 0
3.4720001 -1.6917658 1.3072317 0
3.4720001 -1.697307 1.3072317 0
3.4720001 -1.7028483 1.3072317 0
3.4720001 -1.7083896 1.3072317 0
3.4720001 -1.7139308 1.3072317 0
3.4720001 -1.7194722 1.3072317 0
3.4710002 -1.7244669 1.3069377 0
3.4690003 -1.7289099 1.3063498 0
3.4670002 -1.7333454 1.3057616 0
3.4640002 -1.7372217 1.3048795 0
3.4620001 -1.741641 1.3042915 0
3.4600003 -1.7460532 1.3037035 0
3.4570003 -1.7499007 1.3028214 0
3.4550002 -1.7542965 1.3022333 0
3.4520001 -1.7581242 1.3013513 0
3.4500003 -1.7625039 1.3007632 0
3.4480002 -1.7668763 1.3001752 0
3.4450002 -1.7706751 1.2992932 0
3.4730003 -1.7920774 1.3075258 0
3.4730003 -1.7976204 1.3075258 0
3.4730003 -1.8031635 1.3075258 0
3.4730003 -1.8087066 1.3075258 0
3.4730003 -1.8142498 1.3075258 0
3.5250003 -1.6299691 1.3171779 0
3.5230002 -1.6345886 1.3165935 0
3.5200002 -1.6386905 1.3157169 0
3.5180001 -1.6432939 1.3151324 0
3.5150003 -1.6473759 1.3142558 0
3.5130002 -1.651963 1.3136714 0
3.5100002 -1.6560252 1.3127947 0
3.5080001 -1.6605959 1.3122102 0
3.5050004 -1.6646384 1.3113337 0
3.5010002 -1.6681467 1.3101647 0
3.4900002 -1.6679664 1.3069503 0
3.4800003 -1.668273 1.3040282 0
3.4720001 -1.6696005 1.3016903 0
3.4720001 -1.6751418 1.3016903 0
3.4720001 -1.6806831 1.3016903 0
3.4720001 -1.6862245 1.3016903 0
3.4720001 -1.6917658 1.3016903 0
3.4720001 -1.697307 1.3016903 0
3.4720001 -1.7028483 1.3016903 0
3.4720001 -1.7083896 1.3016903 0
3.4720001 -1.7139308 1.3016903 0
3.4720001 -1.7194722 1.3016903 0
3.4710002 -1.7244669 1.3013982 0
3.4690003 -1.7289099 1.3008138 0
3.4670002 -1.7333454 1.3002293 0
3.4640002 -1.7372217 1.2993526 0
3.4620001 -1.741641 1.2987683 0
3.4600003 -1.7460532 1.2981838 0
3.4570003 -1.7499007 1.2973073 0
3.4550002 -1.7542965 1.2967228 0
3.4520001 -1.7581242 1.2958461 0
3.4500003 -1.7625039 1.2952617 0
3.4480002 -1.7668763 1.2946771 0
3.4450002 -1.7706751 1.2938006 0
3.4730003 -1.7920774 1.3019826 0
3.4730003 -1.7976204 1.3019826 0
3.4730003 -1.8031635 1.3019826 0
3.4730003 -1.8087066 1.3019826 0
3.4730003 -1.8142498 1.3019826 0
3.5250003 -1.6299691 1.3115411 0
3.5230002 -1.6345886 1.3109602 0
3.5200002 -1.6386905 1.310089 0
3.5180001 -1.6432939 1.3095081 0
3.5150003 -1.6473759 1.3086369 0
3.5130002 -1.651963 1.3080561 0
3.5100002 -1.6560252 1.3071848 0
3.5080001 -1.6605959 1.3066039 0
3.5050004 -1.6646384 1.3057327 0
3.5010002 -1.6681467 1.3045712 0
3.4900002 -1.6679664 1.3013766 0
3.4800003 -1.668273 1.2984724 0
3.4720001 -1.6696005 1.2961491 0
3.4720001 -1.6751418 1.2961491 0
3.4720001 -1.6806831 1.2961491 0
3.4720001 -1.6862245 1.2961491 0
3.4720001 -1.6917658 1.2961491 0
3.4720001 -1.697307 1.2961491 0
3.4720001 -1.7028483 1.2961491 0
3.4720001 -1.7083896 1.2961491 0
3.4720001 -1.7139308 1.2961491 0
3.4720001 -1.7194722 1.2961491 0
3.4710002 -1.7244669 1.2958587 0
3.4690003 -1.7289099 1.295278 0
3.4670002 -1.7333454 1.294697 0
3.4640002 -1.7372217 1.2938259 0
3.4620001 -1.741641 1.293245 0
3.4600003 -1.7460532 1.2926642 0
3.4570003 -1.7499007 1.291793 0
3.4550002 -1.7542965 1.2912121 0
3.4520001 -1.7581242 1.2903409 0
3.4500003 -1.7625039 1.28976 0
3.4480002 -1.7668763 1.2891792 0
3.4450002 -1.7706751 1.288308 0
3.4730003 -1.7920774 1.2964395 0
3.4730003 -1.7976204 1.2964395 0
3.4730003 -1.8031635 1.2964395 0
3.4730003 -1.8087066 1.2964395 0
3.4730003 -1.8142498 1.2964395 0
3.5250003 -1.6299691 1.3059042 0
3.5230002 -1.6345886 1.3053269 0
3.5200002 -1.6386905 1.3044611 0
3.5180001 -1.6432939 1.3038838 0
3.5150003 -1.6473759 1.3030181 0
3.5130002 -1.651963 1.3024408 0
3.5100002 -1.6560252 1.3015751 0
3.5080001 -1.6605959 1.3009977 0
3.5050004 -1.6646384 1.300132 0
3.5010002 -1.6681467 1.2989775 0
3.4900002 -1.6679664 1.2958028 0
3.4800003 -1.668273 1.2929167 0
3.4720001 -1.6696005 1.2906078 0
3.4720001 -1.6751418 1.2906078 0
3.4720001 -1.6806831 1.2906078 0
3.4720001 -1.6862245 1.2906078 0
3.4720001 -1.6917658 1.2906078 0
3.4720001 -1.697307 1.2906078 0
3.4720001 -1.7028483 1.2906078 0
3.4720001 -1.7083896 1.2906078 0
3.4720001 -1.7139308 1.2906078 0
3.4720001 -1.7194722 1.2906078 0
3.4720001 -1.7250135 1.2906078 0
3.4690003 -1.7289099 1.289742 0
3.4670002 -1.7333454 1.2891648 0
3.4640002 -1.7372217 1.288299 0
3.4620001 -1.741641 1.2877218 0
3.4600003 -1.7460532 1.2871445 0
3.4570003 -1.7499007 1.2862787 0
3.4550002 -1.7542965 1.2857015 0
3.4520001 -1.7581242 1.2848356 0
3.4500003 -1.7625039 1.2842585 0
3.4480002 -1.7668763 1.2836812 0
3.4450002 -1.7706751 1.2828153 0
3.4730003 -1.7920774 1.2908964 0
3.4730003 -1.7976204 1.2908964 0
3.4730003 -1.8031635 1.2908964 0
3.4730003 -1.8087066 1.2908964 0
3.4730003 -1.8142498 1.2908964 0
3.5250003 -1.6299691 1.3002672 0
3.5230002 -1.6345886 1.2996936 0
3.5200002 -1.6386905 1.2988331 0
3.5180001 -1.6432939 1.2982595 0
3.5150003 -1.6473759 1.2973992 0
3.5130002 -1.651963 1.2968255 0
3.5100002 -1.6560252 1.2959652 0
3.5080001 -1.6605959 1.2953914 0
3.5050004 -1.6646384 1.2945311 0
3.5010002 -1.6681467 1.2933838 0
3.4900002 -1.6679664 1.2902291 0
3.4800003 -1.668273 1.287361 0
3.4720001 -1.6696005 1.2850665 0
3.4720001 -1.6751418 1.2850665 0
3.4720001 -1.6806831 1.2850665 0
3.4720001 -1.6862245 1.2850665 0
3.4720001 -1.6917658 1.2850665 0
3.4720001 -1.697307 1.2850665 0
3.4720001 -1.7028483 1.2850665 0
3.4720001 -1.7083896 1.2850665 0
3.4720001 -1.7139308 1.2850665 0
3.4720001 -1.7194722 1.2850665 0
3.4720001 -1.7250135 1.2850665 0
3.4690003 -1.7289099 1.2842062 0
3.4670002 -1.7333454 1.2836325 0
3.4640002 -1.7372217 1.2827721 0
3.4620001 -1.741641 1.2821984 0
3.4600003 -1.7460532 1.2816249 0
3.4570003 -1.7499007 1.2807645 0
3.4550002 -1.7542965 1.2801908 0
3.4520001 -1.7581242 1.2793304 0
3.4500003 -1.7625039 1.2787569 0
3.4480002 -1.7668763 1.2781832 0
3.4450002 -1.7706751 1.2773228 0
3.4730003 -1.7920774 1.2853533 0
3.4730003 -1.7976204 1.2853533 0
3.4730003 -1.8031635 1.2853533 0
3.4730003 -1.8087066 1.2853533 0
3.4730003 -1.8142498 1.2853533 0
3.5250003 -1.6299691 1.2946303 0
3.5230002 -1.6345886 1.2940603 0
3.5200002 -1.6386905 1.2932053 0
3.5180001 -1.6432939 1.2926353 0
3.5150003 -1.6473759 1.2917804 0
3.5130002 -1.651963 1.2912103 0
3.5100002 -1.6560252 1.2903553 0
3.5080001 -1.6605959 1.2897853 0
3.5050004 -1.6646384 1.2889303 0
3.5010002 -1.6681467 1.2877903 0
3.4900002 -1.6679664 1.2846553 0
3.4800003 -1.668273 1.2818053 0
3.4720001 -1.6696005 1.2795252 0
3.4720001 -1.6751418 1.2795252 0
3.4720001 -1.6806831 1.2795252 0
3.4720001 -1.6862245 1.2795252 0
3.4720001 -1.6917658 1.2795252 0
3.4720001 -1.697307 1.2795252 0
3.4720001 -1.7028483 1.2795252 0
3.4720001 -1.7083896 1.2795252 0
3.4720001 -1.7139308 1.2795252 0
3.4720001 -1.7194722 1.2795252 0
3.4720001 -1.7250135 1.2795252 0
3.4690003 -1.7289099 1.2786703 0
3.4670002 -1.7333454 1.2781003 0
3.4640002 -1.7372217 1.2772453 0
3.4620001 -1.741641 1.2766752 0
3.4600003 -1.7460532 1.2761053 0
3.4570003 -1.7499007 1.2752502 0
3.4550002 -1.7542965 1.2746801 0
3.4520001 -1.7581242 1.2738252 0
3.4500003 -1.7625039 1.2732552 0
3.4480002 -1.7668763 1.2726852 0
3.4450002 -1.7706751 1.2718302 0
3.4730003 -1.7920774 1.2798102 0
3.4730003 -1.7976204 1.2798102 0
3.4730003 -1.8031635 1.2798102 0
3.4730003 -1.8087066 1.2798102 0
3.4730003 -1.8142498 1.2798102 0
3.5250003 -1.6299691 1.2889935 0
3.5230002 -1.6345886 1.288427 0
3.5200002 -1.6386905 1.2875774 0
3.5180001 -1.6432939 1.287011 0
3.5150003 -1.6473759 1.2861615 0
3.5130002 -1.651963 1.2855951 0
3.5100002 -1.6560252 1.2847455 0
3.5080001 -1.6605959 1.284179 0
3.5050004 -1.6646384 1.2833295 0
3.5010002 -1.6681467 1.2821966 0
3.4900002 -1.6679664 1.2790816 0
3.4800003 -1.668273 1.2762495 0
3.4720001 -1.6696005 1.273984 0
3.4720001 -1.6751418 1.273984 0
3.4720001 -1.6806831 1.273984 0
3.4720001 -1.6862245 1.273984 0
3.4720001 -1.6917658 1.273984 0
3.4720001 -1.697307 1.273984 0
3.4720001 -1.7028483 1.273984 0
3.4720001 -1.7083896 1.273984 0
3.4720001 -1.7139308 1.273984 0
3.4720001 -1.7194722 1.273984 0
3.4720001 -1.7250135 1.273984 0
3.4690003 -1.7289099 1.2731344 0
3.4670002 -1.7333454 1.272568 0
3.4640002 -1.7372217 1.2717184 0
3.4620001 -1.741641 1.2711519 0
3.4600003 -1.7460532 1.2705855 0
3.4570003 -1.7499007 1.2697361 0
3.4550002 -1.7542965 1.2691696 0
3.4520001 -1.7581242 1.26832 0
3.4500003 -1.7625039 1.2677536 0
3.4480002 -1.7668763 1.2671871 0
3.4450002 -1.7706751 1.2663375 0
3.4730003 -1.7920774 1.2742672 0
3.4730003 -1.7976204 1.2742672 0
3.4730003 -1.8031635 1.2742672 0
3.4730003 -1.8087066 1.2742672 0
3.4730003 -1.8142498 1.2742672 0
3.5250003 -1.6299691 1.2833565 0
3.5230002 -1.6345886 1.2827938 0
3.5200002 -1.6386905 1.2819495 0
3.5180001 -1.6432939 1.2813867 0
3.5150003 -1.6473759 1.2805426 0
3.5130002 -1.651963 1.2799798 0
3.5100002 -1.6560252 1.2791356 0
3.5080001 -1.6605959 1.2785728 0
3.5050004 -1.6646384 1.2777287 0
3.5010002 -1.6681467 1.2766031 0
3.4900002 -1.6679664 1.2735077 0
3.4800003 -1.668273 1.2706938 0
3.4720001 -1.6696005 1.2684426 0
3.4720001 -1.6751418 1.2684426 0
3.4720001 -1.6806831 1.2684426 0
3.4720001 -1.6862245 1.2684426 0
3.4720001 -1.6917658 1.2684426 0
3.4720001 -1.697307 1.2684426 0
3.4720001 -1.7028483 1.2684426 0
3.4720001 -1.7083896 1.2684426 0
3.4720001 -1.7139308 1.2684426 0
3.4720001 -1.7194722 1.2684426 0
3.4720001 -1.7250135 1.2684426 0
3.4690003 -1.7289099 1.2675985 0
3.4670002 -1.7333454 1.2670357 0
3.4640002 -1.7372217 1.2661915 0
3.4620001 -1.741641 1.2656287 0
3.4600003 -1.7460532 1.2650659 0
3.4570003 -1.7499007 1.2642218 0
3.4550002 -1.7542965 1.2636589 0
3.4520001 -1.7581242 1.2628148 0
3.4500003 -1.7625039 1.262252 0
3.4480002 -1.7668763 1.2616892 0
3.4450002 -1.7706751 1.2608449 0
3.4730003 -1.7920774 1.2687241 0
3.4730003 -1.7976204 1.2687241 0
3.4730003 -1.8031635 1.2687241 0
3.4730003 -1.8087066 1.2687241 0
3.4730003 -1.8142498 1.2687241 0
3.5250003 -1.6299691 1.2777196 0
3.5230002 -1.6345886 1.2771604 0
3.5200002 -1.6386905 1.2763216 0
3.5180001 -1.6432939 1.2757624 0
3.5150003 -1.6473759 1.2749238 0
3.5130002 -1.651963 1.2743645 0
3.5100002 -1.6560252 1.2735257 0
3.5080001 -1.6605959 1.2729666 0
3.5050004 -1.6646384 1.2721279 0
3.5010002 -1.6681467 1.2710094 0
3.4900002 -1.6679664 1.267934 0
3.4800003 -1.668273 1.265138 0
3.4720001 -1.6696005 1.2629013 0
3.4720001 -1.6751418 1.2629013 0
3.4720001 -1.6806831 1.2629013 0
3.4720001 -1.6862245 1.2629013 0
3.4720001 -1.6917658 1.2629013 0
3.4720001 -1.697307 1.2629013 0
3.4720001 -1.7028483 1.2629013 0
3.4720001 -1.7083896 1.2629013 0
3.4720001 -1.7139308 1.2629013 0
3.4720001 -1.7194722 1.2629013 0
3.4720001 -1.7250135 1.2629013 0
3.4690003 -1.7289099 1.2620625 0
3.4670002 -1.7333454 1.2615033 0
3.4640002 -1.7372217 1.2606646 0
3.4620001 -1.741641 1.2601054 0
3.4600003 -1.7460532 1.2595463 0
3.4570003 -1.7499007 1.2587075 0
3.4550002 -1.7542965 1.2581483 0
3.4520001 -1.7581242 1.2573094 0
3.4500003 -1.7625039 1.2567503 0
3.4480002 -1.7668763 1.2561911 0
3.4450002 -1.7706751 1.2553524 0
3.4730003 -1.7920774 1.263181 0
3.4730003 -1.7976204 1.263181 0
3.4730003 -1.8031635 1.263181 0
3.4730003 -1.8087066 1.263181 0
3.4730003 -1.8142498 1.263181 0
3.5250003 -1.6299691 1.2720827 0
3.5230002 -1.6345886 1.2715272 0
3.5200002 -1.6386905 1.2706938 0
3.5180001 -1.6432939 1.2701381 0
3.5150003 -1.6473759 1.2693049 0
3.5130002 -1.651963 1.2687494 0
3.5100002 -1.6560252 1.267916 0
3.5080001 -1.6605959 1.2673603 0
3.5050004 -1.6646384 1.2665271 0
3.5010002 -1.6681467 1.2654158 0
3.4900002 -1.6679664 1.2623602 0
3.4800003 -1.668273 1.2595824 0
3.4720001 -1.6696005 1.25736 0
3.4720001 -1.6751418 1.25736 0
3.4720001 -1.6806831 1.25736 0
3.4720001 -1.6862245 1.25736 0
3.4720001 -1.6917658 1.25736 0
3.4720001 -1.697307 1.25736 0
3.4720001 -1.7028483 1.25736 0
3.4720001 -1.7083896 1.25736 0
3.4720001 -1.7139308 1.25736 0
3.4720001 -1.7194722 1.25736 0
3.4720001 -1.7250135 1.25736 0
3.4690003 -1.7289099 1.2565267 0
3.4670002 -1.7333454 1.2559711 0
3.4640002 -1.7372217 1.2551378 0
3.4620001 -1.741641 1.2545822 0
3.4600003 -1.7460532 1.2540267 0
3.4570003 -1.7499007 1.2531933 0
3.4550002 -1.7542965 1.2526376 0
3.4520001 -1.7581242 1.2518042 0
3.4500003 -1.7625039 1.2512488 0
3.4480002 -1.7668763 1.2506932 0
3.4450002 -1.7706751 1.2498598 0
3.4730003 -1.7920774 1.2576379 0
3.4730003 -1.7976204 1.2576379 0
3.4730003 -1.8031635 1.2576379 0
3.4730003 -1.8087066 1.2576379 0
3.4730003 -1.8142498 1.2576379 0
3.5250003 -1.6299691 1.2664459 0
3.5230002 -1.6345886 1.2658938 0
3.5200002 -1.6386905 1.2650659 0
3.5180001 -1.6432939 1.264514 0
3.5150003 -1.6473759 1.2636861 0
3.5130002 -1.651963 1.263134 0
3.5100002 -1.6560252 1.2623061 0
3.5080001 -1.6605959 1.2617542 0
3.5050004 -1.6646384 1.2609262 0
3.5010002 -1.6681467 1.2598222 0
3.4900002 -1.6679664 1.2567865 0
3.4800003 -1.668273 1.2540267 0
3.4720001 -1.6696005 1.2518187 0
3.4720001 -1.6751418 1.2518187 0
3.4720001 -1.6806831 1.2518187 0
3.4720001 -1.6862245 1.2518187 0
3.4720001 -1.6917658 1.2518187 0
3.4720001 -1.697307 1.2518187 0
3.4720001 -1.7028483 1.2518187 0
3.4720001 -1.7083896 1.2518187 0
3.4720001 -1.7139308 1.2518187 0
3.4720001 -1.7194722 1.2518187 0
3.4720001 -1.7250135 1.2518187 0
3.4690003 -1.7289099 1.2509909 0
3.4670002 -1.7333454 1.2504388 0
3.4640002 -1.7372217 1.2496109 0
3.4620001 -1.741641 1.2490588 0
3.4600003 -1.7460532 1.2485069 0
3.4570003 -1.7499007 1.247679 0
3.4550002 -1.7542965 1.2471271 0
3.4520001 -1.7581242 1.246299 0
3.4500003 -1.7625039 1.2457471 0
3.4480002 -1.7668763 1.2451952 0
3.4450002 -1.7706751 1.2443672 0
3.4730003 -1.7920774 1.2520947 0
3.4730003 -1.7976204 1.2520947 0
3.4730003 -1.8031635 1.2520947 0
3.4730003 -1.8087066 1.2520947 0
3.4730003 -1.8142498 1.2520947 0
3.5250003 -1.6299691 1.2608089 0
3.5230002 -1.6345886 1.2602606 0
3.5200002 -1.6386905 1.259438 0
3.5180001 -1.6432939 1.2588897 0
3.5150003 -1.6473759 1.2580671 0
3.5130002 -1.651963 1.2575188 0
3.5100002 -1.6560252 1.2566962 0
3.5080001 -1.6605959 1.2561479 0
3.5050004 -1.6646384 1.2553254 0
3.5010002 -1.6681467 1.2542286 0
3.4900002 -1.6679664 1.2512127 0
3.4800003 -1.668273 1.2484709 0
3.4720001 -1.6696005 1.2462775 0
3.4720001 -1.6751418 1.2462775 0
3.4720001 -1.6806831 1.2462775 0
3.4720001 -1.6862245 1.2462775 0
3.4720001 -1.6917658 1.2462775 0
3.4720001 -1.697307 1.2462775 0
3.4720001 -1.7028483 1.2462775 0
3.4720001 -1.7083896 1.2462775 0
3.4720001 -1.7139308 1.2462775 0
3.4720001 -1.7194722 1.2462775 0
3.4720001 -1.7250135 1.2462775 0
3.4690003 -1.7289099 1.2454549 0
3.4670002 -1.7333454 1.2449065 0
3.4640002 -1.7372217 1.244084 0
3.4620001 -1.741641 1.2435356 0
3.4600003 -1.7460532 1.2429873 0
3.4570003 -1.7499007 1.2421647 0
3.4550002 -1.7542965 1.2416164 0
3.4520001 -1.7581242 1.2407938 0
3.4500003 -1.7625039 1.2402456 0
3.4480002 -1.7668763 1.2396971 0
3.4450002 -1.7706751 1.2388747 0
3.4730003 -1.7920774 1.2465516 0
3.4730003 -1.7976204 1.2465516 0
3.4730003 -1.8031635 1.2465516 0
3.4730003 -1.8087066 1.2465516 0
3.4730003 -1.8142498 1.2465516 0
3.5250003 -1.6299691 1.255172 0
3.5230002 -1.6345886 1.2546272 0
3.5200002 -1.6386905 1.2538102 0
3.5180001 -1.6432939 1.2532654 0
3.5150003 -1.6473759 1.2524483 0
3.5130002 -1.651963 1.2519035 0
3.5100002 -1.6560252 1.2510864 0
3.5080001 -1.6605959 1.2505417 0
3.5050004 -1.6646384 1.2497245 0
3.5010002 -1.6681467 1.2486351 0
3.4900002 -1.6679664 1.2456388 0
3.4800003 -1.668273 1.2429152 0
3.4720001 -1.6696005 1.2407361 0
3.4720001 -1.6751418 1.2407361 0
3.4720001 -1.6806831 1.2407361 0
3.4720001 -1.6862245 1.2407361 0
3.4720001 -1.6917658 1.2407361 0
3.4720001 -1.697307 1.2407361 0
3.4720001 -1.7028483 1.2407361 0
3.4720001 -1.7083896 1.2407361 0
3.4720001 -1.7139308 1.2407361 0
3.4720001 -1.7194722 1.2407361 0
3.4720001 -1.7250135 1.2407361 0
3.4690003 -1.7289099 1.2399191 0
3.4670002 -1.7333454 1.2393743 0
3.4640002 -1.7372217 1.2385572 0
3.4620001 -1.741641 1.2380123 0
3.4600003 -1.7460532 1.2374676 0
3.4570003 -1.7499007 1.2366506 0
3.4550002 -1.7542965 1.2361058 0
3.4520001 -1.7581242 1.2352886 0
3.4500003 -1.7625039 1.2347438 0
3.4480002 -1.7668763 1.2341992 0
3.4450002 -1.7706751 1.233382 0
3.4730003 -1.7920774 1.2410085 0
3.4730003 -1.7976204 1.2410085 0
3.4730003 -1.8031635 1.2410085 0
3.4730003 -1.8087066 1.2410085 0
3.4730003 -1.8142498 1.2410085 0
3.5250003 -1.6299691 1.2495351 0
3.5230002 -1.6345886 1.248994 0
3.5200002 -1.6386905 1.2481823 0
3.5180001 -1.6432939 1.2476411 0
3.5150003 -1.6473759 1.2468294 0
3.5130002 -1.651963 1.2462883 0
3.5100002 -1.6560252 1.2454766 0
3.5080001 -1.6605959 1.2449354 0
3.5050004 -1.6646384 1.2441237 0
3.5010002 -1.6681467 1.2430414 0
3.4900002 -1.6679664 1.2400651 0
3.4800003 -1.668273 1.2373594 0
3.4720001 -1.6696005 1.2351948 0
3.4720001 -1.6751418 1.2351948 0
3.4720001 -1.6806831 1.2351948 0
3.4720001 -1.6862245 1.2351948 0
3.4720001 -1.6917658 1.2351948 0
3.4720001 -1.697307 1.2351948 0
3.4720001 -1.7028483 1.2351948 0
3.4720001 -1.7083896 1.2351948 0
3.4720001 -1.7139308 1.2351948 0
3.4720001 -1.7194722 1.2351948 0
3.4720001 -1.7250135 1.2351948 0
3.4690003 -1.7289099 1.2343831 0
3.4670002 -1.7333454 1.233842 0
3.4640002 -1.7372217 1.2330302 0
3.4620001 -1.741641 1.2324891 0
3.4600003 -1.7460532 1.231948 0
3.4570003 -1.7499007 1.2311363 0
3.4550002 -1.7542965 1.2305951 0
3.4520001 -1.7581242 1.2297834 0
3.4500003 -1.7625039 1.2292423 0
3.4480002 -1.7668763 1.2287011 0
3.4450002 -1.7706751 1.2278894 0
3.4730003 -1.7920774 1.2354654 0
3.4730003 -1.7976204 1.2354654 0
3.4730003 -1.8031635 1.2354654 0
3.4730003 -1.8087066 1.2354654 0
3.4730003 -1.8142498 1.2354654 0
3.5250003 -1.6299691 1.2438983 0
3.5230002 -1.6345886 1.2433606 0
3.5200002 -1.6386905 1.2425543 0
3.5180001 -1.6432939 1.2420168 0
3.5150003 -1.6473759 1.2412106 0
3.5130002 -1.651963 1.2406731 0
3.5100002 -1.6560252 1.2398667 0
3.5080001 -1.6605959 1.2393291 0
3.5050004 -1.6646384 1.2385229 0
3.5010002 -1.6681467 1.2374477 0
3.4900002 -1.6679664 1.2344913 0
3.4800003 -1.668273 1.2318037 0
3.4720001 -1.6696005 1.2296535 0
3.4720001 -1.6751418 1.2296535 0
3.4720001 -1.6806831 1.2296535 0
3.4720001 -1.6862245 1.2296535 0
3.4720001 -1.6917658 1.2296535 0
3.4720001 -1.697307 1.2296535 0
3.4720001 -1.7028483 1.2296535 0
3.4720001 -1.7083896 1.2296535 0
3.4720001 -1.7139308 1.2296535 0
3.4720001 -1.7194722 1.2296535 0
3.4720001 -1.7250135 1.2296535 0
3.4690003 -1.7289099 1.2288473 0
3.4670002 -1.7333454 1.2283098 0
3.4640002 -1.7372217 1.2275034 0
3.4620001 -1.741641 1.2269659 0
3.4600003 -1.7460532 1.2264284 0
3.4570003 -1.7499007 1.2256221 0
3.4550002 -1.7542965 1.2250844 0
3.4520001 -1.7581242 1.2242782 0
3.4500003 -1.7625039 1.2237407 0
3.4480002 -1.7668763 1.2232031 0
3.4450002 -1.7706751 1.2223969 0
3.4730003 -1.7920774 1.2299223 0
3.4730003 -1.7976204 1.2299223 0
3.4730003 -1.8031635 1.2299223 0
3.4730003 -1.8087066 1.2299223 0
3.4730003 -1.8142498 1.2299223 0
3.5250003 -1.6299691 1.2382613 0
3.5230002 -1.6345886 1.2377274 0
3.5200002 -1.6386905 1.2369264 0
3.5180001 -1.6432939 1.2363925 0
3.5150003 -1.6473759 1.2355918 0
3.5130002 -1.651963 1.2350578 0
3.5100002 -1.6560252 1.2342569 0
3.5080001 -1.6605959 1.2337229 0
3.5050004 -1.6646384 1.2329221 0
3.5010002 -1.6681467 1.2318542 0
3.4900002 -1.6679664 1.2289176 0
3.4800003 -1.668273 1.226248 0
3.4720001 -1.6696005 1.2241123 0
3.4720001 -1.6751418 1.2241123 0
3.4720001 -1.6806831 1.2241123 0
3.4720001 -1.6862245 1.2241123 0
3.4720001 -1.6917658 1.2241123 0
3.4720001 -1.697307 1.2241123 0
3.4720001 -1.7028483 1.2241123 0
3.4720001 -1.7083896 1.2241123 0
3.4720001 -1.7139308 1.2241123 0
3.4720001 -1.7194722 1.2241123 0
3.4720001 -1.7250135 1.2241123 0
3.4690003 -1.7289099 1.2233114 0
3.4670002 -1.7333454 1.2227774 0
3.4640002 -1.7372217 1.2219765 0
3.4620001 -1.741641 1.2214426 0
3.4600003 -1.7460532 1.2209088 0
3.4570003 -1.7499007 1.2201078 0
3.4550002 -1.7542965 1.2195739 0
3.4520001 -1.7581242 1.218773 0
3.4500003 -1.7625039 1.2182391 0
3.4480002 -1.7668763 1.2177051 0
3.4450002 -1.7706751 1.2169042 0
3.4730003 -1.7920774 1.2243792 0
3.4730003 -1.7976204 1.2243792 0
3.4730003 -1.8031635 1.2243792 0
3.4730003 -1.8087066 1.2243792 0
3.4730003 -1.8142498 1.2243792 0
3.5250003 -1.6299691 1.2326244 0
3.5230002 -1.6345886 1.232094 0
3.5200002 -1.6386905 1.2312986 0
3.5180001 -1.6432939 1.2307683 0
3.5150003 -1.6473759 1.2299728 0
3.5130002 -1.651963 1.2294425 0
3.5100002 -1.6560252 1.228647 0
3.5080001 -1.6605959 1.2281166 0
3.5050004 -1.6646384 1.2273213 0
3.5010002 -1.6681467 1.2262605 0
3.4900002 -1.6679664 1.2233438 0
3.4800003 -1.668273 1.2206922 0
3.4720001 -1.6696005 1.2185709 0
3.4720001 -1.6751418 1.2185709 0
3.4720001 -1.6806831 1.2185709 0
3.4720001 -1.6862245 1.2185709 0
3.4720001 -1.6917658 1.2185709 0
3.4720001 -1.697307 1.2185709 0
3.4720001 -1.7028483 1.2185709 0
3.4720001 -1.7083896 1.2185709 0
3.4720001 -1.7139308 1.2185709 0
3.4720001 -1.7194722 1.2185709 0
3.4720001 -1.7250135 1.2185709 0
3.4690003 -1.7289099 1.2177755 0
3.4670002 -1.7333454 1.2172452 0
3.4640002 -1.7372217 1.2164496 0
3.4620001 -1.741641 1.2159194 0
3.4600003 -1.7460532 1.215389 0
3.4570003 -1.7499007 1.2145935 0
3.4550002 -1.7542965 1.2140633 0
3.4520001 -1.7581242 1.2132677 0
3.4500003 -1.7625039 1.2127374 0
3.4480002 -1.7668763 1.2122071 0
3.4450002 -1.7706751 1.2114116 0
3.4730003 -1.7920774 1.2188361 0
3.4730003 -1.7976204 1.2188361 0
3.4730003 -1.8031635 1.2188361 0
3.4730003 -1.8087066 1.2188361 0
3.4730003 -1.8142498 1.2188361 0
3.5250003 -1.6299691 1.2269875 0
3.5230002 -1.6345886 1.2264608 0
3.5200002 -1.6386905 1.2256707 0
3.5180001 -1.6432939 1.225144 0
3.5150003 -1.6473759 1.224354 0
3.5130002 -1.651963 1.2238272 0
3.5100002 -1.6560252 1.2230372 0
3.5080001 -1.6605959 1.2225105 0
3.5050004 -1.6646384 1.2217205 0
3.5010002 -1.6681467 1.2206669 0
3.4900002 -1.6679664 1.2177701 0
3.4800003 -1.668273 1.2151365 0
3.4720001 -1.6696005 1.2130296 0
3.4720001 -1.6751418 1.2130296 0
3.4720001 -1.6806831 1.2130296 0
3.4720001 -1.6862245 1.2130296 0
3.4720001 -1.6917658 1.2130296 0
3.4720001 -1.697307 1.2130296 0
3.4720001 -1.7028483 1.2130296 0
3.4720001 -1.7083896 1.2130296 0
3.4720001 -1.7139308 1.2130296 0
3.4720001 -1.7194722 1.2130296 0
3.4720001 -1.7250135 1.2130296 0
3.4690003 -1.7289099 1.2122396 0
3.4670002 -1.7333454 1.2117128 0
3.4640002 -1.7372217 1.2109228 0
3.4620001 -1.741641 1.2103961 0
3.4600003 -1.7460532 1.2098694 0
3.4570003 -1.7499007 1.2090793 0
3.4550002 -1.7542965 1.2085526 0
3.4520001 -1.7581242 1.2077625 0
3.4500003 -1.7625039 1.2072358 0
3.4480002 -1.7668763 1.2067091 0
3.4450002 -1.7706751 1.205919 0
3.4730003 -1.7920774 1.213293 0
3.4730003 -1.7976204 1.213293 0
3.4730003 -1.8031635 1.213293 0
3.4730003 -1.8087066 1.213293 0
3.4730003 -1.8142498 1.213293 0
3.5250003 -1.6299691 1.2213507 0
3.5230002 -1.6345886 1.2208275 0
3.5200002 -1.6386905 1.2200428 0
3.5180001 -1.6432939 1.2195197 0
3.5150003 -1.6473759 1.2187351 0
3.5130002 -1.651963 1.218212 0
3.5100002 -1.6560252 1.2174274 0
3.5080001 -1.6605959 1.2169042 0
3.5050004 -1.6646384 1.2161196 0
3.5010002 -1.6681467 1.2150733 0
3.4900002 -1.6679664 1.2121962 0
3.4800003 -1.668273 1.2095808 0
3.4720001 -1.6696005 1.2074883 0
3.4720001 -1.6751418 1.2074883 0
3.4720001 -1.6806831 1.2074883 0
3.4720001 -1.6862245 1.2074883 0
3.4720001 -1.6917658 1.2074883 0
3.4720001 -1.697307 1.2074883 0
3.4720001 -1.7028483 1.2074883 0
3.4720001 -1.7083896 1.2074883 0
3.4720001 -1.7139308 1.2074883 0
3.4720001 -1.7194722 1.2074883 0
3.4720001 -1.7250135 1.2074883 0
3.4690003 -1.7289099 1.2067037 0
3.4670002 -1.7333454 1.2061806 0
3.4640002 -1.7372217 1.2053959 0
3.4620001 -1.741641 1.2048727 0
3.4600003 -1.7460532 1.2043498 0
3.4570003 -1.7499007 1.203565 0
3.4550002 -1.7542965 1.2030419 0
3.4520001 -1.7581242 1.2022573 0
3.4500003 -1.7625039 1.2017342 0
3.4480002 -1.7668763 1.2012111 0
3.4450002 -1.7706751 1.2004265 0
3.4730003 -1.7920774 1.20775 0
3.4730003 -1.7976204 1.20775 0
3.4730003 -1.8031635 1.20775 0
3.4730003 -1.8087066 1.20775 0
3.4730003 -1.8142498 1.20775 0
3.5250003 -1.6299691 1.2157137 0
3.5230002 -1.6345886 1.2151942 0
3.5200002 -1.6386905 1.214415 0
3.5180001 -1.6432939 1.2138954 0
3.5150003 -1.6473759 1.2131163 0
3.5130002 -1.651963 1.2125968 0
3.5100002 -1.6560252 1.2118175 0
3.5080001 -1.6605959 1.211298 0
3.5050004 -1.6646384 1.2105187 0
3.5010002 -1.6681467 1.2094797 0
3.4900002 -1.6679664 1.2066225 0
3.4800003 -1.668273 1.204025 0
3.4720001 -1.6696005 1.2019471 0
3.4720001 -1.6751418 1.2019471 0
3.4720001 -1.6806831 1.2019471 0
3.4720001 -1.6862245 1.2019471 0
3.4720001 -1.6917658 1.2019471 0
3.4720001 -1.697307 1.2019471 0
3.4720001 -1.7028483 1.2019471 0
3.4720001 -1.7083896 1.2019471 0
3.4720001 -1.7139308 1.2019471 0
3.4720001 -1.7194722 1.2019471 0
3.4720001 -1.7250135 1.2019471 0
3.4690003 -1.7289099 1.2011678 0
3.4670002 -1.7333454 1.2006483 0
3.4640002 -1.7372217 1.199869 0
3.4620001 -1.741641 1.1993495 0
3.4600003 -1.7460532 1.19883 0
3.4570003 -1.7499007 1.1980509 0
3.4550002 -1.7542965 1.1975313 0
3.4520001 -1.7581242 1.1967521 0
3.4500003 -1.7625039 1.1962326 0
3.4480002 -1.7668763 1.195713 0
3.4450002 -1.7706751 1.1949338 0
3.4730003 -1.7920774 1.2022069 0
3.4730003 -1.7976204 1.2022069 0
3.4730003 -1.8031635 1.2022069 0
3.4730003 -1.8087066 1.2022069 0
3.4730003 -1.8142498 1.2022069 0
3.5250003 -1.6299691 1.2100768 0
3.5230002 -1.6345886 1.2095609 0
3.5200002 -1.6386905 1.2087871 0
3.5180001 -1.6432939 1.2082711 0
3.5150003 -1.6473759 1.2074974 0
3.5130002 -1.651963 1.2069815 0
3.5100002 -1.6560252 1.2062076 0
3.5080001 -1.6605959 1.2056917 0
3.5050004 -1.6646384 1.204918 0
3.5010002 -1.6681467 1.2038862 0
3.4900002 -1.6679664 1.2010487 0
3.4800003 -1.668273 1.1984693 0
3.4720001 -1.6696005 1.1964056 0
3.4720001 -1.6751418 1.1964056 0
3.4720001 -1.6806831 1.1964056 0
3.4720001 -1.6862245 1.1964056 0
3.4720001 -1.6917658 1.1964056 0
3.4720001 -1.697307 1.1964056 0
3.4720001 -1.7028483 1.1964056 0
3.4720001 -1.7083896 1.1964056 0
3.4720001 -1.7139308 1.1964056 0
3.4720001 -1.7194722 1.1964056 0
3.4720001 -1.7250135 1.1964056 0
3.4690003 -1.7289099 1.195632 0
3.4670002 -1.7333454 1.195116 0
3.4640002 -1.7372217 1.1943421 0
3.4620001 -1.741641 1.1938263 0
3.4600003 -1.7460532 1.1933104 0
3.4570003 -1.7499007 1.1925366 0
3.4550002 -1.7542965 1.1920207 0
3.4520001 -1.7581242 1.1912469 0
3.4500003 -1.7625039 1.1907309 0
3.4480002 -1.7668763 1.1902151 0
3.4450002 -1.7706751 1.1894412 0
3.4730003 -1.7920774 1.1966637 0
3.4730003 -1.7976204 1.1966637 0
3.4730003 -1.8031635 1.1966637 0
3.4730003 -1.8087066 1.1966637 0
3.4730003 -1.8142498 1.1966637 0
3.5250003 -1.6299691 1.2044399 0
3.5230002 -1.6345886 1.2039276 0
3.5200002 -1.6386905 1.2031592 0
3.5180001 -1.6432939 1.202647 0
3.5150003 -1.6473759 1.2018785 0
3.5130002 -1.651963 1.2013662 0
3.5100002 -1.6560252 1.2005978 0
3.5080001 -1.6605959 1.2000855 0
3.5050004 -1.6646384 1.1993171 0
3.5010002 -1.6681467 1.1982925 0
3.4900002 -1.6679664 1.195475 0
3.4800003 -1.668273 1.1929135 0
3.4720001 -1.6696005 1.1908644 0
3.4720001 -1.6751418 1.1908644 0
3.4720001 -1.6806831 1.1908644 0
3.4720001 -1.6862245 1.1908644 0
3.4720001 -1.6917658 1.1908644 0
3.4720001 -1.697307 1.1908644 0
3.4720001 -1.7028483 1.1908644 0
3.4720001 -1.7083896 1.1908644 0
3.4720001 -1.7139308 1.1908644 0
3.4720001 -1.7194722 1.1908644 0
3.4720001 -1.7250135 1.1908644 0
3.4690003 -1.7289099 1.190096 0
3.4670002 -1.7333454 1.1895838 0
3.4640002 -1.7372217 1.1888154 0
3.4620001 -1.741641 1.188303 0
3.4600003 -1.7460532 1.1877908 0
3.4570003 -1.7499007 1.1870223 0
3.4550002 -1.7542965 1.18651 0
3.4520001 -1.7581242 1.1857417 0
3.4500003 -1.7625039 1.1852294 0
3.4480002 -1.7668763 1.1847171 0
3.4450002 -1.7706751 1.1839486 0
3.4730003 -1.7920774 1.1911206 0
3.4730003 -1.7976204 1.1911206 0
3.4730003 -1.8031635 1.1911206 0
3.4730003 -1.8087066 1.1911206 0
3.4730003 -1.8142498 1.1911206 0
3.5250003 -1.6299691 1.1988031 0
3.5230002 -1.6345886 1.1982943 0
3.5200002 -1.6386905 1.1975313 0
3.5180001 -1.6432939 1.1970227 0
3.5150003 -1.6473759 1.1962596 0
3.5130002 -1.651963 1.195751 0
3.5100002 -1.6560252 1.1949879 0
3.5080001 -1.6605959 1.1944792 0
3.5050004 -1.6646384 1.1937163 0
3.5010002 -1.6681467 1.1926988 0
3.4900002 -1.6679664 1.1899012 0
3.4800003 -1.668273 1.1873579 0
3.4720001 -1.6696005 1.1853231 0
3.4720001 -1.6751418 1.1853231 0
3.4720001 -1.6806831 1.1853231 0
3.4720001 -1.6862245 1.1853231 0
3.4720001 -1.6917658 1.1853231 0
3.4720001 -1.697307 1.1853231 0
3.4720001 -1.7028483 1.1853231 0
3.4720001 -1.7083896 1.1853231 0
3.4720001 -1.7139308 1.1853231 0
3.4720001 -1.7194722 1.1853231 0
3.4720001 -1.7250135 1.1853231 0
3.4690003 -1.7289099 1.1845602 0
3.4670002 -1.7333454 1.1840515 0
3.4640002 -1.7372217 1.1832885 0
3.4620001 -1.741641 1.1827798 0
3.4600003 -1.7460532 1.1822711 0
3.4570003 -1.7499007 1.1815081 0
3.4550002 -1.7542965 1.1809994 0
3.4520001 -1.7581242 1.1802363 0
3.4500003 -1.7625039 1.1797278 0
3.4480002 -1.7668763 1.179219 0
3.4450002 -1.7706751 1.1784561 0
3.4730003 -1.7920774 1.1855775 0
3.4730003 -1.7976204 1.1855775 0
3.4730003 -1.8031635 1.1855775 0
3.4730003 -1.8087066 1.1855775 0
3.4730003 -1.8142498 1.1855775 0
3.5250003 -1.6299691 1.1931661 0
3.5230002 -1.6345886 1.192661 0
3.5200002 -1.6386905 1.1919035 0
3.5180001 -1.6432939 1.1913984 0
3.5150003 -1.6473759 1.1906408 0
3.5130002 -1.651963 1.1901357 0
3.5100002 -1.6560252 1.1893781 0
3.5080001 -1.6605959 1.1888731 0
3.5050004 -1.6646384 1.1881155 0
3.5010002 -1.6681467 1.1871053 0
3.4900002 -1.6679664 1.1843275 0
3.4800003 -1.668273 1.1818022 0
3.4720001 -1.6696005 1.1797818 0
3.4720001 -1.6751418 1.1797818 0
3.4720001 -1.6806831 1.1797818 0
3.4720001 -1.6862245 1.1797818 0
3.4720001 -1.6917658 1.1797818 0
3.4720001 -1.697307 1.1797818 0
3.4720001 -1.7028483 1.1797818 0
3.4720001 -1.7083896 1.1797818 0
3.4720001 -1.7139308 1.1797818 0
3.4720001 -1.7194722 1.1797818 0
3.4720001 -1.7250135 1.1797818 0
3.4690003 -1.7289099 1.1790243 0
3.4670002 -1.7333454 1.1785192 0
3.4640002 -1.7372217 1.1777616 0
3.4620001 -1.741641 1.1772565 0
3.4600003 -1.7460532 1.1767515 0
3.4570003 -1.7499007 1.1759938 0
3.4550002 -1.7542965 1.1754888 0
3.4520001 -1.7581242 1.1747311 0
3.4500003 -1.7625039 1.1742262 0
3.4480002 -1.7668763 1.1737211 0
3.4450002 -1.7706751 1.1729635 0
3.4730003 -1.7920774 1.1800344 0
3.4730003 -1.7976204 1.1800344 0
3.4730003 -1.8031635 1.1800344 0
3.4730003 -1.8087066 1.1800344 0
3.4730003 -1.8142498 1.1800344 0
3.5250003 -1.6299691 1.1875292 0
3.5230002 -1.6345886 1.1870277 0
3.5200002 -1.6386905 1.1862756 0
3.5180001 -1.6432939 1.1857741 0
3.5150003 -1.6473759 1.185022 0
3.5130002 -1.651963 1.1845205 0
3.5100002 -1.6560252 1.1837683 0
3.5080001 -1.6605959 1.1832668 0
3.5050004 -1.6646384 1.1825147 0
3.5010002 -1.6681467 1.1815116 0
3.4900002 -1.6679664 1.1787536 0
3.4800003 -1.668273 1.1762464 0
3.4720001 -1.6696005 1.1742405 0
3.4720001 -1.6751418 1.1742405 0
3.4720001 -1.6806831 1.1742405 0
3.4720001 -1.6862245 1.1742405 0
3.4720001 -1.6917658 1.1742405 0
3.4720001 -1.697307 1.1742405 0
3.4720001 -1.7028483 1.1742405 0
3.4720001 -1.7083896 1.1742405 0
3.4720001 -1.7139308 1.1742405 0
3.4720001 -1.7194722 1.1742405 0
3.4720001 -1.7250135 1.1742405 0
3.4690003 -1.7289099 1.1734884 0
3.4670002 -1.7333454 1.1729869 0
3.4640002 -1.7372217 1.1722348 0
3.4620001 -1.741641 1.1717333 0
3.4600003 -1.7460532 1.1712319 0
3.4570003 -1.7499007 1.1704797 0
3.4550002 -1.7542965 1.1699781 0
3.4520001 -1.7581242 1.1692259 0
3.4500003 -1.7625039 1.1687245 0
3.4480002 -1.7668763 1.168223 0
3.4450002 -1.7706751 1.1674708 0
3.4730003 -1.7920774 1.1744913 0
3.4730003 -1.7976204 1.1744913 0
3.4730003 -1.8031635 1.1744913 0
3.4730003 -1.8087066 1.1744913 0
3.4730003 -1.8142498 1.1744913 0
3.5250003 -1.6299691 1.1818923 0
3.5230002 -1.6345886 1.1813945 0
3.5200002 -1.6386905 1.1806477 0
3.5180001 -1.6432939 1.1801498 0
3.5150003 -1.6473759 1.1794031 0
3.5130002 -1.651963 1.1789052 0
3.5100002 -1.6560252 1.1781584 0
3.5080001 -1.6605959 1.1776606 0
3.5050004 -1.6646384 1.1769139 0
3.5010002 -1.6681467 1.1759181 0
3.4900002 -1.6679664 1.1731799 0
3.4800003 -1.668273 1.1706907 0
3.4720001 -1.6696005 1.1686993 0
3.4720001 -1.6751418 1.1686993 0
3.4720001 -1.6806831 1.1686993 0
3.4720001 -1.6862245 1.1686993 0
3.4720001 -1.6917658 1.1686993 0
3.4720001 -1.697307 1.1686993 0
3.4720001 -1.7028483 1.1686993 0
3.4720001 -1.7083896 1.1686993 0
3.4720001 -1.7139308 1.1686993 0
3.4720001 -1.7194722 1.1686993 0
3.4720001 -1.7250135 1.1686993 0
3.4690003 -1.7289099 1.1679525 0
3.4670002 -1.7333454 1.1674546 0
3.4640002 -1.7372217 1.1667079 0
3.4620001 -1.741641 1.1662099 0
3.4600003 -1.7460532 1.1657121 0
3.4570003 -1.7499007 1.1649654 0
3.4550002 -1.7542965 1.1644675 0
3.4520001 -1.7581242 1.1637207 0
3.4500003 -1.7625039 1.1632229 0
3.4480002 -1.7668763 1.1627251 0
3.4450002 -1.7706751 1.1619782 0
3.4730003 -1.7920774 1.1689482 0
3.4730003 -1.7976204 1.1689482 0
3.4730003 -1.8031635 1.1689482 0
3.4730003 -1.8087066 1.1689482 0
3.4730003 -1.8142498 1.1689482 0
3.5250003 -1.6299691 1.1762555 0
3.5230002 -1.6345886 1.1757611 0
3.5200002 -1.6386905 1.1750197 0
3.5180001 -1.6432939 1.1745255 0
3.5150003 -1.6473759 1.1737843 0
3.5130002 -1.651963 1.1732899 0
3.5100002 -1.6560252 1.1725485 0
3.5080001 -1.6605959 1.1720543 0
3.5050004 -1.6646384 1.171313 0
3.5010002 -1.6681467 1.1703244 0
3.4900002 -1.6679664 1.1676061 0
3.4800003 -1.668273 1.1651349 0
3.4720001 -1.6696005 1.1631579 0
3.4720001 -1.6751418 1.1631579 0
3.4720001 -1.6806831 1.1631579 0
3.4720001 -1.6862245 1.1631579 0
3.4720001 -1.6917658 1.1631579 0
