# .PCD v0.7 - Point Cloud Data file format
VERSION 0.7
FIELDS x y z intensity
SIZE 4 4 4 4
TYPE F F F F
COUNT 1 1 1 1
WIDTH 1455
HEIGHT 1
VIEWPOINT 0 0 0 1 0 0 0
POINTS 1455
DATA ascii
3.1700003 -1.574944 1.4682651 0
3.1650002 -1.5771717 1.4663439 0
3.1610003 -1.5799369 1.464807 0
3.1570003 -1.5826877 1.4632702 0
3.1520002 -1.5848649 1.4613491 0
3.1480002 -1.5875851 1.4598123 0
3.1440003 -1.5902908 1.4582754 0
3.1390002 -1.5924174 1.4563544 0
3.1350002 -1.5950924 1.4548177 0
3.1310003 -1.5977532 1.4532808 0
3.1270003 -1.6003993 1.451744 0
3.1230001 -1.603031 1.450207 0
3.3590002 -1.4604291 1.5355434 0
3.3550003 -1.4638474 1.5340137 0
3.3500001 -1.4667696 1.5321018 0
3.3450003 -1.4696738 1.5301896 0
3.3400002 -1.4725597 1.5282776 0
3.3350003 -1.4754279 1.5263656 0
3.3300002 -1.4782778 1.5244535 0
3.3250003 -1.4811099 1.5225415 0
3.3200002 -1.4839238 1.5206295 0
3.3160002 -1.4872139 1.5190998 0
3.3110003 -1.4899937 1.517188 0
3.3060002 -1.4927552 1.5152757 0
3.3010001 -1.4954988 1.5133637 0
3.2960002 -1.4982244 1.5114517 0
3.2920003 -1.5014352 1.5099221 0
3.2870002 -1.5041264 1.50801 0
3.2820003 -1.5067997 1.506098 0
3.2780001 -1.5099635 1.5045683 0
3.2730002 -1.5126024 1.5026563 0
3.2680001 -1.5152234 1.5007442 0
3.2640002 -1.5183405 1.4992146 0
3.2590003 -1.5209272 1.4973027 0
3.2540002 -1.5234957 1.4953907 0
3.2500002 -1.5265658 1.493861 0
3.2450001 -1.5291001 1.491949 0
3.2410002 -1.5321395 1.4904193 0
3.2360003 -1.5346397 1.4885073 0
3.2320001 -1.5376484 1.4869777 0
3.2270002 -1.5401142 1.4850656 0
3.2230003 -1.5430923 1.483536 0
3.2180002 -1.5455238 1.4816239 0
3.2140002 -1.5484712 1.4800943 0
3.2090001 -1.5508685 1.4781822 0
3.2050002 -1.5537852 1.4766526 0
3.2000003 -1.5561483 1.4747406 0
3.1960003 -1.5590343 1.4732111 0
3.1910002 -1.5613631 1.4712989 0
3.1870003 -1.5642185 1.4697694 0
3.1830003 -1.5670595 1.4682397 0
3.1780002 -1.5693377 1.4663277 0
3.1740003 -1.5721481 1.464798 0
3.1700003 -1.574944 1.4632684 0
3.1650002 -1.5771717 1.4613563 0
3.1610003 -1.5799369 1.4598267 0
3.1570003 -1.5826877 1.4582971 0
3.1520002 -1.5848649 1.456385 0
3.1480002 -1.5875851 1.4548554 0
3.1440003 -1.5902908 1.4533257 0
3.1390002 -1.5924174 1.4514138 0
3.1350002 -1.5950924 1.4498841 0
3.1310003 -1.5977532 1.4483545 0
3.1270003 -1.6003993 1.4468249 0
3.1230001 -1.603031 1.4452952 0
3.3590002 -1.4604291 1.5302058 0
3.3550003 -1.4638474 1.5286834 0
3.3500001 -1.4667696 1.5267805 0
3.3450003 -1.4696738 1.5248774 0
3.3400002 -1.4725597 1.5229745 0
3.3350003 -1.4754279 1.5210714 0
3.3300002 -1.4782778 1.5191684 0
3.3250003 -1.4811099 1.5172654 0
3.3200002 -1.4839238 1.5153623 0
3.3160002 -1.4872139 1.51384 0
3.3110003 -1.4899937 1.511937 0
3.3060002 -1.4927552 1.5100338 0
3.3010001 -1.4954988 1.5081309 0
3.2960002 -1.4982244 1.5062279 0
3.2920003 -1.5014352 1.5047054 0
3.2870002 -1.5041264 1.5028025 0
3.2820003 -1.5067997 1.5008994 0
3.2780001 -1.5099635 1.499377 0
3.2730002 -1.5126024 1.497474 0
3.2680001 -1.5152234 1.4955709 0
3.2640002 -1.5183405 1.4940486 0
3.2590003 -1.5209272 1.4921455 0
3.2540002 -1.5234957 1.4902426 0
3.2500002 -1.5265658 1.4887202 0
3.2450001 -1.5291001 1.486817 0
3.2410002 -1.5321395 1.4852946 0
3.2360003 -1.5346397 1.4833918 0
3.2320001 -1.5376484 1.4818692 0
3.2270002 -1.5401142 1.4799662 0
3.2230003 -1.5430923 1.4784439 0
3.2180002 -1.5455238 1.4765408 0
3.2140002 -1.5484712 1.4750184 0
3.2090001 -1.5508685 1.4731153 0
3.2050002 -1.5537852 1.471593 0
3.2000003 -1.5561483 1.46969 0
3.1960003 -1.5590343 1.4681675 0
3.1910002 -1.5613631 1.4662645 0
3.1870003 -1.5642185 1.4647422 0
3.1830003 -1.5670595 1.4632198 0
3.1780002 -1.5693377 1.4613167 0
3.1740003 -1.5721481 1.4597943 0
3.1700003 -1.574944 1.4582719 0
3.1650002 -1.5771717 1.4563688 0
3.1610003 -1.5799369 1.4548464 0
3.1570003 -1.5826877 1.4533241 0
3.1520002 -1.5848649 1.4514209 0
3.1480002 -1.5875851 1.4498985 0
3.1440003 -1.5902908 1.4483762 0
3.1390002 -1.5924174 1.4464731 0
3.1350002 -1.5950924 1.4449507 0
3.1310003 -1.5977532 1.4434283 0
3.1270003 -1.6003993 1.4419059 0
3.1230001 -1.603031 1.4403836 0
3.3590002 -1.4604291 1.5248684 0
3.3550003 -1.4638474 1.5233532 0
3.3500001 -1.4667696 1.5214592 0
3.3450003 -1.4696738 1.5195652 0
3.3400002 -1.4725597 1.5176712 0
3.3350003 -1.4754279 1.5157772 0
3.3300002 -1.4782778 1.5138832 0
3.3250003 -1.4811099 1.5119894 0
3.3200002 -1.4839238 1.5100952 0
3.3160002 -1.4872139 1.5085801 0
3.3110003 -1.4899937 1.5066861 0
3.3060002 -1.4927552 1.504792 0
3.3010001 -1.4954988 1.5028981 0
3.2960002 -1.4982244 1.5010041 0
3.2920003 -1.5014352 1.4994889 0
3.2870002 -1.5041264 1.4975948 0
3.2820003 -1.5067997 1.4957008 0
3.2780001 -1.5099635 1.4941856 0
3.2730002 -1.5126024 1.4922917 0
3.2680001 -1.5152234 1.4903977 0
3.2640002 -1.5183405 1.4888824 0
3.2590003 -1.5209272 1.4869884 0
3.2540002 -1.5234957 1.4850944 0
3.2500002 -1.5265658 1.4835793 0
3.2450001 -1.5291001 1.4816853 0
3.2410002 -1.5321395 1.4801701 0
3.2360003 -1.5346397 1.4782761 0
3.2320001 -1.5376484 1.4767609 0
3.2270002 -1.5401142 1.4748669 0
3.2230003 -1.5430923 1.4733517 0
3.2180002 -1.5455238 1.4714577 0
3.2140002 -1.5484712 1.4699425 0
3.2090001 -1.5508685 1.4680485 0
3.2050002 -1.5537852 1.4665332 0
3.2000003 -1.5561483 1.4646393 0
3.1960003 -1.5590343 1.4631242 0
3.1910002 -1.5613631 1.4612302 0
3.1870003 -1.5642185 1.4597149 0
3.1830003 -1.5670595 1.4581997 0
3.1780002 -1.5693377 1.4563056 0
3.1740003 -1.5721481 1.4547905 0
3.1700003 -1.574944 1.4532753 0
3.1650002 -1.5771717 1.4513813 0
3.1610003 -1.5799369 1.4498662 0
3.1570003 -1.5826877 1.4483509 0
3.1520002 -1.5848649 1.4464569 0
3.1480002 -1.5875851 1.4449416 0
3.1440003 -1.5902908 1.4434265 0
3.1390002 -1.5924174 1.4415325 0
3.1350002 -1.5950924 1.4400173 0
3.1310003 -1.5977532 1.4385021 0
3.1270003 -1.6003993 1.4369869 0
3.1230001 -1.603031 1.4354717 0
3.3590002 -1.4604291 1.519531 0
3.3550003 -1.4638474 1.518023 0
3.3500001 -1.4667696 1.516138 0
3.3450003 -1.4696738 1.5142531 0
3.3400002 -1.4725597 1.5123681 0
3.3350003 -1.4754279 1.5104831 0
3.3300002 -1.4782778 1.5085981 0
3.3250003 -1.4811099 1.506713 0
3.3200002 -1.4839238 1.5048281 0
3.3160002 -1.4872139 1.5033201 0
3.3110003 -1.4899937 1.5014352 0
3.3060002 -1.4927552 1.4995501 0
3.3010001 -1.4954988 1.4976652 0
3.2960002 -1.4982244 1.4957802 0
3.2920003 -1.5014352 1.4942722 0
3.2870002 -1.5041264 1.4923872 0
3.2820003 -1.5067997 1.4905024 0
3.2780001 -1.5099635 1.4889942 0
3.2730002 -1.5126024 1.4871093 0
3.2680001 -1.5152234 1.4852242 0
3.2640002 -1.5183405 1.4837162 0
3.2590003 -1.5209272 1.4818314 0
3.2540002 -1.5234957 1.4799464 0
3.2500002 -1.5265658 1.4784384 0
3.2450001 -1.5291001 1.4765533 0
3.2410002 -1.5321395 1.4750454 0
3.2360003 -1.5346397 1.4731605 0
3.2320001 -1.5376484 1.4716524 0
3.2270002 -1.5401142 1.4697675 0
3.2230003 -1.5430923 1.4682595 0
3.2180002 -1.5455238 1.4663745 0
3.2140002 -1.5484712 1.4648666 0
3.2090001 -1.5508685 1.4629816 0
3.2050002 -1.5537852 1.4614736 0
3.2000003 -1.5561483 1.4595886 0
3.1960003 -1.5590343 1.4580808 0
3.1910002 -1.5613631 1.4561957 0
3.1870003 -1.5642185 1.4546877 0
3.1830003 -1.5670595 1.4531797 0
3.1780002 -1.5693377 1.4512948 0
3.1740003 -1.5721481 1.4497868 0
3.1700003 -1.574944 1.4482788 0
3.1650002 -1.5771717 1.4463937 0
3.1610003 -1.5799369 1.4448857 0
3.1570003 -1.5826877 1.4433779 0
3.1520002 -1.5848649 1.4414928 0
3.1480002 -1.5875851 1.4399848 0
3.1440003 -1.5902908 1.4384768 0
3.1390002 -1.5924174 1.4365917 0
3.1350002 -1.5950924 1.435084 0
3.1310003 -1.5977532 1.433576 0
3.1270003 -1.6003993 1.432068 0
3.1230001 -1.603031 1.4305599 0
3.3590002 -1.4604291 1.5141935 0
3.3550003 -1.4638474 1.5126927 0
3.3500001 -1.4667696 1.5108168 0
3.3450003 -1.4696738 1.5089408 0
3.3400002 -1.4725597 1.5070648 0
3.3350003 -1.4754279 1.5051889 0
3.3300002 -1.4782778 1.5033128 0
3.3250003 -1.4811099 1.5014369 0
3.3200002 -1.4839238 1.499561 0
3.3160002 -1.4872139 1.4980602 0
3.3110003 -1.4899937 1.4961843 0
3.3060002 -1.4927552 1.4943082 0
3.3010001 -1.4954988 1.4924324 0
3.2960002 -1.4982244 1.4905565 0
3.2920003 -1.5014352 1.4890556 0
3.2870002 -1.5041264 1.4871796 0
3.2820003 -1.5067997 1.4853038 0
3.2780001 -1.5099635 1.4838029 0
3.2730002 -1.5126024 1.481927 0
3.2680001 -1.5152234 1.480051 0
3.2640002 -1.5183405 1.4785503 0
3.2590003 -1.5209272 1.4766743 0
3.2540002 -1.5234957 1.4747983 0
3.2500002 -1.5265658 1.4732976 0
3.2450001 -1.5291001 1.4714216 0
3.2410002 -1.5321395 1.4699209 0
3.2360003 -1.5346397 1.4680449 0
3.2320001 -1.5376484 1.4665442 0
3.2270002 -1.5401142 1.4646682 0
3.2230003 -1.5430923 1.4631673 0
3.2180002 -1.5455238 1.4612914 0
3.2140002 -1.5484712 1.4597906 0
3.2090001 -1.5508685 1.4579146 0
3.2050002 -1.5537852 1.4564139 0
3.2000003 -1.5561483 1.454538 0
3.1960003 -1.5590343 1.4530373 0
3.1910002 -1.5613631 1.4511613 0
3.1870003 -1.5642185 1.4496605 0
3.1830003 -1.5670595 1.4481598 0
3.1780002 -1.5693377 1.4462837 0
3.1740003 -1.5721481 1.4447831 0
3.1700003 -1.574944 1.4432822 0
3.1650002 -1.5771717 1.4414061 0
3.1610003 -1.5799369 1.4399054 0
3.1570003 -1.5826877 1.4384048 0
3.1520002 -1.5848649 1.4365287 0
3.1480002 -1.5875851 1.435028 0
3.1440003 -1.5902908 1.4335272 0
3.1390002 -1.5924174 1.4316512 0
3.1350002 -1.5950924 1.4301504 0
3.1310003 -1.5977532 1.4286497 0
3.1270003 -1.6003993 1.4271491 0
3.1230001 -1.603031 1.4256482 0
3.3590002 -1.4604291 1.5088559 0
3.3550003 -1.4638474 1.5073625 0
3.3500001 -1.4667696 1.5054955 0
3.3450003 -1.4696738 1.5036286 0
3.3400002 -1.4725597 1.5017617 0
3.3350003 -1.4754279 1.4998947 0
3.3300002 -1.4782778 1.4980277 0
3.3250003 -1.4811099 1.4961609 0
3.3200002 -1.4839238 1.4942938 0
3.3160002 -1.4872139 1.4928002 0
3.3110003 -1.4899937 1.4909334 0
3.3060002 -1.4927552 1.4890665 0
3.3010001 -1.4954988 1.4871995 0
3.2960002 -1.4982244 1.4853326 0
3.2920003 -1.5014352 1.483839 0
3.2870002 -1.5041264 1.4819721 0
3.2820003 -1.5067997 1.4801052 0
3.2780001 -1.5099635 1.4786116 0
3.2730002 -1.5126024 1.4767447 0
3.2680001 -1.5152234 1.4748777 0
3.2640002 -1.5183405 1.4733841 0
3.2590003 -1.5209272 1.4715172 0
3.2540002 -1.5234957 1.4696503 0
3.2500002 -1.5265658 1.4681567 0
3.2450001 -1.5291001 1.4662896 0
3.2410002 -1.5321395 1.4647962 0
3.2360003 -1.5346397 1.4629294 0
3.2320001 -1.5376484 1.4614357 0
3.2270002 -1.5401142 1.4595687 0
3.2230003 -1.5430923 1.4580752 0
3.2180002 -1.5455238 1.4562082 0
3.2140002 -1.5484712 1.4547148 0
3.2090001 -1.5508685 1.4528477 0
3.2050002 -1.5537852 1.4513541 0
3.2000003 -1.5561483 1.4494873 0
3.1960003 -1.5590343 1.4479938 0
3.1910002 -1.5613631 1.4461267 0
3.1870003 -1.5642185 1.4446332 0
3.1830003 -1.5670595 1.4431398 0
3.1780002 -1.5693377 1.4412727 0
3.1740003 -1.5721481 1.4397792 0
3.1700003 -1.574944 1.4382857 0
3.1650002 -1.5771717 1.4364188 0
3.1610003 -1.5799369 1.4349252 0
3.1570003 -1.5826877 1.4334316 0
3.1520002 -1.5848649 1.4315646 0
3.1480002 -1.5875851 1.4300711 0
3.1440003 -1.5902908 1.4285777 0
3.1390002 -1.5924174 1.4267106 0
3.1350002 -1.5950924 1.425217 0
3.1310003 -1.5977532 1.4237235 0
3.1270003 -1.6003993 1.42223 0
3.1230001 -1.603031 1.4207363 0
3.3590002 -1.4604291 1.5035186 0
3.3550003 -1.4638474 1.5020323 0
3.3500001 -1.4667696 1.5001743 0
3.3450003 -1.4696738 1.4983164 0
3.3400002 -1.4725597 1.4964584 0
3.3350003 -1.4754279 1.4946005 0
3.3300002 -1.4782778 1.4927425 0
3.3250003 -1.4811099 1.4908848 0
3.3200002 -1.4839238 1.4890268 0
3.3160002 -1.4872139 1.4875405 0
3.3110003 -1.4899937 1.4856826 0
3.3060002 -1.4927552 1.4838246 0
3.3010001 -1.4954988 1.4819666 0
3.2960002 -1.4982244 1.4801087 0
3.2920003 -1.5014352 1.4786224 0
3.2870002 -1.5041264 1.4767646 0
3.2820003 -1.5067997 1.4749066 0
3.2780001 -1.5099635 1.4734201 0
3.2730002 -1.5126024 1.4715623 0
3.2680001 -1.5152234 1.4697043 0
3.2640002 -1.5183405 1.468218 0
3.2590003 -1.5209272 1.4663601 0
3.2540002 -1.5234957 1.4645022 0
3.2500002 -1.5265658 1.4630159 0
3.2450001 -1.5291001 1.4611579 0
3.2410002 -1.5321395 1.4596716 0
3.2360003 -1.5346397 1.4578137 0
3.2320001 -1.5376484 1.4563273 0
3.2270002 -1.5401142 1.4544693 0
3.2230003 -1.5430923 1.452983 0
3.2180002 -1.5455238 1.4511251 0
3.2140002 -1.5484712 1.4496388 0
3.2090001 -1.5508685 1.4477808 0
3.2050002 -1.5537852 1.4462945 0
3.2000003 -1.5561483 1.4444367 0
3.1960003 -1.5590343 1.4429504 0
3.1910002 -1.5613631 1.4410924 0
3.1870003 -1.5642185 1.439606 0
3.1830003 -1.5670595 1.4381198 0
3.1780002 -1.5693377 1.4362618 0
3.1740003 -1.5721481 1.4347755 0
3.1700003 -1.574944 1.4332892 0
3.1650002 -1.5771717 1.4314312 0
3.1610003 -1.5799369 1.4299449 0
3.1570003 -1.5826877 1.4284585 0
3.1520002 -1.5848649 1.4266006 0
3.1480002 -1.5875851 1.4251142 0
3.1440003 -1.5902908 1.423628 0
3.1390002 -1.5924174 1.42177 0
3.1350002 -1.5950924 1.4202837 0
3.1310003 -1.5977532 1.4187974 0
3.1270003 -1.6003993 1.417311 0
3.1230001 -1.603031 1.4158245 0
3.3590002 -1.4604291 1.4981811 0
3.3550003 -1.4638474 1.496702 0
3.3500001 -1.4667696 1.494853 0
3.3450003 -1.4696738 1.4930042 0
3.3400002 -1.4725597 1.4911553 0
3.3350003 -1.4754279 1.4893064 0
3.3300002 -1.4782778 1.4874574 0
3.3250003 -1.4811099 1.4856086 0
3.3200002 -1.4839238 1.4837596 0
3.3160002 -1.4872139 1.4822805 0
3.3110003 -1.4899937 1.4804317 0
3.3060002 -1.4927552 1.4785827 0
3.3010001 -1.4954988 1.4767338 0
3.2960002 -1.4982244 1.474885 0
3.2920003 -1.5014352 1.4734058 0
3.2870002 -1.5041264 1.4715569 0
3.2820003 -1.5067997 1.4697081 0
3.2780001 -1.5099635 1.4682288 0
3.2730002 -1.5126024 1.46638 0
3.2680001 -1.5152234 1.4645311 0
3.2640002 -1.5183405 1.4630519 0
3.2590003 -1.5209272 1.461203 0
3.2540002 -1.5234957 1.459354 0
3.2500002 -1.5265658 1.457875 0
3.2450001 -1.5291001 1.456026 0
3.2410002 -1.5321395 1.4545469 0
3.2360003 -1.5346397 1.4526981 0
3.2320001 -1.5376484 1.4512188 0
3.2270002 -1.5401142 1.44937 0
3.2230003 -1.5430923 1.4478909 0
3.2180002 -1.5455238 1.4460419 0
3.2140002 -1.5484712 1.4445629 0
3.2090001 -1.5508685 1.442714 0
3.2050002 -1.5537852 1.4412348 0
3.2000003 -1.5561483 1.439386 0
3.1960003 -1.5590343 1.4379069 0
3.1910002 -1.5613631 1.4360579 0
3.1870003 -1.5642185 1.4345788 0
3.1830003 -1.5670595 1.4330997 0
3.1780002 -1.5693377 1.4312508 0
3.1740003 -1.5721481 1.4297717 0
3.1700003 -1.574944 1.4282925 0
3.1650002 -1.5771717 1.4264436 0
3.1610003 -1.5799369 1.4249644 0
3.1570003 -1.5826877 1.4234854 0
3.1520002 -1.5848649 1.4216365 0
3.1480002 -1.5875851 1.4201574 0
3.1440003 -1.5902908 1.4186783 0
3.1390002 -1.5924174 1.4168293 0
3.1350002 -1.5950924 1.4153503 0
3.1310003 -1.5977532 1.4138712 0
3.1270003 -1.6003993 1.412392 0
3.1230001 -1.603031 1.4109129 0
3.3590002 -1.4604291 1.4928436 0
3.3550003 -1.4638474 1.4913716 0
3.3500001 -1.4667696 1.4895318 0
3.3450003 -1.4696738 1.487692 0
3.3400002 -1.4725597 1.485852 0
3.3350003 -1.4754279 1.4840122 0
3.3300002 -1.4782778 1.4821723 0
3.3250003 -1.4811099 1.4803324 0
3.3200002 -1.4839238 1.4784925 0
3.3160002 -1.4872139 1.4770206 0
3.3110003 -1.4899937 1.4751807 0
3.3060002 -1.4927552 1.4733409 0
3.3010001 -1.4954988 1.471501 0
3.2960002 -1.4982244 1.4696611 0
3.2920003 -1.5014352 1.4681891 0
3.2870002 -1.5041264 1.4663492 0
3.2820003 -1.5067997 1.4645095 0
3.2780001 -1.5099635 1.4630375 0
3.2730002 -1.5126024 1.4611976 0
3.2680001 -1.5152234 1.4593577 0
3.2640002 -1.5183405 1.4578859 0
3.2590003 -1.5209272 1.456046 0
3.2540002 -1.5234957 1.454206 0
3.2500002 -1.5265658 1.4527341 0
3.2450001 -1.5291001 1.4508942 0
3.2410002 -1.5321395 1.4494224 0
3.2360003 -1.5346397 1.4475826 0
3.2320001 -1.5376484 1.4461106 0
3.2270002 -1.5401142 1.4442706 0
3.2230003 -1.5430923 1.4427987 0
3.2180002 -1.5455238 1.4409589 0
3.2140002 -1.5484712 1.439487 0
3.2090001 -1.5508685 1.4376471 0
3.2050002 -1.5537852 1.4361752 0
3.2000003 -1.5561483 1.4343352 0
3.1960003 -1.5590343 1.4328634 0
3.1910002 -1.5613631 1.4310235 0
3.1870003 -1.5642185 1.4295516 0
3.1830003 -1.5670595 1.4280797 0
3.1780002 -1.5693377 1.4262398 0
3.1740003 -1.5721481 1.424768 0
3.1700003 -1.574944 1.423296 0
3.1650002 -1.5771717 1.4214561 0
3.1610003 -1.5799369 1.4199842 0
3.1570003 -1.5826877 1.4185123 0
3.1520002 -1.5848649 1.4166723 0
3.1480002 -1.5875851 1.4152006 0
3.1440003 -1.5902908 1.4137287 0
3.1390002 -1.5924174 1.4118887 0
3.1350002 -1.5950924 1.4104167 0
3.1310003 -1.5977532 1.4089448 0
3.1270003 -1.6003993 1.407473 0
3.1230001 -1.603031 1.4060011 0
3.3590002 -1.4604291 1.4875062 0
3.3550003 -1.4638474 1.4860415 0
3.3500001 -1.4667696 1.4842106 0
3.3450003 -1.4696738 1.4823797 0
3.3400002 -1.4725597 1.4805489 0
3.3350003 -1.4754279 1.478718 0
3.3300002 -1.4782778 1.4768871 0
3.3250003 -1.4811099 1.4750563 0
3.3200002 -1.4839238 1.4732254 0
3.3160002 -1.4872139 1.4717606 0
3.3110003 -1.4899937 1.4699299 0
3.3060002 -1.4927552 1.468099 0
3.3010001 -1.4954988 1.4662681 0
3.2960002 -1.4982244 1.4644372 0
3.2920003 -1.5014352 1.4629726 0
3.2870002 -1.5041264 1.4611417 0
3.2820003 -1.5067997 1.4593108 0
3.2780001 -1.5099635 1.4578462 0
3.2730002 -1.5126024 1.4560153 0
3.2680001 -1.5152234 1.4541843 0
3.2640002 -1.5183405 1.4527197 0
3.2590003 -1.5209272 1.4508889 0
3.2540002 -1.5234957 1.4490579 0
3.2500002 -1.5265658 1.4475933 0
3.2450001 -1.5291001 1.4457624 0
3.2410002 -1.5321395 1.4442977 0
3.2360003 -1.5346397 1.442467 0
3.2320001 -1.5376484 1.4410021 0
3.2270002 -1.5401142 1.4391713 0
3.2230003 -1.5430923 1.4377066 0
3.2180002 -1.5455238 1.4358758 0
3.2140002 -1.5484712 1.434411 0
3.2090001 -1.5508685 1.4325801 0
3.2050002 -1.5537852 1.4311155 0
3.2000003 -1.5561483 1.4292847 0
3.1960003 -1.5590343 1.4278201 0
3.1910002 -1.5613631 1.425989 0
3.1870003 -1.5642185 1.4245244 0
3.1830003 -1.5670595 1.4230597 0
3.1780002 -1.5693377 1.4212288 0
3.1740003 -1.5721481 1.4197642 0
3.1700003 -1.574944 1.4182996 0
3.1650002 -1.5771717 1.4164686 0
3.1610003 -1.5799369 1.4150039 0
3.1570003 -1.5826877 1.4135392 0
3.1520002 -1.5848649 1.4117084 0
3.1480002 -1.5875851 1.4102437 0
3.1440003 -1.5902908 1.408779 0
3.1390002 -1.5924174 1.4069481 0
3.1350002 -1.5950924 1.4054834 0
3.1310003 -1.5977532 1.4040188 0
3.1270003 -1.6003993 1.402554 0
3.1230001 -1.603031 1.4010892 0
3.3590002 -1.4604291 1.4821687 0
3.3550003 -1.4638474 1.4807112 0
3.3500001 -1.4667696 1.4788893 0
3.3450003 -1.4696738 1.4770675 0
3.3400002 -1.4725597 1.4752456 0
3.3350003 -1.4754279 1.4734238 0
3.3300002 -1.4782778 1.471602 0
3.3250003 -1.4811099 1.4697802 0
3.3200002 -1.4839238 1.4679583 0
3.3160002 -1.4872139 1.4665009 0
3.3110003 -1.4899937 1.464679 0
3.3060002 -1.4927552 1.4628571 0
3.3010001 -1.4954988 1.4610353 0
3.2960002 -1.4982244 1.4592134 0
3.2920003 -1.5014352 1.4577559 0
3.2870002 -1.5041264 1.455934 0
3.2820003 -1.5067997 1.4541123 0
3.2780001 -1.5099635 1.4526547 0
3.2730002 -1.5126024 1.4508328 0
3.2680001 -1.5152234 1.4490111 0
3.2640002 -1.5183405 1.4475536 0
3.2590003 -1.5209272 1.4457319 0
3.2540002 -1.5234957 1.4439099 0
3.2500002 -1.5265658 1.4424524 0
3.2450001 -1.5291001 1.4406306 0
3.2410002 -1.5321395 1.4391731 0
3.2360003 -1.5346397 1.4373513 0
3.2320001 -1.5376484 1.4358938 0
3.2270002 -1.5401142 1.4340719 0
3.2230003 -1.5430923 1.4326144 0
3.2180002 -1.5455238 1.4307926 0
3.2140002 -1.5484712 1.4293351 0
3.2090001 -1.5508685 1.4275134 0
3.2050002 -1.5537852 1.4260558 0
3.2000003 -1.5561483 1.424234 0
3.1960003 -1.5590343 1.4227766 0
3.1910002 -1.5613631 1.4209547 0
3.1870003 -1.5642185 1.4194973 0
3.1830003 -1.5670595 1.4180398 0
3.1780002 -1.5693377 1.4162178 0
3.1740003 -1.5721481 1.4147604 0
3.1700003 -1.574944 1.4133029 0
3.1650002 -1.5771717 1.411481 0
3.1610003 -1.5799369 1.4100236 0
3.1570003 -1.5826877 1.4085661 0
3.1520002 -1.5848649 1.4067442 0
3.1480002 -1.5875851 1.4052868 0
3.1440003 -1.5902908 1.4038292 0
3.1390002 -1.5924174 1.4020075 0
3.1350002 -1.5950924 1.40055 0
3.1310003 -1.5977532 1.3990926 0
3.1270003 -1.6003993 1.3976351 0
3.1230001 -1.603031 1.3961775 0
3.3590002 -1.4604291 1.4768312 0
3.3550003 -1.4638474 1.4753809 0
3.3500001 -1.4667696 1.4735681 0
3.3450003 -1.4696738 1.4717553 0
3.3400002 -1.4725597 1.4699425 0
3.3350003 -1.4754279 1.4681298 0
3.3300002 -1.4782778 1.4663168 0
3.3250003 -1.4811099 1.464504 0
3.3200002 -1.4839238 1.4626912 0
3.3160002 -1.4872139 1.4612409 0
3.3110003 -1.4899937 1.4594281 0
3.3060002 -1.4927552 1.4576153 0
3.3010001 -1.4954988 1.4558024 0
3.2960002 -1.4982244 1.4539896 0
3.2920003 -1.5014352 1.4525394 0
3.2870002 -1.5041264 1.4507264 0
3.2820003 -1.5067997 1.4489137 0
3.2780001 -1.5099635 1.4474634 0
3.2730002 -1.5126024 1.4456506 0
3.2680001 -1.5152234 1.4438378 0
3.2640002 -1.5183405 1.4423875 0
3.2590003 -1.5209272 1.4405748 0
3.2540002 -1.5234957 1.4387618 0
3.2500002 -1.5265658 1.4373116 0
3.2450001 -1.5291001 1.4354987 0
3.2410002 -1.5321395 1.4340485 0
3.2360003 -1.5346397 1.4322356 0
3.2320001 -1.5376484 1.4307853 0
3.2270002 -1.5401142 1.4289726 0
3.2230003 -1.5430923 1.4275223 0
3.2180002 -1.5455238 1.4257095 0
3.2140002 -1.5484712 1.4242592 0
3.2090001 -1.5508685 1.4224464 0
3.2050002 -1.5537852 1.4209961 0
3.2000003 -1.5561483 1.4191834 0
3.1960003 -1.5590343 1.4177331 0
3.1910002 -1.5613631 1.4159203 0
3.1870003 -1.5642185 1.41447 0
3.1830003 -1.5670595 1.4130198 0
3.1780002 -1.5693377 1.411207 0
3.1740003 -1.5721481 1.4097567 0
3.1700003 -1.574944 1.4083064 0
3.1650002 -1.5771717 1.4064935 0
3.1610003 -1.5799369 1.4050434 0
3.1570003 -1.5826877 1.4035931 0
3.1520002 -1.5848649 1.4017801 0
3.1480002 -1.5875851 1.4003298 0
3.1440003 -1.5902908 1.3988796 0
3.1390002 -1.5924174 1.3970667 0
3.1350002 -1.5950924 1.3956165 0
3.1310003 -1.5977532 1.3941662 0
3.1270003 -1.6003993 1.3927161 0
3.1230001 -1.603031 1.3912657 0
3.3590002 -1.4604291 1.4714938 0
3.3550003 -1.4638474 1.4700508 0
3.3500001 -1.4667696 1.4682468 0
3.3450003 -1.4696738 1.4664432 0
3.3400002 -1.4725597 1.4646392 0
3.3350003 -1.4754279 1.4628356 0
3.3300002 -1.4782778 1.4610317 0
3.3250003 -1.4811099 1.4592279 0
3.3200002 -1.4839238 1.457424 0
3.3160002 -1.4872139 1.455981 0
3.3110003 -1.4899937 1.4541773 0
3.3060002 -1.4927552 1.4523734 0
3.3010001 -1.4954988 1.4505695 0
3.2960002 -1.4982244 1.4487658 0
3.2920003 -1.5014352 1.4473227 0
3.2870002 -1.5041264 1.445519 0
3.2820003 -1.5067997 1.4437151 0
3.2780001 -1.5099635 1.4422719 0
3.2730002 -1.5126024 1.4404683 0
3.2680001 -1.5152234 1.4386643 0
3.2640002 -1.5183405 1.4372213 0
3.2590003 -1.5209272 1.4354177 0
3.2540002 -1.5234957 1.4336138 0
3.2500002 -1.5265658 1.4321706 0
3.2450001 -1.5291001 1.4303669 0
3.2410002 -1.5321395 1.4289238 0
3.2360003 -1.5346397 1.4271201 0
3.2320001 -1.5376484 1.4256771 0
3.2270002 -1.5401142 1.4238732 0
3.2230003 -1.5430923 1.4224302 0
3.2180002 -1.5455238 1.4206264 0
3.2140002 -1.5484712 1.4191834 0
3.2090001 -1.5508685 1.4173795 0
3.2050002 -1.5537852 1.4159365 0
3.2000003 -1.5561483 1.4141327 0
3.1960003 -1.5590343 1.4126897 0
3.1910002 -1.5613631 1.4108858 0
3.1870003 -1.5642185 1.4094428 0
3.1830003 -1.5670595 1.4079998 0
3.1780002 -1.5693377 1.4061959 0
3.1740003 -1.5721481 1.4047529 0
3.1700003 -1.574944 1.4033098 0
3.1650002 -1.5771717 1.4015059 0
3.1610003 -1.5799369 1.4000629 0
3.1570003 -1.5826877 1.3986199 0
3.1520002 -1.5848649 1.396816 0
3.1480002 -1.5875851 1.395373 0
3.1440003 -1.5902908 1.39393 0
3.1390002 -1.5924174 1.3921261 0
3.1350002 -1.5950924 1.3906831 0
3.1310003 -1.5977532 1.38924 0
3.1270003 -1.6003993 1.387797 0
3.1230001 -1.603031 1.386354 0
3.3590002 -1.4604291 1.4661562 0
3.3550003 -1.4638474 1.4647205 0
3.3500001 -1.4667696 1.4629256 0
3.3450003 -1.4696738 1.461131 0
3.3400002 -1.4725597 1.459336 0
3.3350003 -1.4754279 1.4575413 0
3.3300002 -1.4782778 1.4557465 0
3.3250003 -1.4811099 1.4539517 0
3.3200002 -1.4839238 1.4521569 0
3.3160002 -1.4872139 1.450721 0
3.3110003 -1.4899937 1.4489263 0
3.3060002 -1.4927552 1.4471315 0
3.3010001 -1.4954988 1.4453367 0
3.2960002 -1.4982244 1.4435419 0
3.2920003 -1.5014352 1.4421061 0
3.2870002 -1.5041264 1.4403113 0
3.2820003 -1.5067997 1.4385166 0
3.2780001 -1.5099635 1.4370806 0
3.2730002 -1.5126024 1.4352859 0
3.2680001 -1.5152234 1.4334911 0
3.2640002 -1.5183405 1.4320554 0
3.2590003 -1.5209272 1.4302605 0
3.2540002 -1.5234957 1.4284657 0
3.2500002 -1.5265658 1.4270298 0
3.2450001 -1.5291001 1.4252352 0
3.2410002 -1.5321395 1.4237993 0
3.2360003 -1.5346397 1.4220045 0
3.2320001 -1.5376484 1.4205686 0
3.2270002 -1.5401142 1.4187738 0
3.2230003 -1.5430923 1.417338 0
3.2180002 -1.5455238 1.4155433 0
3.2140002 -1.5484712 1.4141074 0
3.2090001 -1.5508685 1.4123126 0
3.2050002 -1.5537852 1.4108768 0
3.2000003 -1.5561483 1.4090819 0
3.1960003 -1.5590343 1.4076462 0
3.1910002 -1.5613631 1.4058514 0
3.1870003 -1.5642185 1.4044156 0
3.1830003 -1.5670595 1.4029796 0
3.1780002 -1.5693377 1.4011849 0
3.1740003 -1.5721481 1.3997492 0
3.1700003 -1.574944 1.3983133 0
3.1650002 -1.5771717 1.3965185 0
3.1610003 -1.5799369 1.3950826 0
3.1570003 -1.5826877 1.3936468 0
3.1520002 -1.5848649 1.3918519 0
3.1480002 -1.5875851 1.3904161 0
3.1440003 -1.5902908 1.3889804 0
3.1390002 -1.5924174 1.3871856 0
3.1350002 -1.5950924 1.3857497 0
3.1310003 -1.5977532 1.3843139 0
3.1270003 -1.6003993 1.3828781 0
3.1230001 -1.603031 1.3814422 0
3.3590002 -1.4604291 1.4608188 0
3.3550003 -1.4638474 1.4593902 0
3.3500001 -1.4667696 1.4576044 0
3.3450003 -1.4696738 1.4558187 0
3.3400002 -1.4725597 1.4540328 0
3.3350003 -1.4754279 1.4522471 0
3.3300002 -1.4782778 1.4504614 0
3.3250003 -1.4811099 1.4486756 0
3.3200002 -1.4839238 1.4468899 0
3.3160002 -1.4872139 1.4454613 0
3.3110003 -1.4899937 1.4436755 0
3.3060002 -1.4927552 1.4418896 0
3.3010001 -1.4954988 1.4401039 0
3.2960002 -1.4982244 1.4383181 0
3.2920003 -1.5014352 1.4368895 0
3.2870002 -1.5041264 1.4351038 0
3.2820003 -1.5067997 1.433318 0
3.2780001 -1.5099635 1.4318893 0
3.2730002 -1.5126024 1.4301035 0
3.2680001 -1.5152234 1.4283178 0
3.2640002 -1.5183405 1.4268892 0
3.2590003 -1.5209272 1.4251034 0
3.2540002 -1.5234957 1.4233177 0
3.2500002 -1.5265658 1.4218891 0
3.2450001 -1.5291001 1.4201032 0
3.2410002 -1.5321395 1.4186746 0
3.2360003 -1.5346397 1.4168888 0
3.2320001 -1.5376484 1.4154602 0
3.2270002 -1.5401142 1.4136745 0
3.2230003 -1.5430923 1.4122459 0
3.2180002 -1.5455238 1.41046 0
3.2140002 -1.5484712 1.4090314 0
3.2090001 -1.5508685 1.4072456 0
3.2050002 -1.5537852 1.405817 0
3.2000003 -1.5561483 1.4040313 0
3.1960003 -1.5590343 1.4026027 0
3.1910002 -1.5613631 1.4008169 0
3.1870003 -1.5642185 1.3993883 0
3.1830003 -1.5670595 1.3979597 0
3.1780002 -1.5693377 1.3961738 0
3.1740003 -1.5721481 1.3947452 0
3.1700003 -1.574944 1.3933166 0
3.1650002 -1.5771717 1.3915309 0
3.1610003 -1.5799369 1.3901023 0
3.1570003 -1.5826877 1.3886737 0
3.1520002 -1.5848649 1.3868879 0
3.1480002 -1.5875851 1.3854593 0
3.1440003 -1.5902908 1.3840307 0
3.1390002 -1.5924174 1.3822449 0
3.1350002 -1.5950924 1.3808163 0
3.1310003 -1.5977532 1.3793877 0
3.1270003 -1.6003993 1.3779591 0
3.1230001 -1.603031 1.3765304 0
3.3590002 -1.4604291 1.4554814 0
3.3550003 -1.4638474 1.45406 0
3.3500001 -1.4667696 1.4522831 0
3.3450003 -1.4696738 1.4505064 0
3.3400002 -1.4725597 1.4487296 0
3.3350003 -1.4754279 1.4469529 0
3.3300002 -1.4782778 1.4451761 0
3.3250003 -1.4811099 1.4433994 0
3.3200002 -1.4839238 1.4416226 0
3.3160002 -1.4872139 1.4402013 0
3.3110003 -1.4899937 1.4384246 0
3.3060002 -1.4927552 1.4366479 0
3.3010001 -1.4954988 1.434871 0
3.2960002 -1.4982244 1.4330943 0
3.2920003 -1.5014352 1.4316729 0
3.2870002 -1.5041264 1.4298961 0
3.2820003 -1.5067997 1.4281194 0
3.2780001 -1.5099635 1.426698 0
3.2730002 -1.5126024 1.4249213 0
3.2680001 -1.5152234 1.4231445 0
3.2640002 -1.5183405 1.421723 0
3.2590003 -1.5209272 1.4199463 0
3.2540002 -1.5234957 1.4181696 0
3.2500002 -1.5265658 1.4167482 0
3.2450001 -1.5291001 1.4149715 0
3.2410002 -1.5321395 1.41355 0
3.2360003 -1.5346397 1.4117732 0
3.2320001 -1.5376484 1.4103518 0
3.2270002 -1.5401142 1.4085751 0
3.2230003 -1.5430923 1.4071537 0
3.2180002 -1.5455238 1.4053769 0
3.2140002 -1.5484712 1.4039556 0
3.2090001 -1.5508685 1.4021788 0
3.2050002 -1.5537852 1.4007574 0
3.2000003 -1.5561483 1.3989806 0
3.1960003 -1.5590343 1.3975593 0
3.1910002 -1.5613631 1.3957825 0
3.1870003 -1.5642185 1.3943611 0
3.1830003 -1.5670595 1.3929397 0
3.1780002 -1.5693377 1.391163 0
3.1740003 -1.5721481 1.3897415 0
3.1700003 -1.574944 1.3883202 0
3.1650002 -1.5771717 1.3865434 0
3.1610003 -1.5799369 1.3851221 0
3.1570003 -1.5826877 1.3837006 0
3.1520002 -1.5848649 1.3819239 0
3.1480002 -1.5875851 1.3805025 0
3.1440003 -1.5902908 1.3790811 0
3.1390002 -1.5924174 1.3773042 0
3.1350002 -1.5950924 1.3758829 0
3.1310003 -1.5977532 1.3744614 0
3.1270003 -1.6003993 1.3730401 0
3.1230001 -1.603031 1.3716186 0
3.3590002 -1.4604291 1.4501439 0
3.3550003 -1.4638474 1.4487298 0
3.3500001 -1.4667696 1.4469619 0
3.3450003 -1.4696738 1.4451942 0
3.3400002 -1.4725597 1.4434265 0
3.3350003 -1.4754279 1.4416587 0
3.3300002 -1.4782778 1.439891 0
3.3250003 -1.4811099 1.4381233 0
3.3200002 -1.4839238 1.4363556 0
3.3160002 -1.4872139 1.4349414 0
3.3110003 -1.4899937 1.4331737 0
3.3060002 -1.4927552 1.431406 0
3.3010001 -1.4954988 1.4296381 0
3.2960002 -1.4982244 1.4278705 0
3.2920003 -1.5014352 1.4264563 0
3.2870002 -1.5041264 1.4246885 0
3.2820003 -1.5067997 1.4229209 0
3.2780001 -1.5099635 1.4215066 0
3.2730002 -1.5126024 1.4197389 0
3.2680001 -1.5152234 1.4179711 0
3.2640002 -1.5183405 1.416557 0
3.2590003 -1.5209272 1.4147892 0
3.2540002 -1.5234957 1.4130216 0
3.2500002 -1.5265658 1.4116074 0
3.2450001 -1.5291001 1.4098395 0
3.2410002 -1.5321395 1.4084253 0
3.2360003 -1.5346397 1.4066577 0
3.2320001 -1.5376484 1.4052435 0
3.2270002 -1.5401142 1.4034758 0
3.2230003 -1.5430923 1.4020616 0
3.2180002 -1.5455238 1.4002937 0
3.2140002 -1.5484712 1.3988795 0
3.2090001 -1.5508685 1.3971119 0
3.2050002 -1.5537852 1.3956977 0
3.2000003 -1.5561483 1.39393 0
3.1960003 -1.5590343 1.3925158 0
3.1910002 -1.5613631 1.390748 0
3.1870003 -1.5642185 1.3893338 0
3.1830003 -1.5670595 1.3879197 0
3.1780002 -1.5693377 1.386152 0
3.1740003 -1.5721481 1.3847378 0
3.1700003 -1.574944 1.3833237 0
3.1650002 -1.5771717 1.3815558 0
3.1610003 -1.5799369 1.3801416 0
3.1570003 -1.5826877 1.3787276 0
3.1520002 -1.5848649 1.3769598 0
3.1480002 -1.5875851 1.3755456 0
3.1440003 -1.5902908 1.3741314 0
3.1390002 -1.5924174 1.3723636 0
3.1350002 -1.5950924 1.3709494 0
3.1310003 -1.5977532 1.3695353 0
3.1270003 -1.6003993 1.3681211 0
3.1230001 -1.603031 1.3667068 0
3.3590002 -1.4604291 1.4448063 0
3.3550003 -1.4638474 1.4433994 0
3.3500001 -1.4667696 1.4416407 0
3.3450003 -1.4696738 1.439882 0
3.3400002 -1.4725597 1.4381232 0
3.3350003 -1.4754279 1.4363645 0
3.3300002 -1.4782778 1.4346058 0
3.3250003 -1.4811099 1.4328473 0
3.3200002 -1.4839238 1.4310884 0
3.3160002 -1.4872139 1.4296814 0
3.3110003 -1.4899937 1.4279227 0
3.3060002 -1.4927552 1.426164 0
3.3010001 -1.4954988 1.4244053 0
3.2960002 -1.4982244 1.4226466 0
3.2920003 -1.5014352 1.4212397 0
3.2870002 -1.5041264 1.4194809 0
3.2820003 -1.5067997 1.4177222 0
3.2780001 -1.5099635 1.4163152 0
3.2730002 -1.5126024 1.4145566 0
3.2680001 -1.5152234 1.4127978 0
3.2640002 -1.5183405 1.4113909 0
3.2590003 -1.5209272 1.4096322 0
3.2540002 -1.5234957 1.4078734 0
3.2500002 -1.5265658 1.4064664 0
3.2450001 -1.5291001 1.4047078 0
3.2410002 -1.5321395 1.4033006 0
3.2360003 -1.5346397 1.4015421 0
3.2320001 -1.5376484 1.400135 0
3.2270002 -1.5401142 1.3983763 0
3.2230003 -1.5430923 1.3969694 0
3.2180002 -1.5455238 1.3952106 0
3.2140002 -1.5484712 1.3938037 0
3.2090001 -1.5508685 1.3920449 0
3.2050002 -1.5537852 1.390638 0
3.2000003 -1.5561483 1.3888794 0
3.1960003 -1.5590343 1.3874724 0
3.1910002 -1.5613631 1.3857136 0
3.1870003 -1.5642185 1.3843067 0
3.1830003 -1.5670595 1.3828998 0
3.1780002 -1.5693377 1.3811409 0
3.1740003 -1.5721481 1.379734 0
3.1700003 -1.574944 1.378327 0
3.1650002 -1.5771717 1.3765683 0
3.1610003 -1.5799369 1.3751613 0
3.1570003 -1.5826877 1.3737544 0
3.1520002 -1.5848649 1.3719957 0
3.1480002 -1.5875851 1.3705888 0
3.1440003 -1.5902908 1.3691818 0
3.1390002 -1.5924174 1.3674231 0
3.1350002 -1.5950924 1.366016 0
3.1310003 -1.5977532 1.3646091 0
3.1270003 -1.6003993 1.3632022 0
3.1230001 -1.603031 1.3617951 0
3.3590002 -1.4604291 1.439469 0
3.3550003 -1.4638474 1.4380692 0
3.3500001 -1.4667696 1.4363195 0
3.3450003 -1.4696738 1.4345698 0
3.3400002 -1.4725597 1.4328201 0
3.3350003 -1.4754279 1.4310704 0
3.3300002 -1.4782778 1.4293207 0
3.3250003 -1.4811099 1.4275711 0
3.3200002 -1.4839238 1.4258213 0
3.3160002 -1.4872139 1.4244215 0
3.3110003 -1.4899937 1.4226719 0
3.3060002 -1.4927552 1.4209222 0
3.3010001 -1.4954988 1.4191724 0
3.2960002 -1.4982244 1.4174228 0
3.2920003 -1.5014352 1.416023 0
3.2870002 -1.5041264 1.4142733 0
3.2820003 -1.5067997 1.4125236 0
3.2780001 -1.5099635 1.4111239 0
3.2730002 -1.5126024 1.4093741 0
3.2680001 -1.5152234 1.4076245 0
3.2640002 -1.5183405 1.4062247 0
3.2590003 -1.5209272 1.4044751 0
3.2540002 -1.5234957 1.4027253 0
3.2500002 -1.5265658 1.4013256 0
3.2450001 -1.5291001 1.3995758 0
3.2410002 -1.5321395 1.3981761 0
3.2360003 -1.5346397 1.3964264 0
3.2320001 -1.5376484 1.3950267 0
3.2270002 -1.5401142 1.393277 0
3.2230003 -1.5430923 1.3918773 0
3.2180002 -1.5455238 1.3901275 0
3.2140002 -1.5484712 1.3887278 0
3.2090001 -1.5508685 1.386978 0
3.2050002 -1.5537852 1.3855783 0
3.2000003 -1.5561483 1.3838286 0
3.1960003 -1.5590343 1.382429 0
3.1910002 -1.5613631 1.3806792 0
3.1870003 -1.5642185 1.3792795 0
3.1830003 -1.5670595 1.3778797 0
3.1780002 -1.5693377 1.37613 0
3.1740003 -1.5721481 1.3747302 0
3.1700003 -1.574944 1.3733306 0
3.1650002 -1.5771717 1.3715808 0
3.1610003 -1.5799369 1.3701811 0
3.1570003 -1.5826877 1.3687813 0
3.1520002 -1.5848649 1.3670316 0
3.1480002 -1.5875851 1.3656318 0
3.1440003 -1.5902908 1.3642322 0
3.1390002 -1.5924174 1.3624824 0
3.1350002 -1.5950924 1.3610827 0
3.1310003 -1.5977532 1.3596829 0
3.1270003 -1.6003993 1.3582832 0
3.1230001 -1.603031 1.3568834 0
3.3590002 -1.4604291 1.4341315 0
3.3550003 -1.4638474 1.4327389 0
3.3500001 -1.4667696 1.4309983 0
3.3450003 -1.4696738 1.4292575 0
3.3400002 -1.4725597 1.4275168 0
3.3350003 -1.4754279 1.4257762 0
3.3300002 -1.4782778 1.4240355 0
3.3250003 -1.4811099 1.4222949 0
3.3200002 -1.4839238 1.4205542 0
3.3160002 -1.4872139 1.4191617 0
3.3110003 -1.4899937 1.4174211 0
3.3060002 -1.4927552 1.4156803 0
3.3010001 -1.4954988 1.4139396 0
3.2960002 -1.4982244 1.412199 0
3.2920003 -1.5014352 1.4108065 0
3.2870002 -1.5041264 1.4090657 0
3.2820003 -1.5067997 1.407325 0
3.2780001 -1.5099635 1.4059324 0
3.2730002 -1.5126024 1.4041919 0
3.2680001 -1.5152234 1.402451 0
3.2640002 -1.5183405 1.4010586 0
3.2590003 -1.5209272 1.399318 0
3.2540002 -1.5234957 1.3975773 0
3.2500002 -1.5265658 1.3961848 0
3.2450001 -1.5291001 1.3944441 0
3.2410002 -1.5321395 1.3930515 0
3.2360003 -1.5346397 1.3913108 0
3.2320001 -1.5376484 1.3899182 0
3.2270002 -1.5401142 1.3881776 0
3.2230003 -1.5430923 1.3867851 0
3.2180002 -1.5455238 1.3850445 0
3.2140002 -1.5484712 1.383652 0
3.2090001 -1.5508685 1.3819112 0
3.2050002 -1.5537852 1.3805186 0
3.2000003 -1.5561483 1.378778 0
3.1960003 -1.5590343 1.3773855 0
3.1910002 -1.5613631 1.3756448 0
3.1870003 -1.5642185 1.3742523 0
3.1830003 -1.5670595 1.3728597 0
3.1780002 -1.5693377 1.371119 0
3.1740003 -1.5721481 1.3697264 0
3.1700003 -1.574944 1.3683339 0
3.1650002 -1.5771717 1.3665932 0
3.1610003 -1.5799369 1.3652008 0
3.1570003 -1.5826877 1.3638082 0
3.1520002 -1.5848649 1.3620676 0
3.1480002 -1.5875851 1.360675 0
3.1440003 -1.5902908 1.3592825 0
3.1390002 -1.5924174 1.3575417 0
3.1350002 -1.5950924 1.3561492 0
3.1310003 -1.5977532 1.3547566 0
3.1270003 -1.6003993 1.3533641 0
3.1230001 -1.603031 1.3519715 0
3.3590002 -1.4604291 1.428794 0
3.3550003 -1.4638474 1.4274087 0
3.3500001 -1.4667696 1.4256771 0
3.3450003 -1.4696738 1.4239454 0
3.3400002 -1.4725597 1.4222137 0
3.3350003 -1.4754279 1.420482 0
3.3300002 -1.4782778 1.4187504 0
3.3250003 -1.4811099 1.4170188 0
3.3200002 -1.4839238 1.415287 0
3.3160002 -1.4872139 1.4139017 0
3.3110003 -1.4899937 1.4121702 0
3.3060002 -1.4927552 1.4104384 0
3.3010001 -1.4954988 1.4087068 0
3.2960002 -1.4982244 1.4069752 0
3.2920003 -1.5014352 1.4055898 0
3.2870002 -1.5041264 1.4038581 0
3.2820003 -1.5067997 1.4021266 0
3.2780001 -1.5099635 1.4007411 0
3.2730002 -1.5126024 1.3990095 0
3.2680001 -1.5152234 1.3972778 0
3.2640002 -1.5183405 1.3958925 0
3.2590003 -1.5209272 1.3941609 0
3.2540002 -1.5234957 1.3924292 0
3.2500002 -1.5265658 1.3910439 0
3.2450001 -1.5291001 1.3893121 0
3.2410002 -1.5321395 1.3879269 0
3.2360003 -1.5346397 1.3861952 0
3.2320001 -1.5376484 1.3848099 0
3.2270002 -1.5401142 1.3830783 0
3.2230003 -1.5430923 1.381693 0
3.2180002 -1.5455238 1.3799613 0
3.2140002 -1.5484712 1.3785759 0
3.2090001 -1.5508685 1.3768443 0
3.2050002 -1.5537852 1.375459 0
3.2000003 -1.5561483 1.3737273 0
3.1960003 -1.5590343 1.372342 0
3.1910002 -1.5613631 1.3706104 0
3.1870003 -1.5642185 1.369225 0
3.1830003 -1.5670595 1.3678397 0
3.1780002 -1.5693377 1.3661081 0
3.1740003 -1.5721481 1.3647227 0
3.1700003 -1.574944 1.3633374 0
3.1650002 -1.5771717 1.3616056 0
3.1610003 -1.5799369 1.3602204 0
3.1570003 -1.5826877 1.3588351 0
3.1520002 -1.5848649 1.3571035 0
3.1480002 -1.5875851 1.3557181 0
3.1440003 -1.5902908 1.3543328 0
3.1390002 -1.5924174 1.3526011 0
3.1350002 -1.5950924 1.3512157 0
3.1310003 -1.5977532 1.3498305 0
3.1270003 -1.6003993 1.3484452 0
3.1230001 -1.603031 1.3470598 0
3.3590002 -1.4604291 1.4234565 0
3.3550003 -1.4638474 1.4220785 0
3.3500001 -1.4667696 1.4203558 0
3.3450003 -1.4696738 1.4186332 0
3.3400002 -1.4725597 1.4169105 0
3.3350003 -1.4754279 1.4151878 0
3.3300002 -1.4782778 1.4134653 0
3.3250003 -1.4811099 1.4117427 0
3.3200002 -1.4839238 1.41002 0
3.3160002 -1.4872139 1.4086419 0
3.3110003 -1.4899937 1.4069192 0
3.3060002 -1.4927552 1.4051965 0
3.3010001 -1.4954988 1.4034739 0
3.2960002 -1.4982244 1.4017513 0
3.2920003 -1.5014352 1.4003731 0
3.2870002 -1.5041264 1.3986505 0
3.2820003 -1.5067997 1.396928 0
3.2780001 -1.5099635 1.3955498 0
3.2730002 -1.5126024 1.3938272 0
3.2680001 -1.5152234 1.3921045 0
3.2640002 -1.5183405 1.3907263 0
3.2590003 -1.5209272 1.3890038 0
3.2540002 -1.5234957 1.3872811 0
3.2500002 -1.5265658 1.385903 0
3.2450001 -1.5291001 1.3841804 0
3.2410002 -1.5321395 1.3828024 0
3.2360003 -1.5346397 1.3810797 0
3.2320001 -1.5376484 1.3797015 0
3.2270002 -1.5401142 1.3779789 0
3.2230003 -1.5430923 1.3766009 0
3.2180002 -1.5455238 1.3748782 0
3.2140002 -1.5484712 1.3735 0
3.2090001 -1.5508685 1.3717773 0
3.2050002 -1.5537852 1.3703992 0
3.2000003 -1.5561483 1.3686767 0
3.1960003 -1.5590343 1.3672986 0
3.1910002 -1.5613631 1.3655759 0
3.1870003 -1.5642185 1.3641977 0
3.1830003 -1.5670595 1.3628197 0
3.1780002 -1.5693377 1.3610971 0
3.1740003 -1.5721481 1.359719 0
3.1700003 -1.574944 1.3583409 0
3.1650002 -1.5771717 1.3566182 0
3.1610003 -1.5799369 1.3552401 0
3.1570003 -1.5826877 1.353862 0
3.1520002 -1.5848649 1.3521394 0
3.1480002 -1.5875851 1.3507613 0
3.1440003 -1.5902908 1.3493832 0
3.1390002 -1.5924174 1.3476604 0
3.1350002 -1.5950924 1.3462824 0
3.1310003 -1.5977532 1.3449043 0
3.1270003 -1.6003993 1.3435262 0
3.1230001 -1.603031 1.3421481 0
3.3590002 -1.4604291 1.4181191 0
3.3550003 -1.4638474 1.4167482 0
3.3500001 -1.4667696 1.4150345 0
3.3450003 -1.4696738 1.413321 0
3.3400002 -1.4725597 1.4116074 0
3.3350003 -1.4754279 1.4098938 0
3.3300002 -1.4782778 1.4081801 0
3.3250003 -1.4811099 1.4064665 0
3.3200002 -1.4839238 1.4047527 0
3.3160002 -1.4872139 1.4033819 0
3.3110003 -1.4899937 1.4016683 0
3.3060002 -1.4927552 1.3999547 0
3.3010001 -1.4954988 1.398241 0
3.2960002 -1.4982244 1.3965275 0
3.2920003 -1.5014352 1.3951566 0
3.2870002 -1.5041264 1.393443 0
3.2820003 -1.5067997 1.3917294 0
3.2780001 -1.5099635 1.3903584 0
3.2730002 -1.5126024 1.3886448 0
3.2680001 -1.5152234 1.3869311 0
3.2640002 -1.5183405 1.3855603 0
3.2590003 -1.5209272 1.3838466 0
3.2540002 -1.5234957 1.382133 0
3.2500002 -1.5265658 1.3807621 0
3.2450001 -1.5291001 1.3790485 0
3.2410002 -1.5321395 1.3776777 0
3.2360003 -1.5346397 1.375964 0
3.2320001 -1.5376484 1.3745931 0
3.2270002 -1.5401142 1.3728795 0
3.2230003 -1.5430923 1.3715087 0
3.2180002 -1.5455238 1.3697951 0
3.2140002 -1.5484712 1.3684242 0
3.2090001 -1.5508685 1.3667105 0
3.2050002 -1.5537852 1.3653396 0
3.2000003 -1.5561483 1.363626 0
3.1960003 -1.5590343 1.3622551 0
3.1910002 -1.5613631 1.3605415 0
3.1870003 -1.5642185 1.3591706 0
3.1830003 -1.5670595 1.3577996 0
3.1780002 -1.5693377 1.356086 0
3.1740003 -1.5721481 1.3547152 0
3.1700003 -1.574944 1.3533443 0
3.1650002 -1.5771717 1.3516307 0
3.1610003 -1.5799369 1.3502598 0
3.1570003 -1.5826877 1.3488889 0
3.1520002 -1.5848649 1.3471752 0
3.1480002 -1.5875851 1.3458045 0
3.1440003 -1.5902908 1.3444335 0
3.1390002 -1.5924174 1.3427199 0
3.1350002 -1.5950924 1.341349 0
3.1310003 -1.5977532 1.3399781 0
3.1270003 -1.6003993 1.3386072 0
3.1230001 -1.603031 1.3372363 0
3.3590002 -1.4604291 1.4127816 0
3.3550003 -1.4638474 1.411418 0
3.3500001 -1.4667696 1.4097133 0
3.3450003 -1.4696738 1.4080087 0
3.3400002 -1.4725597 1.4063041 0
3.3350003 -1.4754279 1.4045995 0
3.3300002 -1.4782778 1.4028949 0
3.3250003 -1.4811099 1.4011903 0
3.3200002 -1.4839238 1.3994857 0
3.3160002 -1.4872139 1.3981221 0
3.3110003 -1.4899937 1.3964175 0
3.3060002 -1.4927552 1.3947128 0
3.3010001 -1.4954988 1.3930082 0
3.2960002 -1.4982244 1.3913037 0
3.2920003 -1.5014352 1.3899399 0
3.2870002 -1.5041264 1.3882353 0
3.2820003 -1.5067997 1.3865308 0
3.2780001 -1.5099635 1.385167 0
3.2730002 -1.5126024 1.3834624 0
3.2680001 -1.5152234 1.3817579 0
3.2640002 -1.5183405 1.3803942 0
3.2590003 -1.5209272 1.3786895 0
3.2540002 -1.5234957 1.376985 0
3.2500002 -1.5265658 1.3756213 0
3.2450001 -1.5291001 1.3739167 0
3.2410002 -1.5321395 1.3725531 0
3.2360003 -1.5346397 1.3708484 0
3.2320001 -1.5376484 1.3694847 0
3.2270002 -1.5401142 1.3677802 0
3.2230003 -1.5430923 1.3664166 0
3.2180002 -1.5455238 1.3647119 0
3.2140002 -1.5484712 1.3633481 0
3.2090001 -1.5508685 1.3616436 0
3.2050002 -1.5537852 1.3602799 0
3.2000003 -1.5561483 1.3585753 0
3.1960003 -1.5590343 1.3572117 0
3.1910002 -1.5613631 1.355507 0
3.1870003 -1.5642185 1.3541434 0
3.1830003 -1.5670595 1.3527797 0
3.1780002 -1.5693377 1.3510751 0
3.1740003 -1.5721481 1.3497114 0
3.1700003 -1.574944 1.3483478 0
3.1650002 -1.5771717 1.3466431 0
3.1610003 -1.5799369 1.3452795 0
3.1570003 -1.5826877 1.3439158 0
3.1520002 -1.5848649 1.3422111 0
3.1480002 -1.5875851 1.3408475 0
3.1440003 -1.5902908 1.3394839 0
3.1390002 -1.5924174 1.3377792 0
3.1350002 -1.5950924 1.3364155 0
3.1310003 -1.5977532 1.3350519 0
3.1270003 -1.6003993 1.3336881 0
3.1230001 -1.603031 1.3323245 0
3.3590002 -1.4604291 1.4074441 0
3.3550003 -1.4638474 1.4060876 0
3.3500001 -1.4667696 1.4043921 0
3.3450003 -1.4696738 1.4026965 0
3.3400002 -1.4725597 1.4010009 0
3.3350003 -1.4754279 1.3993053 0
3.3300002 -1.4782778 1.3976097 0
3.3250003 -1.4811099 1.3959142 0
3.3200002 -1.4839238 1.3942186 0
3.3160002 -1.4872139 1.3928621 0
3.3110003 -1.4899937 1.3911666 0
3.3060002 -1.4927552 1.3894709 0
3.3010001 -1.4954988 1.3877753 0
3.2960002 -1.4982244 1.3860798 0
3.2920003 -1.5014352 1.3847234 0
3.2870002 -1.5041264 1.3830278 0
3.2820003 -1.5067997 1.3813322 0
3.2780001 -1.5099635 1.3799757 0
3.2730002 -1.5126024 1.3782802 0
3.2680001 -1.5152234 1.3765845 0
3.2640002 -1.5183405 1.375228 0
3.2590003 -1.5209272 1.3735325 0
3.2540002 -1.5234957 1.3718369 0
3.2500002 -1.5265658 1.3704805 0
3.2450001 -1.5291001 1.3687848 0
3.2410002 -1.5321395 1.3674284 0
3.2360003 -1.5346397 1.3657329 0
3.2320001 -1.5376484 1.3643763 0
3.2270002 -1.5401142 1.3626808 0
3.2230003 -1.5430923 1.3613244 0
3.2180002 -1.5455238 1.3596287 0
3.2140002 -1.5484712 1.3582723 0
3.2090001 -1.5508685 1.3565767 0
3.2050002 -1.5537852 1.3552202 0
3.2000003 -1.5561483 1.3535247 0
3.1960003 -1.5590343 1.3521683 0
3.1910002 -1.5613631 1.3504726 0
3.1870003 -1.5642185 1.3491162 0
3.1830003 -1.5670595 1.3477597 0
3.1780002 -1.5693377 1.3460641 0
3.1740003 -1.5721481 1.3447076 0
3.1700003 -1.574944 1.3433512 0
3.1650002 -1.5771717 1.3416556 0
3.1610003 -1.5799369 1.3402992 0
3.1570003 -1.5826877 1.3389428 0
3.1520002 -1.5848649 1.3372471 0
3.1480002 -1.5875851 1.3358907 0
3.1440003 -1.5902908 1.3345342 0
3.1390002 -1.5924174 1.3328385 0
3.1350002 -1.5950924 1.3314822 0
3.1310003 -1.5977532 1.3301257 0
3.1270003 -1.6003993 1.3287692 0
3.1230001 -1.603031 1.3274127 0
3.3590002 -1.4604291 1.4021066 0
3.3550003 -1.4638474 1.4007574 0
3.3500001 -1.4667696 1.3990709 0
3.3450003 -1.4696738 1.3973843 0
3.3400002 -1.4725597 1.3956977 0
3.3350003 -1.4754279 1.3940111 0
3.3300002 -1.4782778 1.3923246 0
3.3250003 -1.4811099 1.390638 0
3.3200002 -1.4839238 1.3889515 0
3.3160002 -1.4872139 1.3876022 0
3.3110003 -1.4899937 1.3859158 0
3.3060002 -1.4927552 1.3842291 0
3.3010001 -1.4954988 1.3825425 0
3.2960002 -1.4982244 1.3808559 0
3.2920003 -1.5014352 1.3795067 0
3.2870002 -1.5041264 1.3778201 0
3.2820003 -1.5067997 1.3761336 0
3.2780001 -1.5099635 1.3747842 0
3.2730002 -1.5126024 1.3730978 0
3.2680001 -1.5152234 1.3714112 0
3.2640002 -1.5183405 1.3700619 0
3.2590003 -1.5209272 1.3683754 0
3.2540002 -1.5234957 1.3666888 0
3.2500002 -1.5265658 1.3653396 0
3.2450001 -1.5291001 1.3636531 0
3.2410002 -1.5321395 1.3623039 0
3.2360003 -1.5346397 1.3606173 0
3.2320001 -1.5376484 1.359268 0
3.2270002 -1.5401142 1.3575815 0
3.2230003 -1.5430923 1.3562323 0
3.2180002 -1.5455238 1.3545456 0
3.2140002 -1.5484712 1.3531964 0
3.2090001 -1.5508685 1.3515098 0
3.2050002 -1.5537852 1.3501606 0
3.2000003 -1.5561483 1.348474 0
3.1960003 -1.5590343 1.3471248 0
3.1910002 -1.5613631 1.3454382 0
3.1870003 -1.5642185 1.3440889 0
3.1830003 -1.5670595 1.3427397 0
3.1780002 -1.5693377 1.3410531 0
3.1740003 -1.5721481 1.3397039 0
3.1700003 -1.574944 1.3383547 0
3.1650002 -1.5771717 1.336668 0
3.1610003 -1.5799369 1.3353188 0
3.1570003 -1.5826877 1.3339696 0
3.1520002 -1.5848649 1.332283 0
3.1480002 -1.5875851 1.3309338 0
3.1440003 -1.5902908 1.3295846 0
3.1390002 -1.5924174 1.3278979 0
3.1350002 -1.5950924 1.3265487 0
3.1310003 -1.5977532 1.3251995 0
3.1270003 -1.6003993 1.3238503 0
3.1230001 -1.603031 1.3225009 0
3.3590002 -1.4604291 1.3967692 0
3.3550003 -1.4638474 1.3954271 0
3.3500001 -1.4667696 1.3937496 0
3.3450003 -1.4696738 1.3920721 0
3.3400002 -1.4725597 1.3903946 0
3.3350003 -1.4754279 1.3887169 0
3.3300002 -1.4782778 1.3870394 0
3.3250003 -1.4811099 1.3853619 0
3.3200002 -1.4839238 1.3836843 0
3.3160002 -1.4872139 1.3823423 0
3.3110003 -1.4899937 1.3806648 0
3.3060002 -1.4927552 1.3789873 0
3.3010001 -1.4954988 1.3773097 0
3.2960002 -1.4982244 1.375632 0
3.2920003 -1.5014352 1.3742901 0
3.2870002 -1.5041264 1.3726125 0
3.2820003 -1.5067997 1.3709351 0
3.2780001 -1.5099635 1.3695929 0
3.2730002 -1.5126024 1.3679155 0
3.2680001 -1.5152234 1.3662379 0
3.2640002 -1.5183405 1.3648959 0
3.2590003 -1.5209272 1.3632184 0
3.2540002 -1.5234957 1.3615408 0
3.2500002 -1.5265658 1.3601987 0
3.2450001 -1.5291001 1.3585211 0
3.2410002 -1.5321395 1.3571792 0
3.2360003 -1.5346397 1.3555017 0
3.2320001 -1.5376484 1.3541596 0
3.2270002 -1.5401142 1.3524821 0
3.2230003 -1.5430923 1.3511401 0
3.2180002 -1.5455238 1.3494625 0
3.2140002 -1.5484712 1.3481205 0
3.2090001 -1.5508685 1.3464428 0
3.2050002 -1.5537852 1.3451009 0
3.2000003 -1.5561483 1.3434234 0
3.1960003 -1.5590343 1.3420813 0
3.1910002 -1.5613631 1.3404038 0
3.1870003 -1.5642185 1.3390617 0
3.1830003 -1.5670595 1.3377198 0
3.1780002 -1.5693377 1.3360422 0
3.1740003 -1.5721481 1.3347002 0
3.1700003 -1.574944 1.333358 0
3.1650002 -1.5771717 1.3316805 0
3.1610003 -1.5799369 1.3303385 0
3.1570003 -1.5826877 1.3289965 0
3.1520002 -1.5848649 1.3273189 0
3.1480002 -1.5875851 1.3259768 0
3.1440003 -1.5902908 1.3246349 0
3.1390002 -1.5924174 1.3229573 0
3.1350002 -1.5950924 1.3216153 0
3.1310003 -1.5977532 1.3202733 0
3.1270003 -1.6003993 1.3189312 0
3.1230001 -1.603031 1.3175892 0
3.3590002 -1.4604291 1.3914317 0
3.3550003 -1.4638474 1.3900969 0
3.3500001 -1.4667696 1.3884283 0
3.3450003 -1.4696738 1.3867598 0
3.3400002 -1.4725597 1.3850913 0
3.3350003 -1.4754279 1.3834229 0
3.3300002 -1.4782778 1.3817542 0
3.3250003 -1.4811099 1.3800858 0
3.3200002 -1.4839238 1.3784173 0
3.3160002 -1.4872139 1.3770823 0
3.3110003 -1.4899937 1.3754139 0
3.3060002 -1.4927552 1.3737454 0
