# .PCD v0.7 - Point Cloud Data file format
VERSION 0.7
FIELDS x y z intensity
SIZE 4 4 4 4
TYPE F F F F
COUNT 1 1 1 1
WIDTH 1172
HEIGHT 1
VIEWPOINT 0 0 0 1 0 0 0
POINTS 1172
DATA ascii
3.1420002 -0.28341001 0.34959355 0
3.1380002 -0.28800252 0.34967291 0
3.1420002 -0.28341001 0.34464753 0
3.1380002 -0.28800252 0.34473407 0
3.1340003 -0.2925806 0.34482068 0
3.1460001 -0.27880308 0.33960766 0
3.1420002 -0.28341001 0.33970147 0
3.1380002 -0.28800252 0.33979526 0
3.1340003 -0.2925806 0.33988905 0
3.1300001 -0.2971442 0.33998287 0
3.1460001 -0.27880308 0.33465442 0
3.1420002 -0.28341001 0.33475542 0
3.1380002 -0.28800252 0.33485645 0
3.1340003 -0.2925806 0.33495745 0
3.1300001 -0.2971442 0.33505845 0
3.1460001 -0.27880308 0.32970116 0
3.1420002 -0.28341001 0.32980937 0
3.1380002 -0.28800252 0.32991761 0
3.1340003 -0.2925806 0.33002585 0
3.1300001 -0.2971442 0.33013406 0
3.1260002 -0.30169341 0.33024231 0
3.1460001 -0.27880308 0.32474789 0
3.1420002 -0.28341001 0.32486334 0
3.1380002 -0.28800252 0.32497877 0
3.1340003 -0.2925806 0.32509422 0
3.1300001 -0.2971442 0.32520968 0
3.1260002 -0.30169341 0.32532513 0
3.1220002 -0.30622819 0.32544056 0
3.0260003 -0.41547045 0.32821119 0
3.0220003 -0.41963723 0.32832664 0
3.0180001 -0.42378959 0.3284421 0
3.0150001 -0.42807364 0.32852867 0
3.0110002 -0.43219894 0.32864413 0
3.0070002 -0.43630984 0.32875955 0
3.0040002 -0.44055781 0.32884616 0
3.1460001 -0.27880308 0.31979465 0
3.1420002 -0.28341001 0.31991729 0
3.1380002 -0.28800252 0.32003996 0
3.1340003 -0.2925806 0.32016259 0
3.1300001 -0.2971442 0.32028526 0
3.1260002 -0.30169341 0.32040793 0
3.1220002 -0.30622819 0.32053059 0
3.0290003 -0.41115034 0.32338241 0
3.0260003 -0.41547045 0.32347441 0
3.0220003 -0.41963723 0.32359707 0
3.0180001 -0.42378959 0.32371974 0
3.0150001 -0.42807364 0.32381171 0
3.0110002 -0.43219894 0.32393438 0
3.0070002 -0.43630984 0.32405704 0
3.0040002 -0.44055781 0.32414904 0
3.0000002 -0.44464162 0.32427168 0
3.1460001 -0.27880308 0.31484139 0
3.1420002 -0.28341001 0.31497127 0
3.1380002 -0.28800252 0.31510112 0
3.1340003 -0.2925806 0.315231 0
3.1300001 -0.2971442 0.31536087 0
3.1260002 -0.30169341 0.31549075 0
3.1220002 -0.30622819 0.31562063 0
3.0330002 -0.40695646 0.31851032 0
3.0290003 -0.41115034 0.3186402 0
3.0260003 -0.41547045 0.31873763 0
3.0220003 -0.41963723 0.31886747 0
3.0180001 -0.42378959 0.31899735 0
3.0150001 -0.42807364 0.31909478 0
3.0110002 -0.43219894 0.31922463 0
3.0070002 -0.43630984 0.3193545 0
3.0040002 -0.44055781 0.31945193 0
3.0000002 -0.44464162 0.31958178 0
2.9960003 -0.44871101 0.31971166 0
3.1460001 -0.27880308 0.30988812 0
3.1420002 -0.28341001 0.31002522 0
3.1380002 -0.28800252 0.31016231 0
3.1340003 -0.2925806 0.3102994 0
3.1300001 -0.2971442 0.31043649 0
3.1260002 -0.30169341 0.31057358 0
3.1220002 -0.30622819 0.31071067 0
3.1180003 -0.31074855 0.31084776 0
3.0330002 -0.40695646 0.31376091 0
3.0290003 -0.41115034 0.313898 0
3.0260003 -0.41547045 0.31400079 0
3.0220003 -0.41963723 0.31413788 0
3.0180001 -0.42378959 0.314275 0
3.0150001 -0.42807364 0.31437781 0
3.0110002 -0.43219894 0.31451488 0
3.0070002 -0.43630984 0.31465197 0
3.0040002 -0.44055781 0.31475478 0
3.0000002 -0.44464162 0.31489187 0
2.9960003 -0.44871101 0.31502897 0
3.1460001 -0.27880308 0.30493486 0
3.1420002 -0.28341001 0.30507916 0
3.1380002 -0.28800252 0.30522346 0
3.1340003 -0.2925806 0.30536777 0
3.1300001 -0.2971442 0.3055121 0
3.1260002 -0.30169341 0.3056564 0
3.1220002 -0.30622819 0.30580068 0
3.1180003 -0.31074855 0.30594498 0
3.0330002 -0.40695646 0.30901146 0
3.0290003 -0.41115034 0.30915576 0
3.0260003 -0.41547045 0.309264 0
3.0220003 -0.41963723 0.30940831 0
3.0180001 -0.42378959 0.30955261 0
3.0150001 -0.42807364 0.30966085 0
3.0110002 -0.43219894 0.30980515 0
3.0070002 -0.43630984 0.30994946 0
3.0040002 -0.44055781 0.3100577 0
3.0000002 -0.44464162 0.31020197 0
2.9960003 -0.44871101 0.31034628 0
3.1460001 -0.27880308 0.29998162 0
3.1420002 -0.28341001 0.30013314 0
3.1380002 -0.28800252 0.30028465 0
3.1340003 -0.2925806 0.30043617 0
3.1300001 -0.2971442 0.30058768 0
3.1260002 -0.30169341 0.3007392 0
3.1220002 -0.30622819 0.30089074 0
3.1180003 -0.31074855 0.30104226 0
3.0330002 -0.40695646 0.30426204 0
3.0290003 -0.41115034 0.30441356 0
3.0260003 -0.41547045 0.30452719 0
3.0220003 -0.41963723 0.30467874 0
3.0180001 -0.42378959 0.30483025 0
3.0150001 -0.42807364 0.30494389 0
3.0110002 -0.43219894 0.3050954 0
3.0070002 -0.43630984 0.30524692 0
3.0040002 -0.44055781 0.30536056 0
3.0000002 -0.44464162 0.30551207 0
2.9960003 -0.44871101 0.30566362 0
2.9930003 -0.45292291 0.30577725 0
3.1460001 -0.27880308 0.29502836 0
3.1420002 -0.28341001 0.29518709 0
3.1380002 -0.28800252 0.29534581 0
3.1340003 -0.2925806 0.29550457 0
3.1300001 -0.2971442 0.2956633 0
3.1260002 -0.30169341 0.29582202 0
3.1220002 -0.30622819 0.29598075 0
3.1180003 -0.31074855 0.29613948 0
3.0330002 -0.40695646 0.29951262 0
3.0290003 -0.41115034 0.29967135 0
3.0260003 -0.41547045 0.29979041 0
3.0220003 -0.41963723 0.29994914 0
3.0180001 -0.42378959 0.3001079 0
3.0150001 -0.42807364 0.30022693 0
3.0110002 -0.43219894 0.30038565 0
3.0070002 -0.43630984 0.30054438 0
3.0040002 -0.44055781 0.30066344 0
3.0000002 -0.44464162 0.3008222 0
2.9960003 -0.44871101 0.30098093 0
2.9930003 -0.45292291 0.30109996 0
3.1460001 -0.27880308 0.29007509 0
3.1420002 -0.28341001 0.29024106 0
3.1380002 -0.28800252 0.290407 0
3.1340003 -0.2925806 0.29057294 0
3.1300001 -0.2971442 0.29073888 0
3.1260002 -0.30169341 0.29090485 0
3.1220002 -0.30622819 0.29107079 0
3.1180003 -0.31074855 0.29123676 0
3.0330002 -0.40695646 0.29476321 0
3.0290003 -0.41115034 0.29492915 0
3.0260003 -0.41547045 0.2950536 0
3.0220003 -0.41963723 0.29521954 0
3.0180001 -0.42378959 0.29538551 0
3.0150001 -0.42807364 0.29550996 0
3.0110002 -0.43219894 0.29567593 0
3.0070002 -0.43630984 0.29584187 0
3.0040002 -0.44055781 0.29596633 0
3.0000002 -0.44464162 0.29613227 0
2.9960003 -0.44871101 0.29629824 0
2.9930003 -0.45292291 0.29642269 0
3.1460001 -0.27880308 0.28512186 0
3.1420002 -0.28341001 0.28529501 0
3.1380002 -0.28800252 0.28546816 0
3.1340003 -0.2925806 0.28564131 0
3.1300001 -0.2971442 0.28581449 0
3.1260002 -0.30169341 0.28598768 0
3.1220002 -0.30622819 0.28616083 0
3.1180003 -0.31074855 0.28633401 0
3.0330002 -0.40695646 0.29001376 0
3.0290003 -0.41115034 0.29018694 0
3.0260003 -0.41547045 0.29031682 0
3.0220003 -0.41963723 0.29048997 0
3.0180001 -0.42378959 0.29066312 0
3.0150001 -0.42807364 0.290793 0
3.0110002 -0.43219894 0.29096618 0
3.0070002 -0.43630984 0.29113933 0
3.0040002 -0.44055781 0.29126921 0
3.0000002 -0.44464162 0.29144239 0
2.9960003 -0.44871101 0.29161555 0
2.9930003 -0.45292291 0.29174542 0
3.1460001 -0.27880308 0.28016859 0
3.1420002 -0.28341001 0.28034896 0
3.1380002 -0.28800252 0.28052932 0
3.1340003 -0.2925806 0.28070971 0
3.1300001 -0.2971442 0.28089011 0
3.1260002 -0.30169341 0.28107047 0
3.1220002 -0.30622819 0.28125086 0
3.1180003 -0.31074855 0.28143126 0
3.0330002 -0.40695646 0.28526434 0
3.0290003 -0.41115034 0.28544471 0
3.0260003 -0.41547045 0.28558001 0
3.0220003 -0.41963723 0.2857604 0
3.0180001 -0.42378959 0.28594077 0
3.0150001 -0.42807364 0.28607607 0
3.0110002 -0.43219894 0.28625643 0
3.0070002 -0.43630984 0.2864368 0
3.0040002 -0.44055781 0.2865721 0
3.0000002 -0.44464162 0.28675249 0
2.9960003 -0.44871101 0.28693286 0
2.9930003 -0.45292291 0.28706813 0
3.1460001 -0.27880308 0.27521533 0
3.1420002 -0.28341001 0.2754029 0
3.1380002 -0.28800252 0.27559051 0
3.1340003 -0.2925806 0.27577811 0
3.1300001 -0.2971442 0.27596569 0
3.1260002 -0.30169341 0.27615333 0
3.1220002 -0.30622819 0.2763409 0
3.1180003 -0.31074855 0.27652848 0
3.0330002 -0.40695646 0.28051493 0
3.0290003 -0.41115034 0.2807025 0
3.0260003 -0.41547045 0.2808432 0
3.0220003 -0.41963723 0.2810308 0
3.0180001 -0.42378959 0.28121841 0
3.0150001 -0.42807364 0.28135911 0
3.0110002 -0.43219894 0.28154668 0
3.0070002 -0.43630984 0.28173429 0
3.0040002 -0.44055781 0.28187498 0
3.0000002 -0.44464162 0.28206259 0
2.9960003 -0.44871101 0.28225017 0
2.9930003 -0.45292291 0.28239086 0
3.1460001 -0.27880308 0.27026206 0
3.1420002 -0.28341001 0.27045688 0
3.1380002 -0.28800252 0.2706517 0
3.1340003 -0.2925806 0.27084649 0
3.1300001 -0.2971442 0.27104133 0
3.1260002 -0.30169341 0.27123612 0
3.1220002 -0.30622819 0.27143094 0
3.1180003 -0.31074855 0.27162576 0
3.0330002 -0.40695646 0.27576548 0
3.0290003 -0.41115034 0.2759603 0
3.0260003 -0.41547045 0.27610639 0
3.0220003 -0.41963723 0.27630121 0
3.0180001 -0.42378959 0.27649602 0
3.0150001 -0.42807364 0.27664214 0
3.0110002 -0.43219894 0.27683693 0
3.0070002 -0.43630984 0.27703178 0
3.0040002 -0.44055781 0.27717787 0
3.0000002 -0.44464162 0.27737266 0
2.9960003 -0.44871101 0.27756751 0
2.9930003 -0.45292291 0.2777136 0
3.1460001 -0.27880308 0.2653088 0
3.1420002 -0.28341001 0.26551086 0
3.1380002 -0.28800252 0.26571286 0
3.1340003 -0.2925806 0.26591489 0
3.1300001 -0.2971442 0.26611692 0
3.1260002 -0.30169341 0.26631895 0
3.1220002 -0.30622819 0.26652098 0
3.1180003 -0.31074855 0.26672298 0
3.0330002 -0.40695646 0.27101606 0
3.0290003 -0.41115034 0.27121806 0
3.0260003 -0.41547045 0.27136958 0
3.0220003 -0.41963723 0.27157164 0
3.0180001 -0.42378959 0.27177367 0
3.0150001 -0.42807364 0.27192518 0
3.0110002 -0.43219894 0.27212721 0
3.0070002 -0.43630984 0.27232921 0
3.0040002 -0.44055781 0.27248076 0
3.0000002 -0.44464162 0.27268279 0
2.9960003 -0.44871101 0.27288479 0
2.9930003 -0.45292291 0.2730363 0
3.1460001 -0.27880308 0.26035553 0
3.1420002 -0.28341001 0.2605648 0
3.1380002 -0.28800252 0.26077402 0
3.1340003 -0.2925806 0.26098329 0
3.1300001 -0.2971442 0.26119253 0
3.1260002 -0.30169341 0.26140177 0
3.1220002 -0.30622819 0.26161098 0
3.1180003 -0.31074855 0.26182026 0
3.0330002 -0.40695646 0.26626664 0
3.0290003 -0.41115034 0.26647586 0
3.0260003 -0.41547045 0.2666328 0
3.0220003 -0.41963723 0.26684204 0
3.0180001 -0.42378959 0.26705128 0
3.0150001 -0.42807364 0.26720822 0
3.0110002 -0.43219894 0.26741746 0
3.0070002 -0.43630984 0.2676267 0
3.0040002 -0.44055781 0.26778364 0
3.0000002 -0.44464162 0.26799288 0
2.9960003 -0.44871101 0.26820213 0
2.9930003 -0.45292291 0.26835904 0
3.1460001 -0.27880308 0.2554023 0
3.1420002 -0.28341001 0.25561875 0
3.1380002 -0.28800252 0.25583521 0
3.1340003 -0.2925806 0.25605166 0
3.1300001 -0.2971442 0.25626814 0
3.1260002 -0.30169341 0.25648457 0
3.1220002 -0.30622819 0.25670105 0
3.1180003 -0.31074855 0.25691748 0
3.0330002 -0.40695646 0.2615172 0
3.0290003 -0.41115034 0.26173365 0
3.0260003 -0.41547045 0.26189601 0
3.0220003 -0.41963723 0.26211244 0
3.0180001 -0.42378959 0.26232892 0
3.0150001 -0.42807364 0.26249129 0
3.0110002 -0.43219894 0.26270771 0
3.0070002 -0.43630984 0.26292416 0
3.0040002 -0.44055781 0.2630865 0
3.0000002 -0.44464162 0.26330298 0
2.9960003 -0.44871101 0.26351941 0
2.9930003 -0.45292291 0.26368177 0
3.1460001 -0.27880308 0.25044906 0
3.1420002 -0.28341001 0.2506727 0
3.1380002 -0.28800252 0.25089639 0
3.1340003 -0.2925806 0.25112003 0
3.1300001 -0.2971442 0.25134373 0
3.1260002 -0.30169341 0.25156739 0
3.1220002 -0.30622819 0.25179106 0
3.1180003 -0.31074855 0.25201476 0
3.0330002 -0.40695646 0.25676778 0
3.0290003 -0.41115034 0.25699145 0
3.0260003 -0.41547045 0.2571592 0
3.0220003 -0.41963723 0.25738287 0
3.0180001 -0.42378959 0.25760657 0
3.0150001 -0.42807364 0.25777429 0
3.0110002 -0.43219894 0.25799799 0
3.0070002 -0.43630984 0.25822163 0
3.0040002 -0.44055781 0.25838941 0
3.0000002 -0.44464162 0.25861305 0
2.9960003 -0.44871101 0.25883675 0
2.9930003 -0.45292291 0.2590045 0
3.1460001 -0.27880308 0.24549578 0
3.1420002 -0.28341001 0.24572666 0
3.1380002 -0.28800252 0.24595755 0
3.1340003 -0.2925806 0.24618843 0
3.1300001 -0.2971442 0.24641934 0
3.1260002 -0.30169341 0.24665022 0
3.1220002 -0.30622819 0.2468811 0
3.1180003 -0.31074855 0.24711199 0
3.0330002 -0.40695646 0.25201833 0
3.0290003 -0.41115034 0.25224924 0
3.0260003 -0.41547045 0.25242239 0
3.0220003 -0.41963723 0.2526533 0
3.0180001 -0.42378959 0.25288418 0
3.0150001 -0.42807364 0.25305736 0
3.0110002 -0.43219894 0.25328824 0
3.0070002 -0.43630984 0.25351912 0
3.0040002 -0.44055781 0.25369227 0
3.0000002 -0.44464162 0.25392318 0
2.9960003 -0.44871101 0.25415406 0
2.9930003 -0.45292291 0.25432724 0
3.1460001 -0.27880308 0.24054252 0
3.1420002 -0.28341001 0.24078064 0
3.1380002 -0.28800252 0.24101873 0
3.1340003 -0.2925806 0.24125682 0
3.1300001 -0.2971442 0.24149492 0
3.1260002 -0.30169341 0.24173304 0
3.1220002 -0.30622819 0.24197114 0
3.1180003 -0.31074855 0.24220923 0
3.0330002 -0.40695646 0.24726892 0
3.0290003 -0.41115034 0.24750702 0
3.0260003 -0.41547045 0.2476856 0
3.0220003 -0.41963723 0.2479237 0
3.0180001 -0.42378959 0.24816182 0
3.0150001 -0.42807364 0.2483404 0
3.0110002 -0.43219894 0.24857849 0
3.0070002 -0.43630984 0.24881658 0
3.0040002 -0.44055781 0.24899516 0
3.0000002 -0.44464162 0.24923328 0
2.9960003 -0.44871101 0.24947137 0
2.9930003 -0.45292291 0.24964994 0
3.1460001 -0.27880308 0.23558927 0
3.1420002 -0.28341001 0.23583458 0
3.1380002 -0.28800252 0.2360799 0
3.1340003 -0.2925806 0.2363252 0
3.1300001 -0.2971442 0.23657054 0
3.1260002 -0.30169341 0.23681585 0
3.1220002 -0.30622819 0.23706117 0
3.1180003 -0.31074855 0.23730649 0
3.0330002 -0.40695646 0.2425195 0
3.0290003 -0.41115034 0.2427648 0
3.0260003 -0.41547045 0.2429488 0
3.0220003 -0.41963723 0.2431941 0
3.0180001 -0.42378959 0.24343944 0
3.0150001 -0.42807364 0.24362342 0
3.0110002 -0.43219894 0.24386875 0
3.0070002 -0.43630984 0.24411407 0
3.0040002 -0.44055781 0.24429806 0
3.0000002 -0.44464162 0.24454337 0
2.9960003 -0.44871101 0.24478868 0
2.9930003 -0.45292291 0.24497268 0
3.1460001 -0.27880308 0.23063602 0
3.1420002 -0.28341001 0.23088855 0
3.1380002 -0.28800252 0.23114108 0
3.1340003 -0.2925806 0.23139359 0
3.1300001 -0.2971442 0.23164614 0
3.1260002 -0.30169341 0.23189867 0
3.1220002 -0.30622819 0.23215121 0
3.1180003 -0.31074855 0.23240374 0
3.0330002 -0.40695646 0.23777007 0
3.0290003 -0.41115034 0.2380226 0
3.0260003 -0.41547045 0.238212 0
3.0220003 -0.41963723 0.23846453 0
3.0180001 -0.42378959 0.23871706 0
3.0150001 -0.42807364 0.23890647 0
3.0110002 -0.43219894 0.239159 0
3.0070002 -0.43630984 0.23941153 0
3.0040002 -0.44055781 0.23960094 0
3.0000002 -0.44464162 0.23985346 0
2.9960003 -0.44871101 0.24010599 0
2.9930003 -0.45292291 0.2402954 0
3.1460001 -0.27880308 0.22568275 0
3.1420002 -0.28341001 0.22594249 0
3.1380002 -0.28800252 0.22620223 0
3.1340003 -0.2925806 0.22646198 0
3.1300001 -0.2971442 0.22672175 0
3.1260002 -0.30169341 0.22698149 0
3.1220002 -0.30622819 0.22724123 0
3.1180003 -0.31074855 0.22750098 0
3.0330002 -0.40695646 0.23302065 0
3.0290003 -0.41115034 0.23328039 0
3.0260003 -0.41547045 0.23347521 0
3.0220003 -0.41963723 0.23373495 0
3.0180001 -0.42378959 0.23399471 0
3.0150001 -0.42807364 0.23418951 0
3.0110002 -0.43219894 0.23444925 0
3.0070002 -0.43630984 0.23470901 0
3.0040002 -0.44055781 0.23490381 0
3.0000002 -0.44464162 0.23516355 0
2.9960003 -0.44871101 0.2354233 0
2.9930003 -0.45292291 0.23561811 0
3.1460001 -0.27880308 0.22072949 0
3.1420002 -0.28341001 0.22099645 0
3.1380002 -0.28800252 0.22126341 0
3.1340003 -0.2925806 0.22153038 0
3.1300001 -0.2971442 0.22179735 0
3.1260002 -0.30169341 0.22206432 0
3.1220002 -0.30622819 0.22233127 0
3.1180003 -0.31074855 0.22259822 0
3.0330002 -0.40695646 0.22827122 0
3.0290003 -0.41115034 0.22853817 0
3.0260003 -0.41547045 0.2287384 0
3.0220003 -0.41963723 0.22900535 0
3.0180001 -0.42378959 0.22927234 0
3.0150001 -0.42807364 0.22947256 0
3.0110002 -0.43219894 0.22973952 0
3.0070002 -0.43630984 0.23000647 0
3.0040002 -0.44055781 0.2302067 0
3.0000002 -0.44464162 0.23047367 0
2.9960003 -0.44871101 0.23074062 0
2.9930003 -0.45292291 0.23094083 0
3.1460001 -0.27880308 0.21577623 0
3.1420002 -0.28341001 0.2160504 0
3.1380002 -0.28800252 0.21632458 0
3.1340003 -0.2925806 0.21659876 0
3.1300001 -0.2971442 0.21687296 0
3.1260002 -0.30169341 0.21714713 0
3.1220002 -0.30622819 0.21742131 0
3.1180003 -0.31074855 0.21769549 0
3.0330002 -0.40695646 0.22352178 0
3.0290003 -0.41115034 0.22379597 0
3.0260003 -0.41547045 0.22400159 0
3.0220003 -0.41963723 0.22427577 0
3.0180001 -0.42378959 0.22454996 0
3.0150001 -0.42807364 0.2247556 0
3.0110002 -0.43219894 0.22502977 0
3.0070002 -0.43630984 0.22530395 0
3.0040002 -0.44055781 0.22550958 0
3.0000002 -0.44464162 0.22578377 0
2.9960003 -0.44871101 0.22605793 0
2.9930003 -0.45292291 0.22626357 0
3.1460001 -0.27880308 0.21082298 0
3.1420002 -0.28341001 0.21110438 0
3.1380002 -0.28800252 0.21138576 0
3.1340003 -0.2925806 0.21166715 0
3.1300001 -0.2971442 0.21194856 0
3.1260002 -0.30169341 0.21222995 0
3.1220002 -0.30622819 0.21251135 0
3.1180003 -0.31074855 0.21279272 0
3.0330002 -0.40695646 0.21877237 0
3.0290003 -0.41115034 0.21905375 0
3.0260003 -0.41547045 0.21926479 0
3.0220003 -0.41963723 0.21954618 0
3.0180001 -0.42378959 0.21982759 0
3.0150001 -0.42807364 0.22003864 0
3.0110002 -0.43219894 0.22032003 0
3.0070002 -0.43630984 0.22060142 0
3.0040002 -0.44055781 0.22081247 0
3.0000002 -0.44464162 0.22109385 0
2.9960003 -0.44871101 0.22137524 0
2.9930003 -0.45292291 0.2215863 0
3.1460001 -0.27880308 0.20586972 0
3.1420002 -0.28341001 0.20615833 0
3.1380002 -0.28800252 0.20644693 0
3.1340003 -0.2925806 0.20673554 0
3.1300001 -0.2971442 0.20702417 0
3.1260002 -0.30169341 0.20731278 0
3.1220002 -0.30622819 0.20760137 0
3.1180003 -0.31074855 0.20788997 0
3.0330002 -0.40695646 0.21402292 0
3.0290003 -0.41115034 0.21431154 0
3.0260003 -0.41547045 0.21452799 0
3.0220003 -0.41963723 0.2148166 0
3.0180001 -0.42378959 0.21510522 0
3.0150001 -0.42807364 0.21532169 0
3.0110002 -0.43219894 0.21561028 0
3.0070002 -0.43630984 0.21589889 0
3.0040002 -0.44055781 0.21611536 0
3.0000002 -0.44464162 0.21640395 0
2.9960003 -0.44871101 0.21669255 0
2.9930003 -0.45292291 0.21690902 0
3.1460001 -0.27880308 0.20091647 0
3.1420002 -0.28341001 0.20121229 0
3.1380002 -0.28800252 0.20150812 0
3.1340003 -0.2925806 0.20180392 0
3.1300001 -0.2971442 0.20209977 0
3.1260002 -0.30169341 0.20239559 0
3.1220002 -0.30622819 0.20269141 0
3.1180003 -0.31074855 0.20298724 0
3.0330002 -0.40695646 0.2092735 0
3.0290003 -0.41115034 0.20956932 0
3.0260003 -0.41547045 0.2097912 0
3.0220003 -0.41963723 0.21008702 0
3.0180001 -0.42378959 0.21038286 0
3.0150001 -0.42807364 0.21060471 0
3.0110002 -0.43219894 0.21090055 0
3.0070002 -0.43630984 0.21119638 0
3.0040002 -0.44055781 0.21141823 0
3.0000002 -0.44464162 0.21171406 0
2.9960003 -0.44871101 0.21200988 0
2.9930003 -0.45292291 0.21223176 0
3.1460001 -0.27880308 0.19596322 0
3.1420002 -0.28341001 0.19626625 0
3.1380002 -0.28800252 0.19656928 0
3.1340003 -0.2925806 0.19687231 0
3.1300001 -0.2971442 0.19717537 0
3.1260002 -0.30169341 0.1974784 0
3.1220002 -0.30622819 0.19778144 0
3.1180003 -0.31074855 0.19808447 0
3.0330002 -0.40695646 0.20452407 0
3.0290003 -0.41115034 0.20482711 0
3.0260003 -0.41547045 0.20505439 0
3.0220003 -0.41963723 0.20535743 0
3.0180001 -0.42378959 0.20566048 0
3.0150001 -0.42807364 0.20588776 0
3.0110002 -0.43219894 0.20619079 0
3.0070002 -0.43630984 0.20649384 0
3.0040002 -0.44055781 0.20672111 0
3.0000002 -0.44464162 0.20702416 0
2.9960003 -0.44871101 0.2073272 0
2.9930003 -0.45292291 0.20755447 0
3.1460001 -0.27880308 0.19100995 0
3.1420002 -0.28341001 0.1913202 0
3.1380002 -0.28800252 0.19163045 0
3.1340003 -0.2925806 0.1919407 0
3.1300001 -0.2971442 0.19225098 0
3.1260002 -0.30169341 0.19256122 0
3.1220002 -0.30622819 0.19287148 0
3.1180003 -0.31074855 0.19318172 0
3.0330002 -0.40695646 0.19977464 0
3.0290003 -0.41115034 0.20008491 0
3.0260003 -0.41547045 0.20031759 0
3.0220003 -0.41963723 0.20062785 0
3.0180001 -0.42378959 0.20093811 0
3.0150001 -0.42807364 0.2011708 0
3.0110002 -0.43219894 0.20148106 0
3.0070002 -0.43630984 0.2017913 0
3.0040002 -0.44055781 0.20202401 0
3.0000002 -0.44464162 0.20233425 0
2.9960003 -0.44871101 0.20264451 0
2.9930003 -0.45292291 0.20287719 0
3.1460001 -0.27880308 0.18605669 0
3.1420002 -0.28341001 0.18637416 0
3.1380002 -0.28800252 0.18669163 0
3.1340003 -0.2925806 0.1870091 0
3.1300001 -0.2971442 0.18732658 0
3.1260002 -0.30169341 0.18764405 0
3.1220002 -0.30622819 0.1879615 0
3.1180003 -0.31074855 0.18827897 0
3.0330002 -0.40695646 0.19502522 0
3.0290003 -0.41115034 0.19534269 0
3.0260003 -0.41547045 0.1955808 0
3.0220003 -0.41963723 0.19589825 0
3.0180001 -0.42378959 0.19621575 0
3.0150001 -0.42807364 0.19645385 0
3.0110002 -0.43219894 0.19677131 0
3.0070002 -0.43630984 0.19708878 0
3.0040002 -0.44055781 0.19732688 0
3.0000002 -0.44464162 0.19764435 0
2.9960003 -0.44871101 0.19796182 0
2.9930003 -0.45292291 0.19819991 0
3.1460001 -0.27880308 0.18110344 0
3.1420002 -0.28341001 0.18142812 0
3.1380002 -0.28800252 0.1817528 0
3.1340003 -0.2925806 0.18207748 0
3.1300001 -0.2971442 0.18240218 0
3.1260002 -0.30169341 0.18272686 0
3.1220002 -0.30622819 0.18305154 0
3.1180003 -0.31074855 0.18337622 0
3.0330002 -0.40695646 0.19027579 0
3.0290003 -0.41115034 0.19060047 0
3.0260003 -0.41547045 0.190844 0
3.0220003 -0.41963723 0.19116867 0
3.0180001 -0.42378959 0.19149338 0
3.0150001 -0.42807364 0.19173689 0
3.0110002 -0.43219894 0.19206157 0
3.0070002 -0.43630984 0.19238625 0
3.0040002 -0.44055781 0.19262975 0
3.0000002 -0.44464162 0.19295445 0
2.9960003 -0.44871101 0.19327913 0
2.9930003 -0.45292291 0.19352265 0
3.1460001 -0.27880308 0.17615019 0
3.1420002 -0.28341001 0.17648208 0
3.1380002 -0.28800252 0.17681397 0
3.1340003 -0.2925806 0.17714587 0
3.1300001 -0.2971442 0.17747778 0
3.1260002 -0.30169341 0.17780969 0
3.1220002 -0.30622819 0.17814158 0
3.1180003 -0.31074855 0.17847347 0
3.0330002 -0.40695646 0.18552637 0
3.0290003 -0.41115034 0.18585826 0
3.0260003 -0.41547045 0.18610719 0
3.0220003 -0.41963723 0.1864391 0
3.0180001 -0.42378959 0.18677101 0
3.0150001 -0.42807364 0.18701993 0
3.0110002 -0.43219894 0.18735182 0
3.0070002 -0.43630984 0.18768373 0
3.0040002 -0.44055781 0.18793266 0
3.0000002 -0.44464162 0.18826455 0
2.9960003 -0.44871101 0.18859644 0
2.9930003 -0.45292291 0.18884537 0
3.1460001 -0.27880308 0.17119694 0
3.1420002 -0.28341001 0.17153603 0
3.1380002 -0.28800252 0.17187515 0
3.1340003 -0.2925806 0.17221424 0
3.1300001 -0.2971442 0.17255339 0
3.1260002 -0.30169341 0.1728925 0
3.1220002 -0.30622819 0.17323162 0
3.1180003 -0.31074855 0.17357072 0
3.0330002 -0.40695646 0.18077694 0
3.0290003 -0.41115034 0.18111604 0
3.0260003 -0.41547045 0.18137039 0
3.0220003 -0.41963723 0.1817095 0
3.0180001 -0.42378959 0.18204863 0
3.0150001 -0.42807364 0.18230298 0
3.0110002 -0.43219894 0.18264209 0
3.0070002 -0.43630984 0.18298119 0
3.0040002 -0.44055781 0.18323554 0
3.0000002 -0.44464162 0.18357465 0
2.9960003 -0.44871101 0.18391375 0
2.9930003 -0.45292291 0.1841681 0
3.1460001 -0.27880308 0.16624367 0
3.1420002 -0.28341001 0.16659001 0
3.1380002 -0.28800252 0.16693631 0
3.1340003 -0.2925806 0.16728264 0
3.1300001 -0.2971442 0.16762897 0
3.1260002 -0.30169341 0.16797531 0
3.1220002 -0.30622819 0.16832164 0
3.1180003 -0.31074855 0.16866799 0
3.0330002 -0.40695646 0.17602752 0
3.0290003 -0.41115034 0.17637384 0
3.0260003 -0.41547045 0.1766336 0
3.0220003 -0.41963723 0.17697991 0
3.0180001 -0.42378959 0.17732626 0
3.0150001 -0.42807364 0.177586 0
3.0110002 -0.43219894 0.17793234 0
3.0070002 -0.43630984 0.17827867 0
3.0040002 -0.44055781 0.17853841 0
3.0000002 -0.44464162 0.17888474 0
2.9960003 -0.44871101 0.17923108 0
2.9930003 -0.45292291 0.17949083 0
3.1460001 -0.27880308 0.16129041 0
3.1420002 -0.28341001 0.16164395 0
3.1380002 -0.28800252 0.1619975 0
3.1340003 -0.2925806 0.16235104 0
3.1300001 -0.2971442 0.16270459 0
3.1260002 -0.30169341 0.16305813 0
3.1220002 -0.30622819 0.16341168 0
3.1180003 -0.31074855 0.16376522 0
3.0330002 -0.40695646 0.17127807 0
3.0290003 -0.41115034 0.17163162 0
3.0260003 -0.41547045 0.17189679 0
3.0220003 -0.41963723 0.17225033 0
3.0180001 -0.42378959 0.17260391 0
3.0150001 -0.42807364 0.17286907 0
3.0110002 -0.43219894 0.1732226 0
3.0070002 -0.43630984 0.17357615 0
3.0040002 -0.44055781 0.1738413 0
3.0000002 -0.44464162 0.17419484 0
2.9960003 -0.44871101 0.17454839 0
2.9930003 -0.45292291 0.17481355 0
3.1460001 -0.27880308 0.15633716 0
3.1420002 -0.28341001 0.1566979 0
3.1380002 -0.28800252 0.15705866 0
3.1340003 -0.2925806 0.15741941 0
3.1300001 -0.2971442 0.1577802 0
3.1260002 -0.30169341 0.15814096 0
3.1220002 -0.30622819 0.15850171 0
3.1180003 -0.31074855 0.15886247 0
3.0330002 -0.40695646 0.16652866 0
3.0290003 -0.41115034 0.16688941 0
3.0260003 -0.41547045 0.16716 0
3.0220003 -0.41963723 0.16752076 0
3.0180001 -0.42378959 0.16788153 0
3.0150001 -0.42807364 0.16815209 0
3.0110002 -0.43219894 0.16851285 0
3.0070002 -0.43630984 0.16887361 0
3.0040002 -0.44055781 0.16914417 0
3.0000002 -0.44464162 0.16950496 0
2.9960003 -0.44871101 0.16986571 0
2.9930003 -0.45292291 0.17013627 0
3.1460001 -0.27880308 0.15138388 0
3.1420002 -0.28341001 0.15175185 0
3.1380002 -0.28800252 0.15211985 0
3.1340003 -0.2925806 0.15248781 0
3.1300001 -0.2971442 0.15285581 0
3.1260002 -0.30169341 0.15322378 0
3.1220002 -0.30622819 0.15359175 0
3.1180003 -0.31074855 0.15395972 0
3.0330002 -0.40695646 0.16177924 0
3.0290003 -0.41115034 0.16214721 0
3.0260003 -0.41547045 0.16242318 0
3.0220003 -0.41963723 0.16279115 0
3.0180001 -0.42378959 0.16315915 0
3.0150001 -0.42807364 0.16343513 0
3.0110002 -0.43219894 0.1638031 0
3.0070002 -0.43630984 0.1641711 0
3.0040002 -0.44055781 0.16444707 0
3.0000002 -0.44464162 0.16481504 0
2.9960003 -0.44871101 0.16518301 0
2.9930003 -0.45292291 0.16545899 0
3.1460001 -0.27880308 0.14643064 0
3.1420002 -0.28341001 0.14680582 0
3.1380002 -0.28800252 0.147181 0
3.1340003 -0.2925806 0.14755619 0
3.1300001 -0.2971442 0.1479314 0
3.1260002 -0.30169341 0.14830661 0
3.1220002 -0.30622819 0.14868179 0
3.1180003 -0.31074855 0.14905697 0
3.0330002 -0.40695646 0.15702982 0
3.0290003 -0.41115034 0.15740499 0
3.0260003 -0.41547045 0.1576864 0
3.0220003 -0.41963723 0.15806158 0
3.0180001 -0.42378959 0.15843679 0
3.0150001 -0.42807364 0.15871818 0
3.0110002 -0.43219894 0.15909337 0
3.0070002 -0.43630984 0.15946855 0
3.0040002 -0.44055781 0.15974995 0
3.0000002 -0.44464162 0.16012514 0
2.9960003 -0.44871101 0.16050033 0
2.9930003 -0.45292291 0.16078171 0
3.1460001 -0.27880308 0.14147738 0
3.1420002 -0.28341001 0.14185977 0
3.1380002 -0.28800252 0.14224216 0
3.1340003 -0.2925806 0.14262459 0
3.1300001 -0.2971442 0.14300701 0
3.1260002 -0.30169341 0.14338943 0
3.1220002 -0.30622819 0.14377183 0
3.1180003 -0.31074855 0.14415422 0
3.0330002 -0.40695646 0.15228036 0
3.0290003 -0.41115034 0.15266278 0
3.0260003 -0.41547045 0.1529496 0
3.0220003 -0.41963723 0.15333197 0
3.0180001 -0.42378959 0.15371442 0
3.0150001 -0.42807364 0.15400122 0
3.0110002 -0.43219894 0.15438364 0
3.0070002 -0.43630984 0.15476602 0
3.0040002 -0.44055781 0.15505283 0
3.0000002 -0.44464162 0.15543525 0
2.9960003 -0.44871101 0.15581764 0
2.9930003 -0.45292291 0.15610443 0
3.1460001 -0.27880308 0.13652414 0
3.1420002 -0.28341001 0.13691375 0
3.1380002 -0.28800252 0.13730335 0
3.1340003 -0.2925806 0.13769296 0
3.1300001 -0.2971442 0.13808262 0
3.1260002 -0.30169341 0.13847223 0
3.1220002 -0.30622819 0.13886186 0
3.1180003 -0.31074855 0.13925147 0
3.0330002 -0.40695646 0.14753094 0
3.0290003 -0.41115034 0.14792058 0
3.0260003 -0.41547045 0.14821276 0
3.0220003 -0.41963723 0.1486024 0
3.0180001 -0.42378959 0.14899203 0
3.0150001 -0.42807364 0.14928424 0
3.0110002 -0.43219894 0.14967388 0
3.0070002 -0.43630984 0.15006351 0
3.0040002 -0.44055781 0.15035573 0
3.0000002 -0.44464162 0.15074533 0
2.9960003 -0.44871101 0.15113497 0
2.9930003 -0.45292291 0.15142718 0
3.1460001 -0.27880308 0.13157088 0
3.1420002 -0.28341001 0.13196769 0
3.1380002 -0.28800252 0.13236451 0
3.1340003 -0.2925806 0.13276136 0
3.1300001 -0.2971442 0.13315824 0
3.1260002 -0.30169341 0.13355505 0
3.1220002 -0.30622819 0.13395187 0
3.1180003 -0.31074855 0.13434872 0
3.0330002 -0.40695646 0.14278153 0
3.0290003 -0.41115034 0.14317834 0
3.0260003 -0.41547045 0.14347598 0
3.0220003 -0.41963723 0.14387283 0
3.0180001 -0.42378959 0.14426968 0
3.0150001 -0.42807364 0.14456731 0
3.0110002 -0.43219894 0.14496413 0
3.0070002 -0.43630984 0.14536098 0
3.0040002 -0.44055781 0.14565861 0
3.0000002 -0.44464162 0.14605543 0
2.9960003 -0.44871101 0.14645225 0
2.9930003 -0.45292291 0.14674991 0
3.1460001 -0.27880308 0.12661761 0
3.1420002 -0.28341001 0.12702167 0
3.1380002 -0.28800252 0.1274257 0
3.1340003 -0.2925806 0.12782976 0
3.1300001 -0.2971442 0.12823382 0
3.1260002 -0.30169341 0.12863788 0
3.1220002 -0.30622819 0.12904191 0
3.1180003 -0.31074855 0.12944597 0
3.0330002 -0.40695646 0.13803208 0
3.0290003 -0.41115034 0.13843614 0
3.0260003 -0.41547045 0.13873917 0
3.0220003 -0.41963723 0.13914323 0
3.0180001 -0.42378959 0.13954732 0
3.0150001 -0.42807364 0.13985035 0
3.0110002 -0.43219894 0.14025441 0
3.0070002 -0.43630984 0.14065844 0
3.0040002 -0.44055781 0.1409615 0
3.0000002 -0.44464162 0.14136553 0
2.9960003 -0.44871101 0.14176959 0
2.9930003 -0.45292291 0.14207262 0
3.1460001 -0.27880308 0.12166435 0
3.1420002 -0.28341001 0.12207562 0
3.1380002 -0.28800252 0.12248689 0
3.1340003 -0.2925806 0.12289813 0
3.1300001 -0.2971442 0.12330943 0
3.1260002 -0.30169341 0.12372068 0
3.1220002 -0.30622819 0.12413195 0
3.1180003 -0.31074855 0.12454322 0
3.0330002 -0.40695646 0.13328266 0
3.0290003 -0.41115034 0.13369393 0
3.0260003 -0.41547045 0.13400239 0
3.0220003 -0.41963723 0.13441366 0
3.0180001 -0.42378959 0.13482493 0
3.0150001 -0.42807364 0.13513339 0
3.0110002 -0.43219894 0.13554466 0
3.0070002 -0.43630984 0.13595593 0
3.0040002 -0.44055781 0.13626435 0
3.0000002 -0.44464162 0.13667563 0
2.9960003 -0.44871101 0.1370869 0
2.9930003 -0.45292291 0.13739535 0
3.1460001 -0.27880308 0.11671108 0
3.1420002 -0.28341001 0.11712956 0
3.1380002 -0.28800252 0.11754805 0
3.1340003 -0.2925806 0.11796653 0
3.1300001 -0.2971442 0.11838505 0
3.1260002 -0.30169341 0.1188035 0
3.1220002 -0.30622819 0.11922199 0
3.1180003 -0.31074855 0.11964047 0
3.0330002 -0.40695646 0.12853324 0
3.0290003 -0.41115034 0.12895173 0
3.0260003 -0.41547045 0.12926558 0
3.0220003 -0.41963723 0.12968406 0
3.0180001 -0.42378959 0.13010257 0
3.0150001 -0.42807364 0.13041642 0
3.0110002 -0.43219894 0.13083491 0
3.0070002 -0.43630984 0.13125339 0
3.0040002 -0.44055781 0.13156724 0
3.0000002 -0.44464162 0.13198575 0
2.9960003 -0.44871101 0.13240421 0
2.9930003 -0.45292291 0.13271806 0
3.1460001 -0.27880308 0.11175781 0
3.1420002 -0.28341001 0.11218354 0
3.1380002 -0.28800252 0.11260924 0
3.1340003 -0.2925806 0.1130349 0
3.1300001 -0.2971442 0.11346063 0
3.1260002 -0.30169341 0.11388633 0
3.1220002 -0.30622819 0.11431202 0
3.1180003 -0.31074855 0.11473772 0
3.0330002 -0.40695646 0.1237838 0
3.0290003 -0.41115034 0.12420952 0
3.0260003 -0.41547045 0.1245288 0
3.0220003 -0.41963723 0.12495449 0
3.0180001 -0.42378959 0.12538019 0
3.0150001 -0.42807364 0.12569946 0
3.0110002 -0.43219894 0.12612516 0
3.0070002 -0.43630984 0.12655085 0
3.0040002 -0.44055781 0.12687016 0
3.0000002 -0.44464162 0.12729582 0
2.9960003 -0.44871101 0.12772152 0
2.9930003 -0.45292291 0.12804079 0
3.1460001 -0.27880308 0.10680458 0
3.1420002 -0.28341001 0.10723749 0
3.1380002 -0.28800252 0.1076704 0
3.1340003 -0.2925806 0.10810331 0
3.1300001 -0.2971442 0.10853624 0
3.1260002 -0.30169341 0.10896915 0
3.1220002 -0.30622819 0.10940206 0
3.1180003 -0.31074855 0.10983494 0
3.0330002 -0.40695646 0.11903438 0
3.0290003 -0.41115034 0.11946732 0
3.0260003 -0.41547045 0.11979198 0
3.0220003 -0.41963723 0.12022489 0
3.0180001 -0.42378959 0.12065783 0
3.0150001 -0.42807364 0.12098253 0
3.0110002 -0.43219894 0.12141544 0
3.0070002 -0.43630984 0.12184832 0
3.0040002 -0.44055781 0.12217301 0
3.0000002 -0.44464162 0.12260592 0
2.9960003 -0.44871101 0.12303883 0
2.9930003 -0.45292291 0.12336352 0
3.1460001 -0.27880308 0.10185134 0
3.1420002 -0.28341001 0.10229144 0
3.1380002 -0.28800252 0.10273159 0
3.1340003 -0.2925806 0.10317168 0
3.1300001 -0.2971442 0.10361186 0
3.1260002 -0.30169341 0.10405195 0
3.1220002 -0.30622819 0.1044921 0
3.1180003 -0.31074855 0.10493222 0
3.0330002 -0.40695646 0.11428496 0
3.0290003 -0.41115034 0.11472508 0
3.0260003 -0.41547045 0.1150552 0
3.0220003 -0.41963723 0.11549529 0
3.0180001 -0.42378959 0.11593547 0
3.0150001 -0.42807364 0.11626557 0
3.0110002 -0.43219894 0.11670569 0
3.0070002 -0.43630984 0.11714581 0
3.0040002 -0.44055781 0.1174759 0
3.0000002 -0.44464162 0.11791602 0
2.9960003 -0.44871101 0.11835614 0
2.9930003 -0.45292291 0.11868626 0
3.1460001 -0.27880308 0.096898079 0
3.1420002 -0.28341001 0.097345382 0
3.1380002 -0.28800252 0.097792745 0
3.1340003 -0.2925806 0.098240077 0
3.1300001 -0.2971442 0.09868747 0
3.1260002 -0.30169341 0.099134773 0
3.1220002 -0.30622819 0.099582136 0
3.1180003 -0.31074855 0.10002947 0
3.0330002 -0.40695646 0.10953555 0
3.0290003 -0.41115034 0.10998288 0
3.0260003 -0.41547045 0.11031839 0
3.0220003 -0.41963723 0.11076573 0
3.0180001 -0.42378959 0.11121309 0
3.0150001 -0.42807364 0.1115486 0
3.0110002 -0.43219894 0.11199594 0
3.0070002 -0.43630984 0.11244327 0
3.0040002 -0.44055781 0.11277881 0
3.0000002 -0.44464162 0.11322612 0
2.9960003 -0.44871101 0.11367348 0
2.9930003 -0.45292291 0.11400899 0
3.1460001 -0.27880308 0.091944814 0
3.1420002 -0.28341001 0.092399359 0
3.1380002 -0.28800252 0.092853934 0
3.1340003 -0.2925806 0.093308449 0
3.1300001 -0.2971442 0.093763053 0
3.1260002 -0.30169341 0.094217598 0
3.1220002 -0.30622819 0.094672143 0
3.1180003 -0.31074855 0.095126718 0
3.0330002 -0.40695646 0.1047861 0
3.0290003 -0.41115034 0.10524064 0
3.0260003 -0.41547045 0.10558158 0
3.0220003 -0.41963723 0.10603613 0
3.0180001 -0.42378959 0.1064907 0
3.0150001 -0.42807364 0.10683164 0
3.0110002 -0.43219894 0.10728619 0
3.0070002 -0.43630984 0.10774073 0
3.0040002 -0.44055781 0.10808167 0
3.0000002 -0.44464162 0.10853624 0
2.9960003 -0.44871101 0.10899076 0
2.9930003 -0.45292291 0.1093317 0
3.1460001 -0.27880308 0.086991549 0
3.1420002 -0.28341001 0.087453306 0
3.1380002 -0.28800252 0.087915093 0
3.1340003 -0.2925806 0.08837685 0
3.1300001 -0.2971442 0.088838667 0
3.1260002 -0.30169341 0.089300424 0
3.1220002 -0.30622819 0.089762181 0
3.1180003 -0.31074855 0.090223968 0
3.0330002 -0.40695646 0.10003668 0
3.0290003 -0.41115034 0.10049844 0
3.0260003 -0.41547045 0.10084477 0
3.0220003 -0.41963723 0.10130656 0
3.0180001 -0.42378959 0.10176834 0
3.0150001 -0.42807364 0.10211468 0
3.0110002 -0.43219894 0.10257646 0
3.0070002 -0.43630984 0.10303822 0
3.0040002 -0.44055781 0.10338455 0
3.0000002 -0.44464162 0.10384631 0
2.9960003 -0.44871101 0.1043081 0
2.9930003 -0.45292291 0.10465443 0
3.1460001 -0.27880308 0.082038283 0
3.1420002 -0.28341001 0.082507282 0
3.1380002 -0.28800252 0.082976252 0
3.1340003 -0.2925806 0.083445251 0
3.1300001 -0.2971442 0.08391425 0
3.1260002 -0.30169341 0.084383249 0
3.1220002 -0.30622819 0.084852219 0
3.1180003 -0.31074855 0.085321218 0
3.0330002 -0.40695646 0.095287263 0
3.0290003 -0.41115034 0.095756233 0
3.0260003 -0.41547045 0.09610796 0
3.0220003 -0.41963723 0.096576989 0
3.0180001 -0.42378959 0.097045988 0
3.0150001 -0.42807364 0.097397715 0
3.0110002 -0.43219894 0.097866714 0
3.0070002 -0.43630984 0.098335713 0
3.0040002 -0.44055781 0.09868744 0
3.0000002 -0.44464162 0.09915641 0
2.9960003 -0.44871101 0.099625409 0
2.9930003 -0.45292291 0.099977136 0
3.1460001 -0.27880308 0.077085018 0
3.1420002 -0.28341001 0.077561259 0
3.1380002 -0.28800252 0.078037441 0
3.1340003 -0.2925806 0.078513622 0
3.1300001 -0.2971442 0.078989834 0
3.1260002 -0.30169341 0.079466075 0
3.1220002 -0.30622819 0.079942256 0
3.1180003 -0.31074855 0.080418438 0
3.0330002 -0.40695646 0.090537816 0
3.0290003 -0.41115034 0.091014028 0
3.0260003 -0.41547045 0.091371179 0
3.0220003 -0.41963723 0.09184739 0
3.0180001 -0.42378959 0.092323631 0
3.0150001 -0.42807364 0.092680782 0
3.0110002 -0.43219894 0.093156964 0
3.0070002 -0.43630984 0.093633145 0
3.0040002 -0.44055781 0.093990296 0
3.0000002 -0.44464162 0.094466537 0
2.9960003 -0.44871101 0.094942719 0
2.9930003 -0.45292291 0.09529987 0
3.1460001 -0.27880308 0.072131753 0
3.1420002 -0.28341001 0.072615206 0
3.1380002 -0.28800252 0.0730986 0
3.1340003 -0.2925806 0.073582023 0
3.1300001 -0.2971442 0.074065447 0
3.1260002 -0.30169341 0.0745489 0
3.1220002 -0.30622819 0.075032294 0
3.1180003 -0.31074855 0.075515687 0
3.0330002 -0.40695646 0.085788399 0
3.0290003 -0.41115034 0.086271822 0
3.0260003 -0.41547045 0.086634368 0
3.0220003 -0.41963723 0.087117791 0
3.0180001 -0.42378959 0.087601244 0
3.0150001 -0.42807364 0.08796379 0
3.0110002 -0.43219894 0.088447213 0
3.0070002 -0.43630984 0.088930637 0
3.0040002 -0.44055781 0.089293212 0
3.0000002 -0.44464162 0.089776605 0
2.9960003 -0.44871101 0.090260029 0
2.9930003 -0.45292291 0.090622574 0
3.1460001 -0.27880308 0.067178518 0
3.1420002 -0.28341001 0.067669153 0
3.1380002 -0.28800252 0.068159789 0
3.1340003 -0.2925806 0.068650395 0
3.1300001 -0.2971442 0.06914106 0
3.1260002 -0.30169341 0.069631696 0
3.1220002 -0.30622819 0.070122331 0
3.1180003 -0.31074855 0.070612967 0
3.0330002 -0.40695646 0.081038982 0
3.0290003 -0.41115034 0.081529588 0
3.0260003 -0.41547045 0.081897587 0
3.0220003 -0.41963723 0.082388192 0
3.0180001 -0.42378959 0.082878858 0
3.0150001 -0.42807364 0.083246827 0
3.0110002 -0.43219894 0.083737493 0
3.0070002 -0.43630984 0.084228128 0
3.0040002 -0.44055781 0.084596097 0
3.0000002 -0.44464162 0.085086733 0
2.9960003 -0.44871101 0.085577339 0
2.9930003 -0.45292291 0.085945338 0
3.1460001 -0.27880308 0.062225282 0
3.1420002 -0.28341001 0.0627231 0
3.1380002 -0.28800252 0.063220948 0
3.1340003 -0.2925806 0.063718796 0
3.1300001 -0.2971442 0.064216673 0
3.1260002 -0.30169341 0.064714521 0
3.1220002 -0.30622819 0.065212369 0
3.1180003 -0.31074855 0.065710217 0
3.0330002 -0.40695646 0.076289564 0
3.0290003 -0.41115034 0.076787382 0
3.0260003 -0.41547045 0.077160776 0
3.0220003 -0.41963723 0.077658623 0
3.0180001 -0.42378959 0.078156501 0
3.0150001 -0.42807364 0.078529894 0
3.0110002 -0.43219894 0.079027742 0
3.0070002 -0.43630984 0.07952556 0
3.0040002 -0.44055781 0.079898953 0
3.0000002 -0.44464162 0.080396801 0
2.9960003 -0.44871101 0.080894679 0
2.9930003 -0.45292291 0.081268072 0
3.1460001 -0.27880308 0.057272017 0
3.1420002 -0.28341001 0.057777077 0
3.1380002 -0.28800252 0.058282137 0
3.1340003 -0.2925806 0.058787167 0
3.1300001 -0.2971442 0.059292257 0
3.1260002 -0.30169341 0.059797317 0
3.1220002 -0.30622819 0.060302407 0
3.1180003 -0.31074855 0.060807467 0
3.0330002 -0.40695646 0.071540117 0
3.0290003 -0.41115034 0.072045177 0
3.0260003 -0.41547045 0.072423995 0
3.0220003 -0.41963723 0.072929054 0
3.0180001 -0.42378959 0.073434114 0
3.0150001 -0.42807364 0.073812932 0
3.0110002 -0.43219894 0.074317992 0
3.0070002 -0.43630984 0.074823052 0
3.0040002 -0.44055781 0.075201869 0
3.0000002 -0.44464162 0.075706899 0
2.9960003 -0.44871101 0.076211959 0
2.9930003 -0.45292291 0.076590776 0
3.1460001 -0.27880308 0.052318752 0
3.1420002 -0.28341001 0.052831024 0
3.1380002 -0.28800252 0.053343296 0
3.1340003 -0.2925806 0.053855568 0
3.1300001 -0.2971442 0.05436787 0
3.1260002 -0.30169341 0.054880142 0
3.1220002 -0.30622819 0.055392414 0
3.1180003 -0.31074855 0.055904716 0
3.0330002 -0.40695646 0.0667907 0
3.0290003 -0.41115034 0.067302972 0
3.0260003 -0.41547045 0.067687184 0
3.0220003 -0.41963723 0.068199456 0
3.0180001 -0.42378959 0.068711758 0
3.0150001 -0.42807364 0.069095999 0
3.0110002 -0.43219894 0.069608241 0
3.0070002 -0.43630984 0.070120513 0
3.0040002 -0.44055781 0.070504755 0
3.0000002 -0.44464162 0.071017027 0
2.9960003 -0.44871101 0.071529299 0
2.9930003 -0.45292291 0.071913511 0
3.1220002 -0.30622819 0.050482452 0
3.1180003 -0.31074855 0.051001936 0
3.0330002 -0.40695646 0.062041283 0
3.0290003 -0.41115034 0.062560767 0
3.0260003 -0.41547045 0.062950402 0
3.0220003 -0.41963723 0.063469887 0
3.0180001 -0.42378959 0.063989401 0
3.0150001 -0.42807364 0.064379007 0
3.0110002 -0.43219894 0.064898491 0
3.0070002 -0.43630984 0.065418005 0
3.0040002 -0.44055781 0.065807611 0
3.0000002 -0.44464162 0.066327095 0
2.9960003 -0.44871101 0.066846579 0
2.9930003 -0.45292291 0.067236215 0
3.0330002 -0.40695646 0.057291836 0
3.0290003 -0.41115034 0.057818562 0
3.0260003 -0.41547045 0.058213562 0
3.0220003 -0.41963723 0.058740288 0
3.0180001 -0.42378959 0.059267014 0
3.0150001 -0.42807364 0.059662044 0
3.0110002 -0.43219894 0.06018877 0
3.0070002 -0.43630984 0.060715467 0
3.0040002 -0.44055781 0.061110497 0
3.0000002 -0.44464162 0.061637223 0
2.9960003 -0.44871101 0.062163919 0
2.9930003 -0.45292291 0.062558949 0
3.0330002 -0.40695646 0.052542418 0
3.0290003 -0.41115034 0.053076327 0
3.0260003 -0.41547045 0.053476781 0
3.0220003 -0.41963723 0.054010689 0
3.0180001 -0.42378959 0.054544657 0
3.0150001 -0.42807364 0.054945111 0
3.0110002 -0.43219894 0.05547902 0
3.0070002 -0.43630984 0.056012928 0
3.0040002 -0.44055781 0.056413382 0
3.0000002 -0.44464162 0.056947321 0
2.9960003 -0.44871101 0.057481229 0
2.9930003 -0.45292291 0.057881653 0
3.0150001 -0.42807364 0.050228149 0
3.0110002 -0.43219894 0.050769269 0
3.0070002 -0.43630984 0.05131042 0
3.0040002 -0.44055781 0.051716268 0
3.0000002 -0.44464162 0.052257389 0
2.9960003 -0.44871101 0.052798539 0
2.9930003 -0.45292291 0.053204417 0
