# .PCD v0.7 - Point Cloud Data file format
VERSION 0.7
FIELDS x y z intensity
SIZE 4 4 4 4
TYPE F F F F
COUNT 1 1 1 1
WIDTH 1198
HEIGHT 1
VIEWPOINT 0 0 0 1 0 0 0
POINTS 1198
DATA ascii
6.3640003 1.5031394 1.1247802 0
6.3630004 1.4921235 1.1246593 0
6.3630004 1.4813673 1.1246593 0
6.3650002 1.4711199 1.1249009 0
6.3670006 1.4608654 1.1251427 0
6.3710003 1.451105 1.1256261 0
6.3750005 1.4413301 1.1261095 0
6.3810005 1.4320351 1.1268346 0
6.3600006 1.5128511 1.113546 0
6.3580003 1.5015808 1.113308 0
6.3570004 1.4905758 1.1131889 0
6.3580003 1.4800867 1.113308 0
6.3590002 1.4695939 1.1134269 0
6.3610005 1.4593501 1.1136651 0
6.3640003 1.4493498 1.1140223 0
6.3690004 1.4398365 1.1146175 0
6.3740005 1.4303052 1.1152128 0
6.3800006 1.4210012 1.1159271 0
6.3880005 1.4121625 1.1168795 0
6.3580003 1.5230751 1.1025609 0
6.3550005 1.5115433 1.1022091 0
6.3530002 1.500282 1.1019746 0
6.3520002 1.4892862 1.1018573 0
6.3520002 1.4785498 1.1018573 0
6.3540006 1.4683223 1.1020919 0
6.3560004 1.4580874 1.1023263 0
6.3590002 1.4480962 1.1026781 0
6.3640003 1.438592 1.1032643 0
6.3690004 1.4290696 1.1038506 0
6.3750005 1.4197745 1.1045541 0
6.3830004 1.4109449 1.105492 0
6.3920002 1.4023281 1.1065472 0
6.3590002 1.5340873 1.0919292 0
6.3540006 1.5220217 1.091352 0
6.3510003 1.5104971 1.0910057 0
6.3500004 1.4995029 1.0908902 0
6.3490005 1.4885123 1.0907748 0
6.3490005 1.4777814 1.0907748 0
6.3510003 1.4675592 1.0910057 0
6.3530002 1.4573298 1.0912365 0
6.3560004 1.4473439 1.0915829 0
6.3600006 1.4375962 1.0920447 0
6.3650002 1.428081 1.0926218 0
6.3710003 1.4187933 1.0933145 0
6.3780003 1.4097273 1.0941226 0
6.3870006 1.4011196 1.0951617 0
6.3550005 1.5330267 1.0807258 0
6.3510003 1.5212315 1.0802711 0
6.3490005 1.509974 1.0800439 0
6.3470006 1.4987236 1.0798167 0
6.3460002 1.4877384 1.079703 0
6.3470006 1.4772692 1.0798167 0
6.3480005 1.4667963 1.0799303 0
6.3500004 1.4565723 1.0801575 0
6.3540006 1.4468426 1.0806121 0
6.3580003 1.4370984 1.0810666 0
6.3630004 1.4275868 1.0816349 0
6.3680005 1.4180574 1.082203 0
6.3750005 1.4089968 1.0829985 0
6.3840003 1.4003944 1.0840212 0
6.3940005 1.3919996 1.0851578 0
6.3600006 1.5451032 1.0705433 0
6.3540006 1.5327616 1.0698723 0
6.3500004 1.5209682 1.0694249 0
6.3470006 1.5094509 1.0690894 0
6.3460002 1.4984639 1.0689775 0
6.3450003 1.4874804 1.0688657 0
6.3460002 1.477013 1.0689775 0
6.3470006 1.466542 1.0690894 0
6.3490005 1.4563197 1.069313 0
6.3520002 1.446341 1.0696485 0
6.3560004 1.4366004 1.0700959 0
6.3610005 1.4270927 1.0706551 0
6.3670006 1.4178121 1.0713261 0
6.3740005 1.4087533 1.072109 0
6.3820004 1.399911 1.0730036 0
6.3910003 1.3912798 1.0740101 0
6.3580003 1.5445693 1.0595725 0
6.3530002 1.5324963 1.0590223 0
6.3490005 1.5207049 1.0585822 0
6.3470006 1.5094509 1.0583621 0
6.3450003 1.4982041 1.0581421 0
6.3450003 1.4874804 1.0581421 0
6.3450003 1.4767568 1.0581421 0
6.3460002 1.4662875 1.0582521 0
6.3490005 1.4563197 1.0585822 0
6.3520002 1.446341 1.0589123 0
6.3560004 1.4366004 1.0593524 0
6.3600006 1.4268456 1.0597925 0
6.3660002 1.4175667 1.0604527 0
6.3730001 1.4085097 1.0612229 0
6.3810005 1.3996693 1.0621033 0
6.3900003 1.39104 1.0630935 0
6.4020004 1.3830923 1.0644139 0
6.3600006 1.5451032 1.0490419 0
6.3540006 1.5327616 1.0483924 0
6.3500004 1.5209682 1.0479596 0
6.3480005 1.5097126 1.0477431 0
6.3460002 1.4984639 1.0475266 0
6.3460002 1.4877384 1.0475266 0
6.3460002 1.477013 1.0475266 0
6.3470006 1.466542 1.047635 0
6.3490005 1.4563197 1.0478513 0
6.3520002 1.446341 1.0481759 0
6.3560004 1.4366004 1.0486089 0
6.3610005 1.4270927 1.0491501 0
6.3670006 1.4178121 1.0497994 0
6.3730001 1.4085097 1.0504488 0
6.3810005 1.3996693 1.0513146 0
6.3900003 1.39104 1.0522887 0
6.4020004 1.3830923 1.0535874 0
6.3610005 1.5453702 1.0383976 0
6.3550005 1.5330267 1.0377591 0
6.3510003 1.5212315 1.0373333 0
6.3490005 1.509974 1.0371205 0
6.3470006 1.4987236 1.0369077 0
6.3470006 1.4879965 1.0369077 0
6.3470006 1.4772692 1.0369077 0
6.3480005 1.4667963 1.0370141 0
6.3510003 1.4568248 1.0373333 0
6.3540006 1.4468426 1.0376526 0
6.3580003 1.4370984 1.0380783 0
6.3620005 1.4273398 1.038504 0
6.3680005 1.4180574 1.0391426 0
6.3750005 1.4089968 1.0398875 0
6.3820004 1.399911 1.0406325 0
6.3920002 1.3915197 1.0416968 0
6.4030004 1.3833305 1.0428674 0
6.3640003 1.5461711 1.027959 0
6.3590002 1.5340873 1.0274358 0
6.3540006 1.5220217 1.0269127 0
6.3520002 1.5107586 1.0267035 0
6.3500004 1.4995029 1.0264943 0
6.3490005 1.4885123 1.0263896 0
6.3500004 1.4780376 1.0264943 0
6.3510003 1.4675592 1.0265988 0
6.3530002 1.4573298 1.0268081 0
6.3560004 1.4473439 1.027122 0
6.3600006 1.4375962 1.0275404 0
6.3640003 1.427834 1.027959 0
6.3700004 1.418548 1.0285866 0
6.3770003 1.4094838 1.029319 0
6.3850002 1.4006361 1.0301559 0
6.3940005 1.3919996 1.0310977 0
6.3620005 1.5348828 1.0169954 0
6.3580003 1.5230751 1.0165842 0
6.3550005 1.5115433 1.0162756 0
6.3530002 1.500282 1.01607 0
6.3520002 1.4892862 1.0159672 0
6.3530002 1.4788059 1.01607 0
6.3540006 1.4683223 1.0161729 0
6.3560004 1.4580874 1.0163784 0
6.3590002 1.4480962 1.0166869 0
6.3630004 1.4383429 1.0170982 0
6.3680005 1.4288224 1.0176123 0
6.3730001 1.4192839 1.0181264 0
6.3800006 1.4102144 1.018846 0
6.3880005 1.4013612 1.0196686 0
6.3980002 1.3929591 1.0206968 0
6.3680005 1.5364739 1.0068471 0
6.3630004 1.5243918 1.0063421 0
6.3600006 1.5128511 1.0060391 0
6.3580003 1.5015808 1.005837 0
6.3570004 1.4905758 1.005736 0
6.3570004 1.4798305 1.005736 0
6.3590002 1.4695939 1.0059381 0
6.3600006 1.4590976 1.0060391 0
6.3630004 1.4490991 1.0063421 0
6.3670006 1.4393387 1.0067462 0
6.3720002 1.4298109 1.0072511 0
6.3780003 1.4205104 1.0078573 0
6.3850002 1.4114319 1.0085644 0
6.3930006 1.4025699 1.0093725 0
6.4030004 1.3941587 1.0103827 0
6.3690004 1.525972 0.99618125 0
6.3660002 1.5144203 0.99588358 0
6.3640003 1.5031394 0.99568522 0
6.3620005 1.4918655 0.99548686 0
6.3620005 1.4811113 0.99548686 0
6.3640003 1.4708656 0.99568522 0
6.3660002 1.4606127 0.99588358 0
6.3690004 1.4506035 0.99618125 0
6.3730001 1.4408321 0.9965781 0
6.3770003 1.4310466 0.99697495 0
6.3830004 1.4217371 0.99757016 0
6.3900003 1.4126495 0.99826467 0
6.3990002 1.4040201 0.99915755 0
6.3730001 1.5162512 0.98580384 0
6.3710003 1.5049576 0.98560917 0
6.3700004 1.4939291 0.98551166 0
6.3700004 1.4831604 0.98551166 0
6.3700004 1.4723916 0.98551166 0
6.3720002 1.4621279 0.98570645 0
6.3750005 1.4521078 0.98599875 0
6.3790002 1.4423257 0.98638833 0
6.3840003 1.4327765 0.98687541 0
6.3900003 1.4234543 0.98745978 0
6.3980002 1.4145976 0.98823905 0
6.3790002 1.5070355 0.97560334 0
6.3780003 1.4959927 0.97550774 0
6.3770003 1.4849533 0.97541213 0
6.3780003 1.4744263 0.97550774 0
6.3800006 1.4641483 0.97569907 0
6.3830004 1.4541136 0.97598588 0
6.3870006 1.4443172 0.97636819 0
6.3920002 1.4347533 0.97684622 0
6.3990002 1.4256622 0.97751534 0
6.3880005 1.4985721 0.9656626 0
6.3880005 1.487771 0.9656626 0
6.3880005 1.4769697 0.9656626 0
6.3900003 1.4666736 0.96585023 0
6.3930006 1.4566211 0.96613157 0
6.3970003 1.4468064 0.96650684 0
6.4020004 1.4372246 0.96697581 0
6.4010005 1.4802761 0.95605731 0
6.4020004 1.4697039 0.95614934 0
6.4050002 1.4596297 0.95642531 0
6.4090004 1.4497936 0.95679331 0
6.3660002 1.4928973 0.94207597 0
6.3830004 1.4864902 0.94360924 0
6.4010005 1.4802761 0.94523263 0
6.3870006 1.4767154 0.93317068 0
6.4030004 1.4699565 0.93458474 0
6.3060002 1.5413404 0.91535795 0
6.3060002 1.5306871 0.91535795 0
6.3090005 1.5208293 0.9156177 0
6.3140006 1.5114875 0.91605067 0
6.3210006 1.5026505 0.91665673 0
6.3070002 1.5522642 0.90478945 0
6.3050003 1.5410717 0.90461993 0
6.3060002 1.5306871 0.90470469 0
6.3080006 1.5205642 0.90487432 0
6.3130002 1.511224 0.90529811 0
6.3210006 1.5026505 0.90597641 0
6.3320003 1.4948274 0.90690899 0
6.3120003 1.5642812 0.89454925 0
6.3070002 1.5522642 0.8941344 0
6.3050003 1.5410717 0.89396846 0
6.3060002 1.5306871 0.89405137 0
6.3080006 1.5205642 0.89421737 0
6.3130002 1.511224 0.89463222 0
6.3210006 1.5026505 0.8952961 0
6.3320003 1.4948274 0.89620876 0
6.3460002 1.4877384 0.8973704 0
6.3130002 1.5645536 0.88396633 0
6.3070002 1.5522642 0.88347924 0
6.3050003 1.5410717 0.88331693 0
6.3060002 1.5306871 0.88339818 0
6.3080006 1.5205642 0.88356048 0
6.3130002 1.511224 0.88396633 0
6.3210006 1.5026505 0.88461566 0
6.3320003 1.4948274 0.88550854 0
6.3460002 1.4877384 0.88664496 0
6.3130002 1.5645536 0.87330037 0
6.3070002 1.5522642 0.87282419 0
6.3050003 1.5410717 0.87266546 0
6.3060002 1.5306871 0.8727448 0
6.3080006 1.5205642 0.87290359 0
6.3130002 1.511224 0.87330037 0
6.3210006 1.5026505 0.87393534 0
6.3320003 1.4948274 0.87480837 0
6.3460002 1.4877384 0.87591946 0
6.3180003 1.5765904 0.86302233 0
6.3130002 1.5645536 0.86263448 0
6.3070002 1.5522642 0.86216909 0
6.3050003 1.5410717 0.86201394 0
6.3060002 1.5306871 0.86209154 0
6.3080006 1.5205642 0.86224669 0
6.3130002 1.511224 0.86263448 0
6.3210006 1.5026505 0.86325502 0
6.3320003 1.4948274 0.8641082 0
6.3460002 1.4877384 0.86519408 0
6.3190002 1.5768646 0.85242313 0
6.3130002 1.5645536 0.85196853 0
6.3070002 1.5522642 0.85151398 0
6.3050003 1.5410717 0.85136247 0
6.3060002 1.5306871 0.85143822 0
6.3080006 1.5205642 0.8515898 0
6.3130002 1.511224 0.85196853 0
6.3210006 1.5026505 0.85257471 0
6.3320003 1.4948274 0.85340798 0
6.3460002 1.4877384 0.85446864 0
6.3240004 1.5889213 0.84211618 0
6.3210006 1.577413 0.84189433 0
6.3130002 1.5645536 0.84130263 0
6.3070002 1.5522642 0.84085888 0
6.3050003 1.5410717 0.840711 0
6.3060002 1.5306871 0.84078497 0
6.3080006 1.5205642 0.84093285 0
6.3130002 1.511224 0.84130263 0
6.3210006 1.5026505 0.84189433 0
6.3320003 1.4948274 0.84270781 0
6.3460002 1.4877384 0.84374321 0
6.3240004 1.5889213 0.83143044 0
6.3230004 1.5779613 0.83135825 0
6.3130002 1.5645536 0.83063674 0
6.3070002 1.5522642 0.83020377 0
6.3050003 1.5410717 0.83005953 0
6.3060002 1.5306871 0.83013165 0
6.3080006 1.5205642 0.83027601 0
6.3130002 1.511224 0.83063674 0
6.3210006 1.5026505 0.83121395 0
6.3320003 1.4948274 0.83200765 0
6.3460002 1.4877384 0.83301771 0
6.3260002 1.5894732 0.8208853 0
6.3260002 1.5787839 0.8208853 0
6.3130002 1.5645536 0.81997085 0
6.3070002 1.5522642 0.81954873 0
6.3050003 1.5410717 0.81940806 0
6.3060002 1.5306871 0.81947839 0
6.3080006 1.5205642 0.81961906 0
6.3130002 1.511224 0.81997085 0
6.3210006 1.5026505 0.82053363 0
6.3320003 1.4948274 0.82130742 0
6.3460002 1.4877384 0.82229233 0
6.2320004 1.3741742 0.81427258 0
6.2480001 1.3675218 0.81539816 0
6.3300004 1.6012738 0.81047016 0
6.3280005 1.5900253 0.81033313 0
6.3260002 1.5787839 0.81019598 0
6.3130002 1.5645536 0.80930489 0
6.3070002 1.5522642 0.80889362 0
6.3050003 1.5410717 0.80875659 0
6.3060002 1.5306871 0.80882508 0
6.3080006 1.5205642 0.80896223 0
6.3130002 1.511224 0.80930489 0
6.3210006 1.5026505 0.80985326 0
6.3320003 1.4948274 0.81060719 0
6.3460002 1.4877384 0.81156683 0
6.2170005 1.3810143 0.8027246 0
6.2320004 1.3741742 0.80375278 0
6.2480001 1.3675218 0.80484951 0
6.3310003 1.6015515 0.79984033 0
6.3300004 1.5905771 0.79977357 0
6.3260002 1.5787839 0.7995066 0
6.3130002 1.5645536 0.79863894 0
6.3070002 1.5522642 0.79823852 0
6.3050003 1.5410717 0.798105 0
6.3060002 1.5306871 0.79817176 0
6.3080006 1.5205642 0.79830527 0
6.3130002 1.511224 0.79863894 0
6.3210006 1.5026505 0.79917288 0
6.3320003 1.4948274 0.79990709 0
6.3460002 1.4877384 0.80084145 0
6.2170005 1.3810143 0.79223186 0
6.2320004 1.3741742 0.79323298 0
6.2480001 1.3675218 0.79430079 0
6.3350005 1.6133683 0.78940171 0
6.3330002 1.602107 0.78927177 0
6.3330002 1.591405 0.78927177 0
6.3260002 1.5787839 0.78881723 0
6.3130002 1.5645536 0.78797305 0
6.3070002 1.5522642 0.78758347 0
6.3050003 1.5410717 0.78745353 0
6.3060002 1.5306871 0.7875185 0
6.3080006 1.5205642 0.78764844 0
6.3130002 1.511224 0.78797305 0
6.3210006 1.5026505 0.78849256 0
6.3320003 1.4948274 0.78920686 0
6.3460002 1.4877384 0.79011595 0
6.2170005 1.3810143 0.78173912 0
6.2320004 1.3741742 0.78271317 0
6.2480001 1.3675218 0.78375214 0
6.3360004 1.6136479 0.77875924 0
6.3350005 1.6026627 0.77869606 0
6.3360004 1.5922331 0.77875924 0
6.3260002 1.5787839 0.77812791 0
6.3130002 1.5645536 0.77730715 0
6.3070002 1.5522642 0.77692831 0
6.3050003 1.5410717 0.77680206 0
6.3060002 1.5306871 0.77686524 0
6.3080006 1.5205642 0.77699149 0
6.3130002 1.511224 0.77730715 0
6.3210006 1.5026505 0.77781224 0
6.3320003 1.4948274 0.77850664 0
6.3460002 1.4877384 0.77939051 0
6.2170005 1.3810143 0.77124637 0
6.2320004 1.3741742 0.77219331 0
6.2480001 1.3675218 0.77320349 0
6.3400002 1.6254808 0.76829708 0
6.3380003 1.614207 0.76817447 0
6.3380003 1.603496 0.76817447 0
6.3400002 1.5933369 0.76829708 0
6.3260002 1.5787839 0.76743853 0
6.3130002 1.5645536 0.76664126 0
6.3070002 1.5522642 0.76627326 0
6.3050003 1.5410717 0.76615059 0
6.3060002 1.5306871 0.76621187 0
6.3080006 1.5205642 0.76633459 0
6.3130002 1.511224 0.76664126 0
6.3210006 1.5026505 0.76713187 0
6.3320003 1.4948274 0.76780647 0
6.3460002 1.4877384 0.76866508 0
6.2170005 1.3810143 0.76075363 0
6.2320004 1.3741742 0.76167357 0
6.2480001 1.3675218 0.76265478 0
6.3410006 1.6257623 0.75764203 0
6.3400002 1.6147661 0.75758249 0
6.3410006 1.6043295 0.75764203 0
6.3440003 1.5944408 0.75782061 0
6.3260002 1.5787839 0.75674915 0
6.3130002 1.5645536 0.75597525 0
6.3070002 1.5522642 0.7556181 0
6.3050003 1.5410717 0.75549912 0
6.3060002 1.5306871 0.75555861 0
6.3080006 1.5205642 0.7556777 0
6.3130002 1.511224 0.75597525 0
6.3210006 1.5026505 0.75645155 0
6.3320003 1.4948274 0.7571063 0
6.3460002 1.4877384 0.75793964 0
6.2170005 1.3810143 0.75026083 0
6.2320004 1.3741742 0.75115371 0
6.2480001 1.3675218 0.75210613 0
6.3450003 1.6376115 0.7471565 0
6.3430004 1.626325 0.74704105 0
6.3430004 1.615605 0.74704105 0
6.3440003 1.6051627 0.7470988 0
6.3480005 1.5955449 0.74732965 0
6.3260002 1.5787839 0.74605978 0
6.3130002 1.5645536 0.74530935 0
6.3070002 1.5522642 0.74496305 0
6.3050003 1.5410717 0.74484766 0
6.3060002 1.5306871 0.74490535 0
6.3080006 1.5205642 0.74502081 0
6.3130002 1.511224 0.74530935 0
6.3210006 1.5026505 0.74577117 0
6.3320003 1.4948274 0.74640608 0
6.3460002 1.4877384 0.7472142 0
6.2170005 1.3810143 0.73976809 0
6.2320004 1.3741742 0.74063396 0
6.2480001 1.3675218 0.74155748 0
6.3500004 1.6497601 0.73671246 0
6.3470006 1.6381779 0.73654473 0
6.3450003 1.6268878 0.73643279 0
6.3460002 1.6164438 0.73648876 0
6.3480005 1.6062739 0.73660064 0
6.3520002 1.5966487 0.73682427 0
6.3260002 1.5787839 0.7353704 0
6.3130002 1.5645536 0.73464346 0
6.3070002 1.5522642 0.73430794 0
6.3050003 1.5410717 0.73419613 0
6.3060002 1.5306871 0.73425204 0
6.3080006 1.5205642 0.73436391 0
6.3130002 1.511224 0.73464346 0
6.3210006 1.5026505 0.73509085 0
6.3320003 1.4948274 0.73570591 0
6.3460002 1.4877384 0.73648876 0
6.2170005 1.3810143 0.72927535 0
6.2320004 1.3741742 0.7301141 0
6.2480001 1.3675218 0.73100877 0
6.3510003 1.6500452 0.72603387 0
6.3480005 1.6384611 0.72587156 0
6.3480005 1.627732 0.72587156 0
6.3490005 1.6172825 0.72592568 0
6.3520002 1.607385 0.72608799 0
6.3130002 1.5645536 0.72397757 0
6.3070002 1.5522642 0.72365284 0
6.3050003 1.5410717 0.72354466 0
6.3060002 1.5306871 0.72359872 0
6.3080006 1.5205642 0.72370702 0
6.3130002 1.511224 0.72397757 0
6.3210006 1.5026505 0.72441053 0
6.3320003 1.4948274 0.72500575 0
6.3460002 1.4877384 0.72576332 0
6.2170005 1.3810143 0.7187826 0
6.2320004 1.3741742 0.7195943 0
6.2480001 1.3675218 0.72046012 0
6.3560004 1.6622136 0.71556103 0
6.3520002 1.6503301 0.7153517 0
6.3500004 1.6390275 0.71524715 0
6.3510003 1.6285762 0.71529943 0
6.3530002 1.6184009 0.71540403 0
6.3570004 1.6087739 0.71561331 0
6.3130002 1.5645536 0.71331167 0
6.3070002 1.5522642 0.71299779 0
6.3050003 1.5410717 0.71289313 0
6.3060002 1.5306871 0.71294546 0
6.3080006 1.5205642 0.71305013 0
6.3130002 1.511224 0.71331167 0
6.3210006 1.5026505 0.7137301 0
6.3320003 1.4948274 0.71430552 0
6.3460002 1.4877384 0.71503788 0
6.2170005 1.3810143 0.70828986 0
6.2320004 1.3741742 0.7090745 0
6.2480001 1.3675218 0.70991147 0
6.3560004 1.6622136 0.70481753 0
6.3530002 1.6506151 0.70466602 0
6.3530002 1.6398771 0.70466602 0
6.3540006 1.6294205 0.70471644 0
6.3570004 1.6195192 0.70486802 0
6.3620005 1.610163 0.70512056 0
6.3130002 1.5645536 0.70264566 0
6.3070002 1.5522642 0.70234263 0
6.3050003 1.5410717 0.70224166 0
6.3060002 1.5306871 0.7022922 0
6.3080006 1.5205642 0.70239317 0
6.3130002 1.511224 0.70264566 0
6.3210006 1.5026505 0.70304978 0
6.3320003 1.4948274 0.70360535 0
6.3460002 1.4877384 0.70431244 0
6.2170005 1.3810143 0.69779706 0
6.2320004 1.3741742 0.69855464 0
6.2480001 1.3675218 0.69936275 0
6.3610005 1.6744002 0.69431758 0
6.3570004 1.6625004 0.69412273 0
6.3550005 1.6511852 0.69402528 0
6.3550005 1.6404434 0.69402528 0
6.3570004 1.6302645 0.69412273 0
6.3610005 1.6206377 0.69431758 0
6.3130002 1.5645536 0.69197977 0
6.3070002 1.5522642 0.69168758 0
6.3050003 1.5410717 0.69159019 0
6.3060002 1.5306871 0.69163889 0
6.3080006 1.5205642 0.69173628 0
6.3130002 1.511224 0.69197977 0
6.3210006 1.5026505 0.69236946 0
6.3320003 1.4948274 0.69290519 0
6.3460002 1.4877384 0.69358701 0
6.2170005 1.3810143 0.68730432 0
6.2320004 1.3741742 0.68803489 0
6.2480001 1.3675218 0.6888141 0
6.3700004 1.6877663 0.68398714 0
6.3620005 1.6746887 0.68361193 0
6.3580003 1.6627872 0.68342435 0
6.3580003 1.6520401 0.68342435 0
6.3590002 1.6415762 0.6834712 0
6.3620005 1.6316715 0.68361193 0
6.3670006 1.6223152 0.68384647 0
6.3070002 1.5522642 0.68103248 0
6.3050003 1.5410717 0.68093872 0
6.3060002 1.5306871 0.68098557 0
6.3080006 1.5205642 0.68107939 0
6.3130002 1.511224 0.68131387 0
6.3210006 1.5026505 0.68168908 0
6.3320003 1.4948274 0.68220496 0
6.3460002 1.4877384 0.68286157 0
6.2170005 1.3810143 0.67681158 0
6.2320004 1.3741742 0.67751503 0
6.2480001 1.3675218 0.67826545 0
6.3720002 1.6991194 0.67330861 0
6.3760004 1.6895088 0.67348897 0
6.3650002 1.6755545 0.67299294 0
6.3620005 1.6639345 0.67285764 0
6.3610005 1.6528952 0.67281258 0
6.3620005 1.6424259 0.67285764 0
6.3660002 1.632797 0.67303801 0
6.3070002 1.5522642 0.67037737 0
6.3050003 1.5410717 0.67028719 0
6.3060002 1.5306871 0.67033231 0
6.3080006 1.5205642 0.67042249 0
6.3130002 1.511224 0.67064798 0
6.3210006 1.5026505 0.67100871 0
6.3320003 1.4948274 0.67150474 0
6.3460002 1.4877384 0.67213607 0
6.2170005 1.3810143 0.66631883 0
6.2320004 1.3741742 0.66699529 0
6.2480001 1.3675218 0.66771674 0
6.3780003 1.7116559 0.66279602 0
6.3740005 1.6997041 0.66262281 0
6.3710003 1.6880568 0.66249293 0
6.3730001 1.6778634 0.66257954 0
6.3680005 1.6656553 0.66236305 0
6.3660002 1.65432 0.66227651 0
6.3680005 1.6441251 0.66236305 0
6.3070002 1.5522642 0.65972233 0
6.3050003 1.5410717 0.65963566 0
6.3060002 1.5306871 0.659679 0
6.3080006 1.5205642 0.6597656 0
6.3130002 1.511224 0.65998203 0
6.3210006 1.5026505 0.66032839 0
6.3320003 1.4948274 0.66080463 0
6.3460002 1.4877384 0.66141069 0
6.2170005 1.3810143 0.65582609 0
6.2320004 1.3741742 0.65647542 0
6.2480001 1.3675218 0.65716809 0
6.3890004 1.7364962 0.65246916 0
6.3840003 1.7242141 0.65226173 0
6.3800006 1.712244 0.65209579 0
6.3780003 1.7008728 0.65201283 0
6.3760004 1.6895088 0.65192986 0
6.3770003 1.6790179 0.65197134 0
6.3800006 1.6690969 0.65209579 0
6.3070002 1.5522642 0.64906722 0
6.3050003 1.5410717 0.64898419 0
6.3060002 1.5306871 0.64902568 0
6.3080006 1.5205642 0.64910871 0
6.3130002 1.511224 0.64931613 0
6.3210006 1.5026505 0.64964807 0
6.3320003 1.4948274 0.6501044 0
6.3460002 1.4877384 0.65068519 0
6.2170005 1.3810143 0.64533335 0
6.2320004 1.3741742 0.64595562 0
6.2480001 1.3675218 0.64661944 0
6.3950005 1.7490958 0.64190429 0
6.3900003 1.7367939 0.64170587 0
6.3870006 1.7251017 0.64158678 0
6.3840003 1.71342 0.64146775 0
6.3830004 1.7023339 0.64142811 0
6.3820004 1.6912513 0.64138842 0
6.3830004 1.6807495 0.64142811 0
6.3070002 1.5522642 0.63841212 0
6.3050003 1.5410717 0.63833272 0
6.3060002 1.5306871 0.63837242 0
6.3080006 1.5205642 0.63845181 0
6.3130002 1.511224 0.63865018 0
6.3210006 1.5026505 0.63896769 0
6.3320003 1.4948274 0.63940418 0
6.3460002 1.4877384 0.63995975 0
6.2170005 1.3810143 0.63484055 0
6.2320004 1.3741742 0.63543582 0
6.2480001 1.3675218 0.63607079 0
6.4000006 1.7614158 0.63127983 0
6.3960004 1.7493953 0.63112831 0
6.3930006 1.7376869 0.6310147 0
6.3910003 1.7262849 0.63093895 0
6.3900003 1.7151842 0.63090104 0
6.3900003 1.7043794 0.63090104 0
6.3070002 1.5522642 0.62775701 0
6.3050003 1.5410717 0.62768126 0
6.3060002 1.5306871 0.6277191 0
6.3080006 1.5205642 0.62779486 0
6.3130002 1.511224 0.62798429 0
6.3210006 1.5026505 0.62828732 0
6.3320003 1.4948274 0.62870401 0
6.3460002 1.4877384 0.62923431 0
6.2170005 1.3810143 0.62434781 0
6.2320004 1.3741742 0.62491602 0
6.2480001 1.3675218 0.62552208 0
6.4110003 1.7864147 0.62085384 0
6.4060006 1.7740569 0.62067348 0
6.4030004 1.7623196 0.62056524 0
6.4000006 1.7505931 0.62045699 0
6.3980002 1.7391748 0.62038487 0
6.3970003 1.7280599 0.62034875 0
6.3970003 1.7172424 0.62034875 0
6.3070002 1.5522642 0.61710191 0
6.3050003 1.5410717 0.61702979 0
6.3060002 1.5306871 0.61706585 0
6.3080006 1.5205642 0.61713803 0
6.3130002 1.511224 0.61731839 0
6.3210006 1.5026505 0.617607 0
6.3320003 1.4948274 0.61800385 0
6.3460002 1.4877384 0.61850888 0
6.2170005 1.3810143 0.61385506 0
6.2320004 1.3741742 0.61439621 0
6.2480001 1.3675218 0.61497343 0
6.4220004 1.8114933 0.61038816 0
6.4170003 1.7990973 0.6102168 0
6.4120002 1.7867196 0.61004543 0
6.4090004 1.774966 0.60994262 0
6.4070005 1.7635245 0.60987407 0
6.4050002 1.7520901 0.60980552 0
6.4050002 1.7412583 0.60980552 0
6.3070002 1.5522642 0.6064468 0
6.3050003 1.5410717 0.60637832 0
6.3060002 1.5306871 0.60641253 0
6.3080006 1.5205642 0.60648108 0
6.3130002 1.511224 0.60665244 0
6.3210006 1.5026505 0.60692662 0
6.3320003 1.4948274 0.60730362 0
6.3460002 1.4877384 0.60778344 0
6.2170005 1.3810143 0.60336232 0
6.2320004 1.3741742 0.60387641 0
6.2480001 1.3675218 0.60442472 0
6.4260006 1.8344665 0.59965551 0
6.4270005 1.823907 0.59968793 0
6.4230003 1.8118016 0.59955806 0
6.4190001 1.7997105 0.59942818 0
6.4150004 1.7876341 0.59929836 0
6.4130006 1.7761782 0.59923339 0
6.4120002 1.7650306 0.5992009 0
6.4120002 1.7541862 0.5992009 0
6.3070002 1.5522642 0.5957917 0
6.3050003 1.5410717 0.59572679 0
6.3060002 1.5306871 0.59575927 0
6.3080006 1.5205642 0.59582424 0
6.3130002 1.511224 0.59598655 0
6.3210006 1.5026505 0.5962463 0
6.3320003 1.4948274 0.59660345 0
6.3460002 1.4877384 0.597058 0
6.2170005 1.3810143 0.59286958 0
6.2320004 1.3741742 0.59335661 0
6.2480001 1.3675218 0.59387606 0
6.4240003 1.8447084 0.58872437 0
6.4230003 1.8335302 0.58869374 0
6.4250002 1.8232864 0.58875507 0
6.4250002 1.8124185 0.58875507 0
6.4220004 1.8006307 0.5886631 0
6.4200006 1.7891585 0.58860177 0
6.4200006 1.7782996 0.58860177 0
6.4200006 1.7674407 0.58860177 0
6.3070002 1.5522642 0.58513665 0
6.3050003 1.5410717 0.58507532 0
6.3060002 1.5306871 0.58510596 0
6.3080006 1.5205642 0.58516729 0
6.3130002 1.511224 0.58532059 0
6.3210006 1.5026505 0.58556592 0
6.3320003 1.4948274 0.58590323 0
6.3460002 1.4877384 0.58633256 0
6.2170005 1.3810143 0.58237684 0
6.2320004 1.3741742 0.58283675 0
6.2480001 1.3675218 0.58332741 0
6.4230003 1.8443947 0.57782942 0
6.4230003 1.8335302 0.57782942 0
6.4240003 1.8229762 0.57785827 0
6.4270005 1.8130355 0.57794487 0
6.4270005 1.802164 0.57794487 0
6.4270005 1.7912923 0.57794487 0
6.4280005 1.7807238 0.57797372 0
6.4290004 1.7701516 0.57800257 0
6.3070002 1.5522642 0.57448155 0
6.3050003 1.5410717 0.57442379 0
6.3060002 1.5306871 0.57445264 0
6.3080006 1.5205642 0.5745104 0
6.3130002 1.511224 0.5746547 0
6.3210006 1.5026505 0.57488561 0
6.3320003 1.4948274 0.57520306 0
6.3460002 1.4877384 0.57560712 0
6.2170005 1.3810143 0.57188404 0
6.2320004 1.3741742 0.572317 0
6.2480001 1.3675218 0.5727787 0
6.4240003 1.8447084 0.5669921 0
6.4240003 1.8338423 0.5669921 0
6.4250002 1.8232864 0.56701916 0
6.4280005 1.813344 0.56710035 0
6.4320002 1.8036971 0.56720859 0
6.4360003 1.7940359 0.56731677 0
6.4380002 1.7837542 0.56737089 0
6.3070002 1.5522642 0.56382644 0
6.3050003 1.5410717 0.56377232 0
6.3060002 1.5306871 0.56379938 0
6.3080006 1.5205642 0.5638535 0
6.3130002 1.511224 0.5639888 0
6.3210006 1.5026505 0.56420529 0
6.3320003 1.4948274 0.56450284 0
6.3460002 1.4877384 0.56488168 0
6.2170005 1.3810143 0.56139129 0
6.2320004 1.3741742 0.56179714 0
6.2480001 1.3675218 0.56223005 0
6.4270005 1.8456502 0.55620176 0
6.4270005 1.8347784 0.55620176 0
6.4280005 1.8242172 0.55622697 0
6.4310002 1.8142692 0.55630279 0
6.4350004 1.804617 0.55640376 0
6.4420004 1.7958649 0.55658054 0
6.3070002 1.5522642 0.55317134 0
6.3050003 1.5410717 0.55312085 0
6.3060002 1.5306871 0.55314612 0
6.3090005 1.5208293 0.55322182 0
6.3130002 1.511224 0.55332285 0
6.3210006 1.5026505 0.55352491 0
6.3320003 1.4948274 0.55380267 0
6.3460002 1.4877384 0.55415624 0
6.2170005 1.3810143 0.55089855 0
6.2320004 1.3741742 0.55127734 0
6.2480001 1.3675218 0.5516814 0
6.4330006 1.8475333 0.54547089 0
6.4320002 1.8363388 0.54544747 0
6.4330006 1.8257685 0.54547089 0
6.4360003 1.8158114 0.54554123 0
6.4400005 1.8061503 0.54563504 0
6.4470005 1.7973891 0.5457992 0
6.3070002 1.5522642 0.54251623 0
6.3050003 1.5410717 0.54246938 0
6.3060002 1.5306871 0.54249281 0
6.3090005 1.5208293 0.54256314 0
6.3130002 1.511224 0.54265696 0
6.3210006 1.5026505 0.54284453 0
6.3320003 1.4948274 0.5431025 0
6.3460002 1.4877384 0.54343081 0
6.2170005 1.3810143 0.54040581 0
6.2320004 1.3741742 0.54075754 0
6.2480001 1.3675218 0.54113275 0
6.4400005 1.8388352 0.53474003 0
6.4400005 1.8279405 0.53474003 0
6.4430003 1.8179706 0.53480494 0
6.4480004 1.8086034 0.53491318 0
6.3070002 1.5522642 0.53186119 0
6.3050003 1.5410717 0.53181785 0
6.3060002 1.5306871 0.53183949 0
6.3090005 1.5208293 0.53190446 0
6.3130002 1.511224 0.531991 0
6.3210006 1.5026505 0.53216422 0
6.3320003 1.4948274 0.53240228 0
6.3460002 1.4877384 0.53270531 0
6.2170005 1.3810143 0.52991307 0
6.2320004 1.3741742 0.53023773 0
6.2480001 1.3675218 0.53058404 0
6.4520006 1.8316634 0.52408314 0
6.4470005 1.8192046 0.52398396 0
6.4410005 1.806457 0.52386487 0
6.4350004 1.7937311 0.52374583 0
6.3070002 1.5522642 0.52120602 0
6.3050003 1.5410717 0.52116638 0
6.3060002 1.5306871 0.52118623 0
6.3090005 1.5208293 0.52124578 0
6.3130002 1.511224 0.52132511 0
6.3210006 1.5026505 0.52148384 0
6.3320003 1.4948274 0.52170211 0
6.3460002 1.4877384 0.52197987 0
6.2170005 1.3810143 0.51942027 0
6.2320004 1.3741742 0.51971793 0
6.2480001 1.3675218 0.52003539 0
6.4450002 1.8403956 0.51304018 0
6.4390006 1.8276302 0.512932 0
6.4330006 1.8148862 0.51282376 0
6.4280005 1.8024704 0.51273358 0
6.4220004 1.7897681 0.51262534 0
6.3070002 1.5522642 0.51055098 0
6.3050003 1.5410717 0.51051491 0
6.3060002 1.5306871 0.51053292 0
6.3090005 1.5208293 0.51058704 0
6.3130002 1.511224 0.51065922 0
6.3210006 1.5026505 0.51080352 0
6.3320003 1.4948274 0.51100194 0
6.3460002 1.4877384 0.51125443 0
6.2170005 1.3810143 0.50892752 0
6.2320004 1.3741742 0.50919813 0
6.2480001 1.3675218 0.50948673 0
6.4370003 1.8378991 0.50200629 0
6.4320002 1.8254582 0.50192517 0
6.4260006 1.812727 0.50182778 0
6.4210005 1.8003241 0.50174659 0
6.3590002 1.663074 0.50074005 0
6.3070002 1.5522642 0.49989587 0
6.3050003 1.5410717 0.49986339 0
6.3060002 1.5306871 0.49987963 0
6.3090005 1.5208293 0.49992836 0
6.3130002 1.511224 0.49999326 0
6.3210006 1.5026505 0.50012314 0
6.3320003 1.4948274 0.50030172 0
6.3460002 1.4877384 0.50052899 0
6.2170005 1.3810143 0.49843478 0
6.2320004 1.3741742 0.4986783 0
6.2480001 1.3675218 0.49893805 0
6.4340005 1.8369629 0.49107343 0
6.4280005 1.8242172 0.49098685 0
6.4230003 1.8118016 0.4909147 0
6.4170003 1.7990973 0.49082813 0
6.3620005 1.6746887 0.49003446 0
6.3560004 1.6622136 0.48994786 0
6.3510003 1.6500452 0.48987573 0
6.3570004 1.6195192 0.48996231 0
6.3070002 1.5522642 0.48924077 0
6.3050003 1.5410717 0.48921192 0
6.3060002 1.5306871 0.48922634 0
6.3090005 1.5208293 0.48926964 0
6.3130002 1.511224 0.48932737 0
6.3210006 1.5026505 0.4894428 0
6.3320003 1.4948274 0.48960155 0
6.3460002 1.4877384 0.48980355 0
6.2170005 1.3810143 0.48794204 0
6.2320004 1.3741742 0.48815849 0
6.2480001 1.3675218 0.48838937 0
6.4340005 1.8369629 0.48018926 0
6.4280005 1.8242172 0.48011351 0
6.4230003 1.8118016 0.48005038 0
6.4170003 1.7990973 0.47997463 0
6.3780003 1.7116559 0.47948217 0
6.3730001 1.6994117 0.47941905 0
6.3670006 1.6868951 0.4793433 0
6.3620005 1.6746887 0.47928014 0
6.3560004 1.6622136 0.47920439 0
6.3510003 1.6500452 0.47914124 0
6.3450003 1.6376115 0.47906548 0
6.3570004 1.6195192 0.47921702 0
6.3070002 1.5522642 0.47858566 0
6.3050003 1.5410717 0.47856042 0
6.3060002 1.5306871 0.47857305 0
6.3090005 1.5208293 0.47861093 0
6.3130002 1.511224 0.47866142 0
6.3210006 1.5026505 0.47876245 0
6.3320003 1.4948274 0.47890136 0
6.3460002 1.4877384 0.47907811 0
6.2170005 1.3810143 0.4774493 0
6.2320004 1.3741742 0.47763866 0
6.2480001 1.3675218 0.47784072 0
6.4370003 1.8378991 0.46933755 0
6.4310002 1.825148 0.46927261 0
6.4250002 1.8124185 0.46920767 0
6.4200006 1.8000174 0.46915358 0
6.4140005 1.7873294 0.46908864 0
6.3810005 1.7125381 0.46873146 0
6.3760004 1.7002884 0.46867737 0
6.3700004 1.6877663 0.46861243 0
6.3650002 1.6755545 0.46855831 0
6.3590002 1.663074 0.46849337 0
6.3540006 1.6509001 0.46843925 0
6.3480005 1.6384611 0.46837431 0
6.3070002 1.5522642 0.46793059 0
6.3050003 1.5410717 0.46790892 0
6.3060002 1.5306871 0.46791977 0
6.3090005 1.5208293 0.46795222 0
6.3130002 1.511224 0.46799552 0
6.3210006 1.5026505 0.4680821 0
6.3320003 1.4948274 0.46820116 0
6.2170005 1.3810143 0.46695653 0
6.2320004 1.3741742 0.46711886 0
6.2480001 1.3675218 0.46729204 0
6.4400005 1.8497304 0.45847502 0
6.4380002 1.8382111 0.45845699 0
6.4370003 1.8270094 0.45844796 0
6.4320002 1.8145777 0.45840287 0
6.4260006 1.8018572 0.45834875 0
6.4200006 1.7891585 0.45829463 0
6.3710003 1.6772863 0.45785272 0
6.3650002 1.6647948 0.4577986 0
6.3600006 1.6526102 0.45775351 0
6.3540006 1.6401603 0.45769939 0
6.3070002 1.5522642 0.45727548 0
6.3050003 1.5410717 0.45725745 0
6.3060002 1.5306871 0.45726648 0
6.3090005 1.5208293 0.45729354 0
6.3130002 1.511224 0.4573296 0
6.3210006 1.5026505 0.45740175 0
6.2120004 1.4007552 0.45641869 0
6.2170005 1.3810143 0.45646378 0
6.2320004 1.3741742 0.45659906 0
6.2480001 1.3675218 0.45674336 0
6.4400005 1.8497304 0.44758001 0
6.4380002 1.8382111 0.44756559 0
6.4380002 1.8273197 0.44756559 0
6.4410005 1.8173538 0.44758725 0
6.4370003 1.8052304 0.44755837 0
6.4320002 1.7928165 0.44752228 0
6.3070002 1.5522642 0.4466204 0
6.3050003 1.5410717 0.44660598 0
6.3060002 1.5306871 0.44661319 0
6.3090005 1.5208293 0.44663483 0
6.3130002 1.511224 0.44666368 0
6.2120004 1.4007552 0.44593495 0
6.2070003 1.3890358 0.44589886 0
6.2170005 1.3810143 0.44597101 0
6.2320004 1.3741742 0.44607925 0
6.2480001 1.3675218 0.44619471 0
6.4400005 1.8497304 0.43668503 0
6.4380002 1.8382111 0.43667421 0
6.4380002 1.8273197 0.43667421 0
6.4410005 1.8173538 0.43669042 0
6.4460006 1.8079902 0.43671748 0
6.4530005 1.7992183 0.43675536 0
6.3050003 1.5410717 0.43595448 0
6.3060002 1.5306871 0.43595988 0
6.2170005 1.4124926 0.43547827 0
6.2120004 1.4007552 0.43545121 0
6.2070003 1.3890358 0.43542415 0
6.2170005 1.3810143 0.43547827 0
6.2320004 1.3741742 0.43555945 0
6.2480001 1.3675218 0.43564603 0
6.4400005 1.8497304 0.42579001 0
6.4380002 1.8382111 0.4257828 0
6.4380002 1.8273197 0.4257828 0
6.4410005 1.8173538 0.42579362 0
6.4460006 1.8079902 0.42581165 0
6.4530005 1.7992183 0.42583692 0
6.2170005 1.4124926 0.42498553 0
6.2120004 1.4007552 0.42496747 0
6.2070003 1.3890358 0.42494944 0
6.2170005 1.3810143 0.42498553 0
6.2320004 1.3741742 0.42503965 0
6.2480001 1.3675218 0.42509735 0
6.4400005 1.8497304 0.41489503 0
6.4380002 1.8382111 0.41489142 0
6.4380002 1.8273197 0.41489142 0
6.4410005 1.8173538 0.41489682 0
6.4460006 1.8079902 0.41490585 0
6.4530005 1.7992183 0.41491845 0
6.2170005 1.4124926 0.41449276 0
6.2120004 1.4007552 0.41448376 0
6.2070003 1.3890358 0.41447473 0
6.2170005 1.3810143 0.41449276 0
6.2320004 1.3741742 0.41451982 0
6.2480001 1.3675218 0.4145487 0
6.4400005 1.8497304 0.40400001 0
6.4380002 1.8382111 0.40400001 0
6.4380002 1.8273197 0.40400001 0
6.4410005 1.8173538 0.40400001 0
6.4460006 1.8079902 0.40400001 0
6.4530005 1.7992183 0.40400001 0
6.2220006 1.4242481 0.40400001 0
6.2170005 1.4124926 0.40400001 0
6.2120004 1.4007552 0.40400001 0
6.2070003 1.3890358 0.40400001 0
6.2170005 1.3810143 0.40400001 0
6.2320004 1.3741742 0.40400001 0
6.2480001 1.3675218 0.40400001 0
6.4400005 1.8497304 0.393105 0
6.4380002 1.8382111 0.39310861 0
6.4380002 1.8273197 0.39310861 0
6.4410005 1.8173538 0.39310321 0
6.4460006 1.8079902 0.39309418 0
6.4530005 1.7992183 0.39308158 0
6.2170005 1.4124926 0.39350727 0
6.2120004 1.4007552 0.39351627 0
6.2170005 1.3810143 0.39350727 0
6.2320004 1.3741742 0.39348021 0
6.2480001 1.3675218 0.39345133 0
6.4400005 1.8497304 0.38221002 0
6.4380002 1.8382111 0.38221723 0
6.4380002 1.8273197 0.38221723 0
6.4410005 1.8173538 0.38220641 0
6.4460006 1.8079902 0.38218838 0
6.4530005 1.7992183 0.38216311 0
6.2170005 1.4124926 0.3830145 0
6.2120004 1.4007552 0.38303256 0
6.2170005 1.3810143 0.3830145 0
6.2320004 1.3741742 0.38296038 0
6.4400005 1.8497304 0.371315 0
6.4380002 1.8382111 0.37132582 0
6.4380002 1.8273197 0.37132582 0
6.4410005 1.8173538 0.37130961 0
6.4460006 1.8079902 0.37128255 0
6.4530005 1.7992183 0.37124467 0
6.2320004 1.3741742 0.37244058 0
6.4400005 1.8497304 0.36042002 0
6.4380002 1.8382111 0.36043444 0
6.4380002 1.8273197 0.36043444 0
6.4410005 1.8173538 0.36041278 0
6.4460006 1.8079902 0.36037672 0
6.4530005 1.7992183 0.3603262 0
6.4400005 1.8497304 0.349525 0
6.4380002 1.8382111 0.34954304 0
6.4380002 1.8273197 0.34954304 0
6.4410005 1.8173538 0.34951597 0
6.4460006 1.8079902 0.34947088 0
6.4530005 1.7992183 0.34940776 0
6.2420006 1.408223 0.35131079 0
6.2450004 1.3984264 0.35128373 0
6.4400005 1.8497304 0.33863002 0
6.4380002 1.8382111 0.33865166 0
6.4380002 1.8273197 0.33865166 0
6.4410005 1.8173538 0.33861917 0
6.4460006 1.8079902 0.33856505 0
6.4530005 1.7992183 0.33848929 0
6.2450004 1.3984264 0.34074047 0
6.4400005 1.8497304 0.32773501 0
6.4380002 1.8382111 0.32776028 0
6.4380002 1.8273197 0.32776028 0
6.4410005 1.8173538 0.32772237 0
6.4460006 1.8079902 0.32765925 0
6.4530005 1.7992183 0.32757086 0
6.4400005 1.8497304 0.31683999 0
6.4380002 1.8382111 0.31686887 0
6.4380002 1.8273197 0.31686887 0
6.4410005 1.8173538 0.31682557 0
6.4460006 1.8079902 0.31675342 0
6.4530005 1.7992183 0.31665242 0
6.4400005 1.8497304 0.30594498 0
6.4380002 1.8382111 0.30597746 0
6.4380002 1.8273197 0.30597746 0
6.4410005 1.8173538 0.30592877 0
6.4460006 1.8079902 0.30584759 0
6.4530005 1.7992183 0.30573395 0
6.4400005 1.8497304 0.29505 0
6.4380002 1.8382111 0.29508609 0
6.4380002 1.8273197 0.29508609 0
6.4410005 1.8173538 0.29503196 0
6.4460006 1.8079902 0.29494175 0
6.4530005 1.7992183 0.29481548 0
6.4400005 1.8497304 0.28415501 0
6.4380002 1.8382111 0.28419468 0
6.4380002 1.8273197 0.28419468 0
6.4410005 1.8173538 0.28413516 0
6.4460006 1.8079902 0.28403595 0
6.4530005 1.7992183 0.28389704 0
6.4400005 1.8497304 0.27326 0
6.4380002 1.8382111 0.27330327 0
6.4380002 1.8273197 0.27330327 0
6.4410005 1.8173538 0.27323836 0
6.4460006 1.8079902 0.27313012 0
6.4530005 1.7992183 0.2729786 0
6.4400005 1.8497304 0.26236498 0
6.4380002 1.8382111 0.26241189 0
6.4380002 1.8273197 0.26241189 0
6.4410005 1.8173538 0.26234156 0
6.4460006 1.8079902 0.26222429 0
6.4530005 1.7992183 0.26206017 0
6.4400005 1.8497304 0.25146997 0
6.4380002 1.8382111 0.25152051 0
6.4380002 1.8273197 0.25152051 0
6.4410005 1.8173538 0.25144473 0
6.4460006 1.8079902 0.25131845 0
6.4530005 1.7992183 0.2511417 0
6.4400005 1.8497304 0.24057499 0
6.4380002 1.8382111 0.24062911 0
6.4380002 1.8273197 0.24062911 0
6.4410005 1.8173538 0.24054793 0
6.4460006 1.8079902 0.24041264 0
6.4530005 1.7992183 0.24022324 0
6.4400005 1.8497304 0.22967999 0
6.4380002 1.8382111 0.22973771 0
6.4380002 1.8273197 0.22973771 0
6.4410005 1.8173538 0.22965112 0
6.4460006 1.8079902 0.22950682 0
6.4530005 1.7992183 0.22930479 0
6.4400005 1.8497304 0.21878497 0
6.4380002 1.8382111 0.21884632 0
6.4380002 1.8273197 0.21884632 0
6.4410005 1.8173538 0.21875432 0
6.4460006 1.8079902 0.21860099 0
6.4530005 1.7992183 0.21838634 0
6.4400005 1.8497304 0.20788997 0
6.4380002 1.8382111 0.20795491 0
6.4380002 1.8273197 0.20795491 0
6.4410005 1.8173538 0.2078575 0
6.4460006 1.8079902 0.20769516 0
6.4530005 1.7992183 0.20746788 0
6.4400005 1.8497304 0.19699498 0
6.4380002 1.8382111 0.19706354 0
6.4380002 1.8273197 0.19706354 0
6.4410005 1.8173538 0.1969607 0
6.4460006 1.8079902 0.19678934 0
6.4530005 1.7992183 0.19654943 0
6.4400005 1.8497304 0.18609998 0
6.4380002 1.8382111 0.18617214 0
6.4380002 1.8273197 0.18617214 0
6.4410005 1.8173538 0.1860639 0
6.4460006 1.8079902 0.18588351 0
6.4530005 1.7992183 0.18563098 0
6.4400005 1.8497304 0.17520496 0
6.4380002 1.8382111 0.17528073 0
6.4380002 1.8273197 0.17528073 0
6.4410005 1.8173538 0.1751671 0
6.4460006 1.8079902 0.17497769 0
6.4530005 1.7992183 0.17471254 0
6.4400005 1.8497304 0.16430998 0
6.4380002 1.8382111 0.16438936 0
6.4380002 1.8273197 0.16438936 0
6.4410005 1.8173538 0.16427028 0
6.4460006 1.8079902 0.16407187 0
6.4530005 1.7992183 0.16379407 0
6.4400005 1.8497304 0.15341496 0
6.4380002 1.8382111 0.15349793 0
6.4380002 1.8273197 0.15349793 0
6.4410005 1.8173538 0.15337348 0
6.4460006 1.8079902 0.15316603 0
6.4530005 1.7992183 0.15287563 0
6.4400005 1.8497304 0.14251998 0
6.4380002 1.8382111 0.14260656 0
6.4380002 1.8273197 0.14260656 0
6.4410005 1.8173538 0.14247668 0
6.4460006 1.8079902 0.14226022 0
6.4530005 1.7992183 0.14195719 0
6.4400005 1.8497304 0.13162497 0
6.4380002 1.8382111 0.13171518 0
6.4380002 1.8273197 0.13171518 0
6.4410005 1.8173538 0.13157988 0
6.4460006 1.8079902 0.13135439 0
6.4530005 1.7992183 0.13103873 0
6.4400005 1.8497304 0.12072995 0
6.4380002 1.8382111 0.12082377 0
6.4380002 1.8273197 0.12082377 0
6.4410005 1.8173538 0.12068307 0
6.4460006 1.8079902 0.12044856 0
6.4530005 1.7992183 0.12012029 0
6.4400005 1.8497304 0.10983494 0
6.4380002 1.8382111 0.10993239 0
6.4380002 1.8273197 0.10993239 0
6.4410005 1.8173538 0.10978627 0
6.4460006 1.8079902 0.10954273 0
6.4530005 1.7992183 0.10920182 0
6.4400005 1.8497304 0.098939955 0
6.4380002 1.8382111 0.099041015 0
6.4380002 1.8273197 0.099041015 0
6.4410005 1.8173538 0.09888944 0
6.4460006 1.8079902 0.098636925 0
6.4530005 1.7992183 0.09828338 0
6.4450002 1.8622036 0.087783426 0
6.4400005 1.8497304 0.088044941 0
6.4380002 1.8382111 0.088149577 0
6.4380002 1.8273197 0.088149577 0
6.4410005 1.8173538 0.087992638 0
6.4460006 1.8079902 0.087731093 0
6.4530005 1.7992183 0.087364912 0
6.4640002 1.7916331 0.086789519 0
6.4450002 1.8622036 0.076879382 0
6.4400005 1.8497304 0.077149957 0
6.4380002 1.8382111 0.077258199 0
6.4380002 1.8273197 0.077258199 0
6.4410005 1.8173538 0.077095836 0
6.4460006 1.8079902 0.076825261 0
6.4530005 1.7992183 0.076446474 0
6.4640002 1.7916331 0.075851232 0
6.4450002 1.8622036 0.065975368 0
6.4390006 1.8494166 0.066310883 0
6.4330006 1.836651 0.066646397 0
6.4280005 1.8242172 0.066925973 0
6.4220004 1.8114933 0.067261487 0
6.4340005 1.8043103 0.066590458 0
6.4490004 1.7979989 0.065751702 0
6.4630003 1.7913302 0.064968854 0
6.4450002 1.8622036 0.055071354 0
6.4390006 1.8494166 0.055417657 0
6.4330006 1.836651 0.05576399 0
6.4280005 1.8242172 0.056052625 0
6.4340005 1.8043103 0.055706292 0
6.4490004 1.7979989 0.054840475 0
6.4630003 1.7913302 0.054032356 0
