# .PCD v0.7 - Point Cloud Data file format
VERSION 0.7
FIELDS x y z intensity
SIZE 4 4 4 4
TYPE F F F F
COUNT 1 1 1 1
WIDTH 1374
HEIGHT 1
VIEWPOINT 0 0 0 1 0 0 0
POINTS 1374
DATA ascii
3.6460001 -0.33875808 0.21077968 0
3.6400003 -0.34406129 0.21113683 0
3.6330001 -0.34924901 0.21155351 0
3.6270003 -0.35450712 0.21191067 0
3.6200004 -0.3596462 0.21232735 0
3.6140003 -0.36485919 0.21268451 0
3.6080003 -0.37005055 0.21304166 0
3.6010003 -0.37511745 0.21345833 0
3.5950003 -0.38026372 0.2138155 0
3.5880003 -0.38528189 0.21423216 0
3.5820003 -0.39038306 0.21458933 0
3.5760002 -0.3954626 0.21494648 0
3.5700002 -0.40052047 0.21530364 0
3.5630002 -0.40544307 0.21572031 0
3.5570002 -0.41045585 0.21607748 0
3.5510004 -0.415447 0.21643461 0
3.5450003 -0.42041647 0.21679178 0
3.5390003 -0.42536435 0.21714893 0
3.5330002 -0.43029052 0.21750608 0
3.5260003 -0.43507063 0.21792276 0
3.5200002 -0.43995172 0.21827991 0
3.5140002 -0.44481117 0.21863708 0
3.5080001 -0.44964898 0.21899423 0
3.5020003 -0.45446518 0.21935138 0
3.4960003 -0.45925969 0.21970853 0
3.4900002 -0.46403256 0.2200657 0
3.4840002 -0.46878377 0.22042285 0
3.4790003 -0.4736523 0.22072046 0
3.4730003 -0.47836202 0.22107762 0
3.4670002 -0.48305011 0.22143477 0
3.4610002 -0.48771656 0.22179194 0
3.4550002 -0.49236137 0.22214909 0
3.4490004 -0.49698454 0.22250623 0
3.4440002 -0.50173575 0.22280388 0
3.4380002 -0.50631744 0.22316103 0
3.4320002 -0.51087743 0.22351819 0
3.4260004 -0.51541585 0.22387533 0
3.4210002 -0.52008951 0.22417295 0
3.4150002 -0.52458638 0.22453012 0
3.4090002 -0.52906162 0.22488727 0
3.4040003 -0.53367758 0.2251849 0
3.3980002 -0.53811139 0.22554205 0
3.3930001 -0.54268944 0.22583969 0
3.3870003 -0.54708171 0.22619683 0
3.3820002 -0.55162185 0.22649446 0
3.3760002 -0.55597264 0.22685163 0
3.3710003 -0.56047493 0.22714923 0
3.3650002 -0.56478429 0.2275064 0
3.3600001 -0.56924868 0.22780403 0
3.3540003 -0.57351649 0.22816117 0
3.3490002 -0.57794309 0.22845881 0
3.3430002 -0.58216935 0.22881596 0
3.3380003 -0.58655804 0.22911358 0
3.3330002 -0.59092861 0.22941123 0
3.3270001 -0.59509367 0.22976838 0
3.3220003 -0.59942645 0.230066 0
3.3170002 -0.60374111 0.23036364 0
3.3110003 -0.60784477 0.23072077 0
3.3060002 -0.61212164 0.23101841 0
3.3010001 -0.61638039 0.23131604 0
3.2960002 -0.6206212 0.23161367 0
3.2900002 -0.62464362 0.23197083 0
3.2850003 -0.62884653 0.23226844 0
3.2800002 -0.63303131 0.23256609 0
3.2750003 -0.63719815 0.23286371 0
3.2700002 -0.64134693 0.23316133 0
3.2650003 -0.64547765 0.23345897 0
3.2600002 -0.64959031 0.23375659 0
3.2550001 -0.65368497 0.23405422 0
3.2490003 -0.65754694 0.23441137 0
3.2440002 -0.66160363 0.23470901 0
3.2390003 -0.66564238 0.23500663 0
3.2340002 -0.66966307 0.23530427 0
3.0260003 -0.83704567 0.2476856 0
3.0220003 -0.84057033 0.2479237 0
3.0180001 -0.84408051 0.24816182 0
3.0130002 -0.84726965 0.24845943 0
3.0090003 -0.85074925 0.24869753 0
3.0050001 -0.85421425 0.24893564 0
3.0010002 -0.857665 0.24917375 0
2.9960003 -0.86078745 0.24947137 0
2.9920001 -0.86420739 0.24970947 0
2.9880002 -0.86761296 0.24994758 0
2.9110003 -0.92922568 0.25453103 0
2.9070003 -0.93234092 0.25476915 0
2.9030001 -0.93544155 0.25500727 0
2.9000001 -0.93888503 0.25518584 0
2.8960001 -0.94195873 0.25542393 0
2.8920002 -0.94501805 0.25566205 0
2.8880002 -0.9480629 0.25590014 0
2.8840003 -0.95109326 0.25613824 0
2.8800001 -0.95410919 0.25637633 0
2.8770003 -0.95747876 0.2565549 0
2.8730001 -0.96046758 0.25679302 0
2.8690002 -0.96344209 0.25703114 0
2.8650002 -0.96640217 0.25726923 0
2.8610003 -0.96934777 0.25750732 0
2.8580003 -0.97265601 0.2576859 0
2.8540003 -0.97557455 0.25792402 0
2.8500001 -0.97847867 0.25816214 0
2.8460002 -0.9813683 0.2584002 0
2.8430002 -0.98462784 0.25857878 0
2.8390002 -0.98749053 0.2588169 0
2.8350003 -0.99033868 0.25905502 0
2.8320003 -0.9935621 0.25923359 0
2.8280003 -0.99638331 0.25947165 0
2.8240001 -0.99918997 0.25970978 0
2.8210001 -1.0023772 0.25988838 0
2.8170002 -1.0051569 0.26012647 0
3.8120003 -0.20601945 0.19474383 0
3.8040001 -0.21178441 0.19523448 0
3.7970002 -0.21757104 0.19566378 0
3.7900002 -0.22333239 0.19609308 0
3.7830002 -0.2290685 0.19652238 0
3.7760003 -0.23477936 0.19695169 0
3.7690003 -0.24046497 0.19738099 0
3.7620003 -0.24612531 0.19781031 0
3.7550004 -0.25176039 0.19823961 0
3.7480001 -0.25737023 0.19866893 0
3.7410002 -0.26295483 0.19909823 0
3.7340002 -0.26851416 0.19952753 0
3.7270002 -0.27404824 0.19995683 0
3.7200003 -0.27955711 0.20038614 0
3.7130003 -0.28504065 0.20081544 0
3.7060003 -0.29049897 0.20124476 0
3.7000003 -0.29600781 0.20161273 0
3.6930003 -0.30141747 0.20204204 0
3.6860003 -0.30680183 0.20247135 0
3.6790001 -0.31216094 0.20290066 0
3.6730003 -0.31757778 0.20326863 0
3.6660004 -0.3228882 0.20369793 0
3.6600003 -0.32825992 0.2040659 0
3.6530004 -0.33352163 0.20449522 0
3.6460001 -0.33875808 0.20492454 0
3.6400003 -0.34406129 0.20529249 0
3.6330001 -0.34924901 0.20572181 0
3.6270003 -0.35450712 0.20608978 0
3.6200004 -0.3596462 0.20651908 0
3.6140003 -0.36485919 0.20688707 0
3.6080003 -0.37005055 0.20725504 0
3.6010003 -0.37511745 0.20768434 0
3.5950003 -0.38026372 0.20805232 0
3.5880003 -0.38528189 0.20848162 0
3.5820003 -0.39038306 0.20884961 0
3.5760002 -0.3954626 0.20921759 0
3.5700002 -0.40052047 0.20958558 0
3.5630002 -0.40544307 0.21001486 0
3.5570002 -0.41045585 0.21038285 0
3.5510004 -0.415447 0.21075082 0
3.5450003 -0.42041647 0.21111879 0
3.5390003 -0.42536435 0.21148677 0
3.5330002 -0.43029052 0.21185476 0
3.5260003 -0.43507063 0.21228406 0
3.5200002 -0.43995172 0.21265204 0
3.5140002 -0.44481117 0.21302003 0
3.5080001 -0.44964898 0.213388 0
3.5020003 -0.45446518 0.21375597 0
3.4960003 -0.45925969 0.21412393 0
3.4900002 -0.46403256 0.21449192 0
3.4840002 -0.46878377 0.2148599 0
3.4790003 -0.4736523 0.21516654 0
3.4730003 -0.47836202 0.21553451 0
3.4670002 -0.48305011 0.21590249 0
3.4610002 -0.48771656 0.21627048 0
3.4550002 -0.49236137 0.21663846 0
3.4490004 -0.49698454 0.21700643 0
3.4440002 -0.50173575 0.21731308 0
3.4380002 -0.50631744 0.21768105 0
3.4320002 -0.51087743 0.21804903 0
3.4260004 -0.51541585 0.218417 0
3.4210002 -0.52008951 0.21872365 0
3.4150002 -0.52458638 0.21909164 0
3.4090002 -0.52906162 0.21945962 0
3.4040003 -0.53367758 0.21976624 0
3.3980002 -0.53811139 0.22013423 0
3.3930001 -0.54268944 0.22044089 0
3.3870003 -0.54708171 0.22080885 0
3.3820002 -0.55162185 0.22111551 0
3.3760002 -0.55597264 0.22148348 0
3.3710003 -0.56047493 0.22179012 0
3.3650002 -0.56478429 0.2221581 0
3.3600001 -0.56924868 0.22246477 0
3.3540003 -0.57351649 0.22283272 0
3.3490002 -0.57794309 0.22313938 0
3.3430002 -0.58216935 0.22350736 0
3.3380003 -0.58655804 0.223814 0
3.3330002 -0.59092861 0.22412066 0
3.3270001 -0.59509367 0.22448863 0
3.3220003 -0.59942645 0.22479527 0
3.3170002 -0.60374111 0.22510193 0
3.3110003 -0.60784477 0.22546989 0
3.3060002 -0.61212164 0.22577655 0
3.3010001 -0.61638039 0.22608319 0
3.2960002 -0.6206212 0.22638984 0
3.2900002 -0.62464362 0.22675782 0
3.2850003 -0.62884653 0.22706445 0
3.2800002 -0.63303131 0.22737111 0
3.2750003 -0.63719815 0.22767775 0
3.2700002 -0.64134693 0.22798441 0
3.2650003 -0.64547765 0.22829103 0
3.2600002 -0.64959031 0.2285977 0
3.2550001 -0.65368497 0.22890435 0
3.2490003 -0.65754694 0.22927232 0
3.2440002 -0.66160363 0.22957897 0
3.2390003 -0.66564238 0.22988561 0
3.2340002 -0.66966307 0.23019227 0
3.0260003 -0.83704567 0.2429488 0
3.0220003 -0.84057033 0.2431941 0
3.0180001 -0.84408051 0.24343944 0
3.0130002 -0.84726965 0.24374609 0
3.0090003 -0.85074925 0.24399139 0
3.0050001 -0.85421425 0.24423672 0
3.0010002 -0.857665 0.24448204 0
2.9960003 -0.86078745 0.24478868 0
2.9920001 -0.86420739 0.24503401 0
2.9880002 -0.86761296 0.24527933 0
2.9110003 -0.92922568 0.25000167 0
2.9070003 -0.93234092 0.250247 0
2.9030001 -0.93544155 0.25049233 0
2.9000001 -0.93888503 0.25067633 0
2.8960001 -0.94195873 0.25092164 0
2.8920002 -0.94501805 0.25116694 0
2.8880002 -0.9480629 0.25141227 0
2.8840003 -0.95109326 0.25165758 0
2.8800001 -0.95410919 0.25190291 0
2.8770003 -0.95747876 0.25208688 0
2.8730001 -0.96046758 0.25233221 0
2.8690002 -0.96344209 0.25257754 0
2.8650002 -0.96640217 0.25282285 0
2.8610003 -0.96934777 0.25306815 0
2.8580003 -0.97265601 0.25325215 0
2.8540003 -0.97557455 0.25349748 0
2.8500001 -0.97847867 0.25374278 0
2.8460002 -0.9813683 0.25398812 0
2.8430002 -0.98462784 0.25417209 0
2.8390002 -0.98749053 0.25441742 0
2.8350003 -0.99033868 0.25466272 0
2.8320003 -0.9935621 0.25484672 0
2.8280003 -0.99638331 0.25509202 0
2.8240001 -0.99918997 0.25533736 0
2.8210001 -1.0023772 0.25552136 0
2.8170002 -1.0051569 0.25576666 0
3.8120003 -0.20601945 0.18858923 0
3.8040001 -0.21178441 0.18909432 0
3.7970002 -0.21757104 0.18953624 0
3.7900002 -0.22333239 0.18997817 0
3.7830002 -0.2290685 0.19042011 0
3.7760003 -0.23477936 0.19086203 0
3.7690003 -0.24046497 0.19130397 0
3.7620003 -0.24612531 0.19174589 0
3.7550004 -0.25176039 0.19218782 0
3.7480001 -0.25737023 0.19262977 0
3.7410002 -0.26295483 0.19307169 0
3.7340002 -0.26851416 0.19351363 0
3.7270002 -0.27404824 0.19395556 0
3.7200003 -0.27955711 0.19439749 0
3.7130003 -0.28504065 0.19483942 0
3.7060003 -0.29049897 0.19528136 0
3.7000003 -0.29600781 0.19566016 0
3.6930003 -0.30141747 0.1961021 0
3.6860003 -0.30680183 0.19654402 0
3.6790001 -0.31216094 0.19698597 0
3.6730003 -0.31757778 0.19736476 0
3.6660004 -0.3228882 0.19780669 0
3.6600003 -0.32825992 0.19818549 0
3.6530004 -0.33352163 0.19862741 0
3.6460001 -0.33875808 0.19906937 0
3.6400003 -0.34406129 0.19944815 0
3.6330001 -0.34924901 0.19989011 0
3.6270003 -0.35450712 0.20026889 0
3.6200004 -0.3596462 0.20071082 0
3.6140003 -0.36485919 0.20108962 0
3.6080003 -0.37005055 0.20146842 0
3.6010003 -0.37511745 0.20191036 0
3.5950003 -0.38026372 0.20228916 0
3.5880003 -0.38528189 0.20273109 0
3.5820003 -0.39038306 0.20310989 0
3.5760002 -0.3954626 0.20348869 0
3.5700002 -0.40052047 0.2038675 0
3.5630002 -0.40544307 0.20430943 0
3.5570002 -0.41045585 0.20468822 0
3.5510004 -0.415447 0.20506701 0
3.5450003 -0.42041647 0.20544583 0
3.5390003 -0.42536435 0.20582463 0
3.5330002 -0.43029052 0.20620342 0
3.5260003 -0.43507063 0.20664535 0
3.5200002 -0.43995172 0.20702416 0
3.5140002 -0.44481117 0.20740296 0
3.5080001 -0.44964898 0.20778176 0
3.5020003 -0.45446518 0.20816055 0
3.4960003 -0.45925969 0.20853935 0
3.4900002 -0.46403256 0.20891814 0
3.4840002 -0.46878377 0.20929696 0
3.4790003 -0.4736523 0.20961262 0
3.4730003 -0.47836202 0.20999141 0
3.4670002 -0.48305011 0.21037021 0
3.4610002 -0.48771656 0.21074903 0
3.4550002 -0.49236137 0.21112782 0
3.4490004 -0.49698454 0.21150661 0
3.4440002 -0.50173575 0.21182227 0
3.4380002 -0.50631744 0.21220109 0
3.4320002 -0.51087743 0.21257989 0
3.4260004 -0.51541585 0.21295868 0
3.4210002 -0.52008951 0.21327434 0
3.4150002 -0.52458638 0.21365316 0
3.4090002 -0.52906162 0.21403195 0
3.4040003 -0.53367758 0.21434762 0
3.3980002 -0.53811139 0.21472642 0
3.3930001 -0.54268944 0.21504208 0
3.3870003 -0.54708171 0.21542089 0
3.3820002 -0.55162185 0.21573655 0
3.3760002 -0.55597264 0.21611536 0
3.3710003 -0.56047493 0.21643101 0
3.3650002 -0.56478429 0.21680981 0
3.3600001 -0.56924868 0.21712549 0
3.3540003 -0.57351649 0.21750428 0
3.3490002 -0.57794309 0.21781994 0
3.3430002 -0.58216935 0.21819875 0
3.3380003 -0.58655804 0.21851441 0
3.3330002 -0.59092861 0.21883008 0
3.3270001 -0.59509367 0.2192089 0
3.3220003 -0.59942645 0.21952455 0
3.3170002 -0.60374111 0.21984021 0
3.3110003 -0.60784477 0.220219 0
3.3060002 -0.61212164 0.22053468 0
3.3010001 -0.61638039 0.22085035 0
3.2960002 -0.6206212 0.221166 0
3.2900002 -0.62464362 0.22154482 0
3.2850003 -0.62884653 0.22186047 0
3.2800002 -0.63303131 0.22217615 0
3.2750003 -0.63719815 0.2224918 0
3.2700002 -0.64134693 0.22280748 0
3.2650003 -0.64547765 0.22312313 0
3.2600002 -0.64959031 0.22343881 0
3.2550001 -0.65368497 0.22375448 0
3.2490003 -0.65754694 0.22413328 0
3.2440002 -0.66160363 0.22444895 0
3.2390003 -0.66564238 0.2247646 0
3.2340002 -0.66966307 0.22508028 0
3.0260003 -0.83704567 0.238212 0
3.0220003 -0.84057033 0.23846453 0
3.0180001 -0.84408051 0.23871706 0
3.0130002 -0.84726965 0.23903273 0
3.0090003 -0.85074925 0.23928526 0
3.0050001 -0.85421425 0.23953781 0
3.0010002 -0.857665 0.23979034 0
2.9960003 -0.86078745 0.24010599 0
2.9920001 -0.86420739 0.24035853 0
2.9880002 -0.86761296 0.24061106 0
2.9110003 -0.92922568 0.24547233 0
2.9070003 -0.93234092 0.24572486 0
2.9030001 -0.93544155 0.2459774 0
2.9000001 -0.93888503 0.2461668 0
2.8960001 -0.94195873 0.24641934 0
2.8920002 -0.94501805 0.24667187 0
2.8880002 -0.9480629 0.2469244 0
2.8840003 -0.95109326 0.24717692 0
2.8800001 -0.95410919 0.24742946 0
2.8770003 -0.95747876 0.24761885 0
2.8730001 -0.96046758 0.2478714 0
2.8690002 -0.96344209 0.24812393 0
2.8650002 -0.96640217 0.24837644 0
2.8610003 -0.96934777 0.24862899 0
2.8580003 -0.97265601 0.24881838 0
2.8540003 -0.97557455 0.24907091 0
2.8500001 -0.97847867 0.24932347 0
2.8460002 -0.9813683 0.249576 0
2.8430002 -0.98462784 0.2497654 0
2.8390002 -0.98749053 0.25001794 0
2.8350003 -0.99033868 0.25027046 0
2.8320003 -0.9935621 0.25045985 0
2.8280003 -0.99638331 0.25071239 0
2.8240001 -0.99918997 0.25096494 0
2.8210001 -1.0023772 0.25115433 0
2.8170002 -1.0051569 0.25140685 0
3.8120003 -0.20601945 0.18243463 0
3.8040001 -0.21178441 0.18295415 0
3.7970002 -0.21757104 0.18340871 0
3.7900002 -0.22333239 0.18386327 0
3.7830002 -0.2290685 0.18431783 0
3.7760003 -0.23477936 0.18477239 0
3.7690003 -0.24046497 0.18522693 0
3.7620003 -0.24612531 0.18568149 0
3.7550004 -0.25176039 0.18613605 0
3.7480001 -0.25737023 0.18659063 0
3.7410002 -0.26295483 0.18704519 0
3.7340002 -0.26851416 0.18749975 0
3.7270002 -0.27404824 0.18795429 0
3.7200003 -0.27955711 0.18840885 0
3.7130003 -0.28504065 0.18886341 0
3.7060003 -0.29049897 0.18931797 0
3.7000003 -0.29600781 0.18970761 0
3.6930003 -0.30141747 0.19016215 0
3.6860003 -0.30680183 0.19061671 0
3.6790001 -0.31216094 0.19107129 0
3.6730003 -0.31757778 0.19146089 0
3.6660004 -0.3228882 0.19191545 0
3.6600003 -0.32825992 0.19230507 0
3.6530004 -0.33352163 0.19275963 0
3.6460001 -0.33875808 0.19321421 0
3.6400003 -0.34406129 0.19360381 0
3.6330001 -0.34924901 0.19405839 0
3.6270003 -0.35450712 0.19444799 0
3.6200004 -0.3596462 0.19490255 0
3.6140003 -0.36485919 0.19529217 0
3.6080003 -0.37005055 0.19568181 0
3.6010003 -0.37511745 0.19613637 0
3.5950003 -0.38026372 0.19652599 0
3.5880003 -0.38528189 0.19698055 0
3.5820003 -0.39038306 0.19737019 0
3.5760002 -0.3954626 0.19775979 0
3.5700002 -0.40052047 0.19814943 0
3.5630002 -0.40544307 0.19860399 0
3.5570002 -0.41045585 0.19899361 0
3.5510004 -0.415447 0.19938321 0
3.5450003 -0.42041647 0.19977283 0
3.5390003 -0.42536435 0.20016247 0
3.5330002 -0.43029052 0.20055209 0
3.5260003 -0.43507063 0.20100665 0
3.5200002 -0.43995172 0.20139627 0
3.5140002 -0.44481117 0.20178589 0
3.5080001 -0.44964898 0.20217553 0
3.5020003 -0.45446518 0.20256513 0
3.4960003 -0.45925969 0.20295475 0
3.4900002 -0.46403256 0.20334439 0
3.4840002 -0.46878377 0.20373401 0
3.4790003 -0.4736523 0.20405869 0
3.4730003 -0.47836202 0.20444831 0
3.4670002 -0.48305011 0.20483795 0
3.4610002 -0.48771656 0.20522755 0
3.4550002 -0.49236137 0.20561719 0
3.4490004 -0.49698454 0.20600681 0
3.4440002 -0.50173575 0.20633149 0
3.4380002 -0.50631744 0.20672111 0
3.4320002 -0.51087743 0.20711075 0
3.4260004 -0.51541585 0.20750035 0
3.4210002 -0.52008951 0.20782505 0
3.4150002 -0.52458638 0.20821467 0
3.4090002 -0.52906162 0.20860429 0
3.4040003 -0.53367758 0.20892897 0
3.3980002 -0.53811139 0.20931859 0
3.3930001 -0.54268944 0.20964329 0
3.3870003 -0.54708171 0.21003291 0
3.3820002 -0.55162185 0.21035759 0
3.3760002 -0.55597264 0.21074723 0
3.3710003 -0.56047493 0.21107189 0
3.3650002 -0.56478429 0.21146153 0
3.3600001 -0.56924868 0.21178623 0
3.3540003 -0.57351649 0.21217582 0
3.3490002 -0.57794309 0.21250053 0
3.3430002 -0.58216935 0.21289013 0
3.3380003 -0.58655804 0.21321483 0
3.3330002 -0.59092861 0.21353951 0
3.3270001 -0.59509367 0.21392913 0
3.3220003 -0.59942645 0.21425381 0
3.3170002 -0.60374111 0.21457851 0
3.3110003 -0.60784477 0.21496813 0
3.3060002 -0.61212164 0.21529281 0
3.3010001 -0.61638039 0.21561749 0
3.2960002 -0.6206212 0.21594219 0
3.2900002 -0.62464362 0.21633181 0
3.2850003 -0.62884653 0.21665649 0
3.2800002 -0.63303131 0.21698117 0
3.2750003 -0.63719815 0.21730585 0
3.2700002 -0.64134693 0.21763055 0
3.2650003 -0.64547765 0.21795523 0
3.2600002 -0.64959031 0.21827991 0
3.2550001 -0.65368497 0.21860461 0
3.2490003 -0.65754694 0.21899422 0
3.2440002 -0.66160363 0.21931891 0
3.2390003 -0.66564238 0.21964359 0
3.2340002 -0.66966307 0.21996829 0
3.0260003 -0.83704567 0.23347521 0
3.0220003 -0.84057033 0.23373495 0
3.0180001 -0.84408051 0.23399471 0
3.0130002 -0.84726965 0.23431937 0
3.0090003 -0.85074925 0.23457912 0
3.0050001 -0.85421425 0.23483889 0
3.0010002 -0.857665 0.23509863 0
2.9960003 -0.86078745 0.2354233 0
2.9920001 -0.86420739 0.23568307 0
2.9880002 -0.86761296 0.23594281 0
2.9110003 -0.92922568 0.24094297 0
2.9070003 -0.93234092 0.24120271 0
2.9030001 -0.93544155 0.24146247 0
2.9000001 -0.93888503 0.24165729 0
2.8960001 -0.94195873 0.24191703 0
2.8920002 -0.94501805 0.24217677 0
2.8880002 -0.9480629 0.24243651 0
2.8840003 -0.95109326 0.24269626 0
2.8800001 -0.95410919 0.24295603 0
2.8770003 -0.95747876 0.24315082 0
2.8730001 -0.96046758 0.24341059 0
2.8690002 -0.96344209 0.24367033 0
2.8650002 -0.96640217 0.24393007 0
2.8610003 -0.96934777 0.24418981 0
2.8580003 -0.97265601 0.24438463 0
2.8540003 -0.97557455 0.24464437 0
2.8500001 -0.97847867 0.24490413 0
2.8460002 -0.9813683 0.24516389 0
2.8430002 -0.98462784 0.24535869 0
2.8390002 -0.98749053 0.24561845 0
2.8350003 -0.99033868 0.24587819 0
2.8320003 -0.9935621 0.24607299 0
2.8280003 -0.99638331 0.24633275 0
2.8240001 -0.99918997 0.24659251 0
2.8210001 -1.0023772 0.24678731 0
2.8170002 -1.0051569 0.24704705 0
3.8120003 -0.20601945 0.17628005 0
3.8040001 -0.21178441 0.17681399 0
3.7970002 -0.21757104 0.17728117 0
3.7900002 -0.22333239 0.17774835 0
3.7830002 -0.2290685 0.17821553 0
3.7760003 -0.23477936 0.17868273 0
3.7690003 -0.24046497 0.17914991 0
3.7620003 -0.24612531 0.17961709 0
3.7550004 -0.25176039 0.18008427 0
3.7480001 -0.25737023 0.18055148 0
3.7410002 -0.26295483 0.18101865 0
3.7340002 -0.26851416 0.18148585 0
3.7270002 -0.27404824 0.18195303 0
3.7200003 -0.27955711 0.18242021 0
3.7130003 -0.28504065 0.18288739 0
3.7060003 -0.29049897 0.18335459 0
3.7000003 -0.29600781 0.18375503 0
3.6930003 -0.30141747 0.18422221 0
3.6860003 -0.30680183 0.1846894 0
3.6790001 -0.31216094 0.1851566 0
3.6730003 -0.31757778 0.18555704 0
3.6660004 -0.3228882 0.1860242 0
3.6600003 -0.32825992 0.18642466 0
3.6530004 -0.33352163 0.18689185 0
3.6460001 -0.33875808 0.18735904 0
3.6400003 -0.34406129 0.18775947 0
3.6330001 -0.34924901 0.18822667 0
3.6270003 -0.35450712 0.18862711 0
3.6200004 -0.3596462 0.18909431 0
3.6140003 -0.36485919 0.18949474 0
3.6080003 -0.37005055 0.18989518 0
3.6010003 -0.37511745 0.19036236 0
3.5950003 -0.38026372 0.19076283 0
3.5880003 -0.38528189 0.19123 0
3.5820003 -0.39038306 0.19163045 0
3.5760002 -0.3954626 0.19203091 0
3.5700002 -0.40052047 0.19243136 0
3.5630002 -0.40544307 0.19289853 0
3.5570002 -0.41045585 0.19329898 0
3.5510004 -0.415447 0.1936994 0
3.5450003 -0.42041647 0.19409987 0
3.5390003 -0.42536435 0.19450031 0
3.5330002 -0.43029052 0.19490077 0
3.5260003 -0.43507063 0.19536795 0
3.5200002 -0.43995172 0.1957684 0
3.5140002 -0.44481117 0.19616884 0
3.5080001 -0.44964898 0.19656929 0
3.5020003 -0.45446518 0.19696972 0
3.4960003 -0.45925969 0.19737017 0
3.4900002 -0.46403256 0.19777063 0
3.4840002 -0.46878377 0.19817106 0
3.4790003 -0.4736523 0.19850476 0
3.4730003 -0.47836202 0.19890521 0
3.4670002 -0.48305011 0.19930567 0
3.4610002 -0.48771656 0.19970611 0
3.4550002 -0.49236137 0.20010655 0
3.4490004 -0.49698454 0.20050699 0
3.4440002 -0.50173575 0.2008407 0
3.4380002 -0.50631744 0.20124115 0
3.4320002 -0.51087743 0.20164159 0
3.4260004 -0.51541585 0.20204203 0
3.4210002 -0.52008951 0.20237574 0
3.4150002 -0.52458638 0.20277619 0
3.4090002 -0.52906162 0.20317665 0
3.4040003 -0.53367758 0.20351033 0
3.3980002 -0.53811139 0.20391078 0
3.3930001 -0.54268944 0.20424449 0
3.3870003 -0.54708171 0.20464493 0
3.3820002 -0.55162185 0.20497863 0
3.3760002 -0.55597264 0.2053791 0
3.3710003 -0.56047493 0.20571278 0
3.3650002 -0.56478429 0.20611323 0
3.3600001 -0.56924868 0.20644693 0
3.3540003 -0.57351649 0.20684737 0
3.3490002 -0.57794309 0.20718108 0
3.3430002 -0.58216935 0.20758153 0
3.3380003 -0.58655804 0.20791523 0
3.3330002 -0.59092861 0.20824894 0
3.3270001 -0.59509367 0.20864938 0
3.3220003 -0.59942645 0.20898309 0
3.3170002 -0.60374111 0.20931681 0
3.3110003 -0.60784477 0.20971723 0
3.3060002 -0.61212164 0.21005096 0
3.3010001 -0.61638039 0.21038467 0
3.2960002 -0.6206212 0.21071835 0
3.2900002 -0.62464362 0.2111188 0
3.2850003 -0.62884653 0.2114525 0
3.2800002 -0.63303131 0.21178621 0
3.2750003 -0.63719815 0.21211991 0
3.2700002 -0.64134693 0.21245362 0
3.2650003 -0.64547765 0.21278732 0
3.2600002 -0.64959031 0.21312103 0
3.2550001 -0.65368497 0.21345474 0
3.2490003 -0.65754694 0.21385516 0
3.2440002 -0.66160363 0.21418889 0
3.2390003 -0.66564238 0.21452259 0
3.2340002 -0.66966307 0.2148563 0
3.0260003 -0.83704567 0.2287384 0
3.0220003 -0.84057033 0.22900535 0
3.0180001 -0.84408051 0.22927234 0
3.0130002 -0.84726965 0.22960603 0
3.0090003 -0.85074925 0.22987299 0
3.0050001 -0.85421425 0.23013996 0
3.0010002 -0.857665 0.23040693 0
2.9960003 -0.86078745 0.23074062 0
2.9920001 -0.86420739 0.23100761 0
2.9880002 -0.86761296 0.23127456 0
2.9110003 -0.92922568 0.2364136 0
2.9070003 -0.93234092 0.23668055 0
2.9030001 -0.93544155 0.23694754 0
2.9000001 -0.93888503 0.23714776 0
2.8960001 -0.94195873 0.23741472 0
2.8920002 -0.94501805 0.23768169 0
2.8880002 -0.9480629 0.23794864 0
2.8840003 -0.95109326 0.23821561 0
2.8800001 -0.95410919 0.23848258 0
2.8770003 -0.95747876 0.23868278 0
2.8730001 -0.96046758 0.23894976 0
2.8690002 -0.96344209 0.23921672 0
2.8650002 -0.96640217 0.23948368 0
2.8610003 -0.96934777 0.23975064 0
2.8580003 -0.97265601 0.23995087 0
2.8540003 -0.97557455 0.24021782 0
2.8500001 -0.97847867 0.2404848 0
2.8460002 -0.9813683 0.24075176 0
2.8430002 -0.98462784 0.24095199 0
2.8390002 -0.98749053 0.24121895 0
2.8350003 -0.99033868 0.24148591 0
2.8320003 -0.9935621 0.24168612 0
2.8280003 -0.99638331 0.24195309 0
2.8240001 -0.99918997 0.24222006 0
2.8210001 -1.0023772 0.24242029 0
2.8170002 -1.0051569 0.24268726 0
3.8120003 -0.20601945 0.17012545 0
3.8040001 -0.21178441 0.17067382 0
3.7970002 -0.21757104 0.17115363 0
3.7900002 -0.22333239 0.17163344 0
3.7830002 -0.2290685 0.17211325 0
3.7760003 -0.23477936 0.17259306 0
3.7690003 -0.24046497 0.17307287 0
3.7620003 -0.24612531 0.17355268 0
3.7550004 -0.25176039 0.17403249 0
3.7480001 -0.25737023 0.17451233 0
3.7410002 -0.26295483 0.17499214 0
3.7340002 -0.26851416 0.17547195 0
3.7270002 -0.27404824 0.17595176 0
3.7200003 -0.27955711 0.17643157 0
3.7130003 -0.28504065 0.17691138 0
3.7060003 -0.29049897 0.17739119 0
3.7000003 -0.29600781 0.17780246 0
3.6930003 -0.30141747 0.17828226 0
3.6860003 -0.30680183 0.17876208 0
3.6790001 -0.31216094 0.1792419 0
3.6730003 -0.31757778 0.17965317 0
3.6660004 -0.3228882 0.18013297 0
3.6600003 -0.32825992 0.18054426 0
3.6530004 -0.33352163 0.18102404 0
3.6460001 -0.33875808 0.18150389 0
3.6400003 -0.34406129 0.18191513 0
3.6330001 -0.34924901 0.18239497 0
3.6270003 -0.35450712 0.18280622 0
3.6200004 -0.3596462 0.18328604 0
3.6140003 -0.36485919 0.1836973 0
3.6080003 -0.37005055 0.18410857 0
3.6010003 -0.37511745 0.18458839 0
3.5950003 -0.38026372 0.18499966 0
3.5880003 -0.38528189 0.18547948 0
3.5820003 -0.39038306 0.18589073 0
3.5760002 -0.3954626 0.18630201 0
3.5700002 -0.40052047 0.18671328 0
3.5630002 -0.40544307 0.1871931 0
3.5570002 -0.41045585 0.18760435 0
3.5510004 -0.415447 0.18801562 0
3.5450003 -0.42041647 0.18842688 0
3.5390003 -0.42536435 0.18883815 0
3.5330002 -0.43029052 0.18924943 0
3.5260003 -0.43507063 0.18972923 0
3.5200002 -0.43995172 0.19014052 0
3.5140002 -0.44481117 0.19055179 0
3.5080001 -0.44964898 0.19096304 0
3.5020003 -0.45446518 0.19137432 0
3.4960003 -0.45925969 0.19178557 0
3.4900002 -0.46403256 0.19219685 0
3.4840002 -0.46878377 0.19260813 0
3.4790003 -0.4736523 0.19295084 0
3.4730003 -0.47836202 0.1933621 0
3.4670002 -0.48305011 0.19377337 0
3.4610002 -0.48771656 0.19418466 0
3.4550002 -0.49236137 0.19459592 0
3.4490004 -0.49698454 0.19500718 0
3.4440002 -0.50173575 0.19534992 0
3.4380002 -0.50631744 0.19576119 0
3.4320002 -0.51087743 0.19617245 0
3.4260004 -0.51541585 0.19658372 0
3.4210002 -0.52008951 0.19692644 0
3.4150002 -0.52458638 0.1973377 0
3.4090002 -0.52906162 0.19774897 0
3.4040003 -0.53367758 0.19809169 0
3.3980002 -0.53811139 0.19850297 0
3.3930001 -0.54268944 0.1988457 0
3.3870003 -0.54708171 0.19925694 0
3.3820002 -0.55162185 0.19959968 0
3.3760002 -0.55597264 0.20001096 0
3.3710003 -0.56047493 0.20035367 0
3.3650002 -0.56478429 0.20076494 0
3.3600001 -0.56924868 0.20110767 0
3.3540003 -0.57351649 0.20151892 0
3.3490002 -0.57794309 0.20186166 0
3.3430002 -0.58216935 0.20227294 0
3.3380003 -0.58655804 0.20261565 0
3.3330002 -0.59092861 0.20295838 0
3.3270001 -0.59509367 0.20336965 0
3.3220003 -0.59942645 0.20371237 0
3.3170002 -0.60374111 0.2040551 0
3.3110003 -0.60784477 0.20446634 0
3.3060002 -0.61212164 0.20480907 0
3.3010001 -0.61638039 0.20515181 0
3.2960002 -0.6206212 0.20549452 0
3.2900002 -0.62464362 0.2059058 0
3.2850003 -0.62884653 0.20624852 0
3.2800002 -0.63303131 0.20659125 0
3.2750003 -0.63719815 0.20693396 0
3.2700002 -0.64134693 0.20727669 0
3.2650003 -0.64547765 0.2076194 0
3.2600002 -0.64959031 0.20796213 0
3.2550001 -0.65368497 0.20830487 0
3.2490003 -0.65754694 0.20871612 0
3.2440002 -0.66160363 0.20905885 0
3.2390003 -0.66564238 0.20940156 0
3.2340002 -0.66966307 0.2097443 0
3.0260003 -0.83704567 0.22400159 0
3.0220003 -0.84057033 0.22427577 0
3.0180001 -0.84408051 0.22454996 0
3.0130002 -0.84726965 0.22489268 0
3.0090003 -0.85074925 0.22516686 0
3.0050001 -0.85421425 0.22544105 0
3.0010002 -0.857665 0.22571522 0
2.9960003 -0.86078745 0.22605793 0
2.9920001 -0.86420739 0.22633213 0
2.9880002 -0.86761296 0.22660631 0
2.9110003 -0.92922568 0.23188424 0
2.9070003 -0.93234092 0.23215842 0
2.9030001 -0.93544155 0.2324326 0
2.9000001 -0.93888503 0.23263824 0
2.8960001 -0.94195873 0.23291242 0
2.8920002 -0.94501805 0.23318659 0
2.8880002 -0.9480629 0.23346077 0
2.8840003 -0.95109326 0.23373495 0
2.8800001 -0.95410919 0.23400913 0
2.8770003 -0.95747876 0.23421475 0
2.8730001 -0.96046758 0.23448895 0
2.8690002 -0.96344209 0.23476312 0
2.8650002 -0.96640217 0.2350373 0
2.8610003 -0.96934777 0.23531148 0
2.8580003 -0.97265601 0.2355171 0
2.8540003 -0.97557455 0.23579128 0
2.8500001 -0.97847867 0.23606548 0
2.8460002 -0.9813683 0.23633964 0
2.8430002 -0.98462784 0.23654529 0
2.8390002 -0.98749053 0.23681946 0
2.8350003 -0.99033868 0.23709363 0
2.8320003 -0.9935621 0.23729926 0
2.8280003 -0.99638331 0.23757344 0
2.8240001 -0.99918997 0.23784764 0
2.8210001 -1.0023772 0.23805328 0
2.8170002 -1.0051569 0.23832744 0
3.8120003 -0.20601945 0.16397086 0
3.8040001 -0.21178441 0.16453366 0
3.7970002 -0.21757104 0.1650261 0
3.7900002 -0.22333239 0.16551852 0
3.7830002 -0.2290685 0.16601096 0
3.7760003 -0.23477936 0.16650341 0
3.7690003 -0.24046497 0.16699585 0
3.7620003 -0.24612531 0.16748828 0
3.7550004 -0.25176039 0.1679807 0
3.7480001 -0.25737023 0.16847317 0
3.7410002 -0.26295483 0.16896562 0
3.7340002 -0.26851416 0.16945806 0
3.7270002 -0.27404824 0.16995049 0
3.7200003 -0.27955711 0.17044291 0
3.7130003 -0.28504065 0.17093538 0
3.7060003 -0.29049897 0.1714278 0
3.7000003 -0.29600781 0.17184988 0
3.6930003 -0.30141747 0.17234235 0
3.6860003 -0.30680183 0.17283477 0
3.6790001 -0.31216094 0.17332722 0
3.6730003 -0.31757778 0.1737493 0
3.6660004 -0.3228882 0.17424174 0
3.6600003 -0.32825992 0.17466383 0
3.6530004 -0.33352163 0.17515627 0
3.6460001 -0.33875808 0.17564872 0
3.6400003 -0.34406129 0.17607079 0
3.6330001 -0.34924901 0.17656326 0
3.6270003 -0.35450712 0.17698532 0
3.6200004 -0.3596462 0.17747778 0
3.6140003 -0.36485919 0.17789987 0
3.6080003 -0.37005055 0.17832196 0
3.6010003 -0.37511745 0.1788144 0
3.5950003 -0.38026372 0.17923649 0
3.5880003 -0.38528189 0.17972893 0
3.5820003 -0.39038306 0.18015102 0
3.5760002 -0.3954626 0.18057311 0
3.5700002 -0.40052047 0.18099521 0
3.5630002 -0.40544307 0.18148765 0
3.5570002 -0.41045585 0.18190974 0
3.5510004 -0.415447 0.18233182 0
3.5450003 -0.42041647 0.18275392 0
3.5390003 -0.42536435 0.18317601 0
3.5330002 -0.43029052 0.1835981 0
3.5260003 -0.43507063 0.18409052 0
3.5200002 -0.43995172 0.18451263 0
3.5140002 -0.44481117 0.18493472 0
3.5080001 -0.44964898 0.18535683 0
3.5020003 -0.45446518 0.18577889 0
3.4960003 -0.45925969 0.18620098 0
3.4900002 -0.46403256 0.18662308 0
3.4840002 -0.46878377 0.18704519 0
3.4790003 -0.4736523 0.18739691 0
3.4730003 -0.47836202 0.187819 0
3.4670002 -0.48305011 0.18824109 0
3.4610002 -0.48771656 0.18866318 0
3.4550002 -0.49236137 0.18908529 0
3.4490004 -0.49698454 0.18950737 0
3.4440002 -0.50173575 0.18985912 0
3.4380002 -0.50631744 0.19028121 0
3.4320002 -0.51087743 0.1907033 0
3.4260004 -0.51541585 0.19112539 0
3.4210002 -0.52008951 0.19147713 0
3.4150002 -0.52458638 0.19189923 0
3.4090002 -0.52906162 0.19232132 0
3.4040003 -0.53367758 0.19267306 0
3.3980002 -0.53811139 0.19309515 0
3.3930001 -0.54268944 0.19344689 0
3.3870003 -0.54708171 0.19386896 0
3.3820002 -0.55162185 0.19422072 0
3.3760002 -0.55597264 0.19464283 0
3.3710003 -0.56047493 0.19499455 0
3.3650002 -0.56478429 0.19541664 0
3.3600001 -0.56924868 0.1957684 0
3.3540003 -0.57351649 0.19619048 0
3.3490002 -0.57794309 0.19654223 0
3.3430002 -0.58216935 0.19696432 0
3.3380003 -0.58655804 0.19731605 0
3.3330002 -0.59092861 0.19766781 0
3.3270001 -0.59509367 0.1980899 0
3.3220003 -0.59942645 0.19844162 0
3.3170002 -0.60374111 0.19879338 0
3.3110003 -0.60784477 0.19921547 0
3.3060002 -0.61212164 0.19956721 0
3.3010001 -0.61638039 0.19991897 0
3.2960002 -0.6206212 0.2002707 0
3.2900002 -0.62464362 0.20069279 0
3.2850003 -0.62884653 0.20104453 0
3.2800002 -0.63303131 0.20139627 0
3.2750003 -0.63719815 0.20174801 0
3.2700002 -0.64134693 0.20209976 0
3.2650003 -0.64547765 0.2024515 0
3.2600002 -0.64959031 0.20280324 0
3.2550001 -0.65368497 0.203155 0
3.2490003 -0.65754694 0.20357707 0
3.2440002 -0.66160363 0.20392883 0
3.2390003 -0.66564238 0.20428056 0
3.2340002 -0.66966307 0.20463231 0
3.0260003 -0.83704567 0.21926479 0
3.0220003 -0.84057033 0.21954618 0
3.0180001 -0.84408051 0.21982759 0
3.0130002 -0.84726965 0.22017933 0
3.0090003 -0.85074925 0.22046071 0
3.0050001 -0.85421425 0.22074212 0
3.0010002 -0.857665 0.22102351 0
2.9960003 -0.86078745 0.22137524 0
2.9920001 -0.86420739 0.22165667 0
2.9880002 -0.86761296 0.22193806 0
2.9110003 -0.92922568 0.22735487 0
2.9070003 -0.93234092 0.22763626 0
2.9040003 -0.93579698 0.22784731 0
2.9000001 -0.93888503 0.22812872 0
2.8960001 -0.94195873 0.22841011 0
2.8920002 -0.94501805 0.2286915 0
2.8880002 -0.9480629 0.2289729 0
2.8840003 -0.95109326 0.22925429 0
2.8800001 -0.95410919 0.22953568 0
2.8770003 -0.95747876 0.22974671 0
2.8730001 -0.96046758 0.23002814 0
2.8690002 -0.96344209 0.23030952 0
2.8650002 -0.96640217 0.23059089 0
2.8610003 -0.96934777 0.23087229 0
2.8580003 -0.97265601 0.23108335 0
2.8540003 -0.97557455 0.23136474 0
2.8500001 -0.97847867 0.23164614 0
2.8460002 -0.9813683 0.23192753 0
2.8430002 -0.98462784 0.23213859 0
2.8390002 -0.98749053 0.23241998 0
2.8350003 -0.99033868 0.23270136 0
2.8320003 -0.9935621 0.23291241 0
2.8280003 -0.99638331 0.2331938 0
2.8240001 -0.99918997 0.23347521 0
2.8210001 -1.0023772 0.23368625 0
2.8170002 -1.0051569 0.23396765 0
3.8120003 -0.20601945 0.15781626 0
3.8040001 -0.21178441 0.15839349 0
3.7970002 -0.21757104 0.15889855 0
3.7900002 -0.22333239 0.15940362 0
3.7830002 -0.2290685 0.15990868 0
3.7760003 -0.23477936 0.16041374 0
3.7690003 -0.24046497 0.16091882 0
3.7620003 -0.24612531 0.16142388 0
3.7550004 -0.25176039 0.16192894 0
3.7480001 -0.25737023 0.16243403 0
3.7410002 -0.26295483 0.1629391 0
3.7340002 -0.26851416 0.16344416 0
3.7270002 -0.27404824 0.16394922 0
3.7200003 -0.27955711 0.16445428 0
3.7130003 -0.28504065 0.16495936 0
3.7060003 -0.29049897 0.16546442 0
3.7000003 -0.29600781 0.16589734 0
3.6930003 -0.30141747 0.1664024 0
3.6860003 -0.30680183 0.16690746 0
3.6790001 -0.31216094 0.16741253 0
3.6730003 -0.31757778 0.16784543 0
3.6660004 -0.3228882 0.16835049 0
3.6600003 -0.32825992 0.16878341 0
3.6530004 -0.33352163 0.16928849 0
3.6460001 -0.33875808 0.16979358 0
3.6400003 -0.34406129 0.17022647 0
3.6330001 -0.34924901 0.17073153 0
3.6270003 -0.35450712 0.17116442 0
3.6200004 -0.3596462 0.1716695 0
3.6140003 -0.36485919 0.17210242 0
3.6080003 -0.37005055 0.17253534 0
3.6010003 -0.37511745 0.1730404 0
3.5950003 -0.38026372 0.17347333 0
3.5880003 -0.38528189 0.17397839 0
3.5820003 -0.39038306 0.1744113 0
3.5760002 -0.3954626 0.17484421 0
3.5700002 -0.40052047 0.17527713 0
3.5630002 -0.40544307 0.1757822 0
3.5570002 -0.41045585 0.17621513 0
3.5510004 -0.415447 0.17664802 0
3.5450003 -0.42041647 0.17708093 0
3.5390003 -0.42536435 0.17751385 0
3.5330002 -0.43029052 0.17794676 0
3.5260003 -0.43507063 0.17845182 0
3.5200002 -0.43995172 0.17888474 0
3.5140002 -0.44481117 0.17931767 0
3.5080001 -0.44964898 0.17975059 0
3.5020003 -0.45446518 0.18018349 0
3.4960003 -0.45925969 0.18061639 0
3.4900002 -0.46403256 0.18104932 0
3.4840002 -0.46878377 0.18148224 0
3.4790003 -0.4736523 0.18184298 0
3.4730003 -0.47836202 0.18227591 0
3.4670002 -0.48305011 0.18270881 0
3.4610002 -0.48771656 0.18314174 0
3.4550002 -0.49236137 0.18357465 0
3.4490004 -0.49698454 0.18400756 0
3.4440002 -0.50173575 0.18436831 0
3.4380002 -0.50631744 0.18480124 0
3.4320002 -0.51087743 0.18523416 0
3.4260004 -0.51541585 0.18566707 0
3.4210002 -0.52008951 0.18602782 0
3.4150002 -0.52458638 0.18646073 0
3.4090002 -0.52906162 0.18689367 0
3.4040003 -0.53367758 0.18725441 0
3.3980002 -0.53811139 0.18768734 0
3.3930001 -0.54268944 0.18804809 0
3.3870003 -0.54708171 0.188481 0
3.3820002 -0.55162185 0.18884176 0
3.3760002 -0.55597264 0.18927468 0
3.3710003 -0.56047493 0.18963543 0
3.3650002 -0.56478429 0.19006836 0
3.3600001 -0.56924868 0.19042912 0
3.3540003 -0.57351649 0.19086203 0
3.3490002 -0.57794309 0.19122279 0
3.3430002 -0.58216935 0.19165571 0
3.3380003 -0.58655804 0.19201647 0
3.3330002 -0.59092861 0.19237722 0
3.3270001 -0.59509367 0.19281015 0
3.3220003 -0.59942645 0.19317091 0
3.3170002 -0.60374111 0.19353168 0
3.3110003 -0.60784477 0.19396457 0
3.3060002 -0.61212164 0.19432534 0
3.3010001 -0.61638039 0.19468611 0
3.2960002 -0.6206212 0.19504687 0
3.2900002 -0.62464362 0.19547978 0
3.2850003 -0.62884653 0.19584054 0
3.2800002 -0.63303131 0.19620131 0
3.2750003 -0.63719815 0.19656207 0
3.2700002 -0.64134693 0.19692284 0
3.2650003 -0.64547765 0.1972836 0
3.2600002 -0.64959031 0.19764435 0
3.2550001 -0.65368497 0.19800512 0
3.2490003 -0.65754694 0.19843802 0
3.2440002 -0.66160363 0.19879879 0
3.2390003 -0.66564238 0.19915953 0
3.2340002 -0.66966307 0.19952032 0
3.0260003 -0.83704567 0.21452799 0
3.0220003 -0.84057033 0.2148166 0
3.0180001 -0.84408051 0.21510522 0
3.0130002 -0.84726965 0.21546598 0
3.0090003 -0.85074925 0.21575458 0
3.0050001 -0.85421425 0.2160432 0
3.0010002 -0.857665 0.21633181 0
2.9960003 -0.86078745 0.21669255 0
2.9920001 -0.86420739 0.21698119 0
2.9880002 -0.86761296 0.21726979 0
2.9110003 -0.92922568 0.22282551 0
2.9070003 -0.93234092 0.22311412 0
2.9040003 -0.93579698 0.22333059 0
2.9000001 -0.93888503 0.22361919 0
2.8960001 -0.94195873 0.2239078 0
2.8920002 -0.94501805 0.2241964 0
2.8880002 -0.9480629 0.22448502 0
2.8840003 -0.95109326 0.22477362 0
2.8800001 -0.95410919 0.22506225 0
2.8770003 -0.95747876 0.22527869 0
2.8730001 -0.96046758 0.22556731 0
2.8690002 -0.96344209 0.22585592 0
2.8650002 -0.96640217 0.22614452 0
2.8610003 -0.96934777 0.22643313 0
2.8580003 -0.97265601 0.22664958 0
2.8540003 -0.97557455 0.22693819 0
2.8500001 -0.97847867 0.22722681 0
2.8460002 -0.9813683 0.22751541 0
2.8430002 -0.98462784 0.22773188 0
2.8390002 -0.98749053 0.22802049 0
2.8350003 -0.99033868 0.22830908 0
2.8320003 -0.9935621 0.22852555 0
2.8280003 -0.99638331 0.22881415 0
2.8240001 -0.99918997 0.22910278 0
2.8210001 -1.0023772 0.22931924 0
2.8170002 -1.0051569 0.22960784 0
3.8120003 -0.20601945 0.15166166 0
3.8040001 -0.21178441 0.15225333 0
3.7970002 -0.21757104 0.15277103 0
3.7900002 -0.22333239 0.15328872 0
3.7830002 -0.2290685 0.15380642 0
3.7760003 -0.23477936 0.1543241 0
3.7690003 -0.24046497 0.15484178 0
3.7620003 -0.24612531 0.15535948 0
3.7550004 -0.25176039 0.15587717 0
3.7480001 -0.25737023 0.15639487 0
3.7410002 -0.26295483 0.15691257 0
3.7340002 -0.26851416 0.15743026 0
3.7270002 -0.27404824 0.15794793 0
3.7200003 -0.27955711 0.15846562 0
3.7130003 -0.28504065 0.15898333 0
3.7060003 -0.29049897 0.15950103 0
3.7000003 -0.29600781 0.15994477 0
3.6930003 -0.30141747 0.16046244 0
3.6860003 -0.30680183 0.16098014 0
3.6790001 -0.31216094 0.16149786 0
3.6730003 -0.31757778 0.16194157 0
3.6660004 -0.3228882 0.16245927 0
3.6600003 -0.32825992 0.16290301 0
3.6530004 -0.33352163 0.16342068 0
3.6460001 -0.33875808 0.1639384 0
3.6400003 -0.34406129 0.16438212 0
3.6330001 -0.34924901 0.16489981 0
3.6270003 -0.35450712 0.16534355 0
3.6200004 -0.3596462 0.16586125 0
3.6140003 -0.36485919 0.16630499 0
3.6080003 -0.37005055 0.1667487 0
3.6010003 -0.37511745 0.16726641 0
3.5950003 -0.38026372 0.16771014 0
3.5880003 -0.38528189 0.16822785 0
3.5820003 -0.39038306 0.16867158 0
3.5760002 -0.3954626 0.16911532 0
3.5700002 -0.40052047 0.16955906 0
3.5630002 -0.40544307 0.17007676 0
3.5570002 -0.41045585 0.1705205 0
3.5510004 -0.415447 0.17096421 0
3.5450003 -0.42041647 0.17140795 0
3.5390003 -0.42536435 0.17185169 0
3.5330002 -0.43029052 0.17229544 0
3.5260003 -0.43507063 0.17281313 0
3.5200002 -0.43995172 0.17325686 0
3.5140002 -0.44481117 0.1737006 0
3.5080001 -0.44964898 0.17414434 0
3.5020003 -0.45446518 0.17458807 0
3.4960003 -0.45925969 0.17503181 0
3.4900002 -0.46403256 0.17547555 0
3.4840002 -0.46878377 0.17591928 0
3.4790003 -0.4736523 0.17628907 0
3.4730003 -0.47836202 0.17673279 0
3.4670002 -0.48305011 0.17717654 0
3.4610002 -0.48771656 0.17762028 0
3.4550002 -0.49236137 0.17806402 0
3.4490004 -0.49698454 0.17850775 0
3.4440002 -0.50173575 0.17887753 0
3.4380002 -0.50631744 0.17932127 0
3.4320002 -0.51087743 0.179765 0
3.4260004 -0.51541585 0.18020874 0
3.4210002 -0.52008951 0.18057851 0
3.4150002 -0.52458638 0.18102226 0
3.4090002 -0.52906162 0.181466 0
3.4040003 -0.53367758 0.18183577 0
3.3980002 -0.53811139 0.18227951 0
3.3930001 -0.54268944 0.18264931 0
3.3870003 -0.54708171 0.18309303 0
3.3820002 -0.55162185 0.18346281 0
3.3760002 -0.55597264 0.18390654 0
3.3710003 -0.56047493 0.18427633 0
3.3650002 -0.56478429 0.18472007 0
3.3600001 -0.56924868 0.18508986 0
3.3540003 -0.57351649 0.18553358 0
3.3490002 -0.57794309 0.18590337 0
3.3430002 -0.58216935 0.18634711 0
3.3380003 -0.58655804 0.18671688 0
3.3330002 -0.59092861 0.18708666 0
3.3270001 -0.59509367 0.1875304 0
3.3220003 -0.59942645 0.18790017 0
3.3170002 -0.60374111 0.18826997 0
3.3110003 -0.60784477 0.18871368 0
3.3060002 -0.61212164 0.18908349 0
3.3010001 -0.61638039 0.18945326 0
3.2960002 -0.6206212 0.18982303 0
3.2900002 -0.62464362 0.19026677 0
3.2850003 -0.62884653 0.19063655 0
3.2800002 -0.63303131 0.19100635 0
3.2750003 -0.63719815 0.19137612 0
3.2700002 -0.64134693 0.19174589 0
3.2650003 -0.64547765 0.19211566 0
3.2600002 -0.64959031 0.19248547 0
3.2550001 -0.65368497 0.19285525 0
3.2490003 -0.65754694 0.19329898 0
3.2440002 -0.66160363 0.19366877 0
3.2390003 -0.66564238 0.19403853 0
3.2340002 -0.66966307 0.19440831 0
3.0260003 -0.83704567 0.2097912 0
3.0220003 -0.84057033 0.21008702 0
3.0180001 -0.84408051 0.21038286 0
3.0130002 -0.84726965 0.21075264 0
3.0090003 -0.85074925 0.21104844 0
3.0050001 -0.85421425 0.21134429 0
3.0010002 -0.857665 0.2116401 0
2.9960003 -0.86078745 0.21200988 0
2.9920001 -0.86420739 0.21230571 0
2.9880002 -0.86761296 0.21260154 0
2.9110003 -0.92922568 0.21829616 0
2.9070003 -0.93234092 0.21859197 0
2.9040003 -0.93579698 0.21881384 0
2.9000001 -0.93888503 0.21910968 0
2.8960001 -0.94195873 0.2194055 0
2.8920002 -0.94501805 0.21970132 0
2.8880002 -0.9480629 0.21999715 0
2.8840003 -0.95109326 0.22029296 0
2.8800001 -0.95410919 0.2205888 0
2.8770003 -0.95747876 0.22081065 0
2.8730001 -0.96046758 0.22110648 0
2.8690002 -0.96344209 0.22140232 0
2.8650002 -0.96640217 0.22169814 0
2.8610003 -0.96934777 0.22199395 0
2.8580003 -0.97265601 0.22221582 0
2.8540003 -0.97557455 0.22251165 0
2.8500001 -0.97847867 0.22280748 0
2.8460002 -0.9813683 0.2231033 0
2.8430002 -0.98462784 0.22332518 0
2.8390002 -0.98749053 0.22362098 0
2.8350003 -0.99033868 0.22391681 0
2.8320003 -0.9935621 0.22413869 0
2.8280003 -0.99638331 0.22443449 0
2.8240001 -0.99918997 0.22473034 0
2.8210001 -1.0023772 0.22495221 0
2.8170002 -1.0051569 0.22524804 0
3.8120003 -0.20601945 0.1455071 0
3.8040001 -0.21178441 0.14611316 0
3.7970002 -0.21757104 0.14664349 0
3.7900002 -0.22333239 0.14717379 0
3.7830002 -0.2290685 0.14770412 0
3.7760003 -0.23477936 0.14823443 0
3.7690003 -0.24046497 0.14876476 0
3.7620003 -0.24612531 0.14929506 0
3.7550004 -0.25176039 0.14982539 0
3.7480001 -0.25737023 0.15035573 0
3.7410002 -0.26295483 0.15088603 0
3.7340002 -0.26851416 0.15141636 0
3.7270002 -0.27404824 0.15194666 0
3.7200003 -0.27955711 0.152477 0
3.7130003 -0.28504065 0.1530073 0
3.7060003 -0.29049897 0.15353763 0
3.7000003 -0.29600781 0.15399221 0
3.6930003 -0.30141747 0.15452249 0
3.6860003 -0.30680183 0.15505283 0
3.6790001 -0.31216094 0.15558316 0
3.6730003 -0.31757778 0.15603772 0
3.6660004 -0.3228882 0.15656802 0
3.6600003 -0.32825992 0.15702258 0
3.6530004 -0.33352163 0.15755291 0
3.6460001 -0.33875808 0.15808325 0
3.6400003 -0.34406129 0.15853778 0
3.6330001 -0.34924901 0.15906812 0
3.6270003 -0.35450712 0.15952265 0
3.6200004 -0.3596462 0.16005298 0
3.6140003 -0.36485919 0.16050754 0
3.6080003 -0.37005055 0.1609621 0
3.6010003 -0.37511745 0.16149241 0
3.5950003 -0.38026372 0.161947 0
3.5880003 -0.38528189 0.1624773 0
3.5820003 -0.39038306 0.16293186 0
3.5760002 -0.3954626 0.16338643 0
3.5700002 -0.40052047 0.16384099 0
3.5630002 -0.40544307 0.1643713 0
3.5570002 -0.41045585 0.16482586 0
3.5510004 -0.415447 0.16528042 0
3.5450003 -0.42041647 0.16573498 0
3.5390003 -0.42536435 0.16618954 0
3.5330002 -0.43029052 0.16664411 0
3.5260003 -0.43507063 0.16717443 0
3.5200002 -0.43995172 0.16762897 0
3.5140002 -0.44481117 0.16808353 0
3.5080001 -0.44964898 0.16853812 0
3.5020003 -0.45446518 0.16899265 0
3.4960003 -0.45925969 0.16944721 0
3.4900002 -0.46403256 0.16990179 0
3.4840002 -0.46878377 0.17035635 0
3.4790003 -0.4736523 0.17073514 0
3.4730003 -0.47836202 0.1711897 0
3.4670002 -0.48305011 0.17164426 0
3.4610002 -0.48771656 0.17209882 0
3.4550002 -0.49236137 0.17255339 0
3.4490004 -0.49698454 0.17300792 0
3.4440002 -0.50173575 0.17338674 0
3.4380002 -0.50631744 0.1738413 0
3.4320002 -0.51087743 0.17429587 0
3.4260004 -0.51541585 0.17475042 0
3.4210002 -0.52008951 0.17512922 0
3.4150002 -0.52458638 0.17558378 0
3.4090002 -0.52906162 0.17603834 0
3.4040003 -0.53367758 0.17641714 0
3.3980002 -0.53811139 0.17687169 0
3.3930001 -0.54268944 0.1772505 0
3.3870003 -0.54708171 0.17770505 0
3.3820002 -0.55162185 0.17808387 0
3.3760002 -0.55597264 0.17853841 0
3.3710003 -0.56047493 0.17891721 0
3.3650002 -0.56478429 0.17937177 0
3.3600001 -0.56924868 0.17975059 0
3.3540003 -0.57351649 0.18020514 0
3.3490002 -0.57794309 0.18058394 0
3.3430002 -0.58216935 0.1810385 0
3.3380003 -0.58655804 0.18141729 0
3.3330002 -0.59092861 0.18179609 0
3.3270001 -0.59509367 0.18225065 0
3.3220003 -0.59942645 0.18262945 0
3.3170002 -0.60374111 0.18300827 0
3.3110003 -0.60784477 0.18346281 0
3.3060002 -0.61212164 0.18384162 0
3.3010001 -0.61638039 0.18422042 0
3.2960002 -0.6206212 0.18459922 0
3.2900002 -0.62464362 0.18505377 0
3.2850003 -0.62884653 0.18543255 0
3.2800002 -0.63303131 0.18581137 0
3.2750003 -0.63719815 0.18619017 0
3.2700002 -0.64134693 0.18656896 0
3.2650003 -0.64547765 0.18694776 0
3.2600002 -0.64959031 0.18732658 0
3.2550001 -0.65368497 0.18770537 0
3.2490003 -0.65754694 0.18815991 0
3.2440002 -0.66160363 0.18853873 0
3.2390003 -0.66564238 0.18891753 0
3.2340002 -0.66966307 0.18929632 0
3.0260003 -0.83704567 0.20505439 0
3.0220003 -0.84057033 0.20535743 0
3.0180001 -0.84408051 0.20566048 0
3.0130002 -0.84726965 0.20603926 0
3.0090003 -0.85074925 0.20634231 0
3.0050001 -0.85421425 0.20664535 0
3.0010002 -0.857665 0.2069484 0
2.9960003 -0.86078745 0.2073272 0
2.9920001 -0.86420739 0.20763025 0
2.9880002 -0.86761296 0.20793329 0
2.9110003 -0.92922568 0.21376678 0
2.9070003 -0.93234092 0.21406983 0
2.9040003 -0.93579698 0.2142971 0
2.9000001 -0.93888503 0.21460016 0
2.8960001 -0.94195873 0.21490319 0
2.8920002 -0.94501805 0.21520624 0
2.8880002 -0.9480629 0.21550927 0
2.8840003 -0.95109326 0.2158123 0
2.8800001 -0.95410919 0.21611536 0
2.8770003 -0.95747876 0.21634261 0
2.8730001 -0.96046758 0.21664567 0
2.8690002 -0.96344209 0.2169487 0
2.8650002 -0.96640217 0.21725175 0
2.8610003 -0.96934777 0.21755478 0
2.8580003 -0.97265601 0.21778207 0
2.8540003 -0.97557455 0.2180851 0
2.8500001 -0.97847867 0.21838816 0
2.8460002 -0.9813683 0.21869119 0
2.8430002 -0.98462784 0.21891847 0
2.8390002 -0.98749053 0.2192215 0
2.8350003 -0.99033868 0.21952455 0
2.8320003 -0.9935621 0.21975182 0
2.8280003 -0.99638331 0.22005486 0
2.8240001 -0.99918997 0.22035791 0
2.8210001 -1.0023772 0.2205852 0
2.8170002 -1.0051569 0.22088823 0
3.8120003 -0.20601945 0.1393525 0
3.8040001 -0.21178441 0.13997298 0
3.7970002 -0.21757104 0.14051595 0
3.7900002 -0.22333239 0.14105889 0
3.7830002 -0.2290685 0.14160183 0
3.7760003 -0.23477936 0.14214477 0
3.7690003 -0.24046497 0.14268774 0
3.7620003 -0.24612531 0.14323068 0
3.7550004 -0.25176039 0.14377362 0
3.7480001 -0.25737023 0.14431658 0
3.7410002 -0.26295483 0.14485949 0
3.7340002 -0.26851416 0.14540246 0
3.7270002 -0.27404824 0.1459454 0
3.7200003 -0.27955711 0.14648834 0
3.7130003 -0.28504065 0.14703128 0
3.7060003 -0.29049897 0.14757425 0
3.7000003 -0.29600781 0.14803961 0
3.6930003 -0.30141747 0.14858255 0
3.6860003 -0.30680183 0.14912552 0
3.6790001 -0.31216094 0.14966846 0
3.6730003 -0.31757778 0.15013385 0
3.6660004 -0.3228882 0.15067676 0
3.6600003 -0.32825992 0.15114218 0
3.6530004 -0.33352163 0.15168512 0
3.6460001 -0.33875808 0.15222809 0
3.6400003 -0.34406129 0.15269345 0
3.6330001 -0.34924901 0.15323642 0
3.6270003 -0.35450712 0.15370175 0
3.6200004 -0.3596462 0.15424472 0
3.6140003 -0.36485919 0.1547101 0
3.6080003 -0.37005055 0.15517551 0
3.6010003 -0.37511745 0.15571845 0
3.5950003 -0.38026372 0.15618381 0
3.5880003 -0.38528189 0.15672675 0
3.5820003 -0.39038306 0.15719216 0
3.5760002 -0.3954626 0.15765753 0
3.5700002 -0.40052047 0.15812293 0
3.5630002 -0.40544307 0.15866587 0
3.5570002 -0.41045585 0.15913124 0
3.5510004 -0.415447 0.15959662 0
3.5450003 -0.42041647 0.16006199 0
3.5390003 -0.42536435 0.16052739 0
3.5330002 -0.43029052 0.16099277 0
3.5260003 -0.43507063 0.16153571 0
3.5200002 -0.43995172 0.1620011 0
3.5140002 -0.44481117 0.16246648 0
3.5080001 -0.44964898 0.16293189 0
3.5020003 -0.45446518 0.16339722 0
3.4960003 -0.45925969 0.16386263 0
3.4900002 -0.46403256 0.16432801 0
3.4840002 -0.46878377 0.1647934 0
3.4790003 -0.4736523 0.16518122 0
3.4730003 -0.47836202 0.1656466 0
3.4670002 -0.48305011 0.16611198 0
3.4610002 -0.48771656 0.16657737 0
3.4550002 -0.49236137 0.16704275 0
3.4490004 -0.49698454 0.16750813 0
3.4440002 -0.50173575 0.16789593 0
3.4380002 -0.50631744 0.16836134 0
3.4320002 -0.51087743 0.16882671 0
3.4260004 -0.51541585 0.16929209 0
3.4210002 -0.52008951 0.16967992 0
3.4150002 -0.52458638 0.1701453 0
3.4090002 -0.52906162 0.17061067 0
3.4040003 -0.53367758 0.17099848 0
3.3980002 -0.53811139 0.17146389 0
3.3930001 -0.54268944 0.17185169 0
3.3870003 -0.54708171 0.17231707 0
