# .PCD v0.7 - Point Cloud Data file format
VERSION 0.7
FIELDS x y z intensity
SIZE 4 4 4 4
TYPE F F F F
COUNT 1 1 1 1
WIDTH 1398
HEIGHT 1
VIEWPOINT 0 0 0 1 0 0 0
POINTS 1398
DATA ascii
5.3750005 -1.1318475 0.52066129 0
5.3710003 -1.1399412 0.52056754 0
5.3680005 -1.1482422 0.5204972 0
5.3650002 -1.1565326 0.52042681 0
5.3620005 -1.1648121 0.52035648 0
5.3580003 -1.1728534 0.52026266 0
5.3550005 -1.1811094 0.52019233 0
5.3600001 -1.2180424 0.52030957 0
5.3380003 -1.2217511 0.51979369 0
5.3280005 -1.2282593 0.5195592 0
5.3200002 -1.2352147 0.51937157 0
5.3150005 -1.242872 0.51925433 0
5.3110003 -1.2507564 0.51916051 0
5.3080006 -1.2588735 0.51909018 0
5.3080006 -1.2677267 0.51909018 0
5.3090005 -1.2768304 0.51911366 0
5.3110003 -1.2861903 0.51916051 0
5.3170004 -1.2965748 0.51930124 0
5.2250004 -1.4037266 0.51714391 0
5.2220001 -1.4115802 0.51707351 0
5.2190003 -1.4194232 0.51700318 0
5.4550004 -0.93047029 0.51341903 0
5.4450002 -0.93782079 0.51320255 0
5.4400005 -0.94602823 0.51309431 0
5.4360003 -0.95439786 0.51300776 0
5.4330006 -0.96293527 0.51294279 0
5.4290004 -0.97127783 0.51285625 0
5.4260001 -0.97979176 0.51279128 0
5.4230003 -0.98829502 0.51272637 0
5.4190001 -0.99659789 0.51263976 0
5.4160004 -1.0050776 0.51257485 0
5.4130001 -1.0135465 0.51250988 0
5.4090004 -1.0218098 0.51242334 0
5.4060001 -1.0302551 0.51235837 0
5.4030004 -1.0386897 0.51229346 0
5.3990002 -1.0469134 0.51220685 0
5.3960004 -1.0553244 0.51214194 0
5.3930001 -1.0637248 0.51207697 0
5.3900003 -1.0721143 0.51201206 0
5.3860002 -1.0802855 0.51192546 0
5.3830004 -1.0886517 0.51186055 0
5.3800001 -1.0970068 0.51179558 0
5.3760004 -1.1051384 0.51170903 0
5.3730001 -1.1134702 0.51164407 0
5.3700004 -1.1217912 0.51157916 0
5.3670001 -1.1301013 0.51151419 0
5.3630004 -1.1381806 0.51142764 0
5.3600001 -1.1464673 0.51136267 0
5.3570004 -1.1547432 0.51129776 0
5.3540006 -1.1630083 0.51123279 0
5.3500004 -1.1710352 0.51114619 0
5.3470001 -1.1792767 0.51108128 0
5.3600001 -1.2180424 0.51136267 0
5.3380003 -1.2217511 0.51088649 0
5.3280005 -1.2282593 0.51067001 0
5.3200002 -1.2352147 0.51049685 0
5.3150005 -1.242872 0.51038861 0
5.3110003 -1.2507564 0.51030207 0
5.3080006 -1.2588735 0.5102371 0
5.3080006 -1.2677267 0.5102371 0
5.3090005 -1.2768304 0.51025873 0
5.3110003 -1.2861903 0.51030207 0
5.3170004 -1.2965748 0.51043195 0
5.2250004 -1.4037266 0.50844049 0
5.2220001 -1.4115802 0.50837559 0
5.2190003 -1.4194232 0.50831062 0
5.4600005 -0.92221791 0.50440001 0
5.4470005 -0.92907059 0.50414205 0
5.4390001 -0.93676013 0.50398332 0
5.4340005 -0.94495672 0.50388408 0
5.4310002 -0.95349592 0.50382459 0
5.4270005 -0.96184218 0.5037452 0
5.4240003 -0.97035789 0.50368565 0
5.4210005 -0.97886288 0.50362617 0
5.4170003 -0.98716938 0.50354677 0
5.4140005 -0.99565095 0.50348723 0
5.4110003 -1.0041215 0.50342774 0
5.4070005 -1.0123885 0.50334835 0
5.4040003 -1.0208356 0.50328887 0
5.4010005 -1.0292722 0.50322932 0
5.3980002 -1.0376977 0.50316978 0
5.3940005 -1.0459123 0.50309044 0
5.3910003 -1.0543144 0.5030309 0
5.3880005 -1.0627058 0.50297135 0
5.3850002 -1.0710862 0.50291181 0
5.3810005 -1.0792484 0.50283247 0
5.3780003 -1.0876054 0.50277293 0
5.3750005 -1.0959518 0.50271344 0
5.3720002 -1.1042871 0.5026539 0
5.3680005 -1.1123971 0.5025745 0
5.3650002 -1.1207089 0.50251502 0
5.3620005 -1.1290101 0.50245547 0
5.3590002 -1.1373003 0.50239593 0
5.3550005 -1.145358 0.50231659 0
5.3520002 -1.1536249 0.50225705 0
5.3490005 -1.161881 0.5021975 0
5.3460002 -1.170126 0.50213802 0
5.3430004 -1.1783605 0.50207847 0
5.3600001 -1.2180424 0.50241578 0
5.3380003 -1.2217511 0.50197929 0
5.3280005 -1.2282593 0.50178087 0
5.3200002 -1.2352147 0.50162214 0
5.3150005 -1.242872 0.5015229 0
5.3110003 -1.2507564 0.50144356 0
5.3080006 -1.2588735 0.50138402 0
5.3080006 -1.2677267 0.50138402 0
5.3090005 -1.2768304 0.50140387 0
5.3110003 -1.2861903 0.50144356 0
5.3170004 -1.2965748 0.5015626 0
5.2250004 -1.4037266 0.49973714 0
5.2220001 -1.4115802 0.4996776 0
5.2190003 -1.4194232 0.49961808 0
5.4540005 -0.92117888 0.49516448 0
5.4430003 -0.92837065 0.49496606 0
5.4360003 -0.93622988 0.49483979 0
5.4310002 -0.94442093 0.49474961 0
5.4280005 -0.95295483 0.49469548 0
5.4240003 -0.96129555 0.49462333 0
5.4210005 -0.96980596 0.49456924 0
5.4180002 -0.97830546 0.49451512 0
5.4140005 -0.98660666 0.49444297 0
5.4110003 -0.99508274 0.49438885 0
5.4080005 -1.0035479 0.49433473 0
5.4050002 -1.0120025 0.49428061 0
5.4010005 -1.0202513 0.49420846 0
5.3980002 -1.0286822 0.49415433 0
5.3950005 -1.0371023 0.49410024 0
5.3910003 -1.0453116 0.49402809 0
5.3880005 -1.0537083 0.49397397 0
5.3850002 -1.0620941 0.49391985 0
5.3820004 -1.0704694 0.49386573 0
5.3790002 -1.0788336 0.49381161 0
5.3750005 -1.0869777 0.49373949 0
5.3720002 -1.0953184 0.49368536 0
5.3690004 -1.1036485 0.49363124 0
5.3660002 -1.1119676 0.49357712 0
5.3620005 -1.1200596 0.49350497 0
5.3590002 -1.1283553 0.49345085 0
5.3560004 -1.1366402 0.49339676 0
5.3530002 -1.1449142 0.49334264 0
5.3500004 -1.1531775 0.49328852 0
5.3460002 -1.1612043 0.49321637 0
5.3430004 -1.1694443 0.49316227 0
5.3400002 -1.1776732 0.49310815 0
5.3600001 -1.2180424 0.49346888 0
5.3380003 -1.2217511 0.49307206 0
5.3280005 -1.2282593 0.4928917 0
5.3200002 -1.2352147 0.49274737 0
5.3150005 -1.242872 0.49265718 0
5.3110003 -1.2507564 0.49258503 0
5.3080006 -1.2588735 0.49253094 0
5.3080006 -1.2677267 0.49253094 0
5.3090005 -1.2768304 0.49254897 0
5.3110003 -1.2861903 0.49258503 0
5.3170004 -1.2965748 0.49269328 0
5.2250004 -1.4037266 0.49103376 0
5.2220001 -1.4115802 0.49097964 0
5.2190003 -1.4194232 0.49092555 0
5.4520001 -0.92083251 0.48601556 0
5.4410005 -0.92802078 0.48583698 0
5.4340005 -0.93587637 0.48572335 0
5.4300003 -0.94424242 0.48565841 0
5.4260001 -0.95259398 0.48559347 0
5.4230003 -0.96111339 0.48554477 0
5.4200006 -0.96962202 0.48549607 0
5.4170003 -0.97811973 0.48544735 0
5.4130001 -0.98641896 0.48538244 0
5.4100003 -0.99489337 0.48533374 0
5.4070005 -1.0033568 0.48528504 0
5.4030004 -1.0116165 0.48522007 0
5.4000001 -1.0200564 0.48517138 0
5.3970003 -1.0284857 0.48512268 0
5.3940005 -1.036904 0.48507398 0
5.3900003 -1.0451113 0.48500904 0
5.3870006 -1.0535064 0.48496035 0
5.3840003 -1.0618904 0.48491162 0
5.3810005 -1.0702636 0.48486292 0
5.3780003 -1.0786262 0.48481423 0
5.3740005 -1.0867686 0.48474929 0
5.3710003 -1.0951074 0.48470059 0
5.3680005 -1.1034358 0.48465189 0
5.3650002 -1.111753 0.48460317 0
5.3610005 -1.1198432 0.48453826 0
5.3580003 -1.128137 0.48448956 0
5.3550005 -1.1364202 0.48444086 0
5.3520002 -1.1446923 0.48439214 0
5.3490005 -1.1529539 0.48434344 0
5.3450003 -1.1609789 0.4842785 0
5.3420005 -1.169217 0.4842298 0
5.3390002 -1.1774441 0.48418111 0
5.3600001 -1.2180424 0.48452201 0
5.3380003 -1.2217511 0.48416486 0
5.3280005 -1.2282593 0.48400253 0
5.3200002 -1.2352147 0.48387265 0
5.3150005 -1.242872 0.48379147 0
5.3110003 -1.2507564 0.48372653 0
5.3080006 -1.2588735 0.48367783 0
5.3080006 -1.2677267 0.48367783 0
5.3090005 -1.2768304 0.48369408 0
5.3110003 -1.2861903 0.48372653 0
5.3170004 -1.2965748 0.48382396 0
5.2280002 -1.3958619 0.48237908 0
5.2250004 -1.4037266 0.48233038 0
5.2220001 -1.4115802 0.48228168 0
5.2190003 -1.4194232 0.48223299 0
5.4520001 -0.92083251 0.47690272 0
5.4410005 -0.92802078 0.476744 0
5.4340005 -0.93587637 0.47664297 0
5.4300003 -0.94424242 0.47658527 0
5.4270005 -0.95277447 0.47654197 0
5.4240003 -0.96129555 0.47649866 0
5.4200006 -0.96962202 0.47644097 0
5.4170003 -0.97811973 0.47639766 0
5.4140005 -0.98660666 0.47635436 0
5.4110003 -0.99508274 0.47631109 0
5.4070005 -1.0033568 0.47625336 0
5.4040003 -1.0118095 0.47621006 0
5.4010005 -1.0202513 0.47616678 0
5.3980002 -1.0286822 0.47612348 0
5.3940005 -1.036904 0.47606575 0
5.3910003 -1.0453116 0.47602248 0
5.3880005 -1.0537083 0.47597918 0
5.3850002 -1.0620941 0.47593588 0
5.3810005 -1.0702636 0.47587818 0
5.3780003 -1.0786262 0.47583488 0
5.3750005 -1.0869777 0.47579157 0
5.3720002 -1.0953184 0.4757483 0
5.3690004 -1.1036485 0.475705 0
5.3650002 -1.111753 0.47564727 0
5.3620005 -1.1200596 0.475604 0
5.3590002 -1.1283553 0.47556069 0
5.3560004 -1.1366402 0.47551739 0
5.3530002 -1.1449142 0.47547412 0
5.3490005 -1.1529539 0.47541639 0
5.3460002 -1.1612043 0.47537309 0
5.3430004 -1.1694443 0.47532982 0
5.3400002 -1.1776732 0.47528651 0
5.3600001 -1.2180424 0.47557512 0
5.3380003 -1.2217511 0.47525766 0
5.3280005 -1.2282593 0.47511336 0
5.3200002 -1.2352147 0.47499791 0
5.3150005 -1.242872 0.47492576 0
5.3110003 -1.2507564 0.47486803 0
5.3080006 -1.2588735 0.47482473 0
5.3080006 -1.2677267 0.47482473 0
5.3090005 -1.2768304 0.47483918 0
5.3110003 -1.2861903 0.47486803 0
5.3170004 -1.2965748 0.47495461 0
5.2280002 -1.3958619 0.4736703 0
5.2250004 -1.4037266 0.47362703 0
5.2220001 -1.4115802 0.47358373 0
5.2190003 -1.4194232 0.47354043 0
5.4520001 -0.92083251 0.46778989 0
5.4410005 -0.92802078 0.46765101 0
5.4340005 -0.93587637 0.46756262 0
5.4300003 -0.94424242 0.4675121 0
5.4270005 -0.95277447 0.46747422 0
5.4250002 -0.96147776 0.46744895 0
5.4230003 -0.9701739 0.46742371 0
5.4190001 -0.97849131 0.46737319 0
5.4160004 -0.98698181 0.46733534 0
5.4130001 -0.99546146 0.46729743 0
5.4090004 -1.0037392 0.46724695 0
5.4060001 -1.0121955 0.46720904 0
5.4030004 -1.0206409 0.46717119 0
5.4000001 -1.0290754 0.46713328 0
5.3970003 -1.0374993 0.46709543 0
5.3930001 -1.045712 0.46704492 0
5.3900003 -1.0541123 0.46700704 0
5.3870006 -1.0625019 0.46696916 0
5.3840003 -1.0708805 0.46693128 0
5.3800001 -1.079041 0.46688077 0
5.3770003 -1.0873963 0.46684289 0
5.3740005 -1.0957407 0.46680501 0
5.3710003 -1.1040742 0.46676713 0
5.3680005 -1.1123971 0.46672925 0
5.3640003 -1.1204926 0.46667874 0
5.3610005 -1.1287919 0.46664086 0
5.3580003 -1.1370803 0.46660298 0
5.3550005 -1.145358 0.4665651 0
5.3520002 -1.1536249 0.46652722 0
5.3490005 -1.161881 0.46648934 0
5.3450003 -1.1698987 0.46643883 0
5.3420005 -1.1781313 0.46640095 0
5.3600001 -1.2180424 0.46662825 0
5.3380003 -1.2217511 0.46635044 0
5.3280005 -1.2282593 0.46622419 0
5.3200002 -1.2352147 0.46612316 0
5.3150005 -1.242872 0.46606004 0
5.3110003 -1.2507564 0.46600953 0
5.3080006 -1.2588735 0.46597165 0
5.3080006 -1.2677267 0.46597165 0
5.3090005 -1.2768304 0.46598428 0
5.3110003 -1.2861903 0.46600953 0
5.3170004 -1.2965748 0.46608528 0
5.2280002 -1.3958619 0.46496153 0
5.2250004 -1.4037266 0.46492362 0
5.2220001 -1.4115802 0.46488577 0
5.2190003 -1.4194232 0.46484786 0
5.4520001 -0.92083251 0.45867705 0
5.4410005 -0.92802078 0.45855799 0
5.4340005 -0.93587637 0.45848224 0
5.4300003 -0.94424242 0.45843893 0
5.4270005 -0.95277447 0.45840648 0
5.4250002 -0.96147776 0.45838484 0
5.4260001 -0.97072583 0.45839566 0
5.4230003 -0.97923446 0.45836318 0
5.4200006 -0.98773229 0.45833072 0
5.4170003 -0.99621916 0.45829824 0
5.4140005 -1.0046953 0.45826578 0
5.4100003 -1.0129675 0.45822248 0
5.4070005 -1.0214201 0.45819002 0
5.4040003 -1.0298619 0.45815754 0
5.4010005 -1.038293 0.45812508 0
5.3970003 -1.046513 0.45808178 0
5.3940005 -1.0549206 0.45804933 0
5.3910003 -1.0633172 0.45801684 0
5.3880005 -1.0717031 0.45798439 0
5.3850002 -1.0800781 0.4579519 0
5.3810005 -1.0882332 0.45790863 0
5.3780003 -1.0965848 0.45787615 0
5.3750005 -1.1049256 0.45784369 0
5.3720002 -1.1132556 0.45781124 0
5.3690004 -1.1215748 0.45777875 0
5.3650002 -1.1296648 0.45773545 0
5.3620005 -1.1379607 0.45770299 0
5.3590002 -1.1462455 0.45767051 0
5.3560004 -1.1545196 0.45763806 0
5.3530002 -1.1627827 0.4576056 0
5.3500004 -1.1710352 0.45757312 0
5.3460002 -1.1790477 0.45752981 0
5.3380003 -1.2217511 0.45744324 0
5.3280005 -1.2282593 0.45733503 0
5.3200002 -1.2352147 0.45724842 0
5.3150005 -1.242872 0.45719433 0
5.3110003 -1.2507564 0.45715103 0
5.3080006 -1.2588735 0.45711857 0
5.3080006 -1.2677267 0.45711857 0
5.3090005 -1.2768304 0.45712939 0
5.3110003 -1.2861903 0.45715103 0
5.3170004 -1.2965748 0.45721596 0
5.2280002 -1.3958619 0.45625272 0
5.2250004 -1.4037266 0.45622027 0
5.2220001 -1.4115802 0.45618778 0
5.2190003 -1.4194232 0.45615533 0
5.2160006 -1.4272554 0.45612288 0
5.4520001 -0.92083251 0.44956422 0
5.4410005 -0.92802078 0.44946501 0
5.4340005 -0.93587637 0.44940186 0
5.4300003 -0.94424242 0.44936579 0
5.4270005 -0.95277447 0.44933873 0
5.4250002 -0.96147776 0.4493207 0
5.4260001 -0.97072583 0.4493297 0
5.4280005 -0.98016346 0.44934776 0
5.4270005 -0.98904544 0.44933873 0
5.4240003 -0.99754488 0.44931167 0
5.4200006 -1.0058424 0.44927561 0
5.4170003 -1.0143185 0.44924855 0
5.4140005 -1.0227838 0.44922149 0
5.4110003 -1.0312382 0.44919443 0
5.4070005 -1.0394834 0.44915837 0
5.4040003 -1.0479145 0.44913131 0
5.4010005 -1.0563347 0.44910425 0
5.3980002 -1.0647439 0.44907719 0
5.3940005 -1.0729369 0.4490411 0
5.3910003 -1.0813228 0.44901404 0
5.3880005 -1.0896978 0.44898701 0
5.3850002 -1.098062 0.44895995 0
5.3820004 -1.1064156 0.44893289 0
5.3780003 -1.1145436 0.4488968 0
5.3750005 -1.1228735 0.44886974 0
5.3720002 -1.1311927 0.44884267 0
5.3690004 -1.139501 0.44881564 0
5.3660002 -1.1477984 0.44878858 0
5.3630004 -1.1560853 0.44876152 0
5.3590002 -1.1641356 0.44872543 0
5.3560004 -1.1723989 0.44869837 0
5.3530002 -1.1806513 0.44867131 0
5.3380003 -1.2217511 0.44853604 0
5.3280005 -1.2282593 0.44844586 0
5.3200002 -1.2352147 0.44837371 0
5.3150005 -1.242872 0.44832861 0
5.3110003 -1.2507564 0.44829252 0
5.3080006 -1.2588735 0.44826546 0
5.3080006 -1.2677267 0.44826546 0
5.3090005 -1.2768304 0.44827449 0
5.3110003 -1.2861903 0.44829252 0
5.3170004 -1.2965748 0.44834664 0
5.2280002 -1.3958619 0.44754395 0
5.2250004 -1.4037266 0.44751689 0
5.2220001 -1.4115802 0.44748983 0
5.2190003 -1.4194232 0.44746277 0
5.2160006 -1.4272554 0.44743571 0
5.4520001 -0.92083251 0.44045138 0
5.4410005 -0.92802078 0.44037199 0
5.4340005 -0.93587637 0.44032151 0
5.4300003 -0.94424242 0.44029263 0
5.4270005 -0.95277447 0.44027099 0
5.4250002 -0.96147776 0.44025657 0
5.4260001 -0.97072583 0.44026378 0
5.4280005 -0.98016346 0.4402782 0
5.4320002 -0.98998332 0.44030708 0
5.4350004 -0.99962837 0.44032872 0
5.4320002 -1.0081369 0.44030708 0
5.4290004 -1.0166346 0.44028541 0
5.4250002 -1.0249267 0.44025657 0
5.4220004 -1.033401 0.4402349 0
5.4190001 -1.0418645 0.44021326 0
5.4090004 -1.0669861 0.44014111 0
5.4060001 -1.0754045 0.44011948 0
5.4030004 -1.0838121 0.44009781 0
5.4000001 -1.0922087 0.44007617 0
5.3970003 -1.1005948 0.44005454 0
5.3930001 -1.1087569 0.44002569 0
5.3900003 -1.1171194 0.44000402 0
5.3870006 -1.1254711 0.43998238 0
5.3840003 -1.1338118 0.43996072 0
5.3810005 -1.1421418 0.43993908 0
5.3770003 -1.1502391 0.43991023 0
5.3740005 -1.1585457 0.4398886 0
5.3710003 -1.1668413 0.43986693 0
5.3380003 -1.2217511 0.43962884 0
5.3280005 -1.2282593 0.43955669 0
5.3200002 -1.2352147 0.43949896 0
5.3150005 -1.242872 0.4394629 0
5.3110003 -1.2507564 0.43943402 0
5.3080006 -1.2588735 0.43941239 0
5.3080006 -1.2677267 0.43941239 0
5.3090005 -1.2768304 0.4394196 0
5.3110003 -1.2861903 0.43943402 0
5.3170004 -1.2965748 0.43947732 0
5.2280002 -1.3958619 0.43883514 0
5.2250004 -1.4037266 0.43881351 0
5.2220001 -1.4115802 0.43879187 0
5.2190003 -1.4194232 0.43877023 0
5.2160006 -1.4272554 0.43874857 0
5.4520001 -0.92083251 0.43133852 0
5.4410005 -0.92802078 0.431279 0
5.4340005 -0.93587637 0.43124112 0
5.4300003 -0.94424242 0.43121949 0
5.4270005 -0.95277447 0.43120325 0
5.4250002 -0.96147776 0.43119243 0
5.4260001 -0.97072583 0.43119782 0
5.4280005 -0.98016346 0.43120867 0
5.4320002 -0.98998332 0.43123031 0
5.4400005 -1.0005754 0.43127358 0
5.3380003 -1.2217511 0.43072164 0
5.3280005 -1.2282593 0.43066752 0
5.3200002 -1.2352147 0.43062422 0
5.3150005 -1.242872 0.43059716 0
5.3110003 -1.2507564 0.43057552 0
5.3080006 -1.2588735 0.43055928 0
5.3080006 -1.2677267 0.43055928 0
5.3090005 -1.2768304 0.4305647 0
5.3110003 -1.2861903 0.43057552 0
5.2280002 -1.3958619 0.43012637 0
5.2250004 -1.4037266 0.43011013 0
5.2220001 -1.4115802 0.43009391 0
5.2190003 -1.4194232 0.43007767 0
5.2160006 -1.4272554 0.43006143 0
5.4520001 -0.92083251 0.42222568 0
5.4410005 -0.92802078 0.42218602 0
5.4340005 -0.93587637 0.42216074 0
5.4300003 -0.94424242 0.42214632 0
5.4270005 -0.95277447 0.4221355 0
5.4250002 -0.96147776 0.42212829 0
5.4260001 -0.97072583 0.4221319 0
5.4280005 -0.98016346 0.42213911 0
5.4320002 -0.98998332 0.42215353 0
5.4400005 -1.0005754 0.42218241 0
5.3530002 -1.0734402 0.42186853 0
5.3490005 -1.0815375 0.42185411 0
5.3460002 -1.0898314 0.42184329 0
5.3430004 -1.0981145 0.42183247 0
5.3400002 -1.1063867 0.42182165 0
5.3370004 -1.1146482 0.42181081 0
5.3330002 -1.1226804 0.42179638 0
5.3300004 -1.1309185 0.42178556 0
5.3270001 -1.1391456 0.42177474 0
5.3240004 -1.1473621 0.42176393 0
5.3210001 -1.1555675 0.42175311 0
5.3180003 -1.1637622 0.42174226 0
5.3140001 -1.171717 0.42172784 0
5.3110003 -1.1798882 0.42171702 0
5.3080006 -1.1880488 0.4217062 0
5.3050003 -1.1961983 0.42169538 0
5.3020005 -1.2043371 0.42168456 0
5.2990003 -1.212465 0.42167372 0
5.2960005 -1.2205822 0.4216629 0
5.2920003 -1.2284467 0.42164847 0
5.2890005 -1.2365406 0.42163765 0
5.2860003 -1.2446233 0.42162684 0
5.2830005 -1.2526954 0.42161602 0
5.2800002 -1.2607566 0.42160517 0
5.2770004 -1.2688071 0.42159435 0
5.2740002 -1.2768465 0.42158353 0
5.2710004 -1.2848754 0.42157272 0
5.2680001 -1.2928932 0.4215619 0
5.2640004 -1.3006425 0.42154747 0
5.2460003 -1.348447 0.42148253 0
5.2430005 -1.3563765 0.42147171 0
5.2400002 -1.3642952 0.42146087 0
5.2370005 -1.3722031 0.42145005 0
5.2340002 -1.3801001 0.42143923 0
5.2310004 -1.3879864 0.42142841 0
5.2280002 -1.3958619 0.42141759 0
5.2250004 -1.4037266 0.42140678 0
5.2220001 -1.4115802 0.42139593 0
5.2190003 -1.4194232 0.42138511 0
5.2160006 -1.4272554 0.42137429 0
5.4520001 -0.92083251 0.41311285 0
5.4410005 -0.92802078 0.413093 0
5.4340005 -0.93587637 0.41308039 0
5.4300003 -0.94424242 0.41307318 0
5.4270005 -0.95277447 0.41306776 0
5.4250002 -0.96147776 0.41306415 0
5.4260001 -0.97072583 0.41306594 0
5.4280005 -0.98016346 0.41306958 0
5.4320002 -0.98998332 0.41307679 0
5.4400005 -1.0005754 0.41309121 0
5.3530002 -1.0734402 0.41293427 0
5.3490005 -1.0815375 0.41292706 0
5.3460002 -1.0898314 0.41292164 0
5.3430004 -1.0981145 0.41291624 0
5.3400002 -1.1063867 0.41291082 0
5.3370004 -1.1146482 0.41290542 0
5.3330002 -1.1226804 0.41289821 0
5.3300004 -1.1309185 0.41289279 0
5.3270001 -1.1391456 0.41288736 0
5.3240004 -1.1473621 0.41288197 0
5.3210001 -1.1555675 0.41287655 0
5.3180003 -1.1637622 0.41287115 0
5.3140001 -1.171717 0.41286394 0
5.3110003 -1.1798882 0.41285852 0
5.3080006 -1.1880488 0.41285309 0
5.3050003 -1.1961983 0.4128477 0
5.3020005 -1.2043371 0.41284227 0
5.2990003 -1.212465 0.41283688 0
5.2960005 -1.2205822 0.41283146 0
5.2920003 -1.2284467 0.41282424 0
5.2890005 -1.2365406 0.41281882 0
5.2860003 -1.2446233 0.41281343 0
5.2830005 -1.2526954 0.412808 0
5.2800002 -1.2607566 0.41280261 0
5.2770004 -1.2688071 0.41279718 0
5.2740002 -1.2768465 0.41279179 0
5.2710004 -1.2848754 0.41278636 0
5.2680001 -1.2928932 0.41278094 0
5.2640004 -1.3006425 0.41277373 0
5.2490005 -1.3405066 0.41274667 0
5.2460003 -1.348447 0.41274127 0
5.2430005 -1.3563765 0.41273585 0
5.2400002 -1.3642952 0.41273046 0
5.2370005 -1.3722031 0.41272503 0
5.2340002 -1.3801001 0.41271964 0
5.2310004 -1.3879864 0.41271421 0
5.2280002 -1.3958619 0.41270879 0
5.2250004 -1.4037266 0.41270339 0
5.2220001 -1.4115802 0.41269797 0
5.2190003 -1.4194232 0.41269258 0
5.2160006 -1.4272554 0.41268715 0
5.4520001 -0.92083251 0.40400001 0
5.4410005 -0.92802078 0.40400001 0
5.4340005 -0.93587637 0.40400001 0
5.4300003 -0.94424242 0.40400001 0
5.4270005 -0.95277447 0.40400001 0
5.4250002 -0.96147776 0.40400001 0
5.4260001 -0.97072583 0.40400001 0
5.4280005 -0.98016346 0.40400001 0
5.4320002 -0.98998332 0.40400001 0
5.4400005 -1.0005754 0.40400001 0
5.3530002 -1.0734402 0.40400001 0
5.3490005 -1.0815375 0.40400001 0
5.3460002 -1.0898314 0.40400001 0
5.3430004 -1.0981145 0.40400001 0
5.3400002 -1.1063867 0.40400001 0
5.3370004 -1.1146482 0.40400001 0
5.3330002 -1.1226804 0.40400001 0
5.3300004 -1.1309185 0.40400001 0
5.3270001 -1.1391456 0.40400001 0
5.3240004 -1.1473621 0.40400001 0
5.3210001 -1.1555675 0.40400001 0
5.3180003 -1.1637622 0.40400001 0
5.3050003 -1.1961983 0.40400001 0
5.3020005 -1.2043371 0.40400001 0
5.2990003 -1.212465 0.40400001 0
5.2960005 -1.2205822 0.40400001 0
5.2920003 -1.2284467 0.40400001 0
5.2890005 -1.2365406 0.40400001 0
5.2860003 -1.2446233 0.40400001 0
5.2830005 -1.2526954 0.40400001 0
5.2800002 -1.2607566 0.40400001 0
5.2770004 -1.2688071 0.40400001 0
5.2740002 -1.2768465 0.40400001 0
5.2710004 -1.2848754 0.40400001 0
5.2680001 -1.2928932 0.40400001 0
5.2520003 -1.3325554 0.40400001 0
5.2490005 -1.3405066 0.40400001 0
5.2460003 -1.348447 0.40400001 0
5.2430005 -1.3563765 0.40400001 0
5.2400002 -1.3642952 0.40400001 0
5.2370005 -1.3722031 0.40400001 0
5.2340002 -1.3801001 0.40400001 0
5.2310004 -1.3879864 0.40400001 0
5.2280002 -1.3958619 0.40400001 0
5.2250004 -1.4037266 0.40400001 0
5.2220001 -1.4115802 0.40400001 0
5.2190003 -1.4194232 0.40400001 0
5.2160006 -1.4272554 0.40400001 0
5.4520001 -0.92083251 0.39488718 0
5.4410005 -0.92802078 0.39490703 0
5.4340005 -0.93587637 0.39491963 0
5.4300003 -0.94424242 0.39492685 0
5.4270005 -0.95277447 0.39493227 0
5.4250002 -0.96147776 0.39493588 0
5.4260001 -0.97072583 0.39493409 0
5.4280005 -0.98016346 0.39493045 0
5.4320002 -0.98998332 0.39492324 0
5.4400005 -1.0005754 0.39490882 0
5.3490005 -1.0815375 0.39507297 0
5.3460002 -1.0898314 0.39507839 0
5.3430004 -1.0981145 0.39508379 0
5.3400002 -1.1063867 0.39508921 0
5.3370004 -1.1146482 0.3950946 0
5.3330002 -1.1226804 0.39510182 0
5.3300004 -1.1309185 0.39510724 0
5.3270001 -1.1391456 0.39511266 0
5.3240004 -1.1473621 0.39511806 0
5.2920003 -1.2284467 0.39517578 0
5.2890005 -1.2365406 0.39518121 0
5.2860003 -1.2446233 0.3951866 0
5.2830005 -1.2526954 0.39519203 0
5.2800002 -1.2607566 0.39519742 0
5.2520003 -1.3325554 0.39524794 0
5.2490005 -1.3405066 0.39525336 0
5.2460003 -1.348447 0.39525875 0
5.2430005 -1.3563765 0.39526418 0
5.2400002 -1.3642952 0.39526957 0
5.2370005 -1.3722031 0.395275 0
5.2340002 -1.3801001 0.39528039 0
5.2310004 -1.3879864 0.39528582 0
5.2280002 -1.3958619 0.39529124 0
5.2250004 -1.4037266 0.39529663 0
5.2220001 -1.4115802 0.39530206 0
5.2190003 -1.4194232 0.39530745 0
5.2160006 -1.4272554 0.39531288 0
5.4520001 -0.92083251 0.38577434 0
5.4410005 -0.92802078 0.38581401 0
5.4340005 -0.93587637 0.38583928 0
5.4300003 -0.94424242 0.38585371 0
5.4270005 -0.95277447 0.38586453 0
5.4250002 -0.96147776 0.38587174 0
5.4260001 -0.97072583 0.38586813 0
5.4280005 -0.98016346 0.38586092 0
5.4320002 -0.98998332 0.3858465 0
5.4400005 -1.0005754 0.38581762 0
5.3710003 -1.0951074 0.38606656 0
5.3640003 -1.1025842 0.3860918 0
5.3600001 -1.1106797 0.38610625 0
5.3590002 -1.1194102 0.38610983 0
5.3600001 -1.1285735 0.38610625 0
5.3660002 -1.1388408 0.38608459 0
5.2670002 -1.3716493 0.38644174 0
5.2580004 -1.3779608 0.38647422 0
5.2530003 -1.3853438 0.38649225 0
5.2510004 -1.3935423 0.38649946 0
5.2280002 -1.3958619 0.38658243 0
5.2250004 -1.4037266 0.38659325 0
5.2220001 -1.4115802 0.3866041 0
5.2190003 -1.4194232 0.38661492 0
5.2160006 -1.4272554 0.38662574 0
5.4520001 -0.92083251 0.37666151 0
5.4410005 -0.92802078 0.37672102 0
5.4340005 -0.93587637 0.3767589 0
5.4300003 -0.94424242 0.37678054 0
5.4270005 -0.95277447 0.37679678 0
5.4250002 -0.96147776 0.3768076 0
5.4260001 -0.97072583 0.37680221 0
5.4280005 -0.98016346 0.37679136 0
5.4320002 -0.98998332 0.37676972 0
5.4400005 -1.0005754 0.37672645 0
5.3710003 -1.0951074 0.37709981 0
5.3640003 -1.1025842 0.37713769 0
5.3600001 -1.1106797 0.37715936 0
5.3590002 -1.1194102 0.37716475 0
5.3600001 -1.1285735 0.37715936 0
5.3660002 -1.1388408 0.37712687 0
5.2670002 -1.3716493 0.3776626 0
5.2580004 -1.3779608 0.3777113 0
5.2530003 -1.3853438 0.37773836 0
5.2510004 -1.3935423 0.3777492 0
5.2280002 -1.3958619 0.37787366 0
5.2250004 -1.4037266 0.3778899 0
5.2220001 -1.4115802 0.37790611 0
5.2190003 -1.4194232 0.37792236 0
5.4520001 -0.92083251 0.36754864 0
5.4410005 -0.92802078 0.36762804 0
5.4340005 -0.93587637 0.36767852 0
5.4300003 -0.94424242 0.3677074 0
5.4270005 -0.95277447 0.36772904 0
5.4250002 -0.96147776 0.36774346 0
5.4260001 -0.97072583 0.36773625 0
5.4280005 -0.98016346 0.36772183 0
5.4320002 -0.98998332 0.36769295 0
5.3710003 -1.0951074 0.3681331 0
5.3640003 -1.1025842 0.36818361 0
5.3600001 -1.1106797 0.36821246 0
5.3590002 -1.1194102 0.36821967 0
5.3600001 -1.1285735 0.36821246 0
5.3660002 -1.1388408 0.36816916 0
5.2670002 -1.3716493 0.36888349 0
5.2580004 -1.3779608 0.3689484 0
5.2530003 -1.3853438 0.36898449 0
5.2510004 -1.3935423 0.36899891 0
5.2280002 -1.3958619 0.36916488 0
5.2250004 -1.4037266 0.36918652 0
5.2220001 -1.4115802 0.36920816 0
5.2190003 -1.4194232 0.36922979 0
5.4520001 -0.92083251 0.35843581 0
5.4410005 -0.92802078 0.35853502 0
5.4340005 -0.93587637 0.35859817 0
5.4300003 -0.94424242 0.35863423 0
5.4270005 -0.95277447 0.35866129 0
5.4250002 -0.96147776 0.35867932 0
5.4260001 -0.97072583 0.35867032 0
5.4280005 -0.98016346 0.35865226 0
5.4320002 -0.98998332 0.3586162 0
5.3710003 -1.0951074 0.35916635 0
5.3640003 -1.1025842 0.35922951 0
5.3600001 -1.1106797 0.35926557 0
5.3590002 -1.1194102 0.3592746 0
5.3600001 -1.1285735 0.35926557 0
5.3660002 -1.1388408 0.35921144 0
5.2670002 -1.3716493 0.36010435 0
5.2580004 -1.3779608 0.3601855 0
5.2530003 -1.3853438 0.36023059 0
5.2510004 -1.3935423 0.36024866 0
5.2280002 -1.3958619 0.36045608 0
5.2250004 -1.4037266 0.36048314 0
5.2220001 -1.4115802 0.3605102 0
5.2190003 -1.4194232 0.36053726 0
5.4520001 -0.92083251 0.34932297 0
5.4410005 -0.92802078 0.34944203 0
5.4340005 -0.93587637 0.34951779 0
5.4300003 -0.94424242 0.3495611 0
5.4270005 -0.95277447 0.34959355 0
5.4250002 -0.96147776 0.34961519 0
5.4260001 -0.97072583 0.34960437 0
5.4280005 -0.98016346 0.34958273 0
5.4320002 -0.98998332 0.34953943 0
5.3710003 -1.0951074 0.35019964 0
5.3640003 -1.1025842 0.3502754 0
5.3600001 -1.1106797 0.35031867 0
5.3590002 -1.1194102 0.35032952 0
5.3600001 -1.1285735 0.35031867 0
5.3660002 -1.1388408 0.35025373 0
5.2670002 -1.3716493 0.35132521 0
5.2580004 -1.3779608 0.35142261 0
5.2530003 -1.3853438 0.35147673 0
5.2510004 -1.3935423 0.35149837 0
5.2500005 -1.4020129 0.35150918 0
5.2530003 -1.4116055 0.35147673 0
5.4520001 -0.92083251 0.34021014 0
5.4410005 -0.92802078 0.34034902 0
5.4340005 -0.93587637 0.34043741 0
5.4300003 -0.94424242 0.34048793 0
5.4270005 -0.95277447 0.34052581 0
5.4250002 -0.96147776 0.34055108 0
5.4260001 -0.97072583 0.34053844 0
5.4280005 -0.98016346 0.34051317 0
5.4320002 -0.98998332 0.34046268 0
5.3710003 -1.0951074 0.3412329 0
5.3640003 -1.1025842 0.34132129 0
5.3600001 -1.1106797 0.34137177 0
5.3590002 -1.1194102 0.34138441 0
5.3600001 -1.1285735 0.34137177 0
5.3660002 -1.1388408 0.34129602 0
5.2670002 -1.3716493 0.34254608 0
5.2580004 -1.3779608 0.34265971 0
5.2530003 -1.3853438 0.34272283 0
5.2510004 -1.3935423 0.34274811 0
5.2500005 -1.4020129 0.34276071 0
5.2530003 -1.4116055 0.34272283 0
5.2630005 -1.4231914 0.34259656 0
5.4520001 -0.92083251 0.3310973 0
5.4410005 -0.92802078 0.33125603 0
5.4340005 -0.93587637 0.33135706 0
5.4300003 -0.94424242 0.33141476 0
5.4270005 -0.95277447 0.33145806 0
5.4250002 -0.96147776 0.33148694 0
5.4260001 -0.97072583 0.33147249 0
5.4280005 -0.98016346 0.33144364 0
5.4320002 -0.98998332 0.33138591 0
5.3850002 -1.0890701 0.33206415 0
5.3710003 -1.0951074 0.33226615 0
5.3640003 -1.1025842 0.33236718 0
5.3600001 -1.1106797 0.33242491 0
5.3590002 -1.1194102 0.33243933 0
5.3600001 -1.1285735 0.33242491 0
5.3660002 -1.1388408 0.33233833 0
5.2670002 -1.3716493 0.33376694 0
5.2580004 -1.3779608 0.33389682 0
5.2530003 -1.3853438 0.33396897 0
5.2510004 -1.3935423 0.33399782 0
5.2500005 -1.4020129 0.33401227 0
5.2530003 -1.4116055 0.33396897 0
5.2630005 -1.4231914 0.33382466 0
5.4520001 -0.92083251 0.32198447 0
5.4410005 -0.92802078 0.32216305 0
5.4340005 -0.93587637 0.32227668 0
5.4300003 -0.94424242 0.32234162 0
5.4270005 -0.95277447 0.32239032 0
5.4250002 -0.96147776 0.3224228 0
5.4260001 -0.97072583 0.32240656 0
5.4280005 -0.98016346 0.32237408 0
5.4320002 -0.98998332 0.32230914 0
5.3850002 -1.0890701 0.32307217 0
5.3710003 -1.0951074 0.32329944 0
5.3640003 -1.1025842 0.32341307 0
5.3600001 -1.1106797 0.32347801 0
5.3590002 -1.1194102 0.32349426 0
5.3600001 -1.1285735 0.32347801 0
5.3660002 -1.1388408 0.32338062 0
5.2670002 -1.3716493 0.3249878 0
5.2580004 -1.3779608 0.32513392 0
5.2530003 -1.3853438 0.32521507 0
5.2510004 -1.3935423 0.32524756 0
5.2500005 -1.4020129 0.3252638 0
5.2530003 -1.4116055 0.32521507 0
5.2630005 -1.4231914 0.32505274 0
5.4520001 -0.92083251 0.31287163 0
5.4410005 -0.92802078 0.31307003 0
5.4340005 -0.93587637 0.3131963 0
5.4300003 -0.94424242 0.31326845 0
5.4270005 -0.95277447 0.31332257 0
5.4250002 -0.96147776 0.31335866 0
5.4260001 -0.97072583 0.3133406 0
5.4280005 -0.98016346 0.31330454 0
5.4320002 -0.98998332 0.31323239 0
5.3850002 -1.0890701 0.31408018 0
5.3710003 -1.0951074 0.31433272 0
5.3640003 -1.1025842 0.31445897 0
5.3600001 -1.1106797 0.31453115 0
5.3590002 -1.1194102 0.31454918 0
5.3600001 -1.1285735 0.31453115 0
5.3660002 -1.1388408 0.31442291 0
5.2670002 -1.3716493 0.31620866 0
5.2580004 -1.3779608 0.31637102 0
5.2530003 -1.3853438 0.31646121 0
5.2510004 -1.3935423 0.31649727 0
5.2500005 -1.4020129 0.31651533 0
5.2530003 -1.4116055 0.31646121 0
5.2630005 -1.4231914 0.31628081 0
5.4520001 -0.92083251 0.3037588 0
5.4410005 -0.92802078 0.30397704 0
5.4340005 -0.93587637 0.30411595 0
5.4300003 -0.94424242 0.30419531 0
5.4270005 -0.95277447 0.30425483 0
5.4250002 -0.96147776 0.30429453 0
5.4260001 -0.97072583 0.30427468 0
5.4280005 -0.98016346 0.30423498 0
5.4320002 -0.98998332 0.30415562 0
5.3850002 -1.0890701 0.30508819 0
5.3710003 -1.0951074 0.30536598 0
5.3640003 -1.1025842 0.30550486 0
5.3600001 -1.1106797 0.30558425 0
5.3590002 -1.1194102 0.3056041 0
5.3600001 -1.1285735 0.30558425 0
5.3660002 -1.1388408 0.30546519 0
5.2670002 -1.3716493 0.30742952 0
5.2580004 -1.3779608 0.3076081 0
5.2530003 -1.3853438 0.30770731 0
5.2510004 -1.3935423 0.30774701 0
5.2500005 -1.4020129 0.30776685 0
5.2530003 -1.4116055 0.30770731 0
5.2630005 -1.4231914 0.30750889 0
5.4520001 -0.92083251 0.29464597 0
5.4410005 -0.92802078 0.29488403 0
5.4340005 -0.93587637 0.29503557 0
5.4300003 -0.94424242 0.29512215 0
5.4270005 -0.95277447 0.29518709 0
5.4250002 -0.96147776 0.29523039 0
5.4260001 -0.97072583 0.29520875 0
5.4280005 -0.98016346 0.29516542 0
5.4320002 -0.98998332 0.29507887 0
5.3850002 -1.0890701 0.29609621 0
5.3710003 -1.0951074 0.29639924 0
5.3640003 -1.1025842 0.29655075 0
5.3600001 -1.1106797 0.29663736 0
5.3590002 -1.1194102 0.29665899 0
5.3600001 -1.1285735 0.29663736 0
5.3660002 -1.1388408 0.29650748 0
5.2670002 -1.3716493 0.29865041 0
5.2580004 -1.3779608 0.2988452 0
5.2530003 -1.3853438 0.29895344 0
5.2510004 -1.3935423 0.29899672 0
5.2500005 -1.4020129 0.29901838 0
5.2530003 -1.4116055 0.29895344 0
5.2630005 -1.4231914 0.29873699 0
5.4520001 -0.92083251 0.2855331 0
5.4410005 -0.92802078 0.28579104 0
5.4340005 -0.93587637 0.28595519 0
5.4300003 -0.94424242 0.28604901 0
5.4270005 -0.95277447 0.28611934 0
5.4250002 -0.96147776 0.28616625 0
5.4260001 -0.97072583 0.2861428 0
5.4280005 -0.98016346 0.28609589 0
5.4320002 -0.98998332 0.2860021 0
5.3850002 -1.0890701 0.28710422 0
5.3710003 -1.0951074 0.28743252 0
5.3640003 -1.1025842 0.28759664 0
5.3600001 -1.1106797 0.28769046 0
5.3590002 -1.1194102 0.28771392 0
5.3600001 -1.1285735 0.28769046 0
5.3660002 -1.1388408 0.28754976 0
5.2670002 -1.3716493 0.28987128 0
5.2580004 -1.3779608 0.29008231 0
5.2530003 -1.3853438 0.29019958 0
5.2510004 -1.3935423 0.29024646 0
5.2500005 -1.4020129 0.29026991 0
5.2530003 -1.4116055 0.29019958 0
5.2630005 -1.4231914 0.28996506 0
5.4520001 -0.92083251 0.2764203 0
5.4410005 -0.92802078 0.27669805 0
5.4340005 -0.93587637 0.27687484 0
5.4300003 -0.94424242 0.27697584 0
5.4270005 -0.95277447 0.2770516 0
5.4250002 -0.96147776 0.27710211 0
5.4260001 -0.97072583 0.27707684 0
5.4280005 -0.98016346 0.27702636 0
5.4320002 -0.98998332 0.27692533 0
5.3850002 -1.0890701 0.27811223 0
5.3710003 -1.0951074 0.27846581 0
5.3640003 -1.1025842 0.27864257 0
5.3600001 -1.1106797 0.27874357 0
5.3590002 -1.1194102 0.27876884 0
5.3600001 -1.1285735 0.27874357 0
5.3660002 -1.1388408 0.27859205 0
5.2670002 -1.3716493 0.28109214 0
5.2580004 -1.3779608 0.28131941 0
5.2530003 -1.3853438 0.28144568 0
5.2510004 -1.3935423 0.28149617 0
5.2500005 -1.4020129 0.28152144 0
5.2530003 -1.4116055 0.28144568 0
5.2630005 -1.4231914 0.28119314 0
5.4520001 -0.92083251 0.26730743 0
5.4410005 -0.92802078 0.26760507 0
5.4340005 -0.93587637 0.26779443 0
5.4300003 -0.94424242 0.26790267 0
5.4270005 -0.95277447 0.26798385 0
5.4250002 -0.96147776 0.26803797 0
5.4260001 -0.97072583 0.26801091 0
5.4280005 -0.98016346 0.26795679 0
5.4320002 -0.98998332 0.26784855 0
5.3850002 -1.0890701 0.26912028 0
5.3710003 -1.0951074 0.26949906 0
5.3640003 -1.1025842 0.26968843 0
5.3600001 -1.1106797 0.26979667 0
5.3590002 -1.1194102 0.26982373 0
5.3600001 -1.1285735 0.26979667 0
5.3660002 -1.1388408 0.26963437 0
5.2670002 -1.3716493 0.272313 0
5.2580004 -1.3779608 0.27255651 0
5.2530003 -1.3853438 0.27269179 0
5.2510004 -1.3935423 0.27274591 0
5.2500005 -1.4020129 0.27277297 0
5.2530003 -1.4116055 0.27269179 0
5.2630005 -1.4231914 0.27242121 0
5.4520001 -0.92083251 0.2581946 0
5.4410005 -0.92802078 0.25851205 0
5.4340005 -0.93587637 0.25871408 0
5.4300003 -0.94424242 0.25882953 0
5.4270005 -0.95277447 0.25891611 0
5.4250002 -0.96147776 0.25897384 0
5.4260001 -0.97072583 0.25894499 0
5.4280005 -0.98016346 0.25888723 0
5.4320002 -0.98998332 0.25877181 0
5.3850002 -1.0890701 0.26012826 0
5.3710003 -1.0951074 0.26053232 0
5.3640003 -1.1025842 0.26073435 0
5.3600001 -1.1106797 0.2608498 0
5.3590002 -1.1194102 0.26087865 0
5.3600001 -1.1285735 0.2608498 0
5.3660002 -1.1388408 0.26067662 0
5.2670002 -1.3716493 0.26353386 0
5.2580004 -1.3779608 0.26379359 0
5.2530003 -1.3853438 0.26393792 0
5.2510004 -1.3935423 0.26399565 0
5.2500005 -1.4020129 0.2640245 0
5.2530003 -1.4116055 0.26393792 0
5.2630005 -1.4231914 0.26364928 0
5.4520001 -0.92083251 0.24908175 0
5.4410005 -0.92802078 0.24941906 0
5.4340005 -0.93587637 0.24963371 0
5.4300003 -0.94424242 0.24975638 0
5.4270005 -0.95277447 0.24984837 0
5.4250002 -0.96147776 0.2499097 0
5.4260001 -0.97072583 0.24987903 0
5.4280005 -0.98016346 0.2498177 0
5.4320002 -0.98998332 0.24969505 0
5.3850002 -1.0890701 0.2511363 0
5.3710003 -1.0951074 0.25156558 0
5.3640003 -1.1025842 0.25178027 0
5.3600001 -1.1106797 0.25190291 0
5.3590002 -1.1194102 0.25193357 0
5.3600001 -1.1285735 0.25190291 0
5.3660002 -1.1388408 0.25171891 0
5.2670002 -1.3716493 0.25475472 0
5.2580004 -1.3779608 0.25503069 0
5.2530003 -1.3853438 0.25518405 0
5.2510004 -1.3935423 0.25524536 0
5.2500005 -1.4020129 0.25527602 0
5.2530003 -1.4116055 0.25518405 0
5.2630005 -1.4231914 0.25487739 0
5.4520001 -0.92083251 0.23996891 0
5.4410005 -0.92802078 0.24032606 0
5.4340005 -0.93587637 0.24055333 0
5.4300003 -0.94424242 0.24068323 0
5.4270005 -0.95277447 0.24078062 0
5.4250002 -0.96147776 0.24084556 0
5.4260001 -0.97072583 0.24081309 0
5.4280005 -0.98016346 0.24074815 0
5.4320002 -0.98998332 0.24061827 0
5.3850002 -1.0890701 0.2421443 0
5.3710003 -1.0951074 0.24259886 0
5.3640003 -1.1025842 0.24282613 0
5.3600001 -1.1106797 0.24295603 0
5.3590002 -1.1194102 0.24298848 0
5.3600001 -1.1285735 0.24295603 0
5.3660002 -1.1388408 0.24276121 0
5.2670002 -1.3716493 0.2459756 0
5.2580004 -1.3779608 0.2462678 0
5.2530003 -1.3853438 0.24643014 0
5.2510004 -1.3935423 0.24649508 0
5.2500005 -1.4020129 0.24652755 0
5.2530003 -1.4116055 0.24643014 0
5.2630005 -1.4231914 0.24610546 0
5.4520001 -0.92083251 0.23085608 0
5.4410005 -0.92802078 0.23123306 0
5.4340005 -0.93587637 0.23147295 0
5.4300003 -0.94424242 0.23161006 0
5.4270005 -0.95277447 0.23171288 0
5.4250002 -0.96147776 0.23178144 0
5.4260001 -0.97072583 0.23174715 0
5.4280005 -0.98016346 0.23167861 0
5.4320002 -0.98998332 0.23154151 0
5.3850002 -1.0890701 0.23315232 0
5.3710003 -1.0951074 0.23363213 0
5.3640003 -1.1025842 0.23387204 0
5.3600001 -1.1106797 0.23400913 0
5.3590002 -1.1194102 0.2340434 0
5.3600001 -1.1285735 0.23400913 0
5.3660002 -1.1388408 0.2338035 0
5.2670002 -1.3716493 0.23719646 0
5.2580004 -1.3779608 0.23750491 0
5.2530003 -1.3853438 0.23767628 0
5.2510004 -1.3935423 0.23774481 0
5.2500005 -1.4020129 0.23777908 0
5.2530003 -1.4116055 0.23767628 0
5.2630005 -1.4231914 0.23733354 0
5.4520001 -0.92083251 0.22174324 0
5.4410005 -0.92802078 0.22214006 0
5.4340005 -0.93587637 0.22239259 0
5.4300003 -0.94424242 0.22253691 0
5.4270005 -0.95277447 0.22264513 0
5.4250002 -0.96147776 0.2227173 0
5.4260001 -0.97072583 0.22268121 0
5.4280005 -0.98016346 0.22260906 0
5.4320002 -0.98998332 0.22246477 0
5.3850002 -1.0890701 0.22416033 0
5.3710003 -1.0951074 0.2246654 0
5.3640003 -1.1025842 0.22491793 0
5.3600001 -1.1106797 0.22506225 0
5.3590002 -1.1194102 0.22509833 0
5.3600001 -1.1285735 0.22506225 0
5.3660002 -1.1388408 0.2248458 0
5.2670002 -1.3716493 0.22841732 0
5.2580004 -1.3779608 0.228742 0
5.2530003 -1.3853438 0.22892238 0
5.2510004 -1.3935423 0.22899453 0
5.2500005 -1.4020129 0.22903061 0
5.2530003 -1.4116055 0.22892238 0
5.2630005 -1.4231914 0.22856161 0
5.4520001 -0.92083251 0.21263039 0
5.4410005 -0.92802078 0.21304707 0
5.4340005 -0.93587637 0.21331224 0
5.4300003 -0.94424242 0.21346375 0
5.4270005 -0.95277447 0.21357739 0
5.4250002 -0.96147776 0.21365316 0
5.4260001 -0.97072583 0.21361528 0
5.4280005 -0.98016346 0.21353951 0
5.4320002 -0.98998332 0.213388 0
5.3850002 -1.0890701 0.21516834 0
5.3710003 -1.0951074 0.21569866 0
5.3640003 -1.1025842 0.21596383 0
5.3600001 -1.1106797 0.21611536 0
5.3590002 -1.1194102 0.21615323 0
5.3600001 -1.1285735 0.21611536 0
5.3660002 -1.1388408 0.21588807 0
5.2670002 -1.3716493 0.2196382 0
5.2580004 -1.3779608 0.21997911 0
5.2530003 -1.3853438 0.22016852 0
5.2510004 -1.3935423 0.22024426 0
5.2500005 -1.4020129 0.22028214 0
5.2530003 -1.4116055 0.22016852 0
5.2630005 -1.4231914 0.2197897 0
5.4520001 -0.92083251 0.20351757 0
5.4410005 -0.92802078 0.20395407 0
5.4340005 -0.93587637 0.20423186 0
5.4300003 -0.94424242 0.2043906 0
5.4270005 -0.95277447 0.20450965 0
5.4250002 -0.96147776 0.20458902 0
5.4260001 -0.97072583 0.20454934 0
5.4280005 -0.98016346 0.20446996 0
5.4320002 -0.98998332 0.20431124 0
5.3850002 -1.0890701 0.20617637 0
5.3710003 -1.0951074 0.20673193 0
5.3640003 -1.1025842 0.20700972 0
5.3600001 -1.1106797 0.20716846 0
5.3590002 -1.1194102 0.20720816 0
5.3600001 -1.1285735 0.20716846 0
5.3660002 -1.1388408 0.20693037 0
5.2670002 -1.3716493 0.21085905 0
5.2580004 -1.3779608 0.2112162 0
5.2530003 -1.3853438 0.21141462 0
5.2510004 -1.3935423 0.21149398 0
5.2500005 -1.4020129 0.21153367 0
5.2530003 -1.4116055 0.21141462 0
5.2630005 -1.4231914 0.21101779 0
5.4520001 -0.92083251 0.19440472 0
5.4410005 -0.92802078 0.19486107 0
5.4340005 -0.93587637 0.19515148 0
5.4300003 -0.94424242 0.19531745 0
5.4270005 -0.95277447 0.1954419 0
5.4250002 -0.96147776 0.19552489 0
5.4260001 -0.97072583 0.1954834 0
5.4280005 -0.98016346 0.19540042 0
5.4320002 -0.98998332 0.19523448 0
5.3850002 -1.0890701 0.19718438 0
5.3710003 -1.0951074 0.1977652 0
5.3640003 -1.1025842 0.19805562 0
5.3600001 -1.1106797 0.19822158 0
5.3590002 -1.1194102 0.19826306 0
5.3600001 -1.1285735 0.19822158 0
5.3660002 -1.1388408 0.19797266 0
5.2670002 -1.3716493 0.20207992 0
5.2580004 -1.3779608 0.2024533 0
5.2530003 -1.3853438 0.20266074 0
5.2510004 -1.3935423 0.20274372 0
5.2500005 -1.4020129 0.20278519 0
5.2530003 -1.4116055 0.20266074 0
5.2630005 -1.4231914 0.20224586 0
5.4520001 -0.92083251 0.18529189 0
5.4410005 -0.92802078 0.18576807 0
5.4340005 -0.93587637 0.18607111 0
5.4300003 -0.94424242 0.18624429 0
5.4270005 -0.95277447 0.18637416 0
5.4250002 -0.96147776 0.18646073 0
5.4260001 -0.97072583 0.18641746 0
5.4280005 -0.98016346 0.18633085 0
5.4320002 -0.98998332 0.1861577 0
5.3850002 -1.0890701 0.18819241 0
5.3710003 -1.0951074 0.18879849 0
5.3640003 -1.1025842 0.18910152 0
5.3600001 -1.1106797 0.18927468 0
5.3590002 -1.1194102 0.18931797 0
5.3600001 -1.1285735 0.18927468 0
5.3660002 -1.1388408 0.18901493 0
5.2670002 -1.3716493 0.1933008 0
5.2580004 -1.3779608 0.19369039 0
5.2530003 -1.3853438 0.19390687 0
5.2510004 -1.3935423 0.19399343 0
5.2500005 -1.4020129 0.19403672 0
5.2530003 -1.4116055 0.19390687 0
5.2630005 -1.4231914 0.19347395 0
5.4520001 -0.92083251 0.17617904 0
5.4410005 -0.92802078 0.17667508 0
5.4340005 -0.93587637 0.17699075 0
5.4300003 -0.94424242 0.17717113 0
5.4270005 -0.95277447 0.1773064 0
5.4250002 -0.96147776 0.17739661 0
5.4260001 -0.97072583 0.17735152 0
5.4280005 -0.98016346 0.17726131 0
5.4320002 -0.98998332 0.17708094 0
5.3850002 -1.0890701 0.17920043 0
5.3710003 -1.0951074 0.17983176 0
5.3640003 -1.1025842 0.18014741 0
5.3600001 -1.1106797 0.1803278 0
5.3590002 -1.1194102 0.18037289 0
5.3600001 -1.1285735 0.1803278 0
5.3660002 -1.1388408 0.18005723 0
5.2670002 -1.3716493 0.18452165 0
5.2580004 -1.3779608 0.18492751 0
5.2530003 -1.3853438 0.18515298 0
5.2510004 -1.3935423 0.18524316 0
5.2500005 -1.4020129 0.18528827 0
5.2530003 -1.4116055 0.18515298 0
5.2630005 -1.4231914 0.18470202 0
5.4520001 -0.92083251 0.1670662 0
5.4410005 -0.92802078 0.16758208 0
5.4340005 -0.93587637 0.16791038 0
5.4300003 -0.94424242 0.16809799 0
5.4270005 -0.95277447 0.16823865 0
5.4250002 -0.96147776 0.16833246 0
5.4260001 -0.97072583 0.16828559 0
5.4280005 -0.98016346 0.16819176 0
5.4320002 -0.98998332 0.16800418 0
5.3850002 -1.0890701 0.17020844 0
5.3710003 -1.0951074 0.17086503 0
5.3640003 -1.1025842 0.1711933 0
5.3600001 -1.1106797 0.17138091 0
5.3590002 -1.1194102 0.1714278 0
5.3600001 -1.1285735 0.17138091 0
5.3660002 -1.1388408 0.17109953 0
5.2670002 -1.3716493 0.17574252 0
5.2580004 -1.3779608 0.1761646 0
5.2530003 -1.3853438 0.17639911 0
5.2510004 -1.3935423 0.1764929 0
5.2500005 -1.4020129 0.17653979 0
5.2530003 -1.4116055 0.17639911 0
5.2630005 -1.4231914 0.1759301 0
5.4520001 -0.92083251 0.15795335 0
5.4410005 -0.92802078 0.15848908 0
5.4340005 -0.93587637 0.15882999 0
5.4300003 -0.94424242 0.1590248 0
5.4270005 -0.95277447 0.15917093 0
5.4250002 -0.96147776 0.15926833 0
5.4260001 -0.97072583 0.15921965 0
5.4280005 -0.98016346 0.15912221 0
5.4320002 -0.98998332 0.15892743 0
5.3850002 -1.0890701 0.16121645 0
5.3710003 -1.0951074 0.16189827 0
5.3640003 -1.1025842 0.16223921 0
5.3600001 -1.1106797 0.16243403 0
5.3590002 -1.1194102 0.16248272 0
5.3600001 -1.1285735 0.16243403 0
5.3660002 -1.1388408 0.16214181 0
5.2670002 -1.3716493 0.1669634 0
5.2580004 -1.3779608 0.16740172 0
5.2530003 -1.3853438 0.16764522 0
5.2510004 -1.3935423 0.16774262 0
5.2500005 -1.4020129 0.16779132 0
5.2530003 -1.4116055 0.16764522 0
5.2630005 -1.4231914 0.16715819 0
5.4520001 -0.92083251 0.14884055 0
5.4410005 -0.92802078 0.14939609 0
5.4340005 -0.93587637 0.14974964 0
5.4300003 -0.94424242 0.14995167 0
5.4270005 -0.95277447 0.15010318 0
5.4250002 -0.96147776 0.15020421 0
5.4260001 -0.97072583 0.1501537 0
5.4280005 -0.98016346 0.15005267 0
5.4320002 -0.98998332 0.14985067 0
5.3850002 -1.0890701 0.15222448 0
5.3710003 -1.0951074 0.15293157 0
5.3640003 -1.1025842 0.15328512 0
5.3600001 -1.1106797 0.15348712 0
5.3590002 -1.1194102 0.15353763 0
5.3600001 -1.1285735 0.15348712 0
5.3660002 -1.1388408 0.15318409 0
5.2670002 -1.3716493 0.15818426 0
5.2580004 -1.3779608 0.15863881 0
5.2530003 -1.3853438 0.15889135 0
5.2510004 -1.3935423 0.15899235 0
5.2500005 -1.4020129 0.15904284 0
5.2530003 -1.4116055 0.15889135 0
5.2630005 -1.4231914 0.15838625 0
5.4520001 -0.92083251 0.13972771 0
5.4410005 -0.92802078 0.14030308 0
5.4340005 -0.93587637 0.14066926 0
5.4300003 -0.94424242 0.1408785 0
5.4270005 -0.95277447 0.14103541 0
5.4250002 -0.96147776 0.14114007 0
5.4260001 -0.97072583 0.14108777 0
5.4280005 -0.98016346 0.1409831 0
5.4320002 -0.98998332 0.14077389 0
5.3850002 -1.0890701 0.14323249 0
5.3710003 -1.0951074 0.14396483 0
5.3640003 -1.1025842 0.14433098 0
5.3600001 -1.1106797 0.14454025 0
5.3590002 -1.1194102 0.14459255 0
5.3600001 -1.1285735 0.14454025 0
5.3660002 -1.1388408 0.14422637 0
5.2670002 -1.3716493 0.14940512 0
5.2580004 -1.3779608 0.14987591 0
5.2530003 -1.3853438 0.15013745 0
5.2510004 -1.3935423 0.15024206 0
5.2500005 -1.4020129 0.15029439 0
5.2530003 -1.4116055 0.15013745 0
5.2630005 -1.4231914 0.14961433 0
5.4520001 -0.92083251 0.13061485 0
5.4410005 -0.92802078 0.13121009 0
5.4340005 -0.93587637 0.13158888 0
5.4300003 -0.94424242 0.13180536 0
5.4270005 -0.95277447 0.13196769 0
5.4250002 -0.96147776 0.13207594 0
5.4260001 -0.97072583 0.13202181 0
5.4280005 -0.98016346 0.13191357 0
5.4320002 -0.98998332 0.13169712 0
5.3850002 -1.0890701 0.13424051 0
5.3710003 -1.0951074 0.13499808 0
5.3640003 -1.1025842 0.13537687 0
5.3600001 -1.1106797 0.13559335 0
5.3590002 -1.1194102 0.13564748 0
5.3600001 -1.1285735 0.13559335 0
5.3660002 -1.1388408 0.13526869 0
5.2670002 -1.3716493 0.14062598 0
5.2580004 -1.3779608 0.14111301 0
5.2530003 -1.3853438 0.14138356 0
5.2510004 -1.3935423 0.1414918 0
5.2500005 -1.4020129 0.14154589 0
5.2530003 -1.4116055 0.14138356 0
5.2630005 -1.4231914 0.14084241 0
5.4520001 -0.92083251 0.12150201 0
5.4410005 -0.92802078 0.1221171 0
5.4340005 -0.93587637 0.1225085 0
5.4300003 -0.94424242 0.12273219 0
5.4270005 -0.95277447 0.12289995 0
5.4250002 -0.96147776 0.1230118 0
5.4260001 -0.97072583 0.12295589 0
5.4280005 -0.98016346 0.12284401 0
5.4320002 -0.98998332 0.12262037 0
5.3850002 -1.0890701 0.12524852 0
5.3710003 -1.0951074 0.12603134 0
5.3640003 -1.1025842 0.12642279 0
5.3600001 -1.1106797 0.12664649 0
5.3590002 -1.1194102 0.1267024 0
5.3600001 -1.1285735 0.12664649 0
5.3660002 -1.1388408 0.12631097 0
5.2670002 -1.3716493 0.13184685 0
5.2580004 -1.3779608 0.13235009 0
5.2530003 -1.3853438 0.13262969 0
5.2510004 -1.3935423 0.13274151 0
5.2500005 -1.4020129 0.13279745 0
5.2530003 -1.4116055 0.13262969 0
5.2630005 -1.4231914 0.13207051 0
5.4520001 -0.92083251 0.11238918 0
5.4410005 -0.92802078 0.11302409 0
5.4340005 -0.93587637 0.11342815 0
5.4300003 -0.94424242 0.11365905 0
5.4270005 -0.95277447 0.11383221 0
5.4250002 -0.96147776 0.11394766 0
5.4260001 -0.97072583 0.11388993 0
5.4280005 -0.98016346 0.11377448 0
5.4320002 -0.98998332 0.1135436 0
5.3850002 -1.0890701 0.11625654 0
5.3710003 -1.0951074 0.11706463 0
5.3640003 -1.1025842 0.11746868 0
5.3600001 -1.1106797 0.11769959 0
5.3590002 -1.1194102 0.11775729 0
5.3600001 -1.1285735 0.11769959 0
5.3660002 -1.1388408 0.11735326 0
5.2670002 -1.3716493 0.12306771 0
5.2580004 -1.3779608 0.12358719 0
5.2530003 -1.3853438 0.12387583 0
5.2510004 -1.3935423 0.12399125 0
5.2500005 -1.4020129 0.12404898 0
5.2530003 -1.4116055 0.12387583 0
5.2630005 -1.4231914 0.12329859 0
5.4520001 -0.92083251 0.10327634 0
5.4410005 -0.92802078 0.1039311 0
5.4340005 -0.93587637 0.10434777 0
5.4300003 -0.94424242 0.10458589 0
5.4270005 -0.95277447 0.10476443 0
5.4250002 -0.96147776 0.10488352 0
5.4260001 -0.97072583 0.10482401 0
5.4280005 -0.98016346 0.10470492 0
5.4320002 -0.98998332 0.10446686 0
5.3850002 -1.0890701 0.10726455 0
5.3710003 -1.0951074 0.10809791 0
5.3640003 -1.1025842 0.10851458 0
5.3600001 -1.1106797 0.10875267 0
5.3590002 -1.1194102 0.10881221 0
5.3600001 -1.1285735 0.10875267 0
5.3660002 -1.1388408 0.10839552 0
5.2670002 -1.3716493 0.11428857 0
5.2580004 -1.3779608 0.1148243 0
5.2530003 -1.3853438 0.11512193 0
5.2510004 -1.3935423 0.11524099 0
5.2500005 -1.4020129 0.11530048 0
5.2530003 -1.4116055 0.11512193 0
5.2630005 -1.4231914 0.11452666 0
5.4520001 -0.92083251 0.094163477 0
5.4410005 -0.92802078 0.094838113 0
5.4340005 -0.93587637 0.095267415 0
5.4300003 -0.94424242 0.095512748 0
5.4270005 -0.95277447 0.095696718 0
5.4250002 -0.96147776 0.095819384 0
5.4260001 -0.97072583 0.095758051 0
5.4280005 -0.98016346 0.095635384 0
5.4320002 -0.98998332 0.095390081 0
5.4400005 -1.0005754 0.094899416 0
5.3850002 -1.0890701 0.098272562 0
5.3710003 -1.0951074 0.099131167 0
5.3640003 -1.1025842 0.099560499 0
5.3600001 -1.1106797 0.099805802 0
5.3590002 -1.1194102 0.099867135 0
5.3600001 -1.1285735 0.099805802 0
