# .PCD v0.7 - Point Cloud Data file format
VERSION 0.7
FIELDS x y z intensity
SIZE 4 4 4 4
TYPE F F F F
COUNT 1 1 1 1
WIDTH 1443
HEIGHT 1
VIEWPOINT 0 0 0 1 0 0 0
POINTS 1443
DATA ascii
3.7410002 1.3401003 0.16896562 0
3.7450004 1.3357261 0.16868418 0
3.7500002 1.3317487 0.16833246 0
3.7560003 1.3281627 0.16791038 0
3.7640002 1.3253704 0.1673476 0
3.7740002 1.323361 0.16664411 0
4.0710001 1.4240352 0.14575058 0
4.0740004 1.4186093 0.14553955 0
4.0780001 1.4135695 0.14525816 0
4.0830002 1.4089102 0.1449064 0
3.8550003 1.2440566 0.16094586 0
3.8520002 1.2367096 0.16115692 0
3.8510003 1.2301131 0.16122727 0
3.8510003 1.2238882 0.16122727 0
3.8530002 1.2183955 0.16108657 0
3.8550003 1.2128958 0.16094586 0
3.8590002 1.2081139 0.16066448 0
3.8640003 1.2036784 0.16031273 0
3.8710003 1.1999427 0.1598203 0
4.277 1.2267923 0.13125882 0
4.2750001 1.219146 0.13139948 0
4.2750001 1.2121563 0.13139948 0
4.277 1.2058122 0.13125882 0
4.2800002 1.1997821 0.13104776 0
4.2840004 1.1940606 0.13076636 0
4.2910004 1.1892767 0.13027391 0
4.0599999 1.023514 0.14652443 0
4.0570002 1.0160408 0.14673549 0
4.0570002 1.0094442 0.14673549 0
4.0570002 1.0028477 0.14673549 0
4.0599999 0.99710619 0.14652443 0
4.0630002 0.99135387 0.14631337 0
4.0680003 0.98615348 0.14596164 0
3.9190001 1.9852324 0.15009597 0
3.9190001 1.9788847 0.15009597 0
3.9190001 1.972537 0.15009597 0
3.9180002 1.9656177 0.15016812 0
3.9180002 1.9592719 0.15016812 0
3.9180002 1.9529262 0.15016812 0
3.9180002 1.9465804 0.15016812 0
3.9180002 1.9402345 0.15016812 0
3.9180002 1.9338888 0.15016812 0
3.9170003 1.926982 0.15024027 0
3.9170003 1.920638 0.15024027 0
3.9170003 1.914294 0.15024027 0
3.9170003 1.90795 0.15024027 0
3.9170003 1.9016061 0.15024027 0
3.9170003 1.895262 0.15024027 0
3.9160004 1.888368 0.15031242 0
3.9160004 1.8820258 0.15031242 0
3.9160004 1.8756834 0.15031242 0
3.9160004 1.8693413 0.15031242 0
3.9160004 1.8629991 0.15031242 0
3.9150002 1.8561157 0.15038458 0
3.9150002 1.8497753 0.15038458 0
3.9150002 1.8434348 0.15038458 0
3.9150002 1.8370947 0.15038458 0
3.9150002 1.8307543 0.15038458 0
3.9150002 1.8244139 0.15038458 0
3.9140003 1.8175433 0.15045673 0
3.9140003 1.8112046 0.15045673 0
3.9140003 1.804866 0.15045673 0
3.9140003 1.7985274 0.15045673 0
3.9140003 1.7921889 0.15045673 0
3.9140003 1.7858503 0.15045673 0
3.9130003 1.7789922 0.15052888 0
3.9200003 1.7762792 0.15002382 0
3.9310002 1.7756046 0.14923015 0
3.9430003 1.7754045 0.14836434 0
3.9550002 1.7751608 0.14749849 0
3.9200003 1.5730983 0.15002382 0
3.9150002 1.5644579 0.15038458 0
3.9130003 1.557205 0.15052888 0
3.9110003 1.5499589 0.15067318 0
3.9110003 1.5436258 0.15067318 0
3.9110003 1.5372927 0.15067318 0
3.9130003 1.5318578 0.15052888 0
3.9140003 1.5259683 0.15045673 0
3.9170003 1.5209664 0.15024027 0
3.9200003 1.5159537 0.15002382 0
3.9230003 1.5109301 0.14980733 0
3.9280002 1.5067759 0.14944658 0
3.9330003 1.5026037 0.14908582 0
3.9400003 1.4992864 0.14858076 0
3.7360003 1.3982011 0.16329984 0
3.7320004 1.3904592 0.16358843 0
3.7300003 1.3835902 0.16373275 0
3.7290003 1.377156 0.16380492 0
3.7290003 1.3711511 0.16380492 0
3.7290003 1.3651463 0.16380492 0
3.7310002 1.3599856 0.1636606 0
3.7320004 1.3543974 0.16358843 0
3.7350004 1.3496426 0.163372 0
3.7380002 1.3448768 0.16315554 0
3.7410002 1.3401003 0.1629391 0
3.7450004 1.3357261 0.16265045 0
3.7500002 1.3317487 0.16228972 0
3.7560003 1.3281627 0.1618568 0
3.7640002 1.3253704 0.16127959 0
3.7740002 1.323361 0.16055806 0
4.0710001 1.4240352 0.1391288 0
4.0740004 1.4186093 0.13891235 0
4.0780001 1.4135695 0.13862374 0
4.0830002 1.4089102 0.13826299 0
3.8550003 1.2440566 0.15471371 0
3.8520002 1.2367096 0.15493019 0
3.8510003 1.2301131 0.15500233 0
3.8510003 1.2238882 0.15500233 0
3.8530002 1.2183955 0.15485804 0
3.8550003 1.2128958 0.15471371 0
3.8590002 1.2081139 0.15442511 0
3.8640003 1.2036784 0.15406433 0
3.8710003 1.1999427 0.15355927 0
4.277 1.2267923 0.12426543 0
4.2750001 1.219146 0.12440974 0
4.2750001 1.2121563 0.12440974 0
4.277 1.2058122 0.12426543 0
4.2800002 1.1997821 0.12404898 0
4.2840004 1.1940606 0.12376034 0
4.2910004 1.1892767 0.12325528 0
4.0599999 1.023514 0.1399225 0
4.0570002 1.0160408 0.14013895 0
4.0570002 1.0094442 0.14013895 0
4.0570002 1.0028477 0.14013895 0
4.0599999 0.99710619 0.1399225 0
4.0630002 0.99135387 0.13970605 0
4.0680003 0.98615348 0.13934529 0
3.9190001 1.9852324 0.14374837 0
3.9190001 1.9788847 0.14374837 0
3.9190001 1.972537 0.14374837 0
3.9180002 1.9656177 0.14382231 0
3.9180002 1.9592719 0.14382231 0
3.9180002 1.9529262 0.14382231 0
3.9180002 1.9465804 0.14382231 0
3.9180002 1.9402345 0.14382231 0
3.9180002 1.9338888 0.14382231 0
3.9170003 1.926982 0.14389628 0
3.9170003 1.920638 0.14389628 0
3.9170003 1.914294 0.14389628 0
3.9170003 1.90795 0.14389628 0
3.9170003 1.9016061 0.14389628 0
3.9170003 1.895262 0.14389628 0
3.9160004 1.888368 0.14397025 0
3.9160004 1.8820258 0.14397025 0
3.9160004 1.8756834 0.14397025 0
3.9160004 1.8693413 0.14397025 0
3.9160004 1.8629991 0.14397025 0
3.9150002 1.8561157 0.14404419 0
3.9150002 1.8497753 0.14404419 0
3.9150002 1.8434348 0.14404419 0
3.9150002 1.8370947 0.14404419 0
3.9150002 1.8307543 0.14404419 0
3.9150002 1.8244139 0.14404419 0
3.9140003 1.8175433 0.14411816 0
3.9140003 1.8112046 0.14411816 0
3.9140003 1.804866 0.14411816 0
3.9140003 1.7985274 0.14411816 0
3.9140003 1.7921889 0.14411816 0
3.9140003 1.7858503 0.14411816 0
3.9130003 1.7789922 0.1441921 0
3.9200003 1.7762792 0.1436744 0
3.9310002 1.7756046 0.14286089 0
3.9430003 1.7754045 0.14197341 0
3.9550002 1.7751608 0.14108595 0
3.9200003 1.5730983 0.1436744 0
3.9150002 1.5644579 0.14404419 0
3.9130003 1.557205 0.1441921 0
3.9110003 1.5499589 0.14434001 0
3.9110003 1.5436258 0.14434001 0
3.9110003 1.5372927 0.14434001 0
3.9130003 1.5318578 0.1441921 0
3.9140003 1.5259683 0.14411816 0
3.9170003 1.5209664 0.14389628 0
3.9200003 1.5159537 0.1436744 0
3.9230003 1.5109301 0.14345253 0
3.9280002 1.5067759 0.14308277 0
3.9330003 1.5026037 0.14271298 0
3.9400003 1.4992864 0.14219528 0
3.7360003 1.3982011 0.15728235 0
3.7320004 1.3904592 0.15757816 0
3.7300003 1.3835902 0.15772606 0
3.7290003 1.377156 0.15780002 0
3.7290003 1.3711511 0.15780002 0
3.7290003 1.3651463 0.15780002 0
3.7310002 1.3599856 0.15765214 0
3.7320004 1.3543974 0.15757816 0
3.7350004 1.3496426 0.15735628 0
3.7380002 1.3448768 0.15713443 0
3.7410002 1.3401003 0.15691257 0
3.7450004 1.3357261 0.15661673 0
3.7500002 1.3317487 0.15624696 0
3.7560003 1.3281627 0.15580322 0
3.7640002 1.3253704 0.15521158 0
3.7740002 1.323361 0.15447202 0
4.0710001 1.4240352 0.13250703 0
4.0740004 1.4186093 0.13228515 0
4.0780001 1.4135695 0.13198936 0
4.0830002 1.4089102 0.13161957 0
3.8550003 1.2440566 0.14848155 0
3.8520002 1.2367096 0.14870343 0
3.8510003 1.2301131 0.14877737 0
3.8510003 1.2238882 0.14877737 0
3.8530002 1.2183955 0.14862949 0
3.8550003 1.2128958 0.14848155 0
3.8590002 1.2081139 0.14818576 0
3.8640003 1.2036784 0.14781597 0
3.8710003 1.1999427 0.14729828 0
4.277 1.2267923 0.11727208 0
4.2750001 1.219146 0.11741996 0
4.2750001 1.2121563 0.11741996 0
4.277 1.2058122 0.11727208 0
4.2800002 1.1997821 0.1170502 0
4.2840004 1.1940606 0.11675435 0
4.2910004 1.1892767 0.11623669 0
4.0599999 1.023514 0.13332057 0
4.0570002 1.0160408 0.13354245 0
4.0570002 1.0094442 0.13354245 0
4.0570002 1.0028477 0.13354245 0
4.0599999 0.99710619 0.13332057 0
4.0630002 0.99135387 0.13309869 0
4.0680003 0.98615348 0.13272887 0
3.9190001 1.9852324 0.13740078 0
3.9190001 1.9788847 0.13740078 0
3.9190001 1.972537 0.13740078 0
3.9180002 1.9656177 0.1374765 0
3.9180002 1.9592719 0.1374765 0
3.9180002 1.9529262 0.1374765 0
3.9180002 1.9465804 0.1374765 0
3.9180002 1.9402345 0.1374765 0
3.9180002 1.9338888 0.1374765 0
3.9170003 1.926982 0.13755229 0
3.9170003 1.920638 0.13755229 0
3.9170003 1.914294 0.13755229 0
3.9170003 1.90795 0.13755229 0
3.9170003 1.9016061 0.13755229 0
3.9170003 1.895262 0.13755229 0
3.9160004 1.888368 0.13762805 0
3.9160004 1.8820258 0.13762805 0
3.9160004 1.8756834 0.13762805 0
3.9160004 1.8693413 0.13762805 0
3.9160004 1.8629991 0.13762805 0
3.9150002 1.8561157 0.13770381 0
3.9150002 1.8497753 0.13770381 0
3.9150002 1.8434348 0.13770381 0
3.9150002 1.8370947 0.13770381 0
3.9150002 1.8307543 0.13770381 0
3.9150002 1.8244139 0.13770381 0
3.9140003 1.8175433 0.13777956 0
3.9140003 1.8112046 0.13777956 0
3.9140003 1.804866 0.13777956 0
3.9140003 1.7985274 0.13777956 0
3.9140003 1.7921889 0.13777956 0
3.9140003 1.7858503 0.13777956 0
3.9130003 1.7789922 0.13785532 0
3.9200003 1.7762792 0.13732499 0
3.9310002 1.7756046 0.13649166 0
3.9430003 1.7754045 0.13558251 0
3.9550002 1.7751608 0.13467342 0
3.9200003 1.5730983 0.13732499 0
3.9150002 1.5644579 0.13770381 0
3.9130003 1.557205 0.13785532 0
3.9110003 1.5499589 0.13800684 0
3.9110003 1.5436258 0.13800684 0
3.9110003 1.5372927 0.13800684 0
3.9130003 1.5318578 0.13785532 0
3.9140003 1.5259683 0.13777956 0
3.9170003 1.5209664 0.13755229 0
3.9200003 1.5159537 0.13732499 0
3.9230003 1.5109301 0.13709775 0
3.9280002 1.5067759 0.13671893 0
3.9330003 1.5026037 0.13634011 0
3.9400003 1.4992864 0.13580981 0
3.7360003 1.3982011 0.15126482 0
3.7320004 1.3904592 0.15156785 0
3.7300003 1.3835902 0.15171939 0
3.7290003 1.377156 0.15179515 0
3.7290003 1.3711511 0.15179515 0
3.7290003 1.3651463 0.15179515 0
3.7310002 1.3599856 0.15164363 0
3.7320004 1.3543974 0.15156785 0
3.7350004 1.3496426 0.1513406 0
3.7380002 1.3448768 0.15111333 0
3.7410002 1.3401003 0.15088603 0
3.7450004 1.3357261 0.150583 0
3.7500002 1.3317487 0.15020418 0
3.7560003 1.3281627 0.14974964 0
3.7640002 1.3253704 0.14914355 0
3.7740002 1.323361 0.14838594 0
4.0710001 1.4240352 0.12588525 0
4.0740004 1.4186093 0.12565798 0
4.0780001 1.4135695 0.12535492 0
4.0830002 1.4089102 0.12497613 0
3.8550003 1.2440566 0.14224941 0
3.8520002 1.2367096 0.14247668 0
3.8510003 1.2301131 0.14255244 0
3.8510003 1.2238882 0.14255244 0
3.8530002 1.2183955 0.14240092 0
3.8550003 1.2128958 0.14224941 0
3.8590002 1.2081139 0.14194638 0
3.8640003 1.2036784 0.14156756 0
3.8710003 1.1999427 0.14103723 0
4.277 1.2267923 0.11027873 0
4.2750001 1.219146 0.11043021 0
4.2750001 1.2121563 0.11043021 0
4.277 1.2058122 0.11027873 0
4.2800002 1.1997821 0.11005142 0
4.2840004 1.1940606 0.10974839 0
4.2910004 1.1892767 0.10921806 0
4.0599999 1.023514 0.12671861 0
4.0570002 1.0160408 0.12694588 0
4.0570002 1.0094442 0.12694588 0
4.0570002 1.0028477 0.12694588 0
4.0599999 0.99710619 0.12671861 0
4.0630002 0.99135387 0.12649134 0
4.0680003 0.98615348 0.12611252 0
3.9190001 1.9852324 0.13105318 0
3.9190001 1.9788847 0.13105318 0
3.9190001 1.972537 0.13105318 0
3.9180002 1.9656177 0.13113073 0
3.9180002 1.9592719 0.13113073 0
3.9180002 1.9529262 0.13113073 0
3.9180002 1.9465804 0.13113073 0
3.9180002 1.9402345 0.13113073 0
3.9180002 1.9338888 0.13113073 0
3.9170003 1.926982 0.1312083 0
3.9170003 1.920638 0.1312083 0
3.9170003 1.914294 0.1312083 0
3.9170003 1.90795 0.1312083 0
3.9170003 1.9016061 0.1312083 0
3.9170003 1.895262 0.1312083 0
3.9160004 1.888368 0.13128585 0
3.9160004 1.8820258 0.13128585 0
3.9160004 1.8756834 0.13128585 0
3.9160004 1.8693413 0.13128585 0
3.9160004 1.8629991 0.13128585 0
3.9150002 1.8561157 0.13136342 0
3.9150002 1.8497753 0.13136342 0
3.9150002 1.8434348 0.13136342 0
3.9150002 1.8370947 0.13136342 0
3.9150002 1.8307543 0.13136342 0
3.9150002 1.8244139 0.13136342 0
3.9140003 1.8175433 0.131441 0
3.9140003 1.8112046 0.131441 0
3.9140003 1.804866 0.131441 0
3.9140003 1.7985274 0.131441 0
3.9140003 1.7921889 0.131441 0
3.9140003 1.7858503 0.131441 0
3.9130003 1.7789922 0.13151854 0
3.9200003 1.7762792 0.13097557 0
3.9310002 1.7756046 0.13012239 0
3.9430003 1.7754045 0.12919161 0
3.9550002 1.7751608 0.12826088 0
3.9200003 1.5730983 0.13097557 0
3.9150002 1.5644579 0.13136342 0
3.9130003 1.557205 0.13151854 0
3.9110003 1.5499589 0.13167366 0
3.9110003 1.5436258 0.13167366 0
3.9110003 1.5372927 0.13167366 0
3.9130003 1.5318578 0.13151854 0
3.9140003 1.5259683 0.131441 0
3.9170003 1.5209664 0.1312083 0
3.9200003 1.5159537 0.13097557 0
3.9230003 1.5109301 0.13074291 0
3.9280002 1.5067759 0.13035509 0
3.9330003 1.5026037 0.12996727 0
3.9400003 1.4992864 0.12942433 0
3.7360003 1.3982011 0.14524731 0
3.7320004 1.3904592 0.14555758 0
3.7300003 1.3835902 0.14571273 0
3.7290003 1.377156 0.14579028 0
3.7290003 1.3711511 0.14579028 0
3.7290003 1.3651463 0.14579028 0
3.7310002 1.3599856 0.14563516 0
3.7320004 1.3543974 0.14555758 0
3.7350004 1.3496426 0.14532489 0
3.7380002 1.3448768 0.14509222 0
3.7410002 1.3401003 0.14485949 0
3.7450004 1.3357261 0.14454925 0
3.7500002 1.3317487 0.14416143 0
3.7560003 1.3281627 0.14369604 0
3.7640002 1.3253704 0.14307556 0
3.7740002 1.323361 0.14229992 0
4.0710001 1.4240352 0.11926347 0
4.0740004 1.4186093 0.11903077 0
4.0780001 1.4135695 0.11872053 0
4.0830002 1.4089102 0.11833271 0
3.8550003 1.2440566 0.13601726 0
3.8520002 1.2367096 0.13624993 0
3.8510003 1.2301131 0.13632751 0
3.8510003 1.2238882 0.13632751 0
3.8530002 1.2183955 0.13617238 0
3.8550003 1.2128958 0.13601726 0
3.8590002 1.2081139 0.13570699 0
3.8640003 1.2036784 0.13531917 0
3.8710003 1.1999427 0.13477623 0
4.277 1.2267923 0.10328534 0
4.2750001 1.219146 0.10344046 0
4.2750001 1.2121563 0.10344046 0
4.277 1.2058122 0.10328534 0
4.2800002 1.1997821 0.10305265 0
4.2840004 1.1940606 0.1027424 0
4.2910004 1.1892767 0.10219944 0
4.0599999 1.023514 0.12011668 0
4.0570002 1.0160408 0.12034938 0
4.0570002 1.0094442 0.12034938 0
4.0570002 1.0028477 0.12034938 0
4.0599999 0.99710619 0.12011668 0
4.0630002 0.99135387 0.11988398 0
4.0680003 0.98615348 0.11949617 0
3.9190001 1.9852324 0.12470558 0
3.9190001 1.9788847 0.12470558 0
3.9190001 1.972537 0.12470558 0
3.9180002 1.9656177 0.12478492 0
3.9180002 1.9592719 0.12478492 0
3.9180002 1.9529262 0.12478492 0
3.9180002 1.9465804 0.12478492 0
3.9180002 1.9402345 0.12478492 0
3.9180002 1.9338888 0.12478492 0
3.9170003 1.926982 0.12486428 0
3.9170003 1.920638 0.12486428 0
3.9170003 1.914294 0.12486428 0
3.9170003 1.90795 0.12486428 0
3.9170003 1.9016061 0.12486428 0
3.9170003 1.895262 0.12486428 0
3.9160004 1.888368 0.12494367 0
3.9160004 1.8820258 0.12494367 0
3.9160004 1.8756834 0.12494367 0
3.9160004 1.8693413 0.12494367 0
3.9160004 1.8629991 0.12494367 0
3.9150002 1.8561157 0.12502304 0
3.9150002 1.8497753 0.12502304 0
3.9150002 1.8434348 0.12502304 0
3.9150002 1.8370947 0.12502304 0
3.9150002 1.8307543 0.12502304 0
3.9150002 1.8244139 0.12502304 0
3.9140003 1.8175433 0.1251024 0
3.9140003 1.8112046 0.1251024 0
3.9140003 1.804866 0.1251024 0
3.9140003 1.7985274 0.1251024 0
3.9140003 1.7921889 0.1251024 0
3.9140003 1.7858503 0.1251024 0
3.9130003 1.7789922 0.12518176 0
3.9200003 1.7762792 0.12462619 0
3.9310002 1.7756046 0.12375313 0
3.9430003 1.7754045 0.12280074 0
3.9550002 1.7751608 0.12184834 0
3.9200003 1.5730983 0.12462619 0
3.9150002 1.5644579 0.12502304 0
3.9130003 1.557205 0.12518176 0
3.9110003 1.5499589 0.12534049 0
3.9110003 1.5436258 0.12534049 0
3.9110003 1.5372927 0.12534049 0
3.9130003 1.5318578 0.12518176 0
3.9140003 1.5259683 0.1251024 0
3.9170003 1.5209664 0.12486428 0
3.9200003 1.5159537 0.12462619 0
3.9230003 1.5109301 0.1243881 0
3.9280002 1.5067759 0.12399125 0
3.9330003 1.5026037 0.1235944 0
3.9400003 1.4992864 0.12303883 0
3.7360003 1.3982011 0.1392298 0
3.7320004 1.3904592 0.13954729 0
3.7300003 1.3835902 0.13970605 0
3.7290003 1.377156 0.13978538 0
3.7290003 1.3711511 0.13978538 0
3.7290003 1.3651463 0.13978538 0
3.7310002 1.3599856 0.13962665 0
3.7320004 1.3543974 0.13954729 0
3.7350004 1.3496426 0.1393092 0
3.7380002 1.3448768 0.13907108 0
3.7410002 1.3401003 0.13883302 0
3.7450004 1.3357261 0.1385155 0
3.7500002 1.3317487 0.13811868 0
3.7560003 1.3281627 0.13764247 0
3.7640002 1.3253704 0.13700753 0
3.7740002 1.323361 0.13621387 0
4.0710001 1.4240352 0.11264166 0
4.0740004 1.4186093 0.1124036 0
4.0780001 1.4135695 0.11208612 0
4.0830002 1.4089102 0.1116893 0
3.8550003 1.2440566 0.12978509 0
3.8520002 1.2367096 0.13002321 0
3.8510003 1.2301131 0.13010255 0
3.8510003 1.2238882 0.13010255 0
3.8530002 1.2183955 0.12994382 0
3.8550003 1.2128958 0.12978509 0
3.8590002 1.2081139 0.12946764 0
3.8640003 1.2036784 0.12907076 0
3.8710003 1.1999427 0.12851518 0
4.277 1.2267923 0.096291989 0
4.2750001 1.219146 0.096450686 0
4.2750001 1.2121563 0.096450686 0
4.277 1.2058122 0.096291989 0
4.2800002 1.1997821 0.096053898 0
4.2840004 1.1940606 0.095736384 0
4.2910004 1.1892767 0.095180839 0
4.0599999 1.023514 0.11351472 0
4.0570002 1.0160408 0.11375284 0
4.0570002 1.0094442 0.11375284 0
4.0570002 1.0028477 0.11375284 0
4.0599999 0.99710619 0.11351472 0
4.0630002 0.99135387 0.11327666 0
4.0680003 0.98615348 0.11287978 0
3.9190001 1.9852324 0.11835799 0
3.9190001 1.9788847 0.11835799 0
3.9190001 1.972537 0.11835799 0
3.9180002 1.9656177 0.11843914 0
3.9180002 1.9592719 0.11843914 0
3.9180002 1.9529262 0.11843914 0
3.9180002 1.9465804 0.11843914 0
3.9180002 1.9402345 0.11843914 0
3.9180002 1.9338888 0.11843914 0
3.9170003 1.926982 0.11852029 0
3.9170003 1.920638 0.11852029 0
3.9170003 1.914294 0.11852029 0
3.9170003 1.90795 0.11852029 0
3.9170003 1.9016061 0.11852029 0
3.9170003 1.895262 0.11852029 0
3.9160004 1.888368 0.11860147 0
3.9160004 1.8820258 0.11860147 0
3.9160004 1.8756834 0.11860147 0
3.9160004 1.8693413 0.11860147 0
3.9160004 1.8629991 0.11860147 0
3.9150002 1.8561157 0.11868265 0
3.9150002 1.8497753 0.11868265 0
3.9150002 1.8434348 0.11868265 0
3.9150002 1.8370947 0.11868265 0
3.9150002 1.8307543 0.11868265 0
3.9150002 1.8244139 0.11868265 0
3.9140003 1.8175433 0.11876383 0
3.9140003 1.8112046 0.11876383 0
3.9140003 1.804866 0.11876383 0
3.9140003 1.7985274 0.11876383 0
3.9140003 1.7921889 0.11876383 0
3.9140003 1.7858503 0.11876383 0
3.9130003 1.7789922 0.11884499 0
3.9200003 1.7762792 0.11827677 0
3.9310002 1.7756046 0.1173839 0
3.9430003 1.7754045 0.11640984 0
3.9550002 1.7751608 0.11543581 0
3.9200003 1.5730983 0.11827677 0
3.9150002 1.5644579 0.11868265 0
3.9130003 1.557205 0.11884499 0
3.9110003 1.5499589 0.11900732 0
3.9110003 1.5436258 0.11900732 0
3.9110003 1.5372927 0.11900732 0
3.9130003 1.5318578 0.11884499 0
3.9140003 1.5259683 0.11876383 0
3.9170003 1.5209664 0.11852029 0
3.9200003 1.5159537 0.11827677 0
3.9230003 1.5109301 0.11803329 0
3.9280002 1.5067759 0.11762741 0
3.9330003 1.5026037 0.11722153 0
3.9400003 1.4992864 0.11665338 0
3.7360003 1.3982011 0.13321233 0
3.7320004 1.3904592 0.13353699 0
3.7300003 1.3835902 0.13369936 0
3.7290003 1.377156 0.13378051 0
3.7290003 1.3711511 0.13378051 0
3.7290003 1.3651463 0.13378051 0
3.7310002 1.3599856 0.13361818 0
3.7320004 1.3543974 0.13353699 0
3.7350004 1.3496426 0.13329348 0
3.7380002 1.3448768 0.13304999 0
3.7410002 1.3401003 0.13280648 0
3.7450004 1.3357261 0.13248178 0
3.7500002 1.3317487 0.13207594 0
3.7560003 1.3281627 0.13158891 0
3.7640002 1.3253704 0.13093951 0
3.7740002 1.323361 0.13012782 0
4.0710001 1.4240352 0.10601991 0
4.0740004 1.4186093 0.10577637 0
4.0780001 1.4135695 0.1054517 0
4.0830002 1.4089102 0.10504586 0
3.8550003 1.2440566 0.12355292 0
3.8520002 1.2367096 0.12379643 0
3.8510003 1.2301131 0.12387761 0
3.8510003 1.2238882 0.12387761 0
3.8530002 1.2183955 0.12371528 0
3.8550003 1.2128958 0.12355292 0
3.8590002 1.2081139 0.12322825 0
3.8640003 1.2036784 0.1228224 0
3.8710003 1.1999427 0.12225419 0
4.277 1.2267923 0.089298606 0
4.2750001 1.219146 0.089460939 0
4.2750001 1.2121563 0.089460939 0
4.277 1.2058122 0.089298606 0
4.2800002 1.1997821 0.089055091 0
4.2840004 1.1940606 0.088730395 0
4.2910004 1.1892767 0.088162184 0
4.0599999 1.023514 0.10691282 0
4.0570002 1.0160408 0.10715634 0
4.0570002 1.0094442 0.10715634 0
4.0570002 1.0028477 0.10715634 0
4.0599999 0.99710619 0.10691282 0
4.0630002 0.99135387 0.10666928 0
4.0680003 0.98615348 0.10626343 0
3.9190001 1.9852324 0.11201036 0
3.9190001 1.9788847 0.11201036 0
3.9190001 1.972537 0.11201036 0
3.9180002 1.9656177 0.11209333 0
3.9180002 1.9592719 0.11209333 0
3.9180002 1.9529262 0.11209333 0
3.9180002 1.9465804 0.11209333 0
3.9180002 1.9402345 0.11209333 0
3.9180002 1.9338888 0.11209333 0
3.9170003 1.926982 0.1121763 0
3.9170003 1.920638 0.1121763 0
3.9170003 1.914294 0.1121763 0
3.9170003 1.90795 0.1121763 0
3.9170003 1.9016061 0.1121763 0
3.9170003 1.895262 0.1121763 0
3.9160004 1.888368 0.1122593 0
3.9160004 1.8820258 0.1122593 0
3.9160004 1.8756834 0.1122593 0
3.9160004 1.8693413 0.1122593 0
3.9160004 1.8629991 0.1122593 0
3.9150002 1.8561157 0.11234227 0
3.9150002 1.8497753 0.11234227 0
3.9150002 1.8434348 0.11234227 0
3.9150002 1.8370947 0.11234227 0
3.9150002 1.8307543 0.11234227 0
3.9150002 1.8244139 0.11234227 0
3.9140003 1.8175433 0.11242524 0
3.9140003 1.8112046 0.11242524 0
3.9140003 1.804866 0.11242524 0
3.9140003 1.7985274 0.11242524 0
3.9140003 1.7921889 0.11242524 0
3.9140003 1.7858503 0.11242524 0
3.9130003 1.7789922 0.11250821 0
3.9200003 1.7762792 0.11192736 0
3.9310002 1.7756046 0.11101466 0
3.9430003 1.7754045 0.11001894 0
3.9550002 1.7751608 0.10902327 0
3.9200003 1.5730983 0.11192736 0
3.9150002 1.5644579 0.11234227 0
3.9130003 1.557205 0.11250821 0
3.9110003 1.5499589 0.11267415 0
3.9110003 1.5436258 0.11267415 0
3.9110003 1.5372927 0.11267415 0
3.9130003 1.5318578 0.11250821 0
3.9140003 1.5259683 0.11242524 0
3.9170003 1.5209664 0.1121763 0
3.9200003 1.5159537 0.11192736 0
3.9230003 1.5109301 0.11167845 0
3.9280002 1.5067759 0.11126357 0
3.9330003 1.5026037 0.11084872 0
3.9400003 1.4992864 0.11026788 0
3.7360003 1.3982011 0.12719482 0
3.7320004 1.3904592 0.1275267 0
3.7300003 1.3835902 0.12769267 0
3.7290003 1.377156 0.12777564 0
3.7290003 1.3711511 0.12777564 0
3.7290003 1.3651463 0.12777564 0
3.7310002 1.3599856 0.1276097 0
3.7320004 1.3543974 0.1275267 0
3.7350004 1.3496426 0.12727776 0
3.7380002 1.3448768 0.12702888 0
3.7410002 1.3401003 0.12677994 0
3.7450004 1.3357261 0.12644804 0
3.7500002 1.3317487 0.12603316 0
3.7560003 1.3281627 0.12553531 0
3.7640002 1.3253704 0.12487152 0
3.7740002 1.323361 0.12404177 0
4.0710001 1.4240352 0.099398136 0
4.0740004 1.4186093 0.099149197 0
4.0780001 1.4135695 0.098817319 0
4.0830002 1.4089102 0.098402441 0
3.8550003 1.2440566 0.11732078 0
3.8520002 1.2367096 0.11756968 0
3.8510003 1.2301131 0.11765268 0
3.8510003 1.2238882 0.11765268 0
3.8530002 1.2183955 0.11748675 0
3.8550003 1.2128958 0.11732078 0
3.8590002 1.2081139 0.1169889 0
3.8640003 1.2036784 0.11657399 0
3.8710003 1.1999427 0.11599314 0
4.277 1.2267923 0.082305253 0
4.2750001 1.219146 0.082471192 0
4.2750001 1.2121563 0.082471192 0
4.277 1.2058122 0.082305253 0
4.2800002 1.1997821 0.082056314 0
4.2840004 1.1940606 0.081724405 0
4.2910004 1.1892767 0.081143588 0
4.0599999 1.023514 0.10031086 0
4.0570002 1.0160408 0.1005598 0
4.0570002 1.0094442 0.1005598 0
4.0570002 1.0028477 0.1005598 0
4.0599999 0.99710619 0.10031086 0
4.0630002 0.99135387 0.10006195 0
4.0680003 0.98615348 0.099647045 0
3.9190001 1.9852324 0.10566276 0
3.9190001 1.9788847 0.10566276 0
3.9190001 1.972537 0.10566276 0
3.9180002 1.9656177 0.10574755 0
3.9180002 1.9592719 0.10574755 0
3.9180002 1.9529262 0.10574755 0
3.9180002 1.9465804 0.10574755 0
3.9180002 1.9402345 0.10574755 0
3.9180002 1.9338888 0.10574755 0
3.9170003 1.926982 0.10583231 0
3.9170003 1.920638 0.10583231 0
3.9170003 1.914294 0.10583231 0
3.9170003 1.90795 0.10583231 0
3.9170003 1.9016061 0.10583231 0
3.9170003 1.895262 0.10583231 0
3.9160004 1.888368 0.1059171 0
3.9160004 1.8820258 0.1059171 0
3.9160004 1.8756834 0.1059171 0
3.9160004 1.8693413 0.1059171 0
3.9160004 1.8629991 0.1059171 0
3.9150002 1.8561157 0.10600188 0
3.9150002 1.8497753 0.10600188 0
3.9150002 1.8434348 0.10600188 0
3.9150002 1.8370947 0.10600188 0
3.9150002 1.8307543 0.10600188 0
3.9150002 1.8244139 0.10600188 0
3.9140003 1.8175433 0.10608667 0
3.9140003 1.8112046 0.10608667 0
3.9140003 1.804866 0.10608667 0
3.9140003 1.7985274 0.10608667 0
3.9140003 1.7921889 0.10608667 0
3.9140003 1.7858503 0.10608667 0
3.9130003 1.7789922 0.10617143 0
3.9200003 1.7762792 0.10557798 0
3.9310002 1.7756046 0.10464543 0
3.9430003 1.7754045 0.10362807 0
3.9550002 1.7751608 0.10261071 0
3.9200003 1.5730983 0.10557798 0
3.9150002 1.5644579 0.10600188 0
3.9130003 1.557205 0.10617143 0
3.9110003 1.5499589 0.10634097 0
3.9110003 1.5436258 0.10634097 0
3.9110003 1.5372927 0.10634097 0
3.9130003 1.5318578 0.10617143 0
3.9140003 1.5259683 0.10608667 0
3.9170003 1.5209664 0.10583231 0
3.9200003 1.5159537 0.10557798 0
3.9230003 1.5109301 0.10532364 0
3.9280002 1.5067759 0.10489973 0
3.9330003 1.5026037 0.10447586 0
3.9400003 1.4992864 0.1038824 0
3.7360003 1.3982011 0.12117732 0
3.7320004 1.3904592 0.12151641 0
3.7300003 1.3835902 0.12168598 0
3.7290003 1.377156 0.12177077 0
3.7290003 1.3711511 0.12177077 0
3.7290003 1.3651463 0.12177077 0
3.7310002 1.3599856 0.12160122 0
3.7320004 1.3543974 0.12151641 0
3.7350004 1.3496426 0.12126207 0
3.7380002 1.3448768 0.12100777 0
3.7410002 1.3401003 0.12075341 0
3.7450004 1.3357261 0.12041429 0
3.7500002 1.3317487 0.11999041 0
3.7560003 1.3281627 0.11948174 0
3.7640002 1.3253704 0.1188035 0
3.7740002 1.323361 0.11795571 0
4.0710001 1.4240352 0.092776328 0
4.0740004 1.4186093 0.092522025 0
4.0780001 1.4135695 0.092182904 0
4.0830002 1.4089102 0.091759026 0
3.8550003 1.2440566 0.1110886 0
3.8520002 1.2367096 0.11134297 0
3.8510003 1.2301131 0.11142772 0
3.8510003 1.2238882 0.11142772 0
3.8530002 1.2183955 0.11125818 0
3.8550003 1.2128958 0.1110886 0
3.8590002 1.2081139 0.11074951 0
3.8640003 1.2036784 0.1103256 0
3.8710003 1.1999427 0.10973215 0
4.277 1.2267923 0.075311869 0
4.2750001 1.219146 0.075481415 0
4.2750001 1.2121563 0.075481415 0
4.277 1.2058122 0.075311869 0
4.2800002 1.1997821 0.075057566 0
4.2840004 1.1940606 0.074718416 0
4.2910004 1.1892767 0.074124962 0
4.0599999 1.023514 0.093708932 0
4.0570002 1.0160408 0.093963265 0
4.0570002 1.0094442 0.093963265 0
4.0570002 1.0028477 0.093963265 0
4.0599999 0.99710619 0.093708932 0
4.0630002 0.99135387 0.09345457 0
4.0680003 0.98615348 0.093030691 0
3.9190001 1.9852324 0.099315166 0
3.9190001 1.9788847 0.099315166 0
3.9190001 1.972537 0.099315166 0
3.9180002 1.9656177 0.099401742 0
3.9180002 1.9592719 0.099401742 0
3.9180002 1.9529262 0.099401742 0
3.9180002 1.9465804 0.099401742 0
3.9180002 1.9402345 0.099401742 0
3.9180002 1.9338888 0.099401742 0
3.9170003 1.926982 0.099488318 0
3.9170003 1.920638 0.099488318 0
3.9170003 1.914294 0.099488318 0
3.9170003 1.90795 0.099488318 0
3.9170003 1.9016061 0.099488318 0
3.9170003 1.895262 0.099488318 0
3.9160004 1.888368 0.099574924 0
3.9160004 1.8820258 0.099574924 0
3.9160004 1.8756834 0.099574924 0
3.9160004 1.8693413 0.099574924 0
3.9160004 1.8629991 0.099574924 0
3.9150002 1.8561157 0.099661499 0
3.9150002 1.8497753 0.099661499 0
3.9150002 1.8434348 0.099661499 0
3.9150002 1.8370947 0.099661499 0
3.9150002 1.8307543 0.099661499 0
3.9150002 1.8244139 0.099661499 0
3.9140003 1.8175433 0.099748075 0
3.9140003 1.8112046 0.099748075 0
3.9140003 1.804866 0.099748075 0
3.9140003 1.7985274 0.099748075 0
3.9140003 1.7921889 0.099748075 0
3.9140003 1.7858503 0.099748075 0
3.9130003 1.7789922 0.099834651 0
3.9200003 1.7762792 0.099228591 0
3.9310002 1.7756046 0.098276168 0
3.9430003 1.7754045 0.09723717 0
3.9550002 1.7751608 0.096198201 0
3.9200003 1.5730983 0.099228591 0
3.9150002 1.5644579 0.099661499 0
3.9130003 1.557205 0.099834651 0
3.9110003 1.5499589 0.1000078 0
3.9110003 1.5436258 0.1000078 0
3.9110003 1.5372927 0.1000078 0
3.9130003 1.5318578 0.099834651 0
3.9140003 1.5259683 0.099748075 0
3.9170003 1.5209664 0.099488318 0
3.9200003 1.5159537 0.099228591 0
3.9230003 1.5109301 0.098968834 0
3.9280002 1.5067759 0.098535925 0
3.9330003 1.5026037 0.098102987 0
3.9400003 1.4992864 0.097496897 0
3.7360003 1.3982011 0.11515981 0
3.7320004 1.3904592 0.11550614 0
3.7300003 1.3835902 0.11567929 0
3.7290003 1.377156 0.1157659 0
3.7290003 1.3711511 0.1157659 0
3.7290003 1.3651463 0.1157659 0
3.7310002 1.3599856 0.11559275 0
3.7320004 1.3543974 0.11550614 0
3.7350004 1.3496426 0.11524639 0
3.7380002 1.3448768 0.11498666 0
3.7410002 1.3401003 0.1147269 0
3.7450004 1.3357261 0.11438057 0
3.7500002 1.3317487 0.11394766 0
3.7560003 1.3281627 0.11342815 0
3.7640002 1.3253704 0.11273551 0
3.7740002 1.323361 0.11186969 0
4.0710001 1.4240352 0.08615458 0
4.0740004 1.4186093 0.085894793 0
4.0780001 1.4135695 0.08554849 0
4.0830002 1.4089102 0.085115612 0
3.8550003 1.2440566 0.10485646 0
3.8520002 1.2367096 0.10511619 0
3.8510003 1.2301131 0.10520279 0
3.8510003 1.2238882 0.10520279 0
3.8530002 1.2183955 0.10502964 0
3.8550003 1.2128958 0.10485646 0
3.8590002 1.2081139 0.10451013 0
3.8640003 1.2036784 0.10407722 0
3.8710003 1.1999427 0.10347113 0
4.277 1.2267923 0.068318516 0
4.2750001 1.219146 0.068491668 0
4.2750001 1.2121563 0.068491668 0
4.277 1.2058122 0.068318516 0
4.2800002 1.1997821 0.068058789 0
4.2840004 1.1940606 0.067712456 0
4.2910004 1.1892767 0.067106366 0
4.0599999 1.023514 0.087106973 0
4.0570002 1.0160408 0.08736673 0
4.0570002 1.0094442 0.08736673 0
4.0570002 1.0028477 0.08736673 0
4.0599999 0.99710619 0.087106973 0
4.0630002 0.99135387 0.086847246 0
4.0680003 0.98615348 0.086414307 0
3.9190001 1.9852324 0.09296757 0
3.9190001 1.9788847 0.09296757 0
3.9190001 1.972537 0.09296757 0
3.9180002 1.9656177 0.093055964 0
3.9180002 1.9592719 0.093055964 0
3.9180002 1.9529262 0.093055964 0
3.9180002 1.9465804 0.093055964 0
3.9180002 1.9402345 0.093055964 0
3.9180002 1.9338888 0.093055964 0
3.9170003 1.926982 0.093144327 0
3.9170003 1.920638 0.093144327 0
3.9170003 1.914294 0.093144327 0
3.9170003 1.90795 0.093144327 0
3.9170003 1.9016061 0.093144327 0
3.9170003 1.895262 0.093144327 0
3.9160004 1.888368 0.093232721 0
3.9160004 1.8820258 0.093232721 0
3.9160004 1.8756834 0.093232721 0
3.9160004 1.8693413 0.093232721 0
3.9160004 1.8629991 0.093232721 0
3.9150002 1.8561157 0.093321115 0
3.9150002 1.8497753 0.093321115 0
3.9150002 1.8434348 0.093321115 0
3.9150002 1.8370947 0.093321115 0
3.9150002 1.8307543 0.093321115 0
3.9150002 1.8244139 0.093321115 0
3.9140003 1.8175433 0.093409508 0
3.9140003 1.8112046 0.093409508 0
3.9140003 1.804866 0.093409508 0
3.9140003 1.7985274 0.093409508 0
3.9140003 1.7921889 0.093409508 0
3.9140003 1.7858503 0.093409508 0
3.9130003 1.7789922 0.093497872 0
3.9200003 1.7762792 0.092879176 0
3.9310002 1.7756046 0.091906905 0
3.9430003 1.7754045 0.09084627 0
3.9550002 1.7751608 0.089785635 0
3.9150002 1.5644579 0.093321115 0
3.9130003 1.557205 0.093497872 0
3.9110003 1.5499589 0.09367466 0
3.9110003 1.5436258 0.09367466 0
3.9110003 1.5372927 0.09367466 0
3.9130003 1.5318578 0.093497872 0
3.9140003 1.5259683 0.093409508 0
3.9170003 1.5209664 0.093144327 0
3.9200003 1.5159537 0.092879176 0
3.9230003 1.5109301 0.092613995 0
3.9280002 1.5067759 0.092172086 0
3.9330003 1.5026037 0.091730148 0
3.9400003 1.4992864 0.091111451 0
3.7360003 1.3982011 0.1091423 0
3.7320004 1.3904592 0.10949585 0
3.7300003 1.3835902 0.10967261 0
3.7290003 1.377156 0.109761 0
3.7290003 1.3711511 0.109761 0
3.7290003 1.3651463 0.109761 0
3.7310002 1.3599856 0.10958424 0
3.7320004 1.3543974 0.10949585 0
3.7350004 1.3496426 0.1092307 0
3.7380002 1.3448768 0.10896555 0
3.7410002 1.3401003 0.10870039 0
3.7450004 1.3357261 0.10834682 0
3.7500002 1.3317487 0.10790488 0
3.7560003 1.3281627 0.10737455 0
3.7640002 1.3253704 0.10666749 0
3.7740002 1.323361 0.10578361 0
4.0740004 1.4186093 0.079267621 0
4.0780001 1.4135695 0.078914076 0
4.0830002 1.4089102 0.078472137 0
3.8550003 1.2440566 0.098624289 0
3.8520002 1.2367096 0.09888944 0
3.8510003 1.2301131 0.098977834 0
3.8510003 1.2238882 0.098977834 0
3.8530002 1.2183955 0.098801076 0
3.8550003 1.2128958 0.098624289 0
3.8590002 1.2081139 0.098270744 0
3.8640003 1.2036784 0.097828835 0
3.8710003 1.1999427 0.097210109 0
4.277 1.2267923 0.061325163 0
4.2750001 1.219146 0.06150192 0
4.2750001 1.2121563 0.06150192 0
4.277 1.2058122 0.061325163 0
4.2800002 1.1997821 0.061059982 0
4.2840004 1.1940606 0.060706437 0
4.2910004 1.1892767 0.06008774 0
4.0599999 1.023514 0.080505043 0
4.0570002 1.0160408 0.080770195 0
4.0570002 1.0094442 0.080770195 0
4.0570002 1.0028477 0.080770195 0
4.0599999 0.99710619 0.080505043 0
4.0630002 0.99135387 0.080239892 0
4.0680003 0.98615348 0.079797953 0
3.9190001 1.9852324 0.086619973 0
3.9190001 1.9788847 0.086619973 0
3.9190001 1.972537 0.086619973 0
3.9180002 1.9656177 0.086710155 0
3.9180002 1.9592719 0.086710155 0
3.9180002 1.9529262 0.086710155 0
3.9180002 1.9465804 0.086710155 0
3.9180002 1.9402345 0.086710155 0
3.9180002 1.9338888 0.086710155 0
3.9170003 1.926982 0.086800337 0
3.9170003 1.920638 0.086800337 0
3.9170003 1.914294 0.086800337 0
3.9170003 1.90795 0.086800337 0
3.9170003 1.9016061 0.086800337 0
3.9170003 1.895262 0.086800337 0
3.9160004 1.888368 0.086890519 0
3.9160004 1.8820258 0.086890519 0
3.9160004 1.8756834 0.086890519 0
3.9160004 1.8693413 0.086890519 0
3.9160004 1.8629991 0.086890519 0
3.9150002 1.8561157 0.08698073 0
3.9150002 1.8497753 0.08698073 0
3.9150002 1.8434348 0.08698073 0
3.9150002 1.8370947 0.08698073 0
3.9150002 1.8307543 0.08698073 0
3.9150002 1.8244139 0.08698073 0
3.9140003 1.8175433 0.087070912 0
3.9140003 1.8112046 0.087070912 0
3.9140003 1.804866 0.087070912 0
3.9140003 1.7985274 0.087070912 0
3.9140003 1.7921889 0.087070912 0
3.9140003 1.7858503 0.087070912 0
3.9130003 1.7789922 0.087161094 0
3.9200003 1.7762792 0.086529762 0
3.9310002 1.7756046 0.085537672 0
3.9430003 1.7754045 0.084455371 0
3.9550002 1.7751608 0.083373129 0
3.9150002 1.5644579 0.08698073 0
3.9130003 1.557205 0.087161094 0
3.9110003 1.5499589 0.087341487 0
3.9110003 1.5436258 0.087341487 0
3.9110003 1.5372927 0.087341487 0
3.9130003 1.5318578 0.087161094 0
3.9140003 1.5259683 0.087070912 0
3.9170003 1.5209664 0.086800337 0
3.9200003 1.5159537 0.086529762 0
3.9230003 1.5109301 0.086259186 0
3.9280002 1.5067759 0.085808247 0
3.9330003 1.5026037 0.085357279 0
3.7360003 1.3982011 0.1031248 0
3.7320004 1.3904592 0.10348555 0
3.7300003 1.3835902 0.10366592 0
3.7290003 1.377156 0.10375613 0
3.7290003 1.3711511 0.10375613 0
3.7290003 1.3651463 0.10375613 0
3.7310002 1.3599856 0.10357577 0
3.7320004 1.3543974 0.10348555 0
3.7350004 1.3496426 0.10321498 0
3.7380002 1.3448768 0.1029444 0
3.7410002 1.3401003 0.10267386 0
3.7450004 1.3357261 0.10231307 0
3.7500002 1.3317487 0.10186216 0
3.7560003 1.3281627 0.10132101 0
3.7640002 1.3253704 0.1005995 0
3.7740002 1.323361 0.09969759 0
4.0740004 1.4186093 0.072640449 0
4.0780001 1.4135695 0.072279692 0
3.8550003 1.2440566 0.092392117 0
3.8520002 1.2367096 0.092662722 0
3.8510003 1.2301131 0.092752874 0
3.8510003 1.2238882 0.092752874 0
3.8530002 1.2183955 0.09257251 0
3.8550003 1.2128958 0.092392117 0
3.8590002 1.2081139 0.09203136 0
3.8640003 1.2036784 0.091580421 0
3.8710003 1.1999427 0.090949118 0
4.277 1.2267923 0.054331779 0
4.2750001 1.219146 0.054512173 0
4.2750001 1.2121563 0.054512173 0
4.277 1.2058122 0.054331779 0
4.2800002 1.1997821 0.054061234 0
4.2840004 1.1940606 0.053700447 0
4.2910004 1.1892767 0.053069115 0
4.0599999 1.023514 0.073903114 0
4.0570002 1.0160408 0.074173689 0
4.0570002 1.0094442 0.074173689 0
4.0570002 1.0028477 0.074173689 0
4.0599999 0.99710619 0.073903114 0
4.0630002 0.99135387 0.073632538 0
4.0680003 0.98615348 0.07318157 0
3.9190001 1.9852324 0.080272347 0
3.9190001 1.9788847 0.080272347 0
3.9190001 1.972537 0.080272347 0
3.9180002 1.9656177 0.080364376 0
3.9180002 1.9592719 0.080364376 0
3.9180002 1.9529262 0.080364376 0
3.9180002 1.9465804 0.080364376 0
3.9180002 1.9402345 0.080364376 0
3.9180002 1.9338888 0.080364376 0
3.9170003 1.926982 0.080456346 0
3.9170003 1.920638 0.080456346 0
3.9170003 1.914294 0.080456346 0
3.9170003 1.90795 0.080456346 0
3.9170003 1.9016061 0.080456346 0
3.9170003 1.895262 0.080456346 0
3.9160004 1.888368 0.080548346 0
3.9160004 1.8820258 0.080548346 0
3.9160004 1.8756834 0.080548346 0
3.9160004 1.8693413 0.080548346 0
3.9160004 1.8629991 0.080548346 0
3.9150002 1.8561157 0.080640346 0
3.9150002 1.8497753 0.080640346 0
3.9150002 1.8434348 0.080640346 0
3.9150002 1.8370947 0.080640346 0
3.9150002 1.8307543 0.080640346 0
3.9150002 1.8244139 0.080640346 0
3.9140003 1.8175433 0.080732346 0
3.9140003 1.8112046 0.080732346 0
3.9140003 1.804866 0.080732346 0
3.9140003 1.7985274 0.080732346 0
3.9140003 1.7921889 0.080732346 0
3.9140003 1.7858503 0.080732346 0
3.9130003 1.7789922 0.080824316 0
3.9200003 1.7762792 0.080180377 0
3.9310002 1.7756046 0.079168409 0
3.9430003 1.7754045 0.078064501 0
3.9550002 1.7751608 0.076960564 0
3.9150002 1.5644579 0.080640346 0
3.9130003 1.557205 0.080824316 0
3.9110003 1.5499589 0.081008315 0
3.9110003 1.5436258 0.081008315 0
3.9110003 1.5372927 0.081008315 0
3.9130003 1.5318578 0.080824316 0
3.9140003 1.5259683 0.080732346 0
3.9170003 1.5209664 0.080456346 0
3.9200003 1.5159537 0.080180377 0
3.9230003 1.5109301 0.079904348 0
3.9280002 1.5067759 0.079444408 0
3.9330003 1.5026037 0.078984439 0
3.7360003 1.3982011 0.097107291 0
3.7320004 1.3904592 0.09747529 0
3.7300003 1.3835902 0.09765926 0
3.7290003 1.377156 0.09775126 0
3.7290003 1.3711511 0.09775126 0
3.7290003 1.3651463 0.09775126 0
3.7310002 1.3599856 0.09756726 0
3.7320004 1.3543974 0.09747529 0
3.7350004 1.3496426 0.097199291 0
3.7380002 1.3448768 0.096923321 0
3.7410002 1.3401003 0.096647322 0
3.7450004 1.3357261 0.096279323 0
3.7500002 1.3317487 0.095819384 0
3.7560003 1.3281627 0.095267415 0
3.7640002 1.3253704 0.094531447 0
3.7740002 1.323361 0.093611509 0
4.0780001 1.4135695 0.065645248 0
3.8550003 1.2440566 0.086160004 0
3.8520002 1.2367096 0.086435974 0
3.8510003 1.2301131 0.086527973 0
3.8510003 1.2238882 0.086527973 0
3.8530002 1.2183955 0.086344004 0
3.8550003 1.2128958 0.086160004 0
3.8590002 1.2081139 0.085792005 0
3.8640003 1.2036784 0.085332036 0
3.8710003 1.1999427 0.084688067 0
4.0599999 1.023514 0.067301184 0
4.0570002 1.0160408 0.067577153 0
4.0570002 1.0094442 0.067577153 0
4.0570002 1.0028477 0.067577153 0
4.0599999 0.99710619 0.067301184 0
4.0630002 0.99135387 0.067025185 0
4.0680003 0.98615348 0.066565216 0
3.9190001 1.9852324 0.07392475 0
3.9190001 1.9788847 0.07392475 0
3.9190001 1.972537 0.07392475 0
3.9180002 1.9656177 0.074018568 0
3.9180002 1.9592719 0.074018568 0
3.9180002 1.9529262 0.074018568 0
3.9180002 1.9465804 0.074018568 0
3.9180002 1.9402345 0.074018568 0
3.9180002 1.9338888 0.074018568 0
3.9170003 1.926982 0.074112356 0
3.9170003 1.920638 0.074112356 0
3.9170003 1.914294 0.074112356 0
3.9170003 1.90795 0.074112356 0
3.9170003 1.9016061 0.074112356 0
3.9170003 1.895262 0.074112356 0
3.9160004 1.888368 0.074206144 0
3.9160004 1.8820258 0.074206144 0
3.9160004 1.8756834 0.074206144 0
3.9160004 1.8693413 0.074206144 0
3.9160004 1.8629991 0.074206144 0
3.9150002 1.8561157 0.074299961 0
3.9150002 1.8497753 0.074299961 0
3.9150002 1.8434348 0.074299961 0
3.9150002 1.8370947 0.074299961 0
3.9150002 1.8307543 0.074299961 0
3.9150002 1.8244139 0.074299961 0
3.9140003 1.8175433 0.074393749 0
3.9140003 1.8112046 0.074393749 0
3.9140003 1.804866 0.074393749 0
3.9140003 1.7985274 0.074393749 0
3.9140003 1.7921889 0.074393749 0
3.9140003 1.7858503 0.074393749 0
3.9130003 1.7789922 0.074487537 0
3.9200003 1.7762792 0.073830962 0
3.9310002 1.7756046 0.072799206 0
3.9430003 1.7754045 0.071673602 0
3.9550002 1.7751608 0.070548028 0
3.9130003 1.557205 0.074487537 0
3.9110003 1.5499589 0.074675143 0
3.9110003 1.5436258 0.074675143 0
3.9110003 1.5372927 0.074675143 0
3.9130003 1.5318578 0.074487537 0
3.9140003 1.5259683 0.074393749 0
3.9170003 1.5209664 0.074112356 0
3.9200003 1.5159537 0.073830962 0
3.9230003 1.5109301 0.073549539 0
3.9280002 1.5067759 0.07308057 0
3.7360003 1.3982011 0.091089785 0
3.7320004 1.3904592 0.091464996 0
3.7300003 1.3835902 0.091652602 0
3.7290003 1.377156 0.09174636 0
3.7290003 1.3711511 0.09174636 0
3.7290003 1.3651463 0.09174636 0
3.7310002 1.3599856 0.091558784 0
3.7320004 1.3543974 0.091464996 0
3.7350004 1.3496426 0.091183573 0
3.7380002 1.3448768 0.090902209 0
3.7410002 1.3401003 0.090620786 0
3.7450004 1.3357261 0.090245605 0
3.7500002 1.3317487 0.089776605 0
3.7560003 1.3281627 0.089213818 0
3.7640002 1.3253704 0.088463455 0
3.7740002 1.323361 0.087525487 0
3.8550003 1.2440566 0.079927832 0
3.8520002 1.2367096 0.080209225 0
3.8510003 1.2301131 0.080303013 0
3.8510003 1.2238882 0.080303013 0
3.8530002 1.2183955 0.080115438 0
3.8550003 1.2128958 0.079927832 0
3.8590002 1.2081139 0.079552621 0
3.8640003 1.2036784 0.079083651 0
3.8710003 1.1999427 0.078427076 0
4.0599999 1.023514 0.060699224 0
4.0570002 1.0160408 0.060980648 0
4.0570002 1.0094442 0.060980648 0
4.0570002 1.0028477 0.060980648 0
4.0599999 0.99710619 0.060699224 0
4.0630002 0.99135387 0.060417831 0
4.0680003 0.98615348 0.059948862 0
3.9190001 1.9852324 0.067577153 0
3.9190001 1.9788847 0.067577153 0
3.9190001 1.972537 0.067577153 0
3.9180002 1.9656177 0.067672759 0
3.9180002 1.9592719 0.067672759 0
3.9180002 1.9529262 0.067672759 0
3.9180002 1.9465804 0.067672759 0
3.9180002 1.9402345 0.067672759 0
3.9180002 1.9338888 0.067672759 0
3.9170003 1.926982 0.067768335 0
3.9170003 1.920638 0.067768335 0
3.9170003 1.914294 0.067768335 0
3.9170003 1.90795 0.067768335 0
3.9170003 1.9016061 0.067768335 0
3.9170003 1.895262 0.067768335 0
3.9160004 1.888368 0.067863971 0
3.9160004 1.8820258 0.067863971 0
3.9160004 1.8756834 0.067863971 0
3.9160004 1.8693413 0.067863971 0
3.9160004 1.8629991 0.067863971 0
3.9150002 1.8561157 0.067959577 0
3.9150002 1.8497753 0.067959577 0
3.9150002 1.8434348 0.067959577 0
3.9150002 1.8370947 0.067959577 0
3.9150002 1.8307543 0.067959577 0
3.9150002 1.8244139 0.067959577 0
3.9140003 1.8175433 0.068055183 0
3.9140003 1.8112046 0.068055183 0
3.9140003 1.804866 0.068055183 0
3.9140003 1.7985274 0.068055183 0
3.9140003 1.7921889 0.068055183 0
3.9140003 1.7858503 0.068055183 0
3.9130003 1.7789922 0.068150759 0
3.9200003 1.7762792 0.067481548 0
3.9310002 1.7756046 0.066429943 0
3.9430003 1.7754045 0.065282702 0
3.9550002 1.7751608 0.064135492 0
3.8900003 1.5467086 0.070349604 0
3.8940003 1.5422314 0.06996721 0
3.8980002 1.53774 0.069584787 0
3.9020002 1.533234 0.069202393 0
3.9060004 1.5287138 0.06881997 0
3.9110003 1.5246263 0.06834197 0
3.9150002 1.5200753 0.067959577 0
3.9190001 1.5155098 0.067577153 0
3.9230003 1.5109301 0.06719473 0
3.7360003 1.3982011 0.085072279 0
3.7320004 1.3904592 0.085454702 0
3.7300003 1.3835902 0.085645914 0
3.7290003 1.377156 0.08574149 0
3.7290003 1.3711511 0.08574149 0
3.7290003 1.3651463 0.08574149 0
3.7310002 1.3599856 0.085550308 0
3.7320004 1.3543974 0.085454702 0
3.7350004 1.3496426 0.085167855 0
3.7380002 1.3448768 0.084881097 0
3.7410002 1.3401003 0.084594309 0
3.7450004 1.3357261 0.084211856 0
3.7500002 1.3317487 0.083733886 0
3.7560003 1.3281627 0.083160251 0
3.7640002 1.3253704 0.082395434 0
3.7740002 1.323361 0.081439435 0
3.8550003 1.2440566 0.073695689 0
3.8520002 1.2367096 0.073982477 0
3.8510003 1.2301131 0.074078053 0
3.8510003 1.2238882 0.074078053 0
3.8530002 1.2183955 0.073886871 0
3.8550003 1.2128958 0.073695689 0
3.8590002 1.2081139 0.073313266 0
3.8640003 1.2036784 0.072835237 0
3.8710003 1.1999427 0.072166026 0
4.0599999 1.023514 0.054097295 0
4.0570002 1.0160408 0.054384112 0
4.0570002 1.0094442 0.054384112 0
4.0570002 1.0028477 0.054384112 0
4.0599999 0.99710619 0.054097295 0
4.0630002 0.99135387 0.053810477 0
4.0680003 0.98615348 0.053332478 0
3.9190001 1.9852324 0.061229557 0
3.9190001 1.9788847 0.061229557 0
3.9190001 1.972537 0.061229557 0
3.9180002 1.9656177 0.061326981 0
3.9180002 1.9592719 0.061326981 0
3.9180002 1.9529262 0.061326981 0
3.9180002 1.9465804 0.061326981 0
3.9180002 1.9402345 0.061326981 0
3.9180002 1.9338888 0.061326981 0
3.9170003 1.926982 0.061424345 0
3.9170003 1.920638 0.061424345 0
3.9170003 1.914294 0.061424345 0
3.9170003 1.90795 0.061424345 0
3.9170003 1.9016061 0.061424345 0
3.9170003 1.895262 0.061424345 0
3.9160004 1.888368 0.061521769 0
3.9160004 1.8820258 0.061521769 0
3.9160004 1.8756834 0.061521769 0
3.9160004 1.8693413 0.061521769 0
3.9160004 1.8629991 0.061521769 0
3.9150002 1.8561157 0.061619163 0
3.9150002 1.8497753 0.061619163 0
3.9150002 1.8434348 0.061619163 0
3.9150002 1.8370947 0.061619163 0
3.9150002 1.8307543 0.061619163 0
3.9150002 1.8244139 0.061619163 0
3.9140003 1.8175433 0.061716586 0
3.9140003 1.8112046 0.061716586 0
3.9140003 1.804866 0.061716586 0
3.9140003 1.7985274 0.061716586 0
3.9140003 1.7921889 0.061716586 0
3.9140003 1.7858503 0.061716586 0
3.9130003 1.7789922 0.06181398 0
3.9200003 1.7762792 0.061132133 0
3.9310002 1.7756046 0.06006068 0
3.9430003 1.7754045 0.058891833 0
3.9550002 1.7751608 0.057722956 0
3.8330002 1.6073904 0.069606453 0
3.8370004 1.6031172 0.069216788 0
3.8410003 1.5988296 0.068827182 0
3.8450003 1.5945275 0.068437546 0
3.8490002 1.590211 0.068047971 0
3.8530002 1.58588 0.067658335 0
3.8980002 1.53774 0.063275069 0
3.9020002 1.533234 0.062885463 0
3.9060004 1.5287138 0.062495798 0
3.9110003 1.5246263 0.062008798 0
3.9150002 1.5200753 0.061619163 0
3.9190001 1.5155098 0.061229557 0
3.7360003 1.3982011 0.079054773 0
3.7320004 1.3904592 0.079444408 0
3.7300003 1.3835902 0.079639226 0
3.7290003 1.377156 0.07973662 0
3.7290003 1.3711511 0.07973662 0
3.7290003 1.3651463 0.07973662 0
3.7310002 1.3599856 0.079541802 0
3.7320004 1.3543974 0.079444408 0
3.7350004 1.3496426 0.079152197 0
3.7380002 1.3448768 0.078859985 0
3.7410002 1.3401003 0.078567773 0
3.7450004 1.3357261 0.078178108 0
3.7500002 1.3317487 0.077691108 0
3.7560003 1.3281627 0.077106655 0
3.7640002 1.3253704 0.076327443 0
3.7740002 1.323361 0.075353384 0
3.8550003 1.2440566 0.067463517 0
3.8520002 1.2367096 0.067755729 0
3.8510003 1.2301131 0.067853153 0
3.8510003 1.2238882 0.067853153 0
3.8530002 1.2183955 0.067658335 0
3.8550003 1.2128958 0.067463517 0
3.8590002 1.2081139 0.067073882 0
3.8640003 1.2036784 0.066586852 0
3.8710003 1.1999427 0.065905035 0
3.9190001 1.9852324 0.05488196 0
3.9190001 1.9788847 0.05488196 0
3.9190001 1.972537 0.05488196 0
3.9180002 1.9656177 0.054981172 0
3.9180002 1.9592719 0.054981172 0
3.9180002 1.9529262 0.054981172 0
3.9180002 1.9465804 0.054981172 0
3.9180002 1.9402345 0.054981172 0
3.9180002 1.9338888 0.054981172 0
3.9170003 1.926982 0.055080354 0
3.9170003 1.920638 0.055080354 0
3.9170003 1.914294 0.055080354 0
3.9170003 1.90795 0.055080354 0
3.9170003 1.9016061 0.055080354 0
3.9170003 1.895262 0.055080354 0
3.9160004 1.888368 0.055179566 0
3.9160004 1.8820258 0.055179566 0
3.9160004 1.8756834 0.055179566 0
3.9160004 1.8693413 0.055179566 0
3.9160004 1.8629991 0.055179566 0
3.9150002 1.8561157 0.055278778 0
3.9150002 1.8497753 0.055278778 0
3.9150002 1.8434348 0.055278778 0
3.9150002 1.8370947 0.055278778 0
3.9150002 1.8307543 0.055278778 0
3.9150002 1.8244139 0.055278778 0
3.9140003 1.8175433 0.05537802 0
3.9140003 1.8112046 0.05537802 0
3.9140003 1.804866 0.05537802 0
3.9140003 1.7985274 0.05537802 0
3.9140003 1.7921889 0.05537802 0
3.9140003 1.7858503 0.05537802 0
3.9130003 1.7789922 0.055477202 0
3.9200003 1.7762792 0.054782748 0
3.9310002 1.7756046 0.053691447 0
3.9430003 1.7754045 0.052500933 0
3.9550002 1.7751608 0.05131042 0
3.8250003 1.6158937 0.064207613 0
3.8290002 1.6116493 0.063810825 0
3.8330002 1.6073904 0.063413978 0
3.8370004 1.6031172 0.0630171 0
3.8410003 1.5988296 0.062620282 0
3.8450003 1.5945275 0.062223464 0
3.8490002 1.590211 0.061826617 0
3.8530002 1.58588 0.061429769 0
3.8570004 1.5815346 0.061032921 0
3.7320004 1.3904592 0.073434114 0
3.7300003 1.3835902 0.073632538 0
3.7290003 1.377156 0.07373172 0
3.7290003 1.3711511 0.07373172 0
3.7290003 1.3651463 0.07373172 0
3.7310002 1.3599856 0.073533326 0
3.7320004 1.3543974 0.073434114 0
3.7350004 1.3496426 0.073136479 0
3.7380002 1.3448768 0.072838873 0
3.7410002 1.3401003 0.072541237 0
3.7450004 1.3357261 0.072144359 0
3.7490003 1.3313375 0.071747571 0
3.7530003 1.3269343 0.071350724 0
3.7570002 1.3225168 0.070953876 0
3.7610002 1.3180848 0.070557028 0
3.7660003 1.3140424 0.070060998 0
3.7700002 1.3095798 0.06966415 0
3.8550003 1.2440566 0.061231345 0
3.8520002 1.2367096 0.061529011 0
3.8510003 1.2301131 0.061628193 0
3.8510003 1.2238882 0.061628193 0
3.8530002 1.2183955 0.061429769 0
3.8550003 1.2128958 0.061231345 0
