# .PCD v0.7 - Point Cloud Data file format
VERSION 0.7
FIELDS x y z intensity
SIZE 4 4 4 4
TYPE F F F F
COUNT 1 1 1 1
WIDTH 1458
HEIGHT 1
VIEWPOINT 0 0 0 1 0 0 0
POINTS 1458
DATA ascii
4.9740005 2.2559228 0.49475682 0
4.9760003 2.2486749 0.49479651 0
4.9780002 2.24142 0.49483618 0
4.9800005 2.234158 0.49487588 0
4.9820004 2.2268887 0.49491554 0
4.9840002 2.2196119 0.49495524 0
4.9860005 2.2123284 0.49499494 0
4.9880004 2.2050371 0.49503461 0
4.9900002 2.1977389 0.49507427 0
4.9910002 2.1899467 0.49509412 0
4.9930005 2.1826358 0.49513382 0
4.9950004 2.1753178 0.49517351 0
4.9970002 2.1679924 0.49521318 0
5.0190005 2.1285973 0.4956497 0
5.0150003 2.1183894 0.49557033 0
5.0140004 2.1095979 0.49555051 0
5.0140004 2.101275 0.49555051 0
5.0150003 2.0934157 0.49557033 0
5.0180001 2.0864763 0.49562985 0
5.0210004 2.0795264 0.49568939 0
5.0260005 2.073482 0.4957886 0
5.0320005 2.0678759 0.49590766 0
5.0390005 2.0627024 0.49604654 0
5.0490003 2.058862 0.49624497 0
4.9350004 2.4408023 0.48580271 0
4.9320002 2.4309821 0.48574859 0
4.9310002 2.4222627 0.48573056 0
4.9310002 2.4140897 0.48573056 0
4.9330001 2.4069986 0.48576665 0
4.9350004 2.3999009 0.48580271 0
4.9370003 2.3927956 0.4858388 0
4.9390001 2.3856831 0.48587486 0
4.9400005 2.3780296 0.48589292 0
4.9420004 2.3709047 0.48592898 0
4.9440002 2.3637724 0.48596507 0
4.9460001 2.3566327 0.48600113 0
4.9480004 2.3494864 0.48603722 0
4.9500003 2.3423324 0.48607329 0
4.9520001 2.335171 0.48610938 0
4.9540005 2.3280029 0.48614544 0
4.9560003 2.3208272 0.4861815 0
4.9580002 2.3136444 0.48621759 0
4.9600005 2.3064547 0.48625368 0
4.9610004 2.2987435 0.48627171 0
4.9630003 2.2915406 0.4863078 0
4.9650002 2.2843308 0.48634386 0
4.9670005 2.2771139 0.48637995 0
4.9690003 2.2698896 0.48641601 0
4.9710002 2.2626579 0.48645207 0
4.9730005 2.2554195 0.48648816 0
4.9750004 2.2481735 0.48652425 0
4.9770002 2.2409203 0.48656031 0
4.9790001 2.23366 0.48659641 0
4.9810004 2.2263927 0.48663247 0
4.9830003 2.2191179 0.48666853 0
4.9850001 2.2118356 0.48670462 0
4.9860005 2.204056 0.48672265 0
4.9880004 2.1967614 0.48675874 0
4.9900002 2.1894596 0.48679483 0
4.9920001 2.1821506 0.48683089 0
4.9940004 2.1748345 0.48686695 0
4.9960003 2.1675107 0.48690304 0
5.0190005 2.1285973 0.48731792 0
5.0150003 2.1183894 0.48724577 0
5.0140004 2.1095979 0.48722774 0
5.0140004 2.101275 0.48722774 0
5.0150003 2.0934157 0.48724577 0
5.0180001 2.0864763 0.48729986 0
5.0210004 2.0795264 0.48735398 0
5.0260005 2.073482 0.48744419 0
5.0320005 2.0678759 0.4875524 0
5.0390005 2.0627024 0.48767868 0
5.0490003 2.058862 0.48785907 0
4.9360003 2.4413507 0.47763866 0
4.9320002 2.4309821 0.47757375 0
4.9310002 2.4222627 0.47755751 0
4.9310002 2.4140897 0.47755751 0
4.9330001 2.4069986 0.47758996 0
4.9350004 2.3999009 0.47762245 0
4.9370003 2.3927956 0.4776549 0
4.9390001 2.3856831 0.47768739 0
4.9410005 2.3785636 0.47771984 0
4.9430003 2.3714368 0.47775233 0
4.9440002 2.3637724 0.47776854 0
4.9460001 2.3566327 0.47780102 0
4.9480004 2.3494864 0.47783351 0
4.9500003 2.3423324 0.47786596 0
4.9520001 2.335171 0.47789842 0
4.9540005 2.3280029 0.4779309 0
4.9560003 2.3208272 0.47796336 0
4.9580002 2.3136444 0.47799581 0
4.9600005 2.3064547 0.4780283 0
4.9620004 2.2992573 0.47806078 0
4.9630003 2.2915406 0.47807699 0
4.9650002 2.2843308 0.47810948 0
4.9670005 2.2771139 0.47814196 0
4.9690003 2.2698896 0.47817442 0
4.9710002 2.2626579 0.47820687 0
4.9730005 2.2554195 0.47823936 0
4.9750004 2.2481735 0.47827181 0
4.9770002 2.2409203 0.47830427 0
4.9790001 2.23366 0.47833675 0
4.9810004 2.2263927 0.47836924 0
4.9830003 2.2191179 0.47840169 0
4.9850001 2.2118356 0.47843415 0
4.9870005 2.2045467 0.47846663 0
4.9880004 2.1967614 0.47848287 0
4.9900002 2.1894596 0.47851533 0
4.9920001 2.1821506 0.47854781 0
4.9940004 2.1748345 0.47858027 0
4.9960003 2.1675107 0.47861272 0
5.0190005 2.1285973 0.47898614 0
5.0150003 2.1183894 0.47892118 0
5.0140004 2.1095979 0.47890496 0
5.0140004 2.101275 0.47890496 0
5.0150003 2.0934157 0.47892118 0
5.0180001 2.0864763 0.47896987 0
5.0210004 2.0795264 0.4790186 0
5.0260005 2.073482 0.47909975 0
5.0320005 2.0678759 0.47919717 0
5.0390005 2.0627024 0.47931081 0
5.0490003 2.058862 0.47947317 0
4.9360003 2.4413507 0.46945661 0
4.9320002 2.4309821 0.46939889 0
4.9310002 2.4222627 0.46938446 0
4.9310002 2.4140897 0.46938446 0
4.9330001 2.4069986 0.46941331 0
4.9350004 2.3999009 0.46944219 0
4.9380002 2.393333 0.46948546 0
4.9400005 2.386219 0.46951434 0
4.9420004 2.3790977 0.46954319 0
4.9440002 2.371969 0.46957207 0
4.9460001 2.3648329 0.46960092 0
4.9480004 2.3576899 0.46962976 0
4.9500003 2.3505397 0.46965864 0
4.9520001 2.3433819 0.46968749 0
4.9530005 2.3356943 0.46970195 0
4.9550004 2.3285244 0.46973079 0
4.9570003 2.3213468 0.46975964 0
4.9590001 2.314162 0.46978849 0
4.9610004 2.3069704 0.46981737 0
4.9630003 2.2997715 0.46984622 0
4.9650002 2.2925651 0.4698751 0
4.9670005 2.2853518 0.46990395 0
4.9690003 2.278131 0.46993279 0
4.9710002 2.2709033 0.46996167 0
4.9720001 2.2631631 0.4699761 0
4.9740005 2.2559228 0.47000498 0
4.9760003 2.2486749 0.47003382 0
4.9780002 2.24142 0.47006267 0
4.9800005 2.234158 0.47009155 0
4.9820004 2.2268887 0.4701204 0
4.9840002 2.2196119 0.47014928 0
4.9860005 2.2123284 0.47017813 0
4.9880004 2.2050371 0.47020698 0
4.9900002 2.1977389 0.47023585 0
4.9920001 2.1904335 0.4702647 0
4.9940004 2.1831212 0.47029358 0
4.9960003 2.175801 0.47032243 0
4.9970002 2.1679924 0.47033685 0
5.0190005 2.1285973 0.47065434 0
5.0150003 2.1183894 0.47059661 0
5.0140004 2.1095979 0.47058219 0
5.0140004 2.101275 0.47058219 0
5.0150003 2.0934157 0.47059661 0
5.0180001 2.0864763 0.47063988 0
5.0210004 2.0795264 0.47068319 0
5.0260005 2.073482 0.47075534 0
5.0320005 2.0678759 0.47084194 0
5.0390005 2.0627024 0.47094294 0
5.0490003 2.058862 0.47108725 0
4.9360003 2.4413507 0.46127453 0
4.9320002 2.4309821 0.46122402 0
4.9310002 2.4222627 0.46121138 0
4.9310002 2.4140897 0.46121138 0
4.9330001 2.4069986 0.46123666 0
4.9350004 2.3999009 0.4612619 0
4.9390001 2.3938706 0.46131241 0
4.9430003 2.3878262 0.46136293 0
4.9450002 2.3806994 0.46138817 0
4.9470005 2.3735652 0.46141344 0
4.9490004 2.3664241 0.46143869 0
4.9510002 2.3592753 0.46146393 0
4.9520001 2.3515928 0.46147656 0
4.9540005 2.3444321 0.46150181 0
4.9560003 2.3372636 0.46152708 0
4.9580002 2.3300881 0.46155232 0
4.9600005 2.3229055 0.46157756 0
4.9620004 2.3157153 0.46160284 0
4.9640002 2.3085182 0.46162808 0
4.9660001 2.3013134 0.46165332 0
4.9680004 2.2941022 0.46167859 0
4.9690003 2.2863729 0.4616912 0
4.9710002 2.2791483 0.46171647 0
4.9730005 2.2719171 0.46174172 0
4.9750004 2.2646785 0.46176696 0
4.9770002 2.2574325 0.46179223 0
4.9790001 2.2501793 0.46181747 0
4.9810004 2.2429192 0.46184272 0
4.9830003 2.2356515 0.46186799 0
4.9850001 2.2283766 0.46189323 0
4.9870005 2.2210948 0.4619185 0
4.9890003 2.2138057 0.46194375 0
4.9910002 2.2065091 0.46196899 0
4.9920001 2.1987166 0.46198162 0
4.9940004 2.1914077 0.46200687 0
4.9960003 2.1840916 0.46203214 0
4.9980001 2.1767678 0.46205738 0
5.0000005 2.1694374 0.46208265 0
5.0190005 2.1285973 0.46232256 0
5.0150003 2.1183894 0.46227205 0
5.0140004 2.1095979 0.46225941 0
5.0140004 2.101275 0.46225941 0
5.0150003 2.0934157 0.46227205 0
5.0180001 2.0864763 0.46230993 0
5.0210004 2.0795264 0.46234781 0
5.0260005 2.073482 0.46241093 0
5.0320005 2.0678759 0.46248668 0
5.0390005 2.0627024 0.46257508 0
5.0490003 2.058862 0.46270135 0
4.9360003 2.4413507 0.45309246 0
4.9320002 2.4309821 0.45304918 0
4.9310002 2.4222627 0.45303833 0
4.9310002 2.4140897 0.45303833 0
4.9330001 2.4069986 0.45305997 0
4.9350004 2.3999009 0.45308164 0
4.9390001 2.3938706 0.45312494 0
4.9430003 2.3878262 0.45316821 0
4.9480004 2.3823011 0.45322233 0
4.9510002 2.3756938 0.45325479 0
4.9530005 2.3685453 0.45327646 0
4.9550004 2.3613896 0.45329809 0
4.9570003 2.3542266 0.45331973 0
4.9590001 2.3470562 0.45334139 0
4.9610004 2.339879 0.45336303 0
4.9630003 2.3326945 0.45338467 0
4.9640002 2.3249831 0.45339549 0
4.9660001 2.317786 0.45341715 0
4.9680004 2.3105817 0.45343879 0
4.9700003 2.30337 0.45346043 0
4.9720001 2.2961512 0.45348209 0
4.9740005 2.2889252 0.45350373 0
4.9760003 2.2816918 0.45352536 0
4.9780002 2.2744513 0.453547 0
4.9800005 2.2672038 0.45356867 0
4.9820004 2.2599487 0.4535903 0
4.9830003 2.2521853 0.45360112 0
4.9850001 2.2449176 0.45362279 0
4.9870005 2.237643 0.45364442 0
4.9890003 2.230361 0.45366606 0
4.9910002 2.2230718 0.45368773 0
4.9930005 2.2157755 0.45370936 0
4.9950004 2.2084718 0.453731 0
4.9970002 2.2011607 0.45375264 0
4.9990005 2.1938429 0.4537743 0
5.0010004 2.1865175 0.45379594 0
5.0030003 2.1791849 0.45381758 0
5.0150003 2.1183894 0.45394745 0
5.0140004 2.1095979 0.45393664 0
5.0140004 2.101275 0.45393664 0
5.0150003 2.0934157 0.45394745 0
5.0180001 2.0864763 0.45397994 0
5.0210004 2.0795264 0.45401239 0
5.0260005 2.073482 0.45406651 0
5.0320005 2.0678759 0.45413145 0
5.0390005 2.0627024 0.45420721 0
5.0370002 1.9112364 0.45418558 0
4.9360003 2.4413507 0.44491038 0
4.9320002 2.4309821 0.44487432 0
4.9310002 2.4222627 0.44486529 0
4.9310002 2.4140897 0.44486529 0
4.9330001 2.4069986 0.44488332 0
4.9350004 2.3999009 0.44490138 0
4.9390001 2.3938706 0.44493744 0
4.9430003 2.3878262 0.44497353 0
4.9480004 2.3823011 0.44501862 0
4.9550004 2.3778222 0.44508174 0
4.9600005 2.3722577 0.44512683 0
4.9620004 2.3650892 0.44514489 0
4.9640002 2.3579135 0.44516292 0
4.9660001 2.3507309 0.44518095 0
4.9680004 2.3435409 0.44519898 0
4.9700003 2.3363438 0.44521704 0
4.9710002 2.3286197 0.44522604 0
4.9730005 2.3214102 0.44524407 0
4.9750004 2.314193 0.44526213 0
4.9770002 2.3069687 0.44528016 0
4.9790001 2.2997372 0.44529819 0
4.9810004 2.2924986 0.44531626 0
4.9830003 2.2852526 0.44533429 0
4.9850001 2.2779994 0.44535232 0
4.9870005 2.2707393 0.44537035 0
4.9890003 2.2634716 0.44538841 0
4.9900002 2.2556953 0.44539741 0
4.9920001 2.2484152 0.44541544 0
4.9940004 2.241128 0.4454335 0
4.9960003 2.2338331 0.44545153 0
4.9980001 2.2265315 0.44546956 0
5.0000005 2.2192223 0.44548762 0
5.0020003 2.211906 0.44550565 0
5.0040002 2.2045827 0.44552368 0
5.0060005 2.197252 0.44554171 0
5.0150003 2.1183894 0.44562289 0
5.0140004 2.1095979 0.44561386 0
5.0140004 2.101275 0.44561386 0
5.0150003 2.0934157 0.44562289 0
5.0180001 2.0864763 0.44564995 0
5.0210004 2.0795264 0.44567701 0
5.0260005 2.073482 0.4457221 0
5.0320005 2.0678759 0.44577622 0
5.0390005 2.0627024 0.44583935 0
5.0350003 1.9187531 0.44580328 0
5.0370002 1.9112364 0.44582132 0
4.9360003 2.4413507 0.4367283 0
4.9320002 2.4309821 0.43669945 0
4.9310002 2.4222627 0.43669224 0
4.9310002 2.4140897 0.43669224 0
4.9330001 2.4069986 0.43670666 0
4.9350004 2.3999009 0.43672109 0
4.9390001 2.3938706 0.43674996 0
4.9430003 2.3878262 0.43677881 0
4.9480004 2.3823011 0.4368149 0
4.9550004 2.3778222 0.43686539 0
4.9630003 2.3738484 0.43692312 0
4.9730005 2.370903 0.43699527 0
4.9750004 2.3637073 0.43700969 0
4.9770002 2.3565047 0.43702415 0
5.0150003 2.1183894 0.4372983 0
5.0140004 2.1095979 0.43729109 0
5.0140004 2.101275 0.43729109 0
5.0150003 2.0934157 0.4372983 0
5.0180001 2.0864763 0.43731996 0
5.0210004 2.0795264 0.4373416 0
5.0260005 2.073482 0.43737769 0
5.0320005 2.0678759 0.43742096 0
5.0330005 1.9262623 0.43742818 0
5.0350003 1.9187531 0.43744263 0
5.0370002 1.9112364 0.43745705 0
5.0390005 1.9037129 0.43747148 0
4.9360003 2.4413507 0.42854625 0
4.9320002 2.4309821 0.42852458 0
4.9310002 2.4222627 0.42851919 0
4.9310002 2.4140897 0.42851919 0
4.9330001 2.4069986 0.42853001 0
4.9350004 2.3999009 0.42854083 0
4.9390001 2.3938706 0.42856246 0
4.9430003 2.3878262 0.42858413 0
4.9480004 2.3823011 0.42861116 0
4.9550004 2.3778222 0.42864907 0
4.9630003 2.3738484 0.42869234 0
4.9730005 2.370903 0.42874646 0
5.0150003 2.1183894 0.42897373 0
5.0140004 2.1095979 0.42896834 0
5.0140004 2.101275 0.42896834 0
5.0150003 2.0934157 0.42897373 0
5.0180001 2.0864763 0.42898998 0
5.0210004 2.0795264 0.42900622 0
5.0260005 2.073482 0.42903328 0
5.0320005 2.0678759 0.42906573 0
5.0330005 1.9262623 0.42907116 0
5.0350003 1.9187531 0.42908198 0
5.0370002 1.9112364 0.42909279 0
5.0390005 1.9037129 0.42910361 0
4.9360003 2.4413507 0.42036417 0
4.9320002 2.4309821 0.42034972 0
4.9310002 2.4222627 0.42034611 0
4.9310002 2.4140897 0.42034611 0
4.9330001 2.4069986 0.42035335 0
4.9350004 2.3999009 0.42036057 0
4.9390001 2.3938706 0.42037499 0
4.9430003 2.3878262 0.42038941 0
4.9480004 2.3823011 0.42040744 0
4.9550004 2.3778222 0.42043272 0
4.9630003 2.3738484 0.42046157 0
4.9730005 2.370903 0.42049766 0
4.9840002 2.1121194 0.42053732 0
4.9860005 2.1047888 0.42054453 0
4.9880004 2.097451 0.42055175 0
4.9900002 2.0901058 0.42055899 0
4.9920001 2.0827534 0.4205662 0
4.9940004 2.0753939 0.42057341 0
4.9960003 2.0680273 0.42058063 0
4.9980001 2.060653 0.42058784 0
5.0280004 1.9491779 0.42069605 0
5.0290003 1.9412591 0.42069966 0
5.0310001 1.9337642 0.4207069 0
5.0330005 1.9262623 0.42071411 0
5.0350003 1.9187531 0.42072132 0
5.0370002 1.9112364 0.42072853 0
5.0390005 1.9037129 0.42073575 0
4.9360003 2.4413507 0.41218209 0
4.9320002 2.4309821 0.41217488 0
4.9310002 2.4222627 0.41217306 0
4.9310002 2.4140897 0.41217306 0
4.9330001 2.4069986 0.41217667 0
4.9350004 2.3999009 0.41218027 0
4.9390001 2.3938706 0.41218749 0
4.9430003 2.3878262 0.41219473 0
4.9480004 2.3823011 0.41220373 0
4.9550004 2.3778222 0.41221637 0
4.9630003 2.3738484 0.41223079 0
4.9730005 2.370903 0.41224882 0
4.9520001 2.23664 0.41221094 0
4.9540005 2.2294285 0.41221455 0
4.9560003 2.2222095 0.41221815 0
4.9570003 2.2144873 0.41221997 0
4.9860005 2.1047888 0.41227227 0
4.9880004 2.097451 0.41227588 0
4.9900002 2.0901058 0.41227949 0
4.9920001 2.0827534 0.41228309 0
4.9940004 2.0753939 0.4122867 0
4.9960003 2.0680273 0.4122903 0
4.9980001 2.060653 0.41229391 0
5.0260005 1.9566603 0.41234443 0
5.0280004 1.9491779 0.41234803 0
5.0290003 1.9412591 0.41234985 0
5.0310001 1.9337642 0.41235346 0
5.0330005 1.9262623 0.41235706 0
5.0350003 1.9187531 0.41236067 0
5.0370002 1.9112364 0.41236427 0
5.0390005 1.9037129 0.41236788 0
4.9360003 2.4413507 0.40400001 0
4.9320002 2.4309821 0.40400001 0
4.9310002 2.4222627 0.40400001 0
4.9310002 2.4140897 0.40400001 0
4.9330001 2.4069986 0.40400001 0
4.9350004 2.3999009 0.40400001 0
4.9390001 2.3938706 0.40400001 0
4.9430003 2.3878262 0.40400001 0
4.9480004 2.3823011 0.40400001 0
4.9550004 2.3778222 0.40400001 0
4.9630003 2.3738484 0.40400001 0
4.9730005 2.370903 0.40400001 0
4.9500003 2.2438443 0.40400001 0
4.9520001 2.23664 0.40400001 0
4.9540005 2.2294285 0.40400001 0
4.9560003 2.2222095 0.40400001 0
4.9570003 2.2144873 0.40400001 0
4.9590001 2.2072558 0.40400001 0
5.0240002 1.9641349 0.40400001 0
5.0260005 1.9566603 0.40400001 0
5.0280004 1.9491779 0.40400001 0
5.0290003 1.9412591 0.40400001 0
5.0310001 1.9337642 0.40400001 0
5.0330005 1.9262623 0.40400001 0
5.0350003 1.9187531 0.40400001 0
5.0370002 1.9112364 0.40400001 0
5.0390005 1.9037129 0.40400001 0
4.9360003 2.4413507 0.39581794 0
4.9320002 2.4309821 0.39582515 0
4.9310002 2.4222627 0.39582697 0
4.9310002 2.4140897 0.39582697 0
4.9330001 2.4069986 0.39582336 0
4.9350004 2.3999009 0.39581975 0
4.9390001 2.3938706 0.39581254 0
4.9430003 2.3878262 0.3958053 0
4.9480004 2.3823011 0.3957963 0
4.9550004 2.3778222 0.39578366 0
4.9630003 2.3738484 0.39576924 0
4.9730005 2.370903 0.39575121 0
4.9500003 2.2438443 0.39579269 0
4.9520001 2.23664 0.39578909 0
4.9540005 2.2294285 0.39578548 0
4.9560003 2.2222095 0.39578187 0
4.9570003 2.2144873 0.39578006 0
4.9590001 2.2072558 0.39577645 0
5.0240002 1.9641349 0.39565921 0
5.0260005 1.9566603 0.3956556 0
5.0280004 1.9491779 0.395652 0
5.0290003 1.9412591 0.39565018 0
5.0310001 1.9337642 0.39564657 0
5.0330005 1.9262623 0.39564297 0
5.0350003 1.9187531 0.39563936 0
5.0370002 1.9112364 0.39563575 0
5.0390005 1.9037129 0.39563215 0
4.9360003 2.4413507 0.38763586 0
4.9320002 2.4309821 0.38765031 0
4.9310002 2.4222627 0.38765392 0
4.9310002 2.4140897 0.38765392 0
4.9330001 2.4069986 0.38764668 0
4.9350004 2.3999009 0.38763946 0
4.9390001 2.3938706 0.38762504 0
4.9430003 2.3878262 0.38761061 0
4.9480004 2.3823011 0.38759258 0
4.9550004 2.3778222 0.38756731 0
4.9630003 2.3738484 0.38753846 0
4.9730005 2.370903 0.38750237 0
5.1930003 2.443948 0.38670871 0
4.9730005 2.2554195 0.38750237 0
4.9710002 2.2461677 0.38750958 0
4.9720001 2.2384219 0.38750598 0
4.9740005 2.2311709 0.38749877 0
4.9790001 2.2254002 0.38748074 0
4.9850001 2.2201061 0.3874591 0
5.0480003 1.9578001 0.38723183 0
5.0480003 1.9494158 0.38723183 0
5.0510001 1.9423143 0.38722098 0
5.0330005 1.9262623 0.38728592 0
5.0350003 1.9187531 0.38727871 0
5.0370002 1.9112364 0.38727149 0
5.0390005 1.9037129 0.38726428 0
4.9360003 2.4413507 0.37945378 0
4.9320002 2.4309821 0.37947544 0
4.9310002 2.4222627 0.37948084 0
4.9310002 2.4140897 0.37948084 0
4.9330001 2.4069986 0.37947002 0
4.9350004 2.3999009 0.3794592 0
4.9390001 2.3938706 0.37943757 0
4.9430003 2.3878262 0.3794159 0
4.9480004 2.3823011 0.37938887 0
4.9550004 2.3778222 0.37935096 0
4.9630003 2.3738484 0.37930769 0
4.9730005 2.370903 0.37925357 0
5.1870003 2.4494658 0.37809554 0
5.1930003 2.443948 0.37806305 0
5.2010002 2.4394438 0.37801975 0
4.9730005 2.2554195 0.37925357 0
4.9710002 2.2461677 0.37926438 0
4.9720001 2.2384219 0.37925899 0
4.9740005 2.2311709 0.37924814 0
4.9790001 2.2254002 0.37922111 0
4.9850001 2.2201061 0.37918863 0
5.0480003 1.9578001 0.37884772 0
5.0480003 1.9494158 0.37884772 0
5.0510001 1.9423143 0.37883148 0
5.0330005 1.9262623 0.37892887 0
5.0350003 1.9187531 0.37891805 0
5.0370002 1.9112364 0.37890723 0
4.9360003 2.4413507 0.37127173 0
4.9320002 2.4309821 0.37130058 0
4.9310002 2.4222627 0.37130779 0
4.9310002 2.4140897 0.37130779 0
4.9330001 2.4069986 0.37129337 0
4.9350004 2.3999009 0.37127894 0
4.9390001 2.3938706 0.37125006 0
4.9430003 2.3878262 0.37122121 0
4.9480004 2.3823011 0.37118512 0
4.9550004 2.3778222 0.37113464 0
4.9630003 2.3738484 0.37107691 0
4.9730005 2.370903 0.37100476 0
5.1870003 2.4494658 0.3694607 0
5.1930003 2.443948 0.3694174 0
5.2010002 2.4394438 0.36935967 0
4.9730005 2.2554195 0.37100476 0
4.9710002 2.2461677 0.37101918 0
4.9720001 2.2384219 0.37101197 0
4.9740005 2.2311709 0.37099755 0
4.9790001 2.2254002 0.37096146 0
4.9850001 2.2201061 0.37091818 0
5.0480003 1.9578001 0.37046361 0
5.0480003 1.9494158 0.37046361 0
5.0510001 1.9423143 0.37044197 0
5.0330005 1.9262623 0.37057185 0
5.0350003 1.9187531 0.3705574 0
4.9360003 2.4413507 0.36308965 0
4.9320002 2.4309821 0.36312571 0
4.9310002 2.4222627 0.36313474 0
4.9310002 2.4140897 0.36313474 0
4.9330001 2.4069986 0.36311671 0
4.9350004 2.3999009 0.36309865 0
4.9390001 2.3938706 0.36306259 0
4.9430003 2.3878262 0.3630265 0
4.9480004 2.3823011 0.36298141 0
4.9550004 2.3778222 0.36291829 0
4.9630003 2.3738484 0.36284614 0
4.9730005 2.370903 0.36275595 0
5.1870003 2.4494658 0.36082587 0
5.1930003 2.443948 0.36077175 0
5.2010002 2.4394438 0.36069959 0
4.9730005 2.2554195 0.36275595 0
4.9710002 2.2461677 0.36277398 0
4.9720001 2.2384219 0.36276495 0
4.9740005 2.2311709 0.36274692 0
4.9790001 2.2254002 0.36270183 0
4.9850001 2.2201061 0.36264771 0
4.9930005 2.2157755 0.36257556 0
5.0480003 1.9578001 0.3620795 0
5.0480003 1.9494158 0.3620795 0
5.0510001 1.9423143 0.36205244 0
5.0330005 1.9262623 0.3622148 0
4.9360003 2.4413507 0.35490757 0
4.9320002 2.4309821 0.35495085 0
4.9310002 2.4222627 0.35496169 0
4.9310002 2.4140897 0.35496169 0
4.9330001 2.4069986 0.35494006 0
4.9350004 2.3999009 0.35491839 0
4.9390001 2.3938706 0.35487509 0
4.9430003 2.3878262 0.35483181 0
4.9480004 2.3823011 0.35477769 0
4.9550004 2.3778222 0.35470194 0
4.9630003 2.3738484 0.35461536 0
4.9730005 2.370903 0.35450712 0
5.1870003 2.4494658 0.35219103 0
5.1930003 2.443948 0.35212609 0
5.2010002 2.4394438 0.35203952 0
4.9730005 2.2554195 0.35450712 0
4.9710002 2.2461677 0.35452878 0
4.9720001 2.2384219 0.35451794 0
4.9740005 2.2311709 0.3544963 0
4.9790001 2.2254002 0.35444218 0
4.9850001 2.2201061 0.35437724 0
4.9930005 2.2157755 0.35429066 0
5.0480003 1.9578001 0.35369542 0
5.0480003 1.9494158 0.35369542 0
5.0510001 1.9423143 0.35366294 0
5.0550003 1.9356277 0.35361966 0
5.0610003 1.9297743 0.35355473 0
4.9360003 2.4413507 0.34672549 0
4.9320002 2.4309821 0.34677601 0
4.9310002 2.4222627 0.34678864 0
4.9310002 2.4140897 0.34678864 0
4.9330001 2.4069986 0.34676337 0
4.9350004 2.3999009 0.34673813 0
4.9390001 2.3938706 0.34668761 0
4.9430003 2.3878262 0.3466371 0
4.9480004 2.3823011 0.34657398 0
4.9550004 2.3778222 0.34648558 0
4.9630003 2.3738484 0.34638458 0
4.9730005 2.370903 0.34625831 0
5.1870003 2.4494658 0.3435562 0
5.1930003 2.443948 0.34348044 0
5.2010002 2.4394438 0.34337944 0
4.9730005 2.2554195 0.34625831 0
4.9710002 2.2461677 0.34628356 0
4.9720001 2.2384219 0.34627092 0
4.9740005 2.2311709 0.34624568 0
4.9790001 2.2254002 0.34618255 0
4.9850001 2.2201061 0.3461068 0
4.9930005 2.2157755 0.34600577 0
5.2660003 2.3063245 0.34255871 0
5.0480003 1.9578001 0.34531131 0
5.0480003 1.9494158 0.34531131 0
5.0510001 1.9423143 0.34527344 0
5.0550003 1.9356277 0.34522292 0
5.0610003 1.9297743 0.34514716 0
4.9360003 2.4413507 0.33854342 0
4.9320002 2.4309821 0.33860114 0
4.9310002 2.4222627 0.33861557 0
4.9310002 2.4140897 0.33861557 0
4.9330001 2.4069986 0.33858672 0
4.9350004 2.3999009 0.33855784 0
4.9390001 2.3938706 0.33850014 0
4.9430003 2.3878262 0.33844241 0
4.9480004 2.3823011 0.33837026 0
4.9550004 2.3778222 0.33826923 0
4.9630003 2.3738484 0.33815381 0
4.9730005 2.370903 0.33800948 0
5.1870003 2.4494658 0.33492136 0
5.1930003 2.443948 0.33483478 0
5.2010002 2.4394438 0.33471936 0
4.9730005 2.2554195 0.33800948 0
4.9710002 2.2461677 0.33803836 0
4.9720001 2.2384219 0.33802393 0
4.9740005 2.2311709 0.33799505 0
4.9790001 2.2254002 0.33792293 0
4.9850001 2.2201061 0.33783633 0
4.9930005 2.2157755 0.33772087 0
5.2620006 2.3131614 0.33383909 0
5.2660003 2.3063245 0.33378136 0
5.2710004 2.2999556 0.33370921 0
5.0480003 1.9578001 0.33692721 0
5.0480003 1.9494158 0.33692721 0
5.0510001 1.9423143 0.3368839 0
5.0550003 1.9356277 0.33682621 0
5.0610003 1.9297743 0.3367396 0
4.9360003 2.4413507 0.33036137 0
4.9320002 2.4309821 0.33042628 0
4.9310002 2.4222627 0.33044252 0
4.9310002 2.4140897 0.33044252 0
4.9330001 2.4069986 0.33041006 0
4.9350004 2.3999009 0.33037758 0
4.9390001 2.3938706 0.33031264 0
4.9430003 2.3878262 0.3302477 0
4.9480004 2.3823011 0.33016652 0
4.9550004 2.3778222 0.33005291 0
4.9630003 2.3738484 0.32992303 0
4.9730005 2.370903 0.32976067 0
5.1870003 2.4494658 0.32628655 0
5.1930003 2.443948 0.32618913 0
5.2010002 2.4394438 0.32605928 0
4.9730005 2.2554195 0.32976067 0
4.9710002 2.2461677 0.32979316 0
4.9720001 2.2384219 0.32977691 0
4.9740005 2.2311709 0.32974446 0
4.9790001 2.2254002 0.32966328 0
4.9850001 2.2201061 0.32956588 0
4.9930005 2.2157755 0.329436 0
5.2620006 2.3131614 0.32506898 0
5.2660003 2.3063245 0.32500404 0
5.2710004 2.2999556 0.32492286 0
5.0480003 1.9578001 0.32854313 0
5.0480003 1.9494158 0.32854313 0
5.0510001 1.9423143 0.3284944 0
5.0550003 1.9356277 0.32842946 0
5.0610003 1.9297743 0.32833207 0
4.9360003 2.4413507 0.32217926 0
4.9320002 2.4309821 0.32225144 0
4.9310002 2.4222627 0.32226947 0
4.9310002 2.4140897 0.32226947 0
4.9330001 2.4069986 0.32223338 0
4.9350004 2.3999009 0.32219732 0
4.9390001 2.3938706 0.32212517 0
4.9430003 2.3878262 0.32205302 0
4.9480004 2.3823011 0.3219628 0
4.9550004 2.3778222 0.32183653 0
4.9630003 2.3738484 0.32169223 0
4.9730005 2.370903 0.32151186 0
5.1870003 2.4494658 0.31765172 0
5.1930003 2.443948 0.31754351 0
5.2010002 2.4394438 0.31739917 0
4.9730005 2.2554195 0.32151186 0
4.9710002 2.2461677 0.32154796 0
4.9720001 2.2384219 0.3215299 0
4.9740005 2.2311709 0.3214938 0
4.9790001 2.2254002 0.32140362 0
4.9850001 2.2201061 0.32129541 0
4.9930005 2.2157755 0.32115111 0
5.2620006 2.3131614 0.31629884 0
5.2660003 2.3063245 0.31622672 0
5.2710004 2.2999556 0.31613651 0
5.0480003 1.9578001 0.32015902 0
5.0480003 1.9494158 0.32015902 0
5.0510001 1.9423143 0.3201049 0
5.0550003 1.9356277 0.32003275 0
5.0610003 1.9297743 0.31992453 0
4.9360003 2.4413507 0.31399721 0
4.9320002 2.4309821 0.31407657 0
4.9310002 2.4222627 0.31409639 0
4.9310002 2.4140897 0.31409639 0
4.9330001 2.4069986 0.31405672 0
4.9350004 2.3999009 0.31401706 0
4.9390001 2.3938706 0.31393766 0
4.9430003 2.3878262 0.3138583 0
4.9480004 2.3823011 0.31375909 0
4.9550004 2.3778222 0.31362021 0
4.9630003 2.3738484 0.31346148 0
4.9730005 2.370903 0.31326306 0
5.1870003 2.4494658 0.30901688 0
5.1930003 2.443948 0.30889782 0
5.2010002 2.4394438 0.3087391 0
4.9730005 2.2554195 0.31326306 0
4.9710002 2.2461677 0.31330273 0
4.9720001 2.2384219 0.31328291 0
4.9740005 2.2311709 0.31324321 0
4.9790001 2.2254002 0.313144 0
4.9850001 2.2201061 0.31302494 0
4.9930005 2.2157755 0.31286621 0
5.2620006 2.3131614 0.30752873 0
5.2660003 2.3063245 0.30744937 0
5.2710004 2.2999556 0.30735016 0
5.0480003 1.9578001 0.31177491 0
5.0480003 1.9494158 0.31177491 0
5.0510001 1.9423143 0.31171539 0
5.0550003 1.9356277 0.31163603 0
5.0610003 1.9297743 0.31151697 0
4.9360003 2.4413507 0.30581513 0
4.9320002 2.4309821 0.30590171 0
4.9310002 2.4222627 0.30592334 0
4.9310002 2.4140897 0.30592334 0
4.9330001 2.4069986 0.30588007 0
4.9350004 2.3999009 0.30583677 0
4.9390001 2.3938706 0.30575019 0
4.9430003 2.3878262 0.30566362 0
4.9480004 2.3823011 0.30555537 0
4.9550004 2.3778222 0.30540386 0
4.9630003 2.3738484 0.30523068 0
4.9730005 2.370903 0.30501422 0
5.1870003 2.4494658 0.30038205 0
5.1930003 2.443948 0.30025217 0
5.2010002 2.4394438 0.30007902 0
4.9730005 2.2554195 0.30501422 0
4.9710002 2.2461677 0.30505753 0
4.9720001 2.2384219 0.30503589 0
4.9740005 2.2311709 0.30499259 0
4.9790001 2.2254002 0.30488437 0
4.9850001 2.2201061 0.3047545 0
4.9930005 2.2157755 0.30458131 0
5.2620006 2.3131614 0.29875863 0
5.2660003 2.3063245 0.29867205 0
5.2710004 2.2999556 0.29856381 0
5.0480003 1.9578001 0.3033908 0
5.0480003 1.9494158 0.3033908 0
5.0510001 1.9423143 0.30332589 0
5.0550003 1.9356277 0.30323929 0
5.0610003 1.9297743 0.30310941 0
4.9360003 2.4413507 0.29763305 0
4.9320002 2.4309821 0.29772687 0
4.9310002 2.4222627 0.29775029 0
4.9310002 2.4140897 0.29775029 0
4.9330001 2.4069986 0.29770339 0
4.9350004 2.3999009 0.29765648 0
4.9390001 2.3938706 0.29756272 0
4.9430003 2.3878262 0.2974689 0
4.9480004 2.3823011 0.29735166 0
4.9550004 2.3778222 0.29718751 0
4.9630003 2.3738484 0.2969999 0
4.9730005 2.370903 0.29676542 0
5.1870003 2.4494658 0.29174721 0
5.1930003 2.443948 0.29160655 0
5.2010002 2.4394438 0.29141894 0
4.9730005 2.2554195 0.29676542 0
4.9710002 2.2461677 0.29681233 0
4.9720001 2.2384219 0.29678887 0
4.9740005 2.2311709 0.29674196 0
4.9790001 2.2254002 0.29662472 0
4.9850001 2.2201061 0.29648402 0
4.9930005 2.2157755 0.29629642 0
5.2620006 2.3131614 0.28998852 0
5.2660003 2.3063245 0.2898947 0
5.2710004 2.2999556 0.28977746 0
5.0480003 1.9578001 0.29500669 0
5.0480003 1.9494158 0.29500669 0
5.0510001 1.9423143 0.29493636 0
5.0550003 1.9356277 0.29484254 0
5.0610003 1.9297743 0.29470187 0
4.9360003 2.4413507 0.28945097 0
4.9320002 2.4309821 0.28955197 0
4.9310002 2.4222627 0.28957725 0
4.9310002 2.4140897 0.28957725 0
4.9330001 2.4069986 0.28952676 0
4.9350004 2.3999009 0.28947622 0
4.9390001 2.3938706 0.28937522 0
4.9430003 2.3878262 0.28927422 0
4.9480004 2.3823011 0.28914794 0
4.9550004 2.3778222 0.28897116 0
4.9630003 2.3738484 0.28876913 0
4.9730005 2.370903 0.28851661 0
5.1870003 2.4494658 0.28311241 0
5.1930003 2.443948 0.28296086 0
5.2010002 2.4394438 0.28275883 0
4.9730005 2.2554195 0.28851661 0
4.9710002 2.2461677 0.28856713 0
4.9720001 2.2384219 0.28854185 0
4.9740005 2.2311709 0.28849137 0
4.9790001 2.2254002 0.28836507 0
4.9850001 2.2201061 0.28821355 0
4.9930005 2.2157755 0.28801155 0
5.2620006 2.3131614 0.28121838 0
5.2660003 2.3063245 0.28111738 0
5.2710004 2.2999556 0.28099114 0
5.0480003 1.9578001 0.28662258 0
5.0480003 1.9494158 0.28662258 0
5.0510001 1.9423143 0.28654686 0
5.0550003 1.9356277 0.28644583 0
5.0610003 1.9297743 0.28629431 0
4.9360003 2.4413507 0.28126889 0
4.9320002 2.4309821 0.28137714 0
4.9310002 2.4222627 0.2814042 0
4.9310002 2.4140897 0.2814042 0
4.9330001 2.4069986 0.28135008 0
4.9350004 2.3999009 0.28129596 0
4.9390001 2.3938706 0.28118774 0
4.9430003 2.3878262 0.2810795 0
4.9480004 2.3823011 0.28094423 0
4.9550004 2.3778222 0.2807548 0
4.9630003 2.3738484 0.28053838 0
4.9730005 2.370903 0.28026778 0
5.1870003 2.4494658 0.27447757 0
5.1930003 2.443948 0.27431524 0
5.2010002 2.4394438 0.27409875 0
4.9730005 2.2554195 0.28026778 0
4.9710002 2.2461677 0.2803219 0
4.9720001 2.2384219 0.28029484 0
4.9740005 2.2311709 0.28024071 0
4.9790001 2.2254002 0.28010547 0
4.9850001 2.2201061 0.27994311 0
4.9930005 2.2157755 0.27972665 0
5.2620006 2.3131614 0.27244827 0
5.2660003 2.3063245 0.27234006 0
5.2710004 2.2999556 0.27220476 0
5.0480003 1.9578001 0.27823851 0
5.0480003 1.9494158 0.27823851 0
5.0510001 1.9423143 0.27815735 0
5.0550003 1.9356277 0.27804911 0
5.0610003 1.9297743 0.27788675 0
4.9360003 2.4413507 0.27308685 0
4.9320002 2.4309821 0.27320227 0
4.9310002 2.4222627 0.27323115 0
4.9310002 2.4140897 0.27323115 0
4.9330001 2.4069986 0.27317342 0
4.9350004 2.3999009 0.27311569 0
4.9390001 2.3938706 0.27300024 0
4.9430003 2.3878262 0.27288479 0
4.9480004 2.3823011 0.27274048 0
4.9550004 2.3778222 0.27253848 0
4.9630003 2.3738484 0.27230757 0
4.9730005 2.370903 0.27201897 0
5.1870003 2.4494658 0.26584274 0
5.1930003 2.443948 0.26566958 0
5.2010002 2.4394438 0.26543868 0
4.9730005 2.2554195 0.27201897 0
4.9710002 2.2461677 0.2720767 0
4.9720001 2.2384219 0.27204782 0
4.9740005 2.2311709 0.27199012 0
4.9790001 2.2254002 0.27184582 0
4.9850001 2.2201061 0.27167267 0
4.9930005 2.2157755 0.27144176 0
5.2620006 2.3131614 0.26367816 0
5.2660003 2.3063245 0.26356274 0
5.2710004 2.2999556 0.26341844 0
5.0480003 1.9578001 0.2698544 0
5.0480003 1.9494158 0.2698544 0
5.0510001 1.9423143 0.26976782 0
5.0550003 1.9356277 0.26965237 0
5.0610003 1.9297743 0.26947922 0
4.9360003 2.4413507 0.26490474 0
4.9320002 2.4309821 0.2650274 0
4.9310002 2.4222627 0.2650581 0
4.9310002 2.4140897 0.2650581 0
4.9330001 2.4069986 0.26499677 0
4.9350004 2.3999009 0.2649354 0
4.9390001 2.3938706 0.26481277 0
4.9430003 2.3878262 0.2646901 0
4.9480004 2.3823011 0.26453677 0
4.9550004 2.3778222 0.2643221 0
4.9630003 2.3738484 0.2640768 0
4.9730005 2.370903 0.26377016 0
5.1870003 2.4494658 0.2572079 0
5.1930003 2.443948 0.25702393 0
5.2010002 2.4394438 0.2567786 0
4.9730005 2.2554195 0.26377016 0
4.9710002 2.2461677 0.2638315 0
4.9720001 2.2384219 0.26380083 0
4.9740005 2.2311709 0.2637395 0
4.9790001 2.2254002 0.26358616 0
4.9850001 2.2201061 0.26340219 0
4.9930005 2.2157755 0.26315686 0
5.2620006 2.3131614 0.25490803 0
5.2660003 2.3063245 0.25478542 0
5.2710004 2.2999556 0.25463206 0
5.0480003 1.9578001 0.26147032 0
5.0480003 1.9494158 0.26147032 0
5.0510001 1.9423143 0.26137832 0
5.0550003 1.9356277 0.26125565 0
5.0610003 1.9297743 0.26107165 0
4.9360003 2.4413507 0.25672269 0
4.9320002 2.4309821 0.25685257 0
4.9310002 2.4222627 0.25688505 0
4.9310002 2.4140897 0.25688505 0
4.9330001 2.4069986 0.25682008 0
4.9350004 2.3999009 0.25675514 0
4.9390001 2.3938706 0.25662529 0
4.9430003 2.3878262 0.25649542 0
4.9480004 2.3823011 0.25633305 0
4.9550004 2.3778222 0.25610578 0
4.9630003 2.3738484 0.25584602 0
4.9730005 2.370903 0.25552133 0
5.1870003 2.4494658 0.24857308 0
5.1930003 2.443948 0.24837826 0
5.2010002 2.4394438 0.24811852 0
4.9730005 2.2554195 0.25552133 0
4.9710002 2.2461677 0.25558627 0
4.9720001 2.2384219 0.25555384 0
4.9740005 2.2311709 0.25548887 0
4.9790001 2.2254002 0.25532654 0
4.9850001 2.2201061 0.25513172 0
4.9930005 2.2157755 0.25487196 0
5.2620006 2.3131614 0.24613793 0
5.2660003 2.3063245 0.24600805 0
5.2710004 2.2999556 0.24584571 0
5.0480003 1.9578001 0.25308621 0
5.0480003 1.9494158 0.25308621 0
5.0510001 1.9423143 0.25298882 0
5.0550003 1.9356277 0.25285894 0
5.0610003 1.9297743 0.25266412 0
4.9360003 2.4413507 0.2485406 0
4.9320002 2.4309821 0.2486777 0
4.9310002 2.4222627 0.24871197 0
4.9310002 2.4140897 0.24871197 0
4.9330001 2.4069986 0.24864343 0
4.9350004 2.3999009 0.24857487 0
4.9390001 2.3938706 0.24843781 0
4.9430003 2.3878262 0.2483007 0
4.9480004 2.3823011 0.24812934 0
4.9550004 2.3778222 0.24788943 0
4.9630003 2.3738484 0.24761525 0
4.9730005 2.370903 0.24727252 0
5.1870003 2.4494658 0.23993824 0
5.1930003 2.443948 0.23973261 0
5.2010002 2.4394438 0.23945844 0
4.9730005 2.2554195 0.24727252 0
4.9710002 2.2461677 0.24734108 0
4.9720001 2.2384219 0.24730679 0
4.9740005 2.2311709 0.24723825 0
4.9790001 2.2254002 0.2470669 0
4.9850001 2.2201061 0.24686126 0
4.9930005 2.2157755 0.24658708 0
5.2620006 2.3131614 0.23736781 0
5.2660003 2.3063245 0.23723073 0
5.2710004 2.2999556 0.23705937 0
5.0480003 1.9578001 0.2447021 0
5.0480003 1.9494158 0.2447021 0
5.0510001 1.9423143 0.24459928 0
5.0550003 1.9356277 0.24446219 0
5.0610003 1.9297743 0.24425656 0
4.9360003 2.4413507 0.24035853 0
4.9320002 2.4309821 0.24050285 0
4.9310002 2.4222627 0.24053891 0
4.9310002 2.4140897 0.24053891 0
4.9330001 2.4069986 0.24046676 0
4.9350004 2.3999009 0.24039461 0
4.9390001 2.3938706 0.24025032 0
4.9430003 2.3878262 0.240106 0
4.9480004 2.3823011 0.23992561 0
4.9550004 2.3778222 0.23967308 0
4.9630003 2.3738484 0.23938447 0
4.9730005 2.370903 0.23902372 0
5.1870003 2.4494658 0.23130341 0
5.1930003 2.443948 0.23108697 0
5.2010002 2.4394438 0.23079835 0
4.9730005 2.2554195 0.23902372 0
4.9710002 2.2461677 0.23909588 0
4.9720001 2.2384219 0.23905979 0
4.9740005 2.2311709 0.23898762 0
4.9790001 2.2254002 0.23880726 0
4.9850001 2.2201061 0.23859081 0
4.9930005 2.2157755 0.23830219 0
5.2620006 2.3131614 0.2285977 0
5.2660003 2.3063245 0.2284534 0
5.2710004 2.2999556 0.22827302 0
5.0480003 1.9578001 0.23631799 0
5.0480003 1.9494158 0.23631799 0
5.0510001 1.9423143 0.23620977 0
5.0550003 1.9356277 0.23606546 0
5.0610003 1.9297743 0.23584902 0
4.9360003 2.4413507 0.23217645 0
4.9320002 2.4309821 0.23232798 0
4.9310002 2.4222627 0.23236586 0
4.9310002 2.4140897 0.23236586 0
4.9330001 2.4069986 0.2322901 0
4.9350004 2.3999009 0.23221433 0
4.9390001 2.3938706 0.23206283 0
4.9430003 2.3878262 0.23191129 0
4.9480004 2.3823011 0.23172189 0
4.9550004 2.3778222 0.23145673 0
4.9630003 2.3738484 0.2311537 0
4.9730005 2.370903 0.23077488 0
5.1870003 2.4494658 0.22266859 0
5.1930003 2.443948 0.2224413 0
5.2010002 2.4394438 0.22213827 0
4.9730005 2.2554195 0.23077488 0
4.9710002 2.2461677 0.23085065 0
4.9720001 2.2384219 0.23081279 0
4.9740005 2.2311709 0.23073702 0
4.9790001 2.2254002 0.23054764 0
4.9850001 2.2201061 0.23032033 0
4.9930005 2.2157755 0.23001729 0
5.2620006 2.3131614 0.21982758 0
5.2660003 2.3063245 0.21967606 0
5.2710004 2.2999556 0.21948665 0
5.0480003 1.9578001 0.2279339 0
5.0480003 1.9494158 0.2279339 0
5.0510001 1.9423143 0.22782028 0
5.0550003 1.9356277 0.22766873 0
5.0610003 1.9297743 0.22744146 0
4.9360003 2.4413507 0.22399437 0
4.9320002 2.4309821 0.22415312 0
4.9310002 2.4222627 0.2241928 0
4.9310002 2.4140897 0.2241928 0
4.9330001 2.4069986 0.22411345 0
4.9350004 2.3999009 0.22403407 0
4.9390001 2.3938706 0.22387534 0
4.9430003 2.3878262 0.22371659 0
4.9480004 2.3823011 0.22351818 0
4.9550004 2.3778222 0.22324039 0
4.9630003 2.3738484 0.22292292 0
4.9730005 2.370903 0.22252607 0
5.1870003 2.4494658 0.21403375 0
5.1930003 2.443948 0.21379565 0
5.2010002 2.4394438 0.21347819 0
4.9730005 2.2554195 0.22252607 0
4.9710002 2.2461677 0.22260545 0
4.9720001 2.2384219 0.22256577 0
4.9740005 2.2311709 0.22248639 0
4.9790001 2.2254002 0.222288 0
4.9850001 2.2201061 0.22204988 0
4.9930005 2.2157755 0.22173241 0
5.2620006 2.3131614 0.21105745 0
5.2660003 2.3063245 0.21089874 0
5.2710004 2.2999556 0.21070032 0
5.0480003 1.9578001 0.2195498 0
5.0480003 1.9494158 0.2195498 0
5.0510001 1.9423143 0.21943076 0
5.0550003 1.9356277 0.21927202 0
5.0610003 1.9297743 0.21903391 0
4.9360003 2.4413507 0.21581231 0
4.9320002 2.4309821 0.21597826 0
4.9310002 2.4222627 0.21601975 0
4.9310002 2.4140897 0.21601975 0
4.9330001 2.4069986 0.21593678 0
4.9350004 2.3999009 0.2158538 0
4.9390001 2.3938706 0.21568786 0
4.9430003 2.3878262 0.21552189 0
4.9480004 2.3823011 0.21531446 0
4.9550004 2.3778222 0.21502404 0
4.9630003 2.3738484 0.21469215 0
4.9730005 2.370903 0.21427727 0
5.1870003 2.4494658 0.20539892 0
5.1930003 2.443948 0.20514999 0
5.2010002 2.4394438 0.2048181 0
4.9730005 2.2554195 0.21427727 0
4.9710002 2.2461677 0.21436025 0
4.9720001 2.2384219 0.21431877 0
4.9740005 2.2311709 0.21423577 0
4.9790001 2.2254002 0.21402834 0
4.9850001 2.2201061 0.21377942 0
4.9930005 2.2157755 0.21344751 0
5.2620006 2.3131614 0.20228735 0
5.2660003 2.3063245 0.20212141 0
5.2710004 2.2999556 0.20191397 0
5.0480003 1.9578001 0.2111657 0
5.0480003 1.9494158 0.2111657 0
5.0510001 1.9423143 0.21104124 0
5.0550003 1.9356277 0.21087529 0
5.0610003 1.9297743 0.21062636 0
4.9360003 2.4413507 0.20763023 0
4.9320002 2.4309821 0.2078034 0
4.9310002 2.4222627 0.2078467 0
4.9310002 2.4140897 0.2078467 0
4.9330001 2.4069986 0.20776013 0
4.9350004 2.3999009 0.20767352 0
4.9390001 2.3938706 0.20750037 0
4.9430003 2.3878262 0.2073272 0
4.9480004 2.3823011 0.20711073 0
4.9550004 2.3778222 0.20680769 0
4.9630003 2.3738484 0.20646136 0
4.9730005 2.370903 0.20602843 0
5.1870003 2.4494658 0.1967641 0
5.1930003 2.443948 0.19650434 0
5.2010002 2.4394438 0.19615802 0
4.9730005 2.2554195 0.20602843 0
4.9710002 2.2461677 0.20611504 0
4.9720001 2.2384219 0.20607176 0
4.9740005 2.2311709 0.20598516 0
4.9790001 2.2254002 0.20576872 0
4.9850001 2.2201061 0.20550896 0
4.9930005 2.2157755 0.20516261 0
5.2620006 2.3131614 0.19351722 0
5.2660003 2.3063245 0.19334407 0
5.2710004 2.2999556 0.19312762 0
5.0480003 1.9578001 0.2027816 0
5.0480003 1.9494158 0.2027816 0
5.0510001 1.9423143 0.20265174 0
5.0550003 1.9356277 0.20247857 0
5.0610003 1.9297743 0.20221882 0
4.9360003 2.4413507 0.19944815 0
4.9320002 2.4309821 0.19962855 0
4.9310002 2.4222627 0.19967364 0
4.9310002 2.4140897 0.19967364 0
4.9330001 2.4069986 0.19958346 0
4.9350004 2.3999009 0.19949324 0
4.9390001 2.3938706 0.19931288 0
4.9430003 2.3878262 0.1991325 0
4.9480004 2.3823011 0.198907 0
4.9550004 2.3778222 0.19859135 0
4.9630003 2.3738484 0.19823059 0
4.9730005 2.370903 0.19777963 0
5.1870003 2.4494658 0.18812926 0
5.1930003 2.443948 0.1878587 0
5.2010002 2.4394438 0.18749794 0
4.9730005 2.2554195 0.19777963 0
4.9710002 2.2461677 0.19786984 0
4.9720001 2.2384219 0.19782473 0
4.9740005 2.2311709 0.19773453 0
4.9790001 2.2254002 0.19750908 0
4.9850001 2.2201061 0.1972385 0
4.9930005 2.2157755 0.19687772 0
5.2620006 2.3131614 0.18474711 0
5.2660003 2.3063245 0.18456675 0
5.2710004 2.2999556 0.18434127 0
5.0480003 1.9578001 0.19439749 0
5.0480003 1.9494158 0.19439749 0
5.0510001 1.9423143 0.19426222 0
5.0550003 1.9356277 0.19408183 0
5.0610003 1.9297743 0.19381125 0
4.9360003 2.4413507 0.19126609 0
4.9320002 2.4309821 0.1914537 0
4.9310002 2.4222627 0.19150059 0
4.9310002 2.4140897 0.19150059 0
4.9330001 2.4069986 0.19140679 0
4.9350004 2.3999009 0.19131297 0
4.9390001 2.3938706 0.19112539 0
4.9430003 2.3878262 0.1909378 0
4.9480004 2.3823011 0.19070329 0
4.9550004 2.3778222 0.190375 0
4.9630003 2.3738484 0.1899998 0
4.9730005 2.370903 0.18953082 0
5.1870003 2.4494658 0.17949444 0
5.1930003 2.443948 0.17921305 0
5.2010002 2.4394438 0.17883785 0
4.9730005 2.2554195 0.18953082 0
4.9710002 2.2461677 0.18962462 0
4.9720001 2.2384219 0.18957773 0
4.9740005 2.2311709 0.18948391 0
4.9790001 2.2254002 0.18924944 0
4.9850001 2.2201061 0.18896805 0
4.9930005 2.2157755 0.18859282 0
5.2620006 2.3131614 0.17597701 0
5.2660003 2.3063245 0.17578942 0
5.2710004 2.2999556 0.1755549 0
5.0480003 1.9578001 0.1860134 0
5.0480003 1.9494158 0.1860134 0
5.0510001 1.9423143 0.1858727 0
5.0550003 1.9356277 0.1856851 0
5.0610003 1.9297743 0.1854037 0
4.9360003 2.4413507 0.18308401 0
4.9320002 2.4309821 0.18327884 0
4.9310002 2.4222627 0.18332753 0
4.9310002 2.4140897 0.18332753 0
4.9330001 2.4069986 0.18323013 0
4.9350004 2.3999009 0.18313271 0
4.9390001 2.3938706 0.18293791 0
4.9430003 2.3878262 0.1827431 0
4.9480004 2.3823011 0.18249957 0
4.9550004 2.3778222 0.18215865 0
4.9630003 2.3738484 0.18176904 0
4.9730005 2.370903 0.181282 0
5.1870003 2.4494658 0.17085961 0
5.1930003 2.443948 0.17056738 0
5.2010002 2.4394438 0.17017777 0
4.9730005 2.2554195 0.181282 0
4.9710002 2.2461677 0.18137942 0
4.9720001 2.2384219 0.18133073 0
4.9740005 2.2311709 0.1812333 0
4.9790001 2.2254002 0.1809898 0
4.9850001 2.2201061 0.18069759 0
4.9930005 2.2157755 0.18030794 0
5.2620006 2.3131614 0.16720687 0
5.2660003 2.3063245 0.16701208 0
5.2710004 2.2999556 0.16676855 0
5.0480003 1.9578001 0.17762929 0
5.0480003 1.9494158 0.17762929 0
5.0510001 1.9423143 0.17748319 0
5.0550003 1.9356277 0.17728838 0
5.0610003 1.9297743 0.17699616 0
4.9360003 2.4413507 0.17490193 0
4.9320002 2.4309821 0.17510396 0
4.9310002 2.4222627 0.17515448 0
4.9310002 2.4140897 0.17515448 0
4.9330001 2.4069986 0.17505348 0
4.9350004 2.3999009 0.17495243 0
4.9390001 2.3938706 0.17475042 0
4.9430003 2.3878262 0.17454839 0
4.9480004 2.3823011 0.17429586 0
4.9550004 2.3778222 0.17394231 0
4.9630003 2.3738484 0.17353825 0
4.9730005 2.370903 0.17303319 0
5.1870003 2.4494658 0.16222477 0
5.1930003 2.443948 0.16192172 0
5.2010002 2.4394438 0.16151768 0
4.9730005 2.2554195 0.17303319 0
4.9710002 2.2461677 0.17313421 0
4.9720001 2.2384219 0.17308369 0
4.9740005 2.2311709 0.17298269 0
4.9790001 2.2254002 0.17273015 0
4.9850001 2.2201061 0.17242712 0
4.9930005 2.2157755 0.17202306 0
5.2620006 2.3131614 0.15843676 0
5.2660003 2.3063245 0.15823476 0
5.2710004 2.2999556 0.15798223 0
5.0480003 1.9578001 0.16924518 0
5.0480003 1.9494158 0.16924518 0
5.0510001 1.9423143 0.1690937 0
5.0550003 1.9356277 0.16889164 0
5.0610003 1.9297743 0.16858859 0
4.9360003 2.4413507 0.16671987 0
4.9320002 2.4309821 0.1669291 0
4.9310002 2.4222627 0.16698143 0
4.9310002 2.4140897 0.16698143 0
4.9330001 2.4069986 0.16687681 0
4.9350004 2.3999009 0.16677216 0
4.9390001 2.3938706 0.16656294 0
4.9430003 2.3878262 0.16635369 0
4.9480004 2.3823011 0.16609213 0
4.9550004 2.3778222 0.16572598 0
4.9630003 2.3738484 0.16530748 0
4.9730005 2.370903 0.16478436 0
5.1870003 2.4494658 0.15358996 0
5.1930003 2.443948 0.15327609 0
5.2010002 2.4394438 0.1528576 0
4.9730005 2.2554195 0.16478436 0
4.9710002 2.2461677 0.16488899 0
4.9720001 2.2384219 0.1648367 0
4.9740005 2.2311709 0.16473205 0
4.9790001 2.2254002 0.16447052 0
4.9850001 2.2201061 0.16415668 0
4.9930005 2.2157755 0.16373818 0
5.2620006 2.3131614 0.14966664 0
5.2660003 2.3063245 0.14945742 0
5.2710004 2.2999556 0.14919588 0
5.0480003 1.9578001 0.16086109 0
5.0480003 1.9494158 0.16086109 0
5.0510001 1.9423143 0.16070418 0
5.0550003 1.9356277 0.16049491 0
5.0610003 1.9297743 0.16018106 0
4.9360003 2.4413507 0.15853781 0
4.9320002 2.4309821 0.15875424 0
4.9310002 2.4222627 0.15880837 0
4.9310002 2.4140897 0.15880837 0
4.9330001 2.4069986 0.15870014 0
4.9350004 2.3999009 0.15859191 0
4.9390001 2.3938706 0.15837546 0
4.9430003 2.3878262 0.15815899 0
4.9480004 2.3823011 0.15788843 0
4.9550004 2.3778222 0.15750961 0
4.9630003 2.3738484 0.15707672 0
4.9730005 2.370903 0.15653554 0
5.1870003 2.4494658 0.14495513 0
5.1930003 2.443948 0.14463043 0
5.2010002 2.4394438 0.14419752 0
4.9730005 2.2554195 0.15653554 0
4.9710002 2.2461677 0.15664379 0
4.9720001 2.2384219 0.15658969 0
4.9740005 2.2311709 0.15648143 0
4.9790001 2.2254002 0.1562109 0
4.9850001 2.2201061 0.1558862 0
4.9930005 2.2157755 0.15545328 0
5.2620006 2.3131614 0.14089653 0
5.2660003 2.3063245 0.14068007 0
5.2710004 2.2999556 0.14040953 0
5.0480003 1.9578001 0.152477 0
5.0480003 1.9494158 0.152477 0
5.0510001 1.9423143 0.15231466 0
5.0550003 1.9356277 0.15209818 0
5.0610003 1.9297743 0.15177351 0
4.9360003 2.4413507 0.1503557 0
4.9320002 2.4309821 0.15057939 0
4.9310002 2.4222627 0.15063533 0
4.9310002 2.4140897 0.15063533 0
4.9330001 2.4069986 0.15052348 0
4.9350004 2.3999009 0.15041164 0
4.9390001 2.3938706 0.15018797 0
4.9430003 2.3878262 0.14996427 0
4.9480004 2.3823011 0.1496847 0
4.9550004 2.3778222 0.14929324 0
4.9630003 2.3738484 0.14884594 0
4.9730005 2.370903 0.14828673 0
5.1870003 2.4494658 0.13632029 0
5.1930003 2.443948 0.13598478 0
5.2010002 2.4394438 0.13553742 0
4.9730005 2.2554195 0.14828673 0
4.9710002 2.2461677 0.14839858 0
4.9720001 2.2384219 0.1483427 0
4.9740005 2.2311709 0.14823082 0
4.9790001 2.2254002 0.14795125 0
4.9850001 2.2201061 0.14761576 0
4.9930005 2.2157755 0.14716837 0
5.2620006 2.3131614 0.13212642 0
5.2660003 2.3063245 0.13190275 0
5.2710004 2.2999556 0.13162318 0
5.0480003 1.9578001 0.14409289 0
5.0480003 1.9494158 0.14409289 0
5.0510001 1.9423143 0.14392516 0
5.0550003 1.9356277 0.14370146 0
5.0610003 1.9297743 0.14336595 0
4.9360003 2.4413507 0.14217365 0
4.9320002 2.4309821 0.14240453 0
4.9310002 2.4222627 0.14246225 0
4.9310002 2.4140897 0.14246225 0
4.9330001 2.4069986 0.14234683 0
4.9350004 2.3999009 0.14223135 0
4.9390001 2.3938706 0.1420005 0
4.9430003 2.3878262 0.14176959 0
4.9480004 2.3823011 0.14148098 0
4.9550004 2.3778222 0.14107692 0
4.9630003 2.3738484 0.14061517 0
4.9730005 2.370903 0.14003792 0
5.1870003 2.4494658 0.12768546 0
5.1930003 2.443948 0.12733912 0
5.2010002 2.4394438 0.12687737 0
4.9730005 2.2554195 0.14003792 0
4.9710002 2.2461677 0.14015338 0
4.9720001 2.2384219 0.14009565 0
4.9740005 2.2311709 0.1399802 0
4.9790001 2.2254002 0.13969162 0
4.9850001 2.2201061 0.13934529 0
4.9930005 2.2157755 0.13888347 0
5.2620006 2.3131614 0.12335631 0
5.2660003 2.3063245 0.12312543 0
5.2710004 2.2999556 0.12283683 0
5.0480003 1.9578001 0.13570878 0
5.0480003 1.9494158 0.13570878 0
5.0510001 1.9423143 0.13553563 0
5.0550003 1.9356277 0.13530475 0
5.0610003 1.9297743 0.13495842 0
4.9360003 2.4413507 0.13399157 0
4.9320002 2.4309821 0.13422969 0
4.9310002 2.4222627 0.13428918 0
4.9310002 2.4140897 0.13428918 0
4.9330001 2.4069986 0.13417014 0
4.9350004 2.3999009 0.13405108 0
4.9390001 2.3938706 0.13381299 0
4.9430003 2.3878262 0.1335749 0
4.9480004 2.3823011 0.13327724 0
4.9550004 2.3778222 0.1328606 0
4.9630003 2.3738484 0.13238436 0
4.9730005 2.370903 0.13178912 0
5.1870003 2.4494658 0.11905062 0
5.1930003 2.443948 0.11869347 0
5.2010002 2.4394438 0.11821729 0
4.9730005 2.2554195 0.13178912 0
4.9710002 2.2461677 0.13190818 0
4.9720001 2.2384219 0.13184863 0
4.9740005 2.2311709 0.13172957 0
4.9790001 2.2254002 0.131432 0
4.9850001 2.2201061 0.13107482 0
4.9930005 2.2157755 0.13059857 0
5.2620006 2.3131614 0.11458617 0
5.2660003 2.3063245 0.11434811 0
5.2710004 2.2999556 0.11405045 0
5.0480003 1.9578001 0.1273247 0
5.0480003 1.9494158 0.1273247 0
5.0510001 1.9423143 0.12714612 0
5.0550003 1.9356277 0.126908 0
5.0610003 1.9297743 0.12655085 0
4.9360003 2.4413507 0.12580949 0
4.9320002 2.4309821 0.12605482 0
4.9310002 2.4222627 0.12611616 0
4.9310002 2.4140897 0.12611616 0
4.9330001 2.4069986 0.12599352 0
4.9350004 2.3999009 0.12587079 0
4.9390001 2.3938706 0.12562552 0
4.9430003 2.3878262 0.12538019 0
4.9480004 2.3823011 0.12507352 0
4.9550004 2.3778222 0.12464422 0
4.9630003 2.3738484 0.12415358 0
4.9730005 2.370903 0.12354031 0
5.1870003 2.4494658 0.11041579 0
5.1930003 2.443948 0.11004782 0
5.2010002 2.4394438 0.10955718 0
4.9730005 2.2554195 0.12354031 0
4.9710002 2.2461677 0.12366298 0
4.9720001 2.2384219 0.12360165 0
4.9740005 2.2311709 0.12347898 0
4.9790001 2.2254002 0.12317234 0
4.9850001 2.2201061 0.12280437 0
4.9930005 2.2157755 0.12231371 0
5.2620006 2.3131614 0.10581607 0
5.2660003 2.3063245 0.10557079 0
5.2710004 2.2999556 0.1052641 0
5.0480003 1.9578001 0.11894059 0
5.0480003 1.9494158 0.11894059 0
5.0510001 1.9423143 0.11875662 0
5.0550003 1.9356277 0.11851129 0
5.0610003 1.9297743 0.11814329 0
4.9360003 2.4413507 0.11762741 0
4.9320002 2.4309821 0.11787999 0
4.9310002 2.4222627 0.11794308 0
4.9310002 2.4140897 0.11794308 0
4.9330001 2.4069986 0.11781684 0
4.9350004 2.3999009 0.11769056 0
4.9390001 2.3938706 0.11743802 0
4.9430003 2.3878262 0.1171855 0
4.9480004 2.3823011 0.11686981 0
4.9550004 2.3778222 0.11642787 0
4.9630003 2.3738484 0.11592284 0
4.9730005 2.370903 0.11529148 0
5.1870003 2.4494658 0.10178095 0
