# .PCD v0.7 - Point Cloud Data file format
VERSION 0.7
FIELDS x y z intensity
SIZE 4 4 4 4
TYPE F F F F
COUNT 1 1 1 1
WIDTH 1499
HEIGHT 1
VIEWPOINT 0 0 0 1 0 0 0
POINTS 1499
DATA ascii
1.9100001 -0.88763887 0.19427122 0
1.9130001 -0.89204019 0.19385456 0
1.9170001 -0.89701325 0.19329898 0
1.807 -0.716021 0.20603928 0
1.8000001 -0.71521288 0.20702416 0
1.796 -0.71581888 0.20758696 0
1.791 -0.71592897 0.20829044 0
1.788 -0.71698779 0.20871253 0
1.7850001 -0.71803582 0.20913461 0
1.781 -0.71858597 0.20969741 0
1.779 -0.72009939 0.20997879 0
1.776 -0.72111487 0.21040089 0
1.774 -0.72261208 0.21068227 0
1.7720001 -0.72410208 0.21096367 0
1.7700001 -0.72558481 0.21124506 0
1.768 -0.7270602 0.21152647 0
1.766 -0.72852856 0.21180786 0
1.7640001 -0.72998965 0.21208924 0
1.763 -0.73194677 0.21222995 0
1.761 -0.73339522 0.21251135 0
1.76 -0.73534334 0.21265204 0
1.758 -0.73677921 0.21293344 0
1.7570001 -0.73871833 0.21307412 0
1.756 -0.74065375 0.21321483 0
1.755 -0.74258566 0.21335553 0
1.7540001 -0.74451393 0.21349621 0
1.753 -0.74643856 0.21363692 0
1.753 -0.74887908 0.21363692 0
1.7520001 -0.7507984 0.2137776 0
1.751 -0.75271404 0.21391831 0
1.751 -0.75515097 0.21391831 0
1.75 -0.75706118 0.21405901 0
1.75 -0.75949633 0.21405901 0
1.75 -0.76193142 0.21405901 0
1.7490001 -0.76383448 0.21419969 0
1.75 -0.76680177 0.21405901 0
1.75 -0.76923692 0.21405901 0
1.75 -0.77167207 0.21405901 0
1.75 -0.77410716 0.21405901 0
1.751 -0.77708346 0.21391831 0
1.7520001 -0.78006339 0.2137776 0
1.753 -0.78304684 0.21363692 0
1.7540001 -0.78603399 0.21349621 0
1.756 -0.78957307 0.21321483 0
1.758 -0.79311931 0.21293344 0
1.761 -0.79722476 0.21251135 0
1.7670001 -0.80300242 0.21166715 0
1.909 -0.8843596 0.19168818 0
1.9100001 -0.88763887 0.19154748 0
1.9130001 -0.89204019 0.19112539 0
1.9170001 -0.89701325 0.19056261 0
1.807 -0.716021 0.20350131 0
1.8000001 -0.71521288 0.20449883 0
1.796 -0.71581888 0.20506883 0
1.791 -0.71592897 0.20578134 0
1.788 -0.71698779 0.20620884 0
1.7850001 -0.71803582 0.20663632 0
1.781 -0.71858597 0.20720634 0
1.779 -0.72009939 0.20749135 0
1.776 -0.72111487 0.20791885 0
1.774 -0.72261208 0.20820385 0
1.7720001 -0.72410208 0.20848884 0
1.7700001 -0.72558481 0.20877384 0
1.768 -0.7270602 0.20905885 0
1.766 -0.72852856 0.20934387 0
1.7640001 -0.72998965 0.20962885 0
1.763 -0.73194677 0.20977136 0
1.761 -0.73339522 0.21005636 0
1.76 -0.73534334 0.21019886 0
1.758 -0.73677921 0.21048386 0
1.7570001 -0.73871833 0.21062635 0
1.756 -0.74065375 0.21076885 0
1.755 -0.74258566 0.21091138 0
1.7540001 -0.74451393 0.21105386 0
1.753 -0.74643856 0.21119638 0
1.753 -0.74887908 0.21119638 0
1.7520001 -0.7507984 0.21133886 0
1.751 -0.75271404 0.21148136 0
1.751 -0.75515097 0.21148136 0
1.75 -0.75706118 0.21162388 0
1.75 -0.75949633 0.21162388 0
1.75 -0.76193142 0.21162388 0
1.7490001 -0.76383448 0.21176636 0
1.75 -0.76680177 0.21162388 0
1.75 -0.76923692 0.21162388 0
1.75 -0.77167207 0.21162388 0
1.75 -0.77410716 0.21162388 0
1.751 -0.77708346 0.21148136 0
1.7520001 -0.78006339 0.21133886 0
1.753 -0.78304684 0.21119638 0
1.7540001 -0.78603399 0.21105386 0
1.756 -0.78957307 0.21076885 0
1.758 -0.79311931 0.21048386 0
1.761 -0.79722476 0.21005636 0
1.7670001 -0.80300242 0.20920134 0
1.909 -0.8843596 0.18896623 0
1.9100001 -0.88763887 0.18882373 0
1.9130001 -0.89204019 0.18839623 0
1.9170001 -0.89701325 0.18782622 0
1.807 -0.716021 0.20096336 0
1.8000001 -0.71521288 0.20197348 0
1.796 -0.71581888 0.20255072 0
1.791 -0.71592897 0.20327224 0
1.788 -0.71698779 0.20370516 0
1.7850001 -0.71803582 0.20413806 0
1.781 -0.71858597 0.20471528 0
1.779 -0.72009939 0.20500389 0
1.776 -0.72111487 0.20543681 0
1.774 -0.72261208 0.20572542 0
1.7720001 -0.72410208 0.20601401 0
1.7700001 -0.72558481 0.20630263 0
1.768 -0.7270602 0.20659125 0
1.766 -0.72852856 0.20687985 0
1.7640001 -0.72998965 0.20716844 0
1.763 -0.73194677 0.20731278 0
1.761 -0.73339522 0.20760137 0
1.76 -0.73534334 0.20774569 0
1.758 -0.73677921 0.20803429 0
1.7570001 -0.73871833 0.20817858 0
1.756 -0.74065375 0.2083229 0
1.755 -0.74258566 0.20846722 0
1.7540001 -0.74451393 0.2086115 0
1.753 -0.74643856 0.20875581 0
1.753 -0.74887908 0.20875581 0
1.7520001 -0.7507984 0.20890011 0
1.751 -0.75271404 0.20904443 0
1.751 -0.75515097 0.20904443 0
1.75 -0.75706118 0.20918873 0
1.75 -0.75949633 0.20918873 0
1.75 -0.76193142 0.20918873 0
1.7490001 -0.76383448 0.20933303 0
1.75 -0.76680177 0.20918873 0
1.75 -0.76923692 0.20918873 0
1.75 -0.77167207 0.20918873 0
1.75 -0.77410716 0.20918873 0
1.751 -0.77708346 0.20904443 0
1.7520001 -0.78006339 0.20890011 0
1.753 -0.78304684 0.20875581 0
1.7540001 -0.78603399 0.2086115 0
1.756 -0.78957307 0.2083229 0
1.758 -0.79311931 0.20803429 0
1.761 -0.79722476 0.20760137 0
1.7670001 -0.80300242 0.20673554 0
1.909 -0.8843596 0.18624429 0
1.9100001 -0.88763887 0.18609998 0
1.9130001 -0.89204019 0.18566707 0
1.9170001 -0.89701325 0.18508984 0
1.807 -0.716021 0.19842541 0
1.8000001 -0.71521288 0.19944815 0
1.796 -0.71581888 0.20003259 0
1.791 -0.71592897 0.20076314 0
1.788 -0.71698779 0.20120147 0
1.7850001 -0.71803582 0.20163979 0
1.781 -0.71858597 0.20222422 0
1.779 -0.72009939 0.20251644 0
1.776 -0.72111487 0.20295477 0
1.774 -0.72261208 0.20324698 0
1.7720001 -0.72410208 0.20353919 0
1.7700001 -0.72558481 0.2038314 0
1.768 -0.7270602 0.20412365 0
1.766 -0.72852856 0.20441586 0
1.7640001 -0.72998965 0.20470805 0
1.763 -0.73194677 0.20485419 0
1.761 -0.73339522 0.20514639 0
1.76 -0.73534334 0.20529251 0
1.758 -0.73677921 0.20558472 0
1.7570001 -0.73871833 0.20573083 0
1.756 -0.74065375 0.20587693 0
1.755 -0.74258566 0.20602304 0
1.7540001 -0.74451393 0.20616914 0
1.753 -0.74643856 0.20631526 0
1.753 -0.74887908 0.20631526 0
1.7520001 -0.7507984 0.20646136 0
1.751 -0.75271404 0.20660748 0
1.751 -0.75515097 0.20660748 0
1.75 -0.75706118 0.2067536 0
1.75 -0.75949633 0.2067536 0
1.75 -0.76193142 0.2067536 0
1.7490001 -0.76383448 0.20689969 0
1.75 -0.76680177 0.2067536 0
1.75 -0.76923692 0.2067536 0
1.75 -0.77167207 0.2067536 0
1.75 -0.77410716 0.2067536 0
1.751 -0.77708346 0.20660748 0
1.7520001 -0.78006339 0.20646136 0
1.753 -0.78304684 0.20631526 0
1.7540001 -0.78603399 0.20616914 0
1.756 -0.78957307 0.20587693 0
1.758 -0.79311931 0.20558472 0
1.761 -0.79722476 0.20514639 0
1.7670001 -0.80300242 0.20426974 0
1.909 -0.8843596 0.18352234 0
1.9100001 -0.88763887 0.18337622 0
1.9130001 -0.89204019 0.18293791 0
1.9170001 -0.89701325 0.18235347 0
1.807 -0.716021 0.19588743 0
1.8000001 -0.71521288 0.19692282 0
1.796 -0.71581888 0.19751449 0
1.791 -0.71592897 0.19825405 0
1.788 -0.71698779 0.19869778 0
1.7850001 -0.71803582 0.1991415 0
1.781 -0.71858597 0.19973317 0
1.779 -0.72009939 0.20002899 0
1.776 -0.72111487 0.20047273 0
1.774 -0.72261208 0.20076855 0
1.7720001 -0.72410208 0.20106438 0
1.7700001 -0.72558481 0.20136018 0
1.768 -0.7270602 0.20165603 0
1.766 -0.72852856 0.20195186 0
1.7640001 -0.72998965 0.20224766 0
1.763 -0.73194677 0.20239559 0
1.761 -0.73339522 0.20269141 0
1.76 -0.73534334 0.20283931 0
1.758 -0.73677921 0.20313515 0
1.7570001 -0.73871833 0.20328304 0
1.756 -0.74065375 0.20343097 0
1.755 -0.74258566 0.20357889 0
1.7540001 -0.74451393 0.20372678 0
1.753 -0.74643856 0.20387471 0
1.753 -0.74887908 0.20387471 0
1.7520001 -0.7507984 0.20402262 0
1.751 -0.75271404 0.20417053 0
1.751 -0.75515097 0.20417053 0
1.75 -0.75706118 0.20431845 0
1.75 -0.75949633 0.20431845 0
1.75 -0.76193142 0.20431845 0
1.7490001 -0.76383448 0.20446634 0
1.75 -0.76680177 0.20431845 0
1.75 -0.76923692 0.20431845 0
1.75 -0.77167207 0.20431845 0
1.75 -0.77410716 0.20431845 0
1.751 -0.77708346 0.20417053 0
1.7520001 -0.78006339 0.20402262 0
1.753 -0.78304684 0.20387471 0
1.7540001 -0.78603399 0.20372678 0
1.756 -0.78957307 0.20343097 0
1.758 -0.79311931 0.20313515 0
1.761 -0.79722476 0.20269141 0
1.7670001 -0.80300242 0.20180392 0
1.909 -0.8843596 0.18080039 0
1.9100001 -0.88763887 0.18065247 0
1.9130001 -0.89204019 0.18020874 0
1.9170001 -0.89701325 0.17961709 0
1.807 -0.716021 0.19334948 0
1.8000001 -0.71521288 0.19439749 0
1.796 -0.71581888 0.19499637 0
1.791 -0.71592897 0.19574495 0
1.788 -0.71698779 0.1961941 0
1.7850001 -0.71803582 0.19664323 0
1.781 -0.71858597 0.19724211 0
1.779 -0.72009939 0.19754153 0
1.776 -0.72111487 0.19799069 0
1.774 -0.72261208 0.19829011 0
1.7720001 -0.72410208 0.19858955 0
1.7700001 -0.72558481 0.19888897 0
1.768 -0.7270602 0.19918841 0
1.766 -0.72852856 0.19948785 0
1.7640001 -0.72998965 0.19978727 0
1.763 -0.73194677 0.19993699 0
1.761 -0.73339522 0.20023642 0
1.76 -0.73534334 0.20038614 0
1.758 -0.73677921 0.20068558 0
1.7570001 -0.73871833 0.20083527 0
1.756 -0.74065375 0.20098501 0
1.755 -0.74258566 0.20113473 0
1.7540001 -0.74451393 0.20128444 0
1.753 -0.74643856 0.20143415 0
1.753 -0.74887908 0.20143415 0
1.7520001 -0.7507984 0.20158386 0
1.751 -0.75271404 0.20173359 0
1.751 -0.75515097 0.20173359 0
1.75 -0.75706118 0.2018833 0
1.75 -0.75949633 0.2018833 0
1.75 -0.76193142 0.2018833 0
1.7490001 -0.76383448 0.20203301 0
1.75 -0.76680177 0.2018833 0
1.75 -0.76923692 0.2018833 0
1.75 -0.77167207 0.2018833 0
1.75 -0.77410716 0.2018833 0
1.751 -0.77708346 0.20173359 0
1.7520001 -0.78006339 0.20158386 0
1.753 -0.78304684 0.20143415 0
1.7540001 -0.78603399 0.20128444 0
1.756 -0.78957307 0.20098501 0
1.758 -0.79311931 0.20068558 0
1.761 -0.79722476 0.20023642 0
1.7670001 -0.80300242 0.19933812 0
1.909 -0.8843596 0.17807846 0
1.9100001 -0.88763887 0.17792872 0
1.9130001 -0.89204019 0.17747958 0
1.9170001 -0.89701325 0.17688072 0
1.807 -0.716021 0.19081153 0
1.8000001 -0.71521288 0.19187216 0
1.796 -0.71581888 0.19247825 0
1.791 -0.71592897 0.19323584 0
1.788 -0.71698779 0.1936904 0
1.7850001 -0.71803582 0.19414495 0
1.781 -0.71858597 0.19475104 0
1.779 -0.72009939 0.19505408 0
1.776 -0.72111487 0.19550864 0
1.774 -0.72261208 0.19581167 0
1.7720001 -0.72410208 0.19611472 0
1.7700001 -0.72558481 0.19641775 0
1.768 -0.7270602 0.19672081 0
1.766 -0.72852856 0.19702384 0
1.7640001 -0.72998965 0.19732688 0
1.763 -0.73194677 0.1974784 0
1.761 -0.73339522 0.19778144 0
1.76 -0.73534334 0.19793297 0
1.758 -0.73677921 0.198236 0
1.7570001 -0.73871833 0.19838752 0
1.756 -0.74065375 0.19853903 0
1.755 -0.74258566 0.19869058 0
1.7540001 -0.74451393 0.19884208 0
1.753 -0.74643856 0.19899361 0
1.753 -0.74887908 0.19899361 0
1.7520001 -0.7507984 0.19914511 0
1.751 -0.75271404 0.19929664 0
1.751 -0.75515097 0.19929664 0
1.75 -0.75706118 0.19944817 0
1.75 -0.75949633 0.19944817 0
1.75 -0.76193142 0.19944817 0
1.7490001 -0.76383448 0.19959967 0
1.75 -0.76680177 0.19944817 0
1.75 -0.76923692 0.19944817 0
1.75 -0.77167207 0.19944817 0
1.75 -0.77410716 0.19944817 0
1.751 -0.77708346 0.19929664 0
1.7520001 -0.78006339 0.19914511 0
1.753 -0.78304684 0.19899361 0
1.7540001 -0.78603399 0.19884208 0
1.756 -0.78957307 0.19853903 0
1.758 -0.79311931 0.198236 0
1.761 -0.79722476 0.19778144 0
1.7670001 -0.80300242 0.19687231 0
1.909 -0.8843596 0.17535651 0
1.9100001 -0.88763887 0.17520496 0
1.9130001 -0.89204019 0.17475042 0
1.9170001 -0.89701325 0.17414433 0
1.807 -0.716021 0.18827356 0
1.8000001 -0.71521288 0.18934684 0
1.796 -0.71581888 0.18996014 0
1.791 -0.71592897 0.19072676 0
1.788 -0.71698779 0.19118673 0
1.7850001 -0.71803582 0.1916467 0
1.781 -0.71858597 0.19226 0
1.779 -0.72009939 0.19256663 0
1.776 -0.72111487 0.1930266 0
1.774 -0.72261208 0.19333324 0
1.7720001 -0.72410208 0.19363989 0
1.7700001 -0.72558481 0.19394654 0
1.768 -0.7270602 0.19425321 0
1.766 -0.72852856 0.19455984 0
1.7640001 -0.72998965 0.19486648 0
1.763 -0.73194677 0.19501981 0
1.761 -0.73339522 0.19532646 0
1.76 -0.73534334 0.1954798 0
1.758 -0.73677921 0.19578645 0
1.7570001 -0.73871833 0.19593975 0
1.756 -0.74065375 0.19609308 0
1.755 -0.74258566 0.1962464 0
1.7540001 -0.74451393 0.19639972 0
1.753 -0.74643856 0.19655305 0
1.753 -0.74887908 0.19655305 0
1.7520001 -0.7507984 0.19670635 0
1.751 -0.75271404 0.19685969 0
1.751 -0.75515097 0.19685969 0
1.75 -0.75706118 0.19701304 0
1.75 -0.75949633 0.19701304 0
1.75 -0.76193142 0.19701304 0
1.7490001 -0.76383448 0.19716634 0
1.75 -0.76680177 0.19701304 0
1.75 -0.76923692 0.19701304 0
1.75 -0.77167207 0.19701304 0
1.75 -0.77410716 0.19701304 0
1.751 -0.77708346 0.19685969 0
1.7520001 -0.78006339 0.19670635 0
1.753 -0.78304684 0.19655305 0
1.7540001 -0.78603399 0.19639972 0
1.756 -0.78957307 0.19609308 0
1.758 -0.79311931 0.19578645 0
1.761 -0.79722476 0.19532646 0
1.7670001 -0.80300242 0.19440651 0
1.909 -0.8843596 0.17263456 0
1.9100001 -0.88763887 0.17248122 0
1.9130001 -0.89204019 0.17202125 0
1.9170001 -0.89701325 0.17140795 0
1.807 -0.716021 0.18573561 0
1.8000001 -0.71521288 0.18682149 0
1.796 -0.71581888 0.18744202 0
1.791 -0.71592897 0.18821765 0
1.788 -0.71698779 0.18868303 0
1.7850001 -0.71803582 0.18914841 0
1.781 -0.71858597 0.18976893 0
1.779 -0.72009939 0.19007917 0
1.776 -0.72111487 0.19054456 0
1.774 -0.72261208 0.19085482 0
1.7720001 -0.72410208 0.19116506 0
1.7700001 -0.72558481 0.19147533 0
1.768 -0.7270602 0.19178559 0
1.766 -0.72852856 0.19209583 0
1.7640001 -0.72998965 0.19240609 0
1.763 -0.73194677 0.19256122 0
1.761 -0.73339522 0.19287148 0
1.76 -0.73534334 0.19302662 0
1.758 -0.73677921 0.19333686 0
1.7570001 -0.73871833 0.19349198 0
1.756 -0.74065375 0.19364712 0
1.755 -0.74258566 0.19380225 0
1.7540001 -0.74451393 0.19395736 0
1.753 -0.74643856 0.19411251 0
1.753 -0.74887908 0.19411251 0
1.7520001 -0.7507984 0.19426762 0
1.751 -0.75271404 0.19442275 0
1.751 -0.75515097 0.19442275 0
1.75 -0.75706118 0.19457789 0
1.75 -0.75949633 0.19457789 0
1.75 -0.76193142 0.19457789 0
1.7490001 -0.76383448 0.19473301 0
1.75 -0.76680177 0.19457789 0
1.75 -0.76923692 0.19457789 0
1.75 -0.77167207 0.19457789 0
1.75 -0.77410716 0.19457789 0
1.751 -0.77708346 0.19442275 0
1.7520001 -0.78006339 0.19426762 0
1.753 -0.78304684 0.19411251 0
1.7540001 -0.78603399 0.19395736 0
1.756 -0.78957307 0.19364712 0
1.758 -0.79311931 0.19333686 0
1.761 -0.79722476 0.19287148 0
1.7670001 -0.80300242 0.1919407 0
1.909 -0.8843596 0.16991261 0
1.9100001 -0.88763887 0.16975746 0
1.9130001 -0.89204019 0.16929209 0
1.9170001 -0.89701325 0.16867158 0
1.807 -0.716021 0.18319766 0
1.8000001 -0.71521288 0.18429616 0
1.796 -0.71581888 0.1849239 0
1.791 -0.71592897 0.18570855 0
1.788 -0.71698779 0.18617935 0
1.7850001 -0.71803582 0.18665013 0
1.781 -0.71858597 0.18727787 0
1.779 -0.72009939 0.18759173 0
1.776 -0.72111487 0.18806252 0
1.774 -0.72261208 0.18837638 0
1.7720001 -0.72410208 0.18869025 0
1.7700001 -0.72558481 0.18900411 0
1.768 -0.7270602 0.18931797 0
1.766 -0.72852856 0.18963183 0
1.7640001 -0.72998965 0.1899457 0
1.763 -0.73194677 0.19010264 0
1.761 -0.73339522 0.1904165 0
1.76 -0.73534334 0.19057344 0
1.758 -0.73677921 0.19088729 0
1.7570001 -0.73871833 0.1910442 0
1.756 -0.74065375 0.19120115 0
1.755 -0.74258566 0.19135809 0
1.7540001 -0.74451393 0.19151501 0
1.753 -0.74643856 0.19167194 0
1.753 -0.74887908 0.19167194 0
1.7520001 -0.7507984 0.19182888 0
1.751 -0.75271404 0.19198582 0
1.751 -0.75515097 0.19198582 0
1.75 -0.75706118 0.19214274 0
1.75 -0.75949633 0.19214274 0
1.75 -0.76193142 0.19214274 0
1.7490001 -0.76383448 0.19229966 0
1.75 -0.76680177 0.19214274 0
1.75 -0.76923692 0.19214274 0
1.75 -0.77167207 0.19214274 0
1.75 -0.77410716 0.19214274 0
1.751 -0.77708346 0.19198582 0
1.7520001 -0.78006339 0.19182888 0
1.753 -0.78304684 0.19167194 0
1.7540001 -0.78603399 0.19151501 0
1.756 -0.78957307 0.19120115 0
1.758 -0.79311931 0.19088729 0
1.761 -0.79722476 0.1904165 0
1.7670001 -0.80300242 0.1894749 0
1.909 -0.8843596 0.16719066 0
1.9100001 -0.88763887 0.16703372 0
1.9130001 -0.89204019 0.16656291 0
1.9170001 -0.89701325 0.16593522 0
1.807 -0.716021 0.18065968 0
1.8000001 -0.71521288 0.18177083 0
1.796 -0.71581888 0.18240578 0
1.791 -0.71592897 0.18319945 0
1.788 -0.71698779 0.18367568 0
1.7850001 -0.71803582 0.18415186 0
1.781 -0.71858597 0.18478681 0
1.779 -0.72009939 0.18510428 0
1.776 -0.72111487 0.18558048 0
1.774 -0.72261208 0.18589796 0
1.7720001 -0.72410208 0.18621542 0
1.7700001 -0.72558481 0.18653288 0
1.768 -0.7270602 0.18685037 0
1.766 -0.72852856 0.18716782 0
1.7640001 -0.72998965 0.18748531 0
1.763 -0.73194677 0.18764405 0
1.761 -0.73339522 0.1879615 0
1.76 -0.73534334 0.18812026 0
1.758 -0.73677921 0.18843772 0
1.7570001 -0.73871833 0.18859644 0
1.756 -0.74065375 0.18875518 0
1.755 -0.74258566 0.18891393 0
1.7540001 -0.74451393 0.18907265 0
1.753 -0.74643856 0.1892314 0
1.753 -0.74887908 0.1892314 0
1.7520001 -0.7507984 0.18939011 0
1.751 -0.75271404 0.18954885 0
1.751 -0.75515097 0.18954885 0
1.75 -0.75706118 0.18970761 0
1.75 -0.75949633 0.18970761 0
1.75 -0.76193142 0.18970761 0
1.7490001 -0.76383448 0.18986633 0
1.75 -0.76680177 0.18970761 0
1.75 -0.76923692 0.18970761 0
1.75 -0.77167207 0.18970761 0
1.75 -0.77410716 0.18970761 0
1.751 -0.77708346 0.18954885 0
1.7520001 -0.78006339 0.18939011 0
1.753 -0.78304684 0.1892314 0
1.7540001 -0.78603399 0.18907265 0
1.756 -0.78957307 0.18875518 0
1.758 -0.79311931 0.18843772 0
1.761 -0.79722476 0.1879615 0
1.7670001 -0.80300242 0.1870091 0
1.909 -0.8843596 0.16446871 0
1.9100001 -0.88763887 0.16430998 0
1.9130001 -0.89204019 0.16383375 0
1.9170001 -0.89701325 0.16319884 0
1.807 -0.716021 0.17812173 0
1.8000001 -0.71521288 0.1792455 0
1.796 -0.71581888 0.17988767 0
1.791 -0.71592897 0.18069036 0
1.788 -0.71698779 0.18117198 0
1.7850001 -0.71803582 0.18165359 0
1.781 -0.71858597 0.18229575 0
1.779 -0.72009939 0.18261683 0
1.776 -0.72111487 0.18309845 0
1.774 -0.72261208 0.18341953 0
1.7720001 -0.72410208 0.18374059 0
1.7700001 -0.72558481 0.18406168 0
1.768 -0.7270602 0.18438277 0
1.766 -0.72852856 0.18470383 0
1.7640001 -0.72998965 0.18502492 0
1.763 -0.73194677 0.18518545 0
1.761 -0.73339522 0.18550652 0
1.76 -0.73534334 0.18566707 0
1.758 -0.73677921 0.18598814 0
1.7570001 -0.73871833 0.18614867 0
1.756 -0.74065375 0.18630922 0
1.755 -0.74258566 0.18646976 0
1.7540001 -0.74451393 0.18663029 0
1.753 -0.74643856 0.18679084 0
1.753 -0.74887908 0.18679084 0
1.7520001 -0.7507984 0.18695137 0
1.751 -0.75271404 0.18711191 0
1.751 -0.75515097 0.18711191 0
1.75 -0.75706118 0.18727246 0
1.75 -0.75949633 0.18727246 0
1.75 -0.76193142 0.18727246 0
1.7490001 -0.76383448 0.18743297 0
1.75 -0.76680177 0.18727246 0
1.75 -0.76923692 0.18727246 0
1.75 -0.77167207 0.18727246 0
1.75 -0.77410716 0.18727246 0
1.751 -0.77708346 0.18711191 0
1.7520001 -0.78006339 0.18695137 0
1.753 -0.78304684 0.18679084 0
1.7540001 -0.78603399 0.18663029 0
1.756 -0.78957307 0.18630922 0
1.758 -0.79311931 0.18598814 0
1.761 -0.79722476 0.18550652 0
1.7670001 -0.80300242 0.18454328 0
1.909 -0.8843596 0.16174676 0
1.9100001 -0.88763887 0.16158621 0
1.9130001 -0.89204019 0.16110459 0
1.9170001 -0.89701325 0.16046247 0
1.807 -0.716021 0.17558378 0
1.8000001 -0.71521288 0.17672017 0
1.796 -0.71581888 0.17736956 0
1.791 -0.71592897 0.17818126 0
1.788 -0.71698779 0.17866831 0
1.7850001 -0.71803582 0.17915531 0
1.781 -0.71858597 0.1798047 0
1.779 -0.72009939 0.18012936 0
1.776 -0.72111487 0.18061641 0
1.774 -0.72261208 0.18094109 0
1.7720001 -0.72410208 0.18126577 0
1.7700001 -0.72558481 0.18159045 0
1.768 -0.7270602 0.18191515 0
1.766 -0.72852856 0.18223983 0
1.7640001 -0.72998965 0.18256451 0
1.763 -0.73194677 0.18272686 0
1.761 -0.73339522 0.18305154 0
1.76 -0.73534334 0.18321389 0
1.758 -0.73677921 0.18353859 0
1.7570001 -0.73871833 0.1837009 0
1.756 -0.74065375 0.18386325 0
1.755 -0.74258566 0.1840256 0
1.7540001 -0.74451393 0.18418793 0
1.753 -0.74643856 0.18435028 0
1.753 -0.74887908 0.18435028 0
1.7520001 -0.7507984 0.18451263 0
1.751 -0.75271404 0.18467498 0
1.751 -0.75515097 0.18467498 0
1.75 -0.75706118 0.18483733 0
1.75 -0.75949633 0.18483733 0
1.75 -0.76193142 0.18483733 0
1.7490001 -0.76383448 0.18499964 0
1.75 -0.76680177 0.18483733 0
1.75 -0.76923692 0.18483733 0
1.75 -0.77167207 0.18483733 0
1.75 -0.77410716 0.18483733 0
1.751 -0.77708346 0.18467498 0
1.7520001 -0.78006339 0.18451263 0
1.753 -0.78304684 0.18435028 0
1.7540001 -0.78603399 0.18418793 0
1.756 -0.78957307 0.18386325 0
1.758 -0.79311931 0.18353859 0
1.761 -0.79722476 0.18305154 0
1.7670001 -0.80300242 0.18207748 0
1.909 -0.8843596 0.1590248 0
1.9100001 -0.88763887 0.15886247 0
1.9130001 -0.89204019 0.15837543 0
1.9170001 -0.89701325 0.15772606 0
1.807 -0.716021 0.17304583 0
1.8000001 -0.71521288 0.17419484 0
1.796 -0.71581888 0.17485143 0
1.791 -0.71592897 0.17567217 0
1.788 -0.71698779 0.17616461 0
1.7850001 -0.71803582 0.17665704 0
1.781 -0.71858597 0.17731363 0
1.779 -0.72009939 0.17764193 0
1.776 -0.72111487 0.17813437 0
1.774 -0.72261208 0.17846265 0
1.7720001 -0.72410208 0.17879094 0
1.7700001 -0.72558481 0.17911923 0
1.768 -0.7270602 0.17944753 0
1.766 -0.72852856 0.17977582 0
1.7640001 -0.72998965 0.18010412 0
1.763 -0.73194677 0.18026827 0
1.761 -0.73339522 0.18059656 0
1.76 -0.73534334 0.18076071 0
1.758 -0.73677921 0.181089 0
1.7570001 -0.73871833 0.18125315 0
1.756 -0.74065375 0.1814173 0
1.755 -0.74258566 0.18158145 0
1.7540001 -0.74451393 0.18174559 0
1.753 -0.74643856 0.18190974 0
1.753 -0.74887908 0.18190974 0
1.7520001 -0.7507984 0.18207386 0
1.751 -0.75271404 0.18223801 0
1.751 -0.75515097 0.18223801 0
1.75 -0.75706118 0.18240218 0
1.75 -0.75949633 0.18240218 0
1.75 -0.76193142 0.18240218 0
1.7490001 -0.76383448 0.18256631 0
1.75 -0.76680177 0.18240218 0
1.75 -0.76923692 0.18240218 0
1.75 -0.77167207 0.18240218 0
1.75 -0.77410716 0.18240218 0
1.751 -0.77708346 0.18223801 0
1.7520001 -0.78006339 0.18207386 0
1.753 -0.78304684 0.18190974 0
1.7540001 -0.78603399 0.18174559 0
1.756 -0.78957307 0.1814173 0
1.758 -0.79311931 0.181089 0
1.761 -0.79722476 0.18059656 0
1.7670001 -0.80300242 0.17961167 0
1.909 -0.8843596 0.15630288 0
1.9100001 -0.88763887 0.15613873 0
1.9130001 -0.89204019 0.15564626 0
1.9170001 -0.89701325 0.15498969 0
1.807 -0.716021 0.17050788 0
1.8000001 -0.71521288 0.17166951 0
1.796 -0.71581888 0.17233332 0
1.791 -0.71592897 0.17316307 0
1.788 -0.71698779 0.17366093 0
1.7850001 -0.71803582 0.17415875 0
1.781 -0.71858597 0.17482258 0
1.779 -0.72009939 0.17515448 0
1.776 -0.72111487 0.17565233 0
1.774 -0.72261208 0.17598422 0
1.7720001 -0.72410208 0.17631613 0
1.7700001 -0.72558481 0.17664802 0
1.768 -0.7270602 0.17697993 0
1.766 -0.72852856 0.17731182 0
1.7640001 -0.72998965 0.17764373 0
1.763 -0.73194677 0.17780969 0
1.761 -0.73339522 0.17814158 0
1.76 -0.73534334 0.17830753 0
1.758 -0.73677921 0.17863943 0
1.7570001 -0.73871833 0.17880537 0
1.756 -0.74065375 0.17897134 0
1.755 -0.74258566 0.17913729 0
1.7540001 -0.74451393 0.17930323 0
1.753 -0.74643856 0.17946918 0
1.753 -0.74887908 0.17946918 0
1.7520001 -0.7507984 0.17963512 0
1.751 -0.75271404 0.17980108 0
1.751 -0.75515097 0.17980108 0
1.75 -0.75706118 0.17996703 0
1.75 -0.75949633 0.17996703 0
1.75 -0.76193142 0.17996703 0
1.7490001 -0.76383448 0.18013297 0
1.75 -0.76680177 0.17996703 0
1.75 -0.76923692 0.17996703 0
1.75 -0.77167207 0.17996703 0
1.75 -0.77410716 0.17996703 0
1.751 -0.77708346 0.17980108 0
1.7520001 -0.78006339 0.17963512 0
1.753 -0.78304684 0.17946918 0
1.7540001 -0.78603399 0.17930323 0
1.756 -0.78957307 0.17897134 0
1.758 -0.79311931 0.17863943 0
1.761 -0.79722476 0.17814158 0
1.7670001 -0.80300242 0.17714587 0
1.909 -0.8843596 0.15358093 0
1.9100001 -0.88763887 0.15341496 0
1.9130001 -0.89204019 0.15291712 0
1.9170001 -0.89701325 0.1522533 0
1.807 -0.716021 0.1679699 0
1.8000001 -0.71521288 0.16914417 0
1.796 -0.71581888 0.1698152 0
1.791 -0.71592897 0.17065397 0
1.788 -0.71698779 0.17115724 0
1.7850001 -0.71803582 0.1716605 0
1.781 -0.71858597 0.17233153 0
1.779 -0.72009939 0.17266701 0
1.776 -0.72111487 0.17317028 0
1.774 -0.72261208 0.1735058 0
1.7720001 -0.72410208 0.1738413 0
1.7700001 -0.72558481 0.1741768 0
1.768 -0.7270602 0.17451233 0
1.766 -0.72852856 0.17484783 0
1.7640001 -0.72998965 0.17518334 0
1.763 -0.73194677 0.1753511 0
1.761 -0.73339522 0.1756866 0
1.76 -0.73534334 0.17585436 0
1.758 -0.73677921 0.17618985 0
1.7570001 -0.73871833 0.1763576 0
1.756 -0.74065375 0.17652535 0
1.755 -0.74258566 0.17669313 0
1.7540001 -0.74451393 0.17686087 0
1.753 -0.74643856 0.17702864 0
1.753 -0.74887908 0.17702864 0
1.7520001 -0.7507984 0.17719638 0
1.751 -0.75271404 0.17736414 0
1.751 -0.75515097 0.17736414 0
1.75 -0.75706118 0.1775319 0
1.75 -0.75949633 0.1775319 0
1.75 -0.76193142 0.1775319 0
1.7490001 -0.76383448 0.17769964 0
1.75 -0.76680177 0.1775319 0
1.75 -0.76923692 0.1775319 0
1.75 -0.77167207 0.1775319 0
1.75 -0.77410716 0.1775319 0
1.751 -0.77708346 0.17736414 0
1.7520001 -0.78006339 0.17719638 0
1.753 -0.78304684 0.17702864 0
1.7540001 -0.78603399 0.17686087 0
1.756 -0.78957307 0.17652535 0
1.758 -0.79311931 0.17618985 0
1.761 -0.79722476 0.1756866 0
1.7670001 -0.80300242 0.17468005 0
1.909 -0.8843596 0.15085897 0
1.9100001 -0.88763887 0.15069121 0
1.9130001 -0.89204019 0.15018794 0
1.9170001 -0.89701325 0.14951694 0
1.807 -0.716021 0.16543193 0
1.8000001 -0.71521288 0.16661885 0
1.796 -0.71581888 0.1672971 0
1.791 -0.71592897 0.16814488 0
1.788 -0.71698779 0.16865356 0
1.7850001 -0.71803582 0.1691622 0
1.781 -0.71858597 0.16984044 0
1.779 -0.72009939 0.17017956 0
1.776 -0.72111487 0.17068824 0
1.774 -0.72261208 0.17102736 0
1.7720001 -0.72410208 0.17136648 0
1.7700001 -0.72558481 0.17170557 0
1.768 -0.7270602 0.17204469 0
1.766 -0.72852856 0.17238382 0
1.7640001 -0.72998965 0.17272294 0
1.763 -0.73194677 0.1728925 0
1.761 -0.73339522 0.17323162 0
1.76 -0.73534334 0.17340118 0
1.758 -0.73677921 0.1737403 0
1.7570001 -0.73871833 0.17390983 0
1.756 -0.74065375 0.1740794 0
1.755 -0.74258566 0.17424896 0
1.7540001 -0.74451393 0.17441851 0
1.753 -0.74643856 0.17458807 0
1.753 -0.74887908 0.17458807 0
1.7520001 -0.7507984 0.17475761 0
1.751 -0.75271404 0.17492719 0
1.751 -0.75515097 0.17492719 0
1.75 -0.75706118 0.17509675 0
1.75 -0.75949633 0.17509675 0
1.75 -0.76193142 0.17509675 0
1.7490001 -0.76383448 0.17526631 0
1.75 -0.76680177 0.17509675 0
1.75 -0.76923692 0.17509675 0
1.75 -0.77167207 0.17509675 0
1.75 -0.77410716 0.17509675 0
1.751 -0.77708346 0.17492719 0
1.7520001 -0.78006339 0.17475761 0
1.753 -0.78304684 0.17458807 0
1.7540001 -0.78603399 0.17441851 0
1.756 -0.78957307 0.1740794 0
1.758 -0.79311931 0.1737403 0
1.761 -0.79722476 0.17323162 0
1.7670001 -0.80300242 0.17221424 0
1.909 -0.8843596 0.14813703 0
1.9100001 -0.88763887 0.14796746 0
1.9130001 -0.89204019 0.14745879 0
1.9170001 -0.89701325 0.14678058 0
1.807 -0.716021 0.16289398 0
1.8000001 -0.71521288 0.16409351 0
1.796 -0.71581888 0.16477899 0
1.791 -0.71592897 0.16563578 0
1.788 -0.71698779 0.16614987 0
1.7850001 -0.71803582 0.16666393 0
1.781 -0.71858597 0.1673494 0
1.779 -0.72009939 0.16769212 0
1.776 -0.72111487 0.16820621 0
1.774 -0.72261208 0.16854891 0
1.7720001 -0.72410208 0.16889164 0
1.7700001 -0.72558481 0.16923437 0
1.768 -0.7270602 0.16957709 0
1.766 -0.72852856 0.16991982 0
1.7640001 -0.72998965 0.17026255 0
1.763 -0.73194677 0.17043391 0
1.761 -0.73339522 0.17077662 0
1.76 -0.73534334 0.17094801 0
1.758 -0.73677921 0.17129071 0
1.7570001 -0.73871833 0.17146207 0
1.756 -0.74065375 0.17163344 0
1.755 -0.74258566 0.1718048 0
1.7540001 -0.74451393 0.17197616 0
1.753 -0.74643856 0.17214753 0
1.753 -0.74887908 0.17214753 0
1.7520001 -0.7507984 0.17231886 0
1.751 -0.75271404 0.17249025 0
1.751 -0.75515097 0.17249025 0
1.75 -0.75706118 0.17266162 0
1.75 -0.75949633 0.17266162 0
1.75 -0.76193142 0.17266162 0
1.7490001 -0.76383448 0.17283295 0
1.75 -0.76680177 0.17266162 0
1.75 -0.76923692 0.17266162 0
1.75 -0.77167207 0.17266162 0
1.75 -0.77410716 0.17266162 0
1.751 -0.77708346 0.17249025 0
1.7520001 -0.78006339 0.17231886 0
1.753 -0.78304684 0.17214753 0
1.7540001 -0.78603399 0.17197616 0
1.756 -0.78957307 0.17163344 0
1.758 -0.79311931 0.17129071 0
1.761 -0.79722476 0.17077662 0
1.7670001 -0.80300242 0.16974846 0
1.909 -0.8843596 0.14541507 0
1.9100001 -0.88763887 0.1452437 0
1.9130001 -0.89204019 0.14472961 0
1.9170001 -0.89701325 0.14404419 0
1.807 -0.716021 0.16035603 0
1.8000001 -0.71521288 0.16156818 0
1.796 -0.71581888 0.16226085 0
1.791 -0.71592897 0.16312668 0
1.788 -0.71698779 0.16364619 0
1.7850001 -0.71803582 0.16416568 0
1.781 -0.71858597 0.16485834 0
1.779 -0.72009939 0.16520467 0
1.776 -0.72111487 0.16572416 0
1.774 -0.72261208 0.16607049 0
1.7720001 -0.72410208 0.16641682 0
1.7700001 -0.72558481 0.16676313 0
1.768 -0.7270602 0.16710949 0
1.766 -0.72852856 0.16745582 0
1.7640001 -0.72998965 0.16780216 0
1.763 -0.73194677 0.16797531 0
1.761 -0.73339522 0.16832164 0
1.76 -0.73534334 0.16849482 0
1.758 -0.73677921 0.16884114 0
1.7570001 -0.73871833 0.16901432 0
1.756 -0.74065375 0.16918747 0
1.755 -0.74258566 0.16936065 0
1.7540001 -0.74451393 0.1695338 0
1.753 -0.74643856 0.16970699 0
1.753 -0.74887908 0.16970699 0
1.7520001 -0.7507984 0.16988014 0
1.751 -0.75271404 0.17005329 0
1.751 -0.75515097 0.17005329 0
1.75 -0.75706118 0.17022647 0
1.75 -0.75949633 0.17022647 0
1.75 -0.76193142 0.17022647 0
1.7490001 -0.76383448 0.17039962 0
1.75 -0.76680177 0.17022647 0
1.75 -0.76923692 0.17022647 0
1.75 -0.77167207 0.17022647 0
1.75 -0.77410716 0.17022647 0
1.751 -0.77708346 0.17005329 0
1.7520001 -0.78006339 0.16988014 0
1.753 -0.78304684 0.16970699 0
1.7540001 -0.78603399 0.1695338 0
1.756 -0.78957307 0.16918747 0
1.758 -0.79311931 0.16884114 0
1.761 -0.79722476 0.16832164 0
1.7670001 -0.80300242 0.16728264 0
1.909 -0.8843596 0.14269313 0
1.9100001 -0.88763887 0.14251998 0
1.9130001 -0.89204019 0.14200047 0
1.9170001 -0.89701325 0.14130783 0
1.807 -0.716021 0.15781808 0
1.8000001 -0.71521288 0.15904287 0
1.796 -0.71581888 0.15974274 0
1.791 -0.71592897 0.16061759 0
1.788 -0.71698779 0.1611425 0
1.7850001 -0.71803582 0.16166738 0
1.781 -0.71858597 0.16236728 0
1.779 -0.72009939 0.16271722 0
1.776 -0.72111487 0.16324213 0
1.774 -0.72261208 0.16359207 0
1.7720001 -0.72410208 0.16394198 0
1.7700001 -0.72558481 0.16429192 0
1.768 -0.7270602 0.16464189 0
1.766 -0.72852856 0.16499183 0
1.7640001 -0.72998965 0.16534173 0
1.763 -0.73194677 0.16551673 0
1.761 -0.73339522 0.16586667 0
1.76 -0.73534334 0.16604164 0
1.758 -0.73677921 0.16639158 0
1.7570001 -0.73871833 0.16656652 0
1.756 -0.74065375 0.16674149 0
1.755 -0.74258566 0.16691649 0
1.7540001 -0.74451393 0.16709144 0
1.753 -0.74643856 0.16726643 0
1.753 -0.74887908 0.16726643 0
1.7520001 -0.7507984 0.16744138 0
1.751 -0.75271404 0.16761635 0
1.751 -0.75515097 0.16761635 0
1.75 -0.75706118 0.16779134 0
1.75 -0.75949633 0.16779134 0
1.75 -0.76193142 0.16779134 0
1.7490001 -0.76383448 0.16796629 0
1.75 -0.76680177 0.16779134 0
1.75 -0.76923692 0.16779134 0
1.75 -0.77167207 0.16779134 0
1.75 -0.77410716 0.16779134 0
1.751 -0.77708346 0.16761635 0
1.7520001 -0.78006339 0.16744138 0
1.753 -0.78304684 0.16726643 0
1.7540001 -0.78603399 0.16709144 0
1.756 -0.78957307 0.16674149 0
1.758 -0.79311931 0.16639158 0
1.761 -0.79722476 0.16586667 0
1.7670001 -0.80300242 0.16481683 0
1.909 -0.8843596 0.1399712 0
1.9100001 -0.88763887 0.1397962 0
1.9130001 -0.89204019 0.13927129 0
1.9170001 -0.89701325 0.13857144 0
1.807 -0.716021 0.15528013 0
1.8000001 -0.71521288 0.15651752 0
1.796 -0.71581888 0.15722463 0
1.791 -0.71592897 0.15810847 0
1.788 -0.71698779 0.15863881 0
1.7850001 -0.71803582 0.15916911 0
1.781 -0.71858597 0.15987623 0
1.779 -0.72009939 0.16022974 0
1.776 -0.72111487 0.16076007 0
1.774 -0.72261208 0.16111362 0
1.7720001 -0.72410208 0.16146716 0
1.7700001 -0.72558481 0.16182071 0
1.768 -0.7270602 0.16217428 0
1.766 -0.72852856 0.1625278 0
1.7640001 -0.72998965 0.16288134 0
1.763 -0.73194677 0.16305813 0
1.761 -0.73339522 0.16341168 0
1.76 -0.73534334 0.16358846 0
1.758 -0.73677921 0.16394201 0
1.7570001 -0.73871833 0.16411877 0
1.756 -0.74065375 0.16429555 0
1.755 -0.74258566 0.16447231 0
1.7540001 -0.74451393 0.16464907 0
1.753 -0.74643856 0.16482586 0
1.753 -0.74887908 0.16482586 0
1.7520001 -0.7507984 0.16500261 0
1.751 -0.75271404 0.1651794 0
1.751 -0.75515097 0.1651794 0
1.75 -0.75706118 0.16535619 0
1.75 -0.75949633 0.16535619 0
1.75 -0.76193142 0.16535619 0
1.7490001 -0.76383448 0.16553295 0
1.75 -0.76680177 0.16535619 0
1.75 -0.76923692 0.16535619 0
1.75 -0.77167207 0.16535619 0
1.75 -0.77410716 0.16535619 0
1.751 -0.77708346 0.1651794 0
1.7520001 -0.78006339 0.16500261 0
1.753 -0.78304684 0.16482586 0
1.7540001 -0.78603399 0.16464907 0
1.756 -0.78957307 0.16429555 0
1.758 -0.79311931 0.16394201 0
1.761 -0.79722476 0.16341168 0
1.7670001 -0.80300242 0.16235104 0
1.909 -0.8843596 0.13724926 0
1.9100001 -0.88763887 0.13707247 0
1.9130001 -0.89204019 0.13654214 0
1.9170001 -0.89701325 0.13583508 0
1.807 -0.716021 0.15274218 0
1.8000001 -0.71521288 0.15399221 0
1.796 -0.71581888 0.15470649 0
1.791 -0.71592897 0.1555994 0
1.788 -0.71698779 0.15613513 0
1.7850001 -0.71803582 0.15667085 0
1.781 -0.71858597 0.15738516 0
1.779 -0.72009939 0.15774231 0
1.776 -0.72111487 0.15827805 0
1.774 -0.72261208 0.1586352 0
1.7720001 -0.72410208 0.15899235 0
1.7700001 -0.72558481 0.1593495 0
1.768 -0.7270602 0.15970665 0
1.766 -0.72852856 0.1600638 0
1.7640001 -0.72998965 0.16042095 0
1.763 -0.73194677 0.16059956 0
1.761 -0.73339522 0.16095668 0
1.76 -0.73534334 0.16113529 0
1.758 -0.73677921 0.16149244 0
1.7570001 -0.73871833 0.16167098 0
1.756 -0.74065375 0.16184959 0
1.755 -0.74258566 0.16202816 0
1.7540001 -0.74451393 0.16220674 0
1.753 -0.74643856 0.16238531 0
1.753 -0.74887908 0.16238531 0
1.7520001 -0.7507984 0.16256389 0
1.751 -0.75271404 0.16274247 0
1.751 -0.75515097 0.16274247 0
1.75 -0.75706118 0.16292104 0
1.75 -0.75949633 0.16292104 0
1.75 -0.76193142 0.16292104 0
1.7490001 -0.76383448 0.16309962 0
1.75 -0.76680177 0.16292104 0
1.75 -0.76923692 0.16292104 0
1.75 -0.77167207 0.16292104 0
1.75 -0.77410716 0.16292104 0
1.751 -0.77708346 0.16274247 0
1.7520001 -0.78006339 0.16256389 0
1.753 -0.78304684 0.16238531 0
1.7540001 -0.78603399 0.16220674 0
1.756 -0.78957307 0.16184959 0
1.758 -0.79311931 0.16149244 0
1.761 -0.79722476 0.16095668 0
1.7670001 -0.80300242 0.15988523 0
1.909 -0.8843596 0.1345273 0
1.9100001 -0.88763887 0.13434872 0
1.9130001 -0.89204019 0.13381296 0
1.9170001 -0.89701325 0.13309866 0
1.807 -0.716021 0.15020418 0
1.8000001 -0.71521288 0.15146685 0
1.796 -0.71581888 0.15218839 0
1.791 -0.71592897 0.1530903 0
1.788 -0.71698779 0.15363145 0
1.7850001 -0.71803582 0.15417255 0
1.781 -0.71858597 0.1548941 0
1.779 -0.72009939 0.15525486 0
1.776 -0.72111487 0.15579601 0
1.774 -0.72261208 0.15615676 0
1.7720001 -0.72410208 0.15651752 0
1.7700001 -0.72558481 0.15687828 0
1.768 -0.7270602 0.15723905 0
1.766 -0.72852856 0.15759981 0
1.7640001 -0.72998965 0.15796056 0
1.763 -0.73194677 0.15814096 0
1.761 -0.73339522 0.15850171 0
1.76 -0.73534334 0.15868211 0
1.758 -0.73677921 0.15904287 0
1.7570001 -0.73871833 0.15922323 0
1.756 -0.74065375 0.15940362 0
1.755 -0.74258566 0.15958402 0
1.7540001 -0.74451393 0.15976438 0
1.753 -0.74643856 0.15994477 0
1.753 -0.74887908 0.15994477 0
1.7520001 -0.7507984 0.16012514 0
1.751 -0.75271404 0.16030553 0
1.751 -0.75515097 0.16030553 0
1.75 -0.75706118 0.16048591 0
1.75 -0.75949633 0.16048591 0
1.75 -0.76193142 0.16048591 0
1.7490001 -0.76383448 0.16066627 0
1.75 -0.76680177 0.16048591 0
1.75 -0.76923692 0.16048591 0
1.75 -0.77167207 0.16048591 0
1.75 -0.77410716 0.16048591 0
1.751 -0.77708346 0.16030553 0
1.7520001 -0.78006339 0.16012514 0
1.753 -0.78304684 0.15994477 0
1.7540001 -0.78603399 0.15976438 0
1.756 -0.78957307 0.15940362 0
1.758 -0.79311931 0.15904287 0
1.761 -0.79722476 0.15850171 0
1.7670001 -0.80300242 0.15741941 0
1.909 -0.8843596 0.13180536 0
1.9100001 -0.88763887 0.13162497 0
1.9130001 -0.89204019 0.13108382 0
1.9170001 -0.89701325 0.1303623 0
1.807 -0.716021 0.14766625 0
1.8000001 -0.71521288 0.14894152 0
1.796 -0.71581888 0.14967027 0
1.791 -0.71592897 0.15058121 0
1.788 -0.71698779 0.15112776 0
1.7850001 -0.71803582 0.1516743 0
1.781 -0.71858597 0.15240306 0
1.779 -0.72009939 0.15276742 0
1.776 -0.72111487 0.15331396 0
1.774 -0.72261208 0.15367833 0
1.7720001 -0.72410208 0.15404271 0
1.7700001 -0.72558481 0.15440707 0
1.768 -0.7270602 0.15477145 0
1.766 -0.72852856 0.15513581 0
1.7640001 -0.72998965 0.15550017 0
1.763 -0.73194677 0.15568236 0
1.761 -0.73339522 0.15604675 0
1.76 -0.73534334 0.15622893 0
1.758 -0.73677921 0.15659329 0
1.7570001 -0.73871833 0.15677547 0
1.756 -0.74065375 0.15695766 0
1.755 -0.74258566 0.15713985 0
1.7540001 -0.74451393 0.157322 0
1.753 -0.74643856 0.15750422 0
1.753 -0.74887908 0.15750422 0
1.7520001 -0.7507984 0.15768637 0
1.751 -0.75271404 0.15786858 0
1.751 -0.75515097 0.15786858 0
1.75 -0.75706118 0.15805076 0
1.75 -0.75949633 0.15805076 0
1.75 -0.76193142 0.15805076 0
1.7490001 -0.76383448 0.15823294 0
1.75 -0.76680177 0.15805076 0
1.75 -0.76923692 0.15805076 0
1.75 -0.77167207 0.15805076 0
1.75 -0.77410716 0.15805076 0
1.751 -0.77708346 0.15786858 0
1.7520001 -0.78006339 0.15768637 0
1.753 -0.78304684 0.15750422 0
1.7540001 -0.78603399 0.157322 0
1.756 -0.78957307 0.15695766 0
1.758 -0.79311931 0.15659329 0
1.761 -0.79722476 0.15604675 0
1.7670001 -0.80300242 0.1549536 0
1.909 -0.8843596 0.1290834 0
1.9100001 -0.88763887 0.12890121 0
1.9130001 -0.89204019 0.12835464 0
1.9170001 -0.89701325 0.12762591 0
1.807 -0.716021 0.14512828 0
1.8000001 -0.71521288 0.14641622 0
1.796 -0.71581888 0.14715216 0
1.791 -0.71592897 0.14807209 0
1.788 -0.71698779 0.14862406 0
1.7850001 -0.71803582 0.14917603 0
1.781 -0.71858597 0.149912 0
1.779 -0.72009939 0.15027997 0
1.776 -0.72111487 0.15083194 0
1.774 -0.72261208 0.15119988 0
1.7720001 -0.72410208 0.15156785 0
1.7700001 -0.72558481 0.15193585 0
1.768 -0.7270602 0.15230381 0
1.766 -0.72852856 0.15267181 0
1.7640001 -0.72998965 0.15303978 0
1.763 -0.73194677 0.15322378 0
1.761 -0.73339522 0.15359175 0
1.76 -0.73534334 0.15377575 0
1.758 -0.73677921 0.15414371 0
1.7570001 -0.73871833 0.15432768 0
1.756 -0.74065375 0.15451168 0
1.755 -0.74258566 0.15469567 0
1.7540001 -0.74451393 0.15487967 0
1.753 -0.74643856 0.15506364 0
1.753 -0.74887908 0.15506364 0
1.7520001 -0.7507984 0.15524764 0
1.751 -0.75271404 0.15543164 0
1.751 -0.75515097 0.15543164 0
1.75 -0.75706118 0.15561564 0
1.75 -0.75949633 0.15561564 0
1.75 -0.76193142 0.15561564 0
1.7490001 -0.76383448 0.15579961 0
1.75 -0.76680177 0.15561564 0
1.75 -0.76923692 0.15561564 0
1.75 -0.77167207 0.15561564 0
1.75 -0.77410716 0.15561564 0
1.751 -0.77708346 0.15543164 0
1.7520001 -0.78006339 0.15524764 0
1.753 -0.78304684 0.15506364 0
1.7540001 -0.78603399 0.15487967 0
1.756 -0.78957307 0.15451168 0
1.758 -0.79311931 0.15414371 0
1.761 -0.79722476 0.15359175 0
1.7670001 -0.80300242 0.15248781 0
1.909 -0.8843596 0.12636146 0
1.9100001 -0.88763887 0.12617749 0
1.9130001 -0.89204019 0.12562549 0
1.9170001 -0.89701325 0.12488955 0
1.807 -0.716021 0.14259031 0
1.8000001 -0.71521288 0.14389086 0
1.796 -0.71581888 0.14463404 0
1.791 -0.71592897 0.14556298 0
1.788 -0.71698779 0.14612037 0
1.7850001 -0.71803582 0.14667773 0
1.781 -0.71858597 0.14742091 0
1.779 -0.72009939 0.14779252 0
1.776 -0.72111487 0.14834988 0
1.774 -0.72261208 0.14872149 0
1.7720001 -0.72410208 0.14909303 0
1.7700001 -0.72558481 0.14946461 0
1.768 -0.7270602 0.14983621 0
1.766 -0.72852856 0.15020779 0
1.7640001 -0.72998965 0.15057939 0
1.763 -0.73194677 0.15076518 0
1.761 -0.73339522 0.15113676 0
1.76 -0.73534334 0.15132257 0
1.758 -0.73677921 0.15169415 0
1.7570001 -0.73871833 0.15187994 0
1.756 -0.74065375 0.15206575 0
1.755 -0.74258566 0.15225151 0
1.7540001 -0.74451393 0.1524373 0
1.753 -0.74643856 0.15262309 0
1.753 -0.74887908 0.15262309 0
1.7520001 -0.7507984 0.15280887 0
1.751 -0.75271404 0.15299469 0
1.751 -0.75515097 0.15299469 0
1.75 -0.75706118 0.15318048 0
1.75 -0.75949633 0.15318048 0
1.75 -0.76193142 0.15318048 0
1.7490001 -0.76383448 0.15336627 0
1.75 -0.76680177 0.15318048 0
1.75 -0.76923692 0.15318048 0
1.75 -0.77167207 0.15318048 0
1.75 -0.77410716 0.15318048 0
1.751 -0.77708346 0.15299469 0
1.7520001 -0.78006339 0.15280887 0
1.753 -0.78304684 0.15262309 0
1.7540001 -0.78603399 0.1524373 0
1.756 -0.78957307 0.15206575 0
1.758 -0.79311931 0.15169415 0
1.761 -0.79722476 0.15113676 0
1.7670001 -0.80300242 0.150022 0
1.909 -0.8843596 0.12363952 0
1.9100001 -0.88763887 0.12345371 0
1.9130001 -0.89204019 0.12289631 0
1.9170001 -0.89701325 0.12215316 0
1.807 -0.716021 0.14005238 0
1.8000001 -0.71521288 0.14136553 0
1.796 -0.71581888 0.14211592 0
1.791 -0.71592897 0.14305392 0
1.788 -0.71698779 0.14361671 0
1.7850001 -0.71803582 0.14417946 0
1.781 -0.71858597 0.14492986 0
1.779 -0.72009939 0.14530507 0
1.776 -0.72111487 0.14586785 0
1.774 -0.72261208 0.14624304 0
1.7720001 -0.72410208 0.14661822 0
1.7700001 -0.72558481 0.1469934 0
1.768 -0.7270602 0.14736861 0
1.766 -0.72852856 0.14774379 0
1.7640001 -0.72998965 0.148119 0
1.763 -0.73194677 0.14830661 0
1.761 -0.73339522 0.14868179 0
1.76 -0.73534334 0.1488694 0
1.758 -0.73677921 0.14924458 0
1.7570001 -0.73871833 0.14943215 0
1.756 -0.74065375 0.14961976 0
1.755 -0.74258566 0.14980736 0
1.7540001 -0.74451393 0.14999494 0
1.753 -0.74643856 0.15018255 0
1.753 -0.74887908 0.15018255 0
1.7520001 -0.7507984 0.15037012 0
1.751 -0.75271404 0.15055773 0
1.751 -0.75515097 0.15055773 0
1.75 -0.75706118 0.15074533 0
1.75 -0.75949633 0.15074533 0
1.75 -0.76193142 0.15074533 0
1.7490001 -0.76383448 0.15093294 0
1.75 -0.76680177 0.15074533 0
1.75 -0.76923692 0.15074533 0
1.75 -0.77167207 0.15074533 0
1.75 -0.77410716 0.15074533 0
1.751 -0.77708346 0.15055773 0
1.7520001 -0.78006339 0.15037012 0
1.753 -0.78304684 0.15018255 0
1.7540001 -0.78603399 0.14999494 0
1.756 -0.78957307 0.14961976 0
1.758 -0.79311931 0.14924458 0
1.761 -0.79722476 0.14868179 0
1.7670001 -0.80300242 0.14755619 0
1.909 -0.8843596 0.12091756 0
1.9100001 -0.88763887 0.12072995 0
1.9130001 -0.89204019 0.12016717 0
1.9170001 -0.89701325 0.1194168 0
1.807 -0.716021 0.13751441 0
1.8000001 -0.71521288 0.1388402 0
1.796 -0.71581888 0.1395978 0
1.791 -0.71592897 0.1405448 0
1.788 -0.71698779 0.14111301 0
1.7850001 -0.71803582 0.14168119 0
1.781 -0.71858597 0.1424388 0
1.779 -0.72009939 0.14281759 0
1.776 -0.72111487 0.1433858 0
1.774 -0.72261208 0.14376462 0
1.7720001 -0.72410208 0.1441434 0
1.7700001 -0.72558481 0.14452219 0
1.768 -0.7270602 0.14490101 0
1.766 -0.72852856 0.14527979 0
1.7640001 -0.72998965 0.14565861 0
1.763 -0.73194677 0.14584801 0
1.761 -0.73339522 0.14622682 0
1.76 -0.73534334 0.14641622 0
1.758 -0.73677921 0.14679497 0
1.7570001 -0.73871833 0.14698437 0
1.756 -0.74065375 0.14717379 0
1.755 -0.74258566 0.14736319 0
1.7540001 -0.74451393 0.14755258 0
1.753 -0.74643856 0.147742 0
1.753 -0.74887908 0.147742 0
1.7520001 -0.7507984 0.1479314 0
1.751 -0.75271404 0.14812079 0
1.751 -0.75515097 0.14812079 0
1.75 -0.75706118 0.14831021 0
1.75 -0.75949633 0.14831021 0
1.75 -0.76193142 0.14831021 0
1.7490001 -0.76383448 0.14849961 0
1.75 -0.76680177 0.14831021 0
1.75 -0.76923692 0.14831021 0
1.75 -0.77167207 0.14831021 0
1.75 -0.77410716 0.14831021 0
1.751 -0.77708346 0.14812079 0
1.7520001 -0.78006339 0.1479314 0
1.753 -0.78304684 0.147742 0
1.7540001 -0.78603399 0.14755258 0
1.756 -0.78957307 0.14717379 0
1.758 -0.79311931 0.14679497 0
1.761 -0.79722476 0.14622682 0
1.7670001 -0.80300242 0.1450904 0
1.909 -0.8843596 0.11819562 0
1.9100001 -0.88763887 0.1180062 0
1.9130001 -0.89204019 0.11743799 0
1.9170001 -0.89701325 0.11668041 0
1.807 -0.716021 0.13497645 0
1.8000001 -0.71521288 0.13631487 0
1.796 -0.71581888 0.13707972 0
1.791 -0.71592897 0.13803571 0
1.788 -0.71698779 0.13860932 0
1.7850001 -0.71803582 0.13918293 0
1.781 -0.71858597 0.13994774 0
1.779 -0.72009939 0.14033014 0
1.776 -0.72111487 0.14090377 0
1.774 -0.72261208 0.14128616 0
1.7720001 -0.72410208 0.14166859 0
1.7700001 -0.72558481 0.14205095 0
1.768 -0.7270602 0.1424334 0
1.766 -0.72852856 0.1428158 0
1.7640001 -0.72998965 0.14319819 0
1.763 -0.73194677 0.14338943 0
1.761 -0.73339522 0.14377183 0
1.76 -0.73534334 0.14396304 0
1.758 -0.73677921 0.14434543 0
1.7570001 -0.73871833 0.14453661 0
1.756 -0.74065375 0.14472783 0
1.755 -0.74258566 0.14491904 0
1.7540001 -0.74451393 0.14511022 0
1.753 -0.74643856 0.14530146 0
1.753 -0.74887908 0.14530146 0
1.7520001 -0.7507984 0.14549264 0
1.751 -0.75271404 0.14568385 0
1.751 -0.75515097 0.14568385 0
1.75 -0.75706118 0.14587507 0
1.75 -0.75949633 0.14587507 0
1.75 -0.76193142 0.14587507 0
1.7490001 -0.76383448 0.14606628 0
1.75 -0.76680177 0.14587507 0
1.75 -0.76923692 0.14587507 0
1.75 -0.77167207 0.14587507 0
1.75 -0.77410716 0.14587507 0
1.751 -0.77708346 0.14568385 0
1.7520001 -0.78006339 0.14549264 0
1.753 -0.78304684 0.14530146 0
1.7540001 -0.78603399 0.14511022 0
1.756 -0.78957307 0.14472783 0
1.758 -0.79311931 0.14434543 0
1.761 -0.79722476 0.14377183 0
1.7670001 -0.80300242 0.14262459 0
1.909 -0.8843596 0.11547366 0
1.9100001 -0.88763887 0.11528245 0
1.9130001 -0.89204019 0.11470884 0
1.9170001 -0.89701325 0.11394405 0
1.807 -0.716021 0.13243848 0
1.8000001 -0.71521288 0.13378954 0
1.796 -0.71581888 0.13456157 0
1.791 -0.71592897 0.1355266 0
1.788 -0.71698779 0.13610563 0
1.7850001 -0.71803582 0.13668466 0
1.781 -0.71858597 0.13745669 0
1.779 -0.72009939 0.13784268 0
1.776 -0.72111487 0.13842171 0
1.774 -0.72261208 0.13880774 0
1.7720001 -0.72410208 0.13919374 0
1.7700001 -0.72558481 0.13957974 0
1.768 -0.7270602 0.13996577 0
1.766 -0.72852856 0.1403518 0
1.7640001 -0.72998965 0.1407378 0
1.763 -0.73194677 0.14093083 0
1.761 -0.73339522 0.14131683 0
1.76 -0.73534334 0.14150983 0
1.758 -0.73677921 0.14189586 0
1.7570001 -0.73871833 0.14208886 0
1.756 -0.74065375 0.14228186 0
1.755 -0.74258566 0.14247489 0
1.7540001 -0.74451393 0.14266789 0
1.753 -0.74643856 0.14286089 0
1.753 -0.74887908 0.14286089 0
1.7520001 -0.7507984 0.14305389 0
1.751 -0.75271404 0.14324692 0
1.751 -0.75515097 0.14324692 0
1.75 -0.75706118 0.14343992 0
1.75 -0.75949633 0.14343992 0
1.75 -0.76193142 0.14343992 0
1.7490001 -0.76383448 0.14363289 0
1.75 -0.76680177 0.14343992 0
1.75 -0.76923692 0.14343992 0
1.75 -0.77167207 0.14343992 0
1.75 -0.77410716 0.14343992 0
1.751 -0.77708346 0.14324692 0
1.7520001 -0.78006339 0.14305389 0
1.753 -0.78304684 0.14286089 0
1.7540001 -0.78603399 0.14266789 0
1.756 -0.78957307 0.14228186 0
1.758 -0.79311931 0.14189586 0
1.761 -0.79722476 0.14131683 0
1.7670001 -0.80300242 0.14015877 0
1.909 -0.8843596 0.11275172 0
1.9100001 -0.88763887 0.11255872 0
1.9130001 -0.89204019 0.11197969 0
1.9170001 -0.89701325 0.11120766 0
1.807 -0.716021 0.12990052 0
1.8000001 -0.71521288 0.13126421 0
1.796 -0.71581888 0.13204345 0
1.791 -0.71592897 0.13301754 0
1.788 -0.71698779 0.13360193 0
1.7850001 -0.71803582 0.13418636 0
1.781 -0.71858597 0.13496563 0
1.779 -0.72009939 0.13535523 0
1.776 -0.72111487 0.13593969 0
1.774 -0.72261208 0.13632929 0
1.7720001 -0.72410208 0.13671893 0
1.7700001 -0.72558481 0.13710853 0
1.768 -0.7270602 0.13749817 0
1.766 -0.72852856 0.13788781 0
1.7640001 -0.72998965 0.13827741 0
1.763 -0.73194677 0.13847223 0
1.761 -0.73339522 0.13886186 0
1.76 -0.73534334 0.13905665 0
1.758 -0.73677921 0.13944629 0
1.7570001 -0.73871833 0.13964108 0
1.756 -0.74065375 0.13983589 0
1.755 -0.74258566 0.14003074 0
1.7540001 -0.74451393 0.14022553 0
1.753 -0.74643856 0.14042035 0
1.753 -0.74887908 0.14042035 0
1.7520001 -0.7507984 0.14061517 0
1.751 -0.75271404 0.14080995 0
1.751 -0.75515097 0.14080995 0
1.75 -0.75706118 0.14100477 0
1.75 -0.75949633 0.14100477 0
1.75 -0.76193142 0.14100477 0
1.7490001 -0.76383448 0.14119956 0
1.75 -0.76680177 0.14100477 0
1.75 -0.76923692 0.14100477 0
1.75 -0.77167207 0.14100477 0
1.75 -0.77410716 0.14100477 0
1.751 -0.77708346 0.14080995 0
1.7520001 -0.78006339 0.14061517 0
1.753 -0.78304684 0.14042035 0
1.7540001 -0.78603399 0.14022553 0
1.756 -0.78957307 0.13983589 0
1.758 -0.79311931 0.13944629 0
1.761 -0.79722476 0.13886186 0
1.7670001 -0.80300242 0.13769296 0
1.909 -0.8843596 0.11002979 0
1.9100001 -0.88763887 0.10983494 0
1.9130001 -0.89204019 0.10925055 0
1.9170001 -0.89701325 0.10847127 0
1.807 -0.716021 0.12736258 0
1.8000001 -0.71521288 0.12873888 0
1.796 -0.71581888 0.12952533 0
1.791 -0.71592897 0.13050842 0
1.788 -0.71698779 0.13109827 0
1.7850001 -0.71803582 0.13168809 0
1.781 -0.71858597 0.13247457 0
1.779 -0.72009939 0.13286781 0
