# .PCD v0.7 - Point Cloud Data file format
VERSION 0.7
FIELDS x y z intensity
SIZE 4 4 4 4
TYPE F F F F
COUNT 1 1 1 1
WIDTH 1373
HEIGHT 1
VIEWPOINT 0 0 0 1 0 0 0
POINTS 1373
DATA ascii
6.0860004 -0.68190014 0.80400169 0
6.0900002 -0.6926111 0.80428308 0
6.0940003 -0.7033366 0.80456448 0
6.0980005 -0.71407646 0.80484593 0
6.1020002 -0.72483075 0.80512726 0
6.1060004 -0.73559952 0.80540872 0
6.1100001 -0.74638265 0.80569005 0
6.1140003 -0.75718027 0.8059715 0
6.1180005 -0.76799232 0.80625284 0
6.0000005 -0.41974908 0.78785038 0
5.9940004 -0.42943913 0.78743911 0
5.9980001 -0.43981102 0.78771329 0
6.0020003 -0.45019737 0.78798747 0
6.0050006 -0.46052417 0.78819311 0
6.0090003 -0.47093752 0.78846729 0
6.0130005 -0.48136538 0.78874147 0
6.0170002 -0.49180761 0.78901565 0
6.0210004 -0.50226426 0.78928983 0
6.0250006 -0.51273543 0.78956401 0
6.0280004 -0.52313614 0.78976965 0
6.0320005 -0.53363431 0.79004383 0
6.0360003 -0.54414684 0.79031801 0
6.0400004 -0.55467397 0.79059219 0
6.0440001 -0.56521535 0.79086637 0
6.0480003 -0.57577127 0.79114056 0
6.0510006 -0.58624601 0.79134619 0
6.0550003 -0.59682894 0.79162037 0
6.0590005 -0.60742635 0.79189456 0
6.0630002 -0.61803806 0.79216874 0
6.0670004 -0.62866431 0.79244292 0
6.0710006 -0.63930506 0.7927171 0
6.0750003 -0.6499601 0.79299128 0
6.0790005 -0.66062963 0.79326546 0
6.0830002 -0.67131352 0.79353964 0
6.0860004 -0.68190014 0.79374528 0
6.0900002 -0.6926111 0.7940194 0
6.0940003 -0.7033366 0.79429364 0
6.0980005 -0.71407646 0.79456782 0
6.1020002 -0.72483075 0.794842 0
6.1060004 -0.73559952 0.79511619 0
6.1100001 -0.74638265 0.79539031 0
6.1140003 -0.75718027 0.79566449 0
6.1180005 -0.76799232 0.79593867 0
6.0000005 -0.41974908 0.77774906 0
5.9940004 -0.42943913 0.77734864 0
5.9980001 -0.43981102 0.77761561 0
6.0020003 -0.45019737 0.77788258 0
6.0050006 -0.46052417 0.77808285 0
6.0090003 -0.47093752 0.77834976 0
6.0130005 -0.48136538 0.77861673 0
6.0170002 -0.49180761 0.7788837 0
6.0210004 -0.50226426 0.77915061 0
6.0250006 -0.51273543 0.77941763 0
6.0280004 -0.52313614 0.77961779 0
6.0320005 -0.53363431 0.77988482 0
6.0360003 -0.54414684 0.78015172 0
6.0400004 -0.55467397 0.78041875 0
6.0440001 -0.56521535 0.78068566 0
6.0480003 -0.57577127 0.78095269 0
6.0510006 -0.58624601 0.78115284 0
6.0550003 -0.59682894 0.78141981 0
6.0590005 -0.60742635 0.78168678 0
6.0630002 -0.61803806 0.78195375 0
6.0670004 -0.62866431 0.78222072 0
6.0710006 -0.63930506 0.78248769 0
6.0750003 -0.6499601 0.78275466 0
6.0790005 -0.66062963 0.78302163 0
6.0830002 -0.67131352 0.78328854 0
6.0860004 -0.68190014 0.78348881 0
6.0900002 -0.6926111 0.78375578 0
6.0940003 -0.7033366 0.78402269 0
6.0980005 -0.71407646 0.78428972 0
6.1020002 -0.72483075 0.78455663 0
6.1060004 -0.73559952 0.78482366 0
6.1100001 -0.74638265 0.78509057 0
6.1140003 -0.75718027 0.78535759 0
6.1180005 -0.76799232 0.7856245 0
6.0000005 -0.41974908 0.76764774 0
5.9940004 -0.42943913 0.76725817 0
5.9980001 -0.43981102 0.76751786 0
6.0020003 -0.45019737 0.76777762 0
6.0050006 -0.46052417 0.76797247 0
6.0090003 -0.47093752 0.76823223 0
6.0130005 -0.48136538 0.76849192 0
6.0170002 -0.49180761 0.76875168 0
6.0210004 -0.50226426 0.76901144 0
6.0250006 -0.51273543 0.76927119 0
6.0280004 -0.52313614 0.76946598 0
6.0320005 -0.53363431 0.76972574 0
6.0360003 -0.54414684 0.7699855 0
6.0400004 -0.55467397 0.77024519 0
6.0440001 -0.56521535 0.77050495 0
6.0480003 -0.57577127 0.77076471 0
6.0510006 -0.58624601 0.77095956 0
6.0550003 -0.59682894 0.77121925 0
6.0590005 -0.60742635 0.77147901 0
6.0630002 -0.61803806 0.77173877 0
6.0670004 -0.62866431 0.77199852 0
6.0710006 -0.63930506 0.77225828 0
6.0750003 -0.6499601 0.77251804 0
6.0790005 -0.66062963 0.7727778 0
6.0830002 -0.67131352 0.77303755 0
6.0860004 -0.68190014 0.77323234 0
6.0900002 -0.6926111 0.7734921 0
6.0940003 -0.7033366 0.77375185 0
6.0980005 -0.71407646 0.77401161 0
6.1020002 -0.72483075 0.77427137 0
6.1060004 -0.73559952 0.77453113 0
6.1100001 -0.74638265 0.77479082 0
6.1140003 -0.75718027 0.77505058 0
6.1180005 -0.76799232 0.7753104 0
6.0000005 -0.41974908 0.75754642 0
5.9940004 -0.42943913 0.75716764 0
5.9980001 -0.43981102 0.75742018 0
6.0020003 -0.45019737 0.75767267 0
6.0050006 -0.46052417 0.75786209 0
6.0090003 -0.47093752 0.75811458 0
6.0130005 -0.48136538 0.75836718 0
6.0170002 -0.49180761 0.75861967 0
6.0210004 -0.50226426 0.75887227 0
6.0250006 -0.51273543 0.75912476 0
6.0280004 -0.52313614 0.75931418 0
6.0320005 -0.53363431 0.75956666 0
6.0360003 -0.54414684 0.75981927 0
6.0400004 -0.55467397 0.76007175 0
6.0440001 -0.56521535 0.7603243 0
6.0480003 -0.57577127 0.76057684 0
6.0510006 -0.58624601 0.76076627 0
6.0550003 -0.59682894 0.76101875 0
6.0590005 -0.60742635 0.7612713 0
6.0630002 -0.61803806 0.76152384 0
6.0670004 -0.62866431 0.76177633 0
6.0710006 -0.63930506 0.76202893 0
6.0750003 -0.6499601 0.76228142 0
6.0790005 -0.66062963 0.76253396 0
6.0830002 -0.67131352 0.76278651 0
6.0860004 -0.68190014 0.76297593 0
6.0900002 -0.6926111 0.76322842 0
6.0940003 -0.7033366 0.76348096 0
6.0980005 -0.71407646 0.76373351 0
6.1020002 -0.72483075 0.76398599 0
6.1060004 -0.73559952 0.76423854 0
6.1100001 -0.74638265 0.76449108 0
6.1140003 -0.75718027 0.76474363 0
6.1180005 -0.76799232 0.76499617 0
6.0000005 -0.41974908 0.74744511 0
5.9940004 -0.42943913 0.74707711 0
5.9980001 -0.43981102 0.74732244 0
6.0020003 -0.45019737 0.74756777 0
6.0050006 -0.46052417 0.74775177 0
6.0090003 -0.47093752 0.74799705 0
6.0130005 -0.48136538 0.74824238 0
6.0170002 -0.49180761 0.74848771 0
6.0210004 -0.50226426 0.74873304 0
6.0250006 -0.51273543 0.74897838 0
6.0280004 -0.52313614 0.74916232 0
6.0320005 -0.53363431 0.74940765 0
6.0360003 -0.54414684 0.74965298 0
6.0400004 -0.55467397 0.74989831 0
6.0440001 -0.56521535 0.75014359 0
6.0480003 -0.57577127 0.75038892 0
6.0510006 -0.58624601 0.75057292 0
6.0550003 -0.59682894 0.75081825 0
6.0590005 -0.60742635 0.75106353 0
6.0630002 -0.61803806 0.75130886 0
6.0670004 -0.62866431 0.75155419 0
6.0710006 -0.63930506 0.75179946 0
6.0750003 -0.6499601 0.7520448 0
6.0790005 -0.66062963 0.75229013 0
6.0830002 -0.67131352 0.75253546 0
6.0860004 -0.68190014 0.7527194 0
6.0900002 -0.6926111 0.75296474 0
6.0940003 -0.7033366 0.75321007 0
6.0980005 -0.71407646 0.7534554 0
6.1020002 -0.72483075 0.75370073 0
6.1060004 -0.73559952 0.75394607 0
6.1100001 -0.74638265 0.75419134 0
6.1140003 -0.75718027 0.75443661 0
6.1180005 -0.76799232 0.754682 0
6.0000005 -0.41974908 0.73734379 0
5.9940004 -0.42943913 0.73698664 0
5.9980001 -0.43981102 0.7372247 0
6.0020003 -0.45019737 0.73746288 0
6.0050006 -0.46052417 0.73764139 0
6.0090003 -0.47093752 0.73787951 0
6.0130005 -0.48136538 0.73811764 0
6.0170002 -0.49180761 0.7383557 0
6.0210004 -0.50226426 0.73859382 0
6.0250006 -0.51273543 0.73883194 0
6.0280004 -0.52313614 0.73901051 0
6.0320005 -0.53363431 0.73924863 0
6.0360003 -0.54414684 0.73948669 0
6.0400004 -0.55467397 0.73972481 0
6.0440001 -0.56521535 0.73996288 0
6.0480003 -0.57577127 0.740201 0
6.0510006 -0.58624601 0.74037957 0
6.0550003 -0.59682894 0.74061769 0
6.0590005 -0.60742635 0.74085581 0
6.0630002 -0.61803806 0.74109387 0
6.0670004 -0.62866431 0.74133205 0
6.0710006 -0.63930506 0.74157012 0
6.0750003 -0.6499601 0.74180818 0
6.0790005 -0.66062963 0.7420463 0
6.0830002 -0.67131352 0.74228442 0
6.0860004 -0.68190014 0.74246299 0
6.0900002 -0.6926111 0.74270105 0
6.0940003 -0.7033366 0.74293917 0
6.0980005 -0.71407646 0.74317729 0
6.1020002 -0.72483075 0.74341536 0
6.1060004 -0.73559952 0.74365348 0
6.1100001 -0.74638265 0.7438916 0
6.1140003 -0.75718027 0.74412972 0
6.1180005 -0.76799232 0.74436784 0
6.0000005 -0.41974908 0.72724247 0
5.9940004 -0.42943913 0.72689617 0
5.9980001 -0.43981102 0.72712696 0
6.0020003 -0.45019737 0.72735786 0
6.0050006 -0.46052417 0.72753108 0
6.0090003 -0.47093752 0.72776198 0
6.0130005 -0.48136538 0.72799283 0
6.0170002 -0.49180761 0.72822368 0
6.0210004 -0.50226426 0.72845459 0
6.0250006 -0.51273543 0.7286855 0
6.0280004 -0.52313614 0.72885865 0
6.0320005 -0.53363431 0.72908956 0
6.0360003 -0.54414684 0.72932041 0
6.0400004 -0.55467397 0.72955132 0
6.0440001 -0.56521535 0.72978222 0
6.0480003 -0.57577127 0.73001313 0
6.0510006 -0.58624601 0.73018628 0
6.0550003 -0.59682894 0.73041713 0
6.0590005 -0.60742635 0.73064804 0
6.0630002 -0.61803806 0.73087895 0
6.0670004 -0.62866431 0.73110986 0
6.0710006 -0.63930506 0.73134071 0
6.0750003 -0.6499601 0.73157156 0
6.0790005 -0.66062963 0.73180246 0
6.0830002 -0.67131352 0.73203337 0
6.0860004 -0.68190014 0.73220652 0
6.0900002 -0.6926111 0.73243737 0
6.0940003 -0.7033366 0.73266828 0
6.0980005 -0.71407646 0.73289919 0
6.1020002 -0.72483075 0.7331301 0
6.1060004 -0.73559952 0.73336101 0
6.1100001 -0.74638265 0.73359185 0
6.1140003 -0.75718027 0.7338227 0
6.1180005 -0.76799232 0.73405361 0
6.0000005 -0.41974908 0.71714115 0
5.9940004 -0.42943913 0.71680564 0
5.9980001 -0.43981102 0.71702927 0
6.0020003 -0.45019737 0.71725297 0
6.0050006 -0.46052417 0.7174207 0
6.0090003 -0.47093752 0.71764439 0
6.0130005 -0.48136538 0.71786809 0
6.0170002 -0.49180761 0.71809173 0
6.0210004 -0.50226426 0.71831536 0
6.0250006 -0.51273543 0.71853912 0
6.0280004 -0.52313614 0.71870685 0
6.0320005 -0.53363431 0.71893048 0
6.0360003 -0.54414684 0.71915418 0
6.0400004 -0.55467397 0.71937788 0
6.0440001 -0.56521535 0.71960151 0
6.0480003 -0.57577127 0.71982521 0
6.0510006 -0.58624601 0.719993 0
6.0550003 -0.59682894 0.72021663 0
6.0590005 -0.60742635 0.72044027 0
6.0630002 -0.61803806 0.72066396 0
6.0670004 -0.62866431 0.72088766 0
6.0710006 -0.63930506 0.7211113 0
6.0750003 -0.6499601 0.72133493 0
6.0790005 -0.66062963 0.72155869 0
6.0830002 -0.67131352 0.72178233 0
6.0860004 -0.68190014 0.72195005 0
6.0900002 -0.6926111 0.72217369 0
6.0940003 -0.7033366 0.72239745 0
6.0980005 -0.71407646 0.72262108 0
6.1020002 -0.72483075 0.72284478 0
6.1060004 -0.73559952 0.72306848 0
6.1100001 -0.74638265 0.72329211 0
6.1140003 -0.75718027 0.72351575 0
6.1180005 -0.76799232 0.72373945 0
6.0000005 -0.41974908 0.70703983 0
5.9940004 -0.42943913 0.70671511 0
5.9980001 -0.43981102 0.70693159 0
6.0020003 -0.45019737 0.70714808 0
6.0050006 -0.46052417 0.70731038 0
6.0090003 -0.47093752 0.7075268 0
6.0130005 -0.48136538 0.70774329 0
6.0170002 -0.49180761 0.70795977 0
6.0210004 -0.50226426 0.7081762 0
6.0250006 -0.51273543 0.70839268 0
6.0280004 -0.52313614 0.70855498 0
6.0320005 -0.53363431 0.70877147 0
6.0360003 -0.54414684 0.70898789 0
6.0400004 -0.55467397 0.70920438 0
6.0440001 -0.56521535 0.7094208 0
6.0480003 -0.57577127 0.70963728 0
6.0510006 -0.58624601 0.70979965 0
6.0550003 -0.59682894 0.71001607 0
6.0590005 -0.60742635 0.71023256 0
6.0630002 -0.61803806 0.71044898 0
6.0670004 -0.62866431 0.71066546 0
6.0710006 -0.63930506 0.71088195 0
6.0750003 -0.6499601 0.71109831 0
6.0790005 -0.66062963 0.7113148 0
6.0830002 -0.67131352 0.71153128 0
6.0860004 -0.68190014 0.71169364 0
6.0900002 -0.6926111 0.71191007 0
6.0940003 -0.7033366 0.71212649 0
6.0980005 -0.71407646 0.71234298 0
6.1020002 -0.72483075 0.71255946 0
6.1060004 -0.73559952 0.71277595 0
6.1100001 -0.74638265 0.71299231 0
6.1140003 -0.75718027 0.71320879 0
6.1180005 -0.76799232 0.71342528 0
6.0000005 -0.41974908 0.69693851 0
5.9940004 -0.42943913 0.69662464 0
5.9980001 -0.43981102 0.69683385 0
6.0020003 -0.45019737 0.69704306 0
6.0050006 -0.46052417 0.69720006 0
6.0090003 -0.47093752 0.69740927 0
6.0130005 -0.48136538 0.69761848 0
6.0170002 -0.49180761 0.69782776 0
6.0210004 -0.50226426 0.69803697 0
6.0250006 -0.51273543 0.69824624 0
6.0280004 -0.52313614 0.69840312 0
6.0320005 -0.53363431 0.69861245 0
6.0360003 -0.54414684 0.69882166 0
6.0400004 -0.55467397 0.69903088 0
6.0440001 -0.56521535 0.69924009 0
6.0480003 -0.57577127 0.69944936 0
6.0510006 -0.58624601 0.6996063 0
6.0550003 -0.59682894 0.69981551 0
6.0590005 -0.60742635 0.70002478 0
6.0630002 -0.61803806 0.70023406 0
6.0670004 -0.62866431 0.70044327 0
6.0710006 -0.63930506 0.70065254 0
6.0750003 -0.6499601 0.70086175 0
6.0790005 -0.66062963 0.70107102 0
6.0830002 -0.67131352 0.70128024 0
6.0860004 -0.68190014 0.70143718 0
6.0900002 -0.6926111 0.70164639 0
6.0940003 -0.7033366 0.70185566 0
6.0980005 -0.71407646 0.70206487 0
6.1020002 -0.72483075 0.70227408 0
6.1060004 -0.73559952 0.70248342 0
6.1100001 -0.74638265 0.70269263 0
6.1140003 -0.75718027 0.70290184 0
6.1180005 -0.76799232 0.70311111 0
6.0000005 -0.41974908 0.6868372 0
5.9940004 -0.42943913 0.68653411 0
5.9980001 -0.43981102 0.68673611 0
6.0020003 -0.45019737 0.68693817 0
6.0050006 -0.46052417 0.68708968 0
6.0090003 -0.47093752 0.68729168 0
6.0130005 -0.48136538 0.68749374 0
6.0170002 -0.49180761 0.68769574 0
6.0210004 -0.50226426 0.6878978 0
6.0250006 -0.51273543 0.68809986 0
6.0280004 -0.52313614 0.68825138 0
6.0320005 -0.53363431 0.68845338 0
6.0360003 -0.54414684 0.68865538 0
6.0400004 -0.55467397 0.68885744 0
6.0440001 -0.56521535 0.68905938 0
6.0480003 -0.57577127 0.68926144 0
6.0510006 -0.58624601 0.68941295 0
6.0550003 -0.59682894 0.68961501 0
6.0590005 -0.60742635 0.68981707 0
6.0630002 -0.61803806 0.69001901 0
6.0670004 -0.62866431 0.69022107 0
6.0710006 -0.63930506 0.69042313 0
6.0750003 -0.6499601 0.69062513 0
6.0790005 -0.66062963 0.69082713 0
6.0830002 -0.67131352 0.69102919 0
6.0860004 -0.68190014 0.69118071 0
6.0900002 -0.6926111 0.69138277 0
6.0940003 -0.7033366 0.69158477 0
6.0980005 -0.71407646 0.69178677 0
6.1020002 -0.72483075 0.69198883 0
6.1060004 -0.73559952 0.69219089 0
6.1100001 -0.74638265 0.69239283 0
6.1140003 -0.75718027 0.69259489 0
6.1180005 -0.76799232 0.69279695 0
6.0000005 -0.41974908 0.67673582 0
5.9940004 -0.42943913 0.67644358 0
5.9980001 -0.43981102 0.67663836 0
6.0020003 -0.45019737 0.67683327 0
6.0050006 -0.46052417 0.6769793 0
6.0090003 -0.47093752 0.67717415 0
6.0130005 -0.48136538 0.677369 0
6.0170002 -0.49180761 0.67756379 0
6.0210004 -0.50226426 0.67775857 0
6.0250006 -0.51273543 0.67795336 0
6.0280004 -0.52313614 0.67809951 0
6.0320005 -0.53363431 0.6782943 0
6.0360003 -0.54414684 0.67848909 0
6.0400004 -0.55467397 0.67868394 0
6.0440001 -0.56521535 0.67887872 0
6.0480003 -0.57577127 0.67907357 0
6.0510006 -0.58624601 0.67921966 0
6.0550003 -0.59682894 0.67941451 0
6.0590005 -0.60742635 0.6796093 0
6.0630002 -0.61803806 0.67980409 0
6.0670004 -0.62866431 0.67999887 0
6.0710006 -0.63930506 0.68019378 0
6.0750003 -0.6499601 0.68038857 0
6.0790005 -0.66062963 0.68058336 0
6.0830002 -0.67131352 0.68077815 0
6.0860004 -0.68190014 0.6809243 0
6.0900002 -0.6926111 0.68111908 0
6.0940003 -0.7033366 0.68131387 0
6.0980005 -0.71407646 0.68150866 0
6.1020002 -0.72483075 0.68170351 0
6.1060004 -0.73559952 0.68189836 0
6.1100001 -0.74638265 0.68209314 0
6.1140003 -0.75718027 0.68228793 0
6.1180005 -0.76799232 0.68248278 0
6.0000005 -0.41974908 0.6666345 0
5.9940004 -0.42943913 0.66635311 0
5.9980001 -0.43981102 0.66654068 0
6.0020003 -0.45019737 0.66672826 0
6.0050006 -0.46052417 0.66686898 0
6.0090003 -0.47093752 0.66705656 0
6.0130005 -0.48136538 0.6672442 0
6.0170002 -0.49180761 0.66743177 0
6.0210004 -0.50226426 0.66761935 0
6.0250006 -0.51273543 0.66780698 0
6.0280004 -0.52313614 0.66794765 0
6.0320005 -0.53363431 0.66813529 0
6.0360003 -0.54414684 0.66832286 0
6.0400004 -0.55467397 0.66851044 0
6.0440001 -0.56521535 0.66869807 0
6.0480003 -0.57577127 0.66888565 0
6.0510006 -0.58624601 0.66902637 0
6.0550003 -0.59682894 0.66921389 0
6.0590005 -0.60742635 0.66940153 0
6.0630002 -0.61803806 0.66958916 0
6.0670004 -0.62866431 0.66977674 0
6.0710006 -0.63930506 0.66996431 0
6.0750003 -0.6499601 0.67015195 0
6.0790005 -0.66062963 0.67033952 0
6.0830002 -0.67131352 0.6705271 0
6.0860004 -0.68190014 0.67066783 0
6.0900002 -0.6926111 0.6708554 0
6.0940003 -0.7033366 0.67104304 0
6.0980005 -0.71407646 0.67123061 0
6.1020002 -0.72483075 0.67141819 0
6.1060004 -0.73559952 0.67160577 0
6.1100001 -0.74638265 0.67179334 0
6.1140003 -0.75718027 0.67198098 0
6.1180005 -0.76799232 0.67216861 0
6.0000005 -0.41974908 0.65653318 0
5.9940004 -0.42943913 0.65626264 0
5.9980001 -0.43981102 0.656443 0
6.0020003 -0.45019737 0.65662336 0
6.0050006 -0.46052417 0.65675867 0
6.0090003 -0.47093752 0.65693903 0
6.0130005 -0.48136538 0.65711939 0
6.0170002 -0.49180761 0.65729976 0
6.0210004 -0.50226426 0.65748018 0
6.0250006 -0.51273543 0.6576606 0
6.0280004 -0.52313614 0.65779585 0
6.0320005 -0.53363431 0.65797627 0
6.0360003 -0.54414684 0.65815663 0
6.0400004 -0.55467397 0.658337 0
6.0440001 -0.56521535 0.65851736 0
6.0480003 -0.57577127 0.65869772 0
6.0510006 -0.58624601 0.65883303 0
6.0550003 -0.59682894 0.65901339 0
6.0590005 -0.60742635 0.65919375 0
6.0630002 -0.61803806 0.65937412 0
6.0670004 -0.62866431 0.65955454 0
6.0710006 -0.63930506 0.65973496 0
6.0750003 -0.6499601 0.65991533 0
6.0790005 -0.66062963 0.66009569 0
6.0830002 -0.67131352 0.66027606 0
6.0860004 -0.68190014 0.66041136 0
6.0900002 -0.6926111 0.66059172 0
6.0940003 -0.7033366 0.66077209 0
6.0980005 -0.71407646 0.66095251 0
6.1020002 -0.72483075 0.66113287 0
6.1060004 -0.73559952 0.6613133 0
6.1100001 -0.74638265 0.66149366 0
6.1140003 -0.75718027 0.66167402 0
6.1180005 -0.76799232 0.66185439 0
6.0000005 -0.41974908 0.64643186 0
5.9940004 -0.42943913 0.64617211 0
5.9980001 -0.43981102 0.64634526 0
6.0020003 -0.45019737 0.64651841 0
6.0050006 -0.46052417 0.64664829 0
6.0090003 -0.47093752 0.64682144 0
6.0130005 -0.48136538 0.64699459 0
6.0170002 -0.49180761 0.6471678 0
6.0210004 -0.50226426 0.64734095 0
6.0250006 -0.51273543 0.6475141 0
6.0280004 -0.52313614 0.64764398 0
6.0320005 -0.53363431 0.64781719 0
6.0360003 -0.54414684 0.64799035 0
6.0400004 -0.55467397 0.6481635 0
6.0440001 -0.56521535 0.64833665 0
6.0480003 -0.57577127 0.6485098 0
6.0510006 -0.58624601 0.64863968 0
6.0550003 -0.59682894 0.64881289 0
6.0590005 -0.60742635 0.64898604 0
6.0630002 -0.61803806 0.64915919 0
6.0670004 -0.62866431 0.6493324 0
6.0710006 -0.63930506 0.6495055 0
6.0750003 -0.6499601 0.64967871 0
6.0790005 -0.66062963 0.64985186 0
6.0830002 -0.67131352 0.65002501 0
6.0860004 -0.68190014 0.65015489 0
6.0900002 -0.6926111 0.65032804 0
6.0940003 -0.7033366 0.65050125 0
6.0980005 -0.71407646 0.6506744 0
6.1020002 -0.72483075 0.65084755 0
6.1060004 -0.73559952 0.65102071 0
6.1100001 -0.74638265 0.65119392 0
6.1140003 -0.75718027 0.65136707 0
6.1180005 -0.76799232 0.65154022 0
6.0000005 -0.41974908 0.63633049 0
5.9940004 -0.42943913 0.63608158 0
5.9980001 -0.43981102 0.63624752 0
6.0020003 -0.45019737 0.63641351 0
6.0050006 -0.46052417 0.63653797 0
6.0090003 -0.47093752 0.63670391 0
6.0130005 -0.48136538 0.63686985 0
6.0170002 -0.49180761 0.63703585 0
6.0210004 -0.50226426 0.63720179 0
6.0250006 -0.51273543 0.63736773 0
6.0280004 -0.52313614 0.63749218 0
6.0320005 -0.53363431 0.63765812 0
6.0360003 -0.54414684 0.63782406 0
6.0400004 -0.55467397 0.63799 0
6.0440001 -0.56521535 0.63815594 0
6.0480003 -0.57577127 0.63832194 0
6.0510006 -0.58624601 0.63844639 0
6.0550003 -0.59682894 0.63861233 0
6.0590005 -0.60742635 0.63877833 0
6.0630002 -0.61803806 0.63894427 0
6.0670004 -0.62866431 0.63911021 0
6.0710006 -0.63930506 0.63927615 0
6.0750003 -0.6499601 0.63944209 0
6.0790005 -0.66062963 0.63960803 0
6.0830002 -0.67131352 0.63977396 0
6.0860004 -0.68190014 0.63989848 0
6.0900002 -0.6926111 0.64006436 0
6.0940003 -0.7033366 0.64023036 0
6.0980005 -0.71407646 0.6403963 0
6.1020002 -0.72483075 0.64056224 0
6.1060004 -0.73559952 0.64072824 0
6.1100001 -0.74638265 0.64089417 0
6.1140003 -0.75718027 0.64106011 0
6.1180005 -0.76799232 0.64122605 0
6.0000005 -0.41974908 0.62622917 0
5.9940004 -0.42943913 0.62599111 0
5.9980001 -0.43981102 0.62614977 0
6.0020003 -0.45019737 0.62630856 0
6.0050006 -0.46052417 0.62642765 0
6.0090003 -0.47093752 0.62658632 0
6.0130005 -0.48136538 0.6267451 0
6.0170002 -0.49180761 0.62690383 0
6.0210004 -0.50226426 0.62706256 0
6.0250006 -0.51273543 0.62722129 0
6.0280004 -0.52313614 0.62734032 0
6.0320005 -0.53363431 0.6274991 0
6.0360003 -0.54414684 0.62765777 0
6.0400004 -0.55467397 0.62781656 0
6.0440001 -0.56521535 0.62797529 0
6.0480003 -0.57577127 0.62813401 0
6.0510006 -0.58624601 0.6282531 0
6.0550003 -0.59682894 0.62841177 0
6.0590005 -0.60742635 0.62857056 0
6.0630002 -0.61803806 0.62872922 0
6.0670004 -0.62866431 0.62888801 0
6.0710006 -0.63930506 0.62904674 0
6.0750003 -0.6499601 0.62920547 0
6.0790005 -0.66062963 0.62936425 0
6.0830002 -0.67131352 0.62952292 0
6.0860004 -0.68190014 0.62964201 0
6.0900002 -0.6926111 0.62980074 0
6.0940003 -0.7033366 0.62995946 0
6.0980005 -0.71407646 0.63011819 0
6.1020002 -0.72483075 0.63027692 0
6.1060004 -0.73559952 0.63043571 0
6.1100001 -0.74638265 0.63059437 0
6.1140003 -0.75718027 0.63075316 0
6.1180005 -0.76799232 0.63091189 0
6.0000005 -0.41974908 0.61612785 0
5.9940004 -0.42943913 0.61590058 0
5.9980001 -0.43981102 0.61605209 0
6.0020003 -0.45019737 0.61620361 0
6.0050006 -0.46052417 0.61631727 0
6.0090003 -0.47093752 0.61646879 0
6.0130005 -0.48136538 0.6166203 0
6.0170002 -0.49180761 0.61677182 0
6.0210004 -0.50226426 0.61692333 0
6.0250006 -0.51273543 0.61707485 0
6.0280004 -0.52313614 0.61718851 0
6.0320005 -0.53363431 0.61734003 0
6.0360003 -0.54414684 0.61749154 0
6.0400004 -0.55467397 0.61764306 0
6.0440001 -0.56521535 0.61779457 0
6.0480003 -0.57577127 0.61794609 0
6.0510006 -0.58624601 0.61805975 0
6.0550003 -0.59682894 0.61821127 0
6.0590005 -0.60742635 0.61836278 0
6.0630002 -0.61803806 0.6185143 0
6.0670004 -0.62866431 0.61866581 0
6.0710006 -0.63930506 0.61881733 0
6.0750003 -0.6499601 0.61896884 0
6.0790005 -0.66062963 0.61912036 0
6.0830002 -0.67131352 0.61927187 0
6.0860004 -0.68190014 0.61938554 0
6.0900002 -0.6926111 0.61953706 0
6.0940003 -0.7033366 0.61968857 0
6.0980005 -0.71407646 0.61984015 0
6.1020002 -0.72483075 0.6199916 0
6.1060004 -0.73559952 0.62014312 0
6.1100001 -0.74638265 0.62029469 0
6.1140003 -0.75718027 0.62044621 0
6.1180005 -0.76799232 0.62059772 0
6.0000005 -0.41974908 0.60602653 0
5.9940004 -0.42943913 0.60581005 0
5.9980001 -0.43981102 0.60595441 0
6.0020003 -0.45019737 0.60609871 0
6.0050006 -0.46052417 0.60620689 0
6.0090003 -0.47093752 0.60635126 0
6.0130005 -0.48136538 0.6064955 0
6.0170002 -0.49180761 0.60663986 0
6.0210004 -0.50226426 0.60678411 0
6.0250006 -0.51273543 0.60692847 0
6.0280004 -0.52313614 0.60703665 0
6.0320005 -0.53363431 0.60718095 0
6.0360003 -0.54414684 0.60732526 0
6.0400004 -0.55467397 0.60746956 0
6.0440001 -0.56521535 0.60761392 0
6.0480003 -0.57577127 0.60775816 0
6.0510006 -0.58624601 0.60786641 0
6.0550003 -0.59682894 0.60801071 0
6.0590005 -0.60742635 0.60815501 0
6.0630002 -0.61803806 0.60829931 0
6.0670004 -0.62866431 0.60844362 0
6.0710006 -0.63930506 0.60858798 0
6.0750003 -0.6499601 0.60873222 0
6.0790005 -0.66062963 0.60887659 0
6.0830002 -0.67131352 0.60902083 0
6.0860004 -0.68190014 0.60912907 0
6.0900002 -0.6926111 0.60927337 0
6.0940003 -0.7033366 0.60941768 0
6.0980005 -0.71407646 0.60956204 0
6.1020002 -0.72483075 0.60970628 0
6.1060004 -0.73559952 0.60985065 0
6.1100001 -0.74638265 0.60999489 0
6.1140003 -0.75718027 0.61013925 0
6.1180005 -0.76799232 0.61028349 0
6.0000005 -0.41974908 0.59592521 0
5.9940004 -0.42943913 0.59571958 0
5.9980001 -0.43981102 0.59585667 0
6.0020003 -0.45019737 0.59599376 0
6.0050006 -0.46052417 0.59609658 0
6.0090003 -0.47093752 0.59623367 0
6.0130005 -0.48136538 0.59637076 0
6.0170002 -0.49180761 0.59650785 0
6.0210004 -0.50226426 0.59664494 0
6.0250006 -0.51273543 0.59678203 0
6.0280004 -0.52313614 0.59688485 0
6.0320005 -0.53363431 0.59702194 0
6.0360003 -0.54414684 0.59715903 0
6.0400004 -0.55467397 0.59729612 0
6.0440001 -0.56521535 0.59743321 0
6.0480003 -0.57577127 0.5975703 0
6.0510006 -0.58624601 0.59767312 0
6.0550003 -0.59682894 0.59781021 0
6.0590005 -0.60742635 0.5979473 0
6.0630002 -0.61803806 0.59808433 0
6.0670004 -0.62866431 0.59822142 0
6.0710006 -0.63930506 0.59835857 0
6.0750003 -0.6499601 0.5984956 0
6.0790005 -0.66062963 0.59863275 0
6.0830002 -0.67131352 0.59876978 0
6.0860004 -0.68190014 0.59887266 0
6.0900002 -0.6926111 0.59900969 0
6.0940003 -0.7033366 0.59914684 0
6.0980005 -0.71407646 0.59928393 0
6.1020002 -0.72483075 0.59942102 0
6.1060004 -0.73559952 0.59955812 0
6.1100001 -0.74638265 0.59969515 0
6.1140003 -0.75718027 0.59983224 0
6.1180005 -0.76799232 0.59996933 0
6.0000005 -0.41974908 0.58582389 0
5.9940004 -0.42943913 0.58562911 0
5.9980001 -0.43981102 0.58575892 0
6.0020003 -0.45019737 0.5858888 0
6.0050006 -0.46052417 0.58598626 0
6.0090003 -0.47093752 0.58611608 0
6.0130005 -0.48136538 0.58624595 0
6.0170002 -0.49180761 0.58637583 0
6.0210004 -0.50226426 0.58650571 0
6.0250006 -0.51273543 0.58663559 0
6.0280004 -0.52313614 0.58673298 0
6.0320005 -0.53363431 0.58686286 0
6.0360003 -0.54414684 0.58699274 0
6.0400004 -0.55467397 0.58712262 0
6.0440001 -0.56521535 0.5872525 0
6.0480003 -0.57577127 0.58738238 0
6.0510006 -0.58624601 0.58747977 0
6.0550003 -0.59682894 0.58760965 0
6.0590005 -0.60742635 0.58773953 0
6.0630002 -0.61803806 0.58786941 0
6.0670004 -0.62866431 0.58799928 0
6.0710006 -0.63930506 0.58812916 0
6.0750003 -0.6499601 0.58825904 0
6.0790005 -0.66062963 0.58838892 0
6.0830002 -0.67131352 0.58851874 0
6.0860004 -0.68190014 0.58861619 0
6.0900002 -0.6926111 0.58874607 0
6.0940003 -0.7033366 0.58887589 0
6.0980005 -0.71407646 0.58900583 0
6.1020002 -0.72483075 0.58913565 0
6.1060004 -0.73559952 0.58926558 0
6.1100001 -0.74638265 0.5893954 0
6.1140003 -0.75718027 0.58952528 0
6.1180005 -0.76799232 0.58965516 0
6.0000005 -0.41974908 0.57572258 0
5.9940004 -0.42943913 0.57553858 0
5.9980001 -0.43981102 0.57566124 0
6.0020003 -0.45019737 0.57578385 0
6.0050006 -0.46052417 0.57587588 0
6.0090003 -0.47093752 0.57599854 0
6.0130005 -0.48136538 0.57612121 0
6.0170002 -0.49180761 0.57624388 0
6.0210004 -0.50226426 0.57636654 0
6.0250006 -0.51273543 0.57648921 0
6.0280004 -0.52313614 0.57658118 0
6.0320005 -0.53363431 0.57670385 0
6.0360003 -0.54414684 0.57682645 0
6.0400004 -0.55467397 0.57694912 0
6.0440001 -0.56521535 0.57707179 0
6.0480003 -0.57577127 0.57719445 0
6.0510006 -0.58624601 0.57728648 0
6.0550003 -0.59682894 0.57740915 0
6.0590005 -0.60742635 0.57753175 0
6.0630002 -0.61803806 0.57765442 0
6.0670004 -0.62866431 0.57777709 0
6.0710006 -0.63930506 0.57789975 0
6.0750003 -0.6499601 0.57802242 0
6.0790005 -0.66062963 0.57814509 0
6.0830002 -0.67131352 0.57826769 0
6.0860004 -0.68190014 0.57835972 0
6.0900002 -0.6926111 0.57848239 0
6.0940003 -0.7033366 0.57860506 0
6.0980005 -0.71407646 0.57872772 0
6.1020002 -0.72483075 0.57885039 0
6.1060004 -0.73559952 0.57897305 0
6.1100001 -0.74638265 0.57909566 0
6.1140003 -0.75718027 0.57921833 0
6.1180005 -0.76799232 0.57934099 0
6.0000005 -0.41974908 0.56562126 0
5.9940004 -0.42943913 0.56544805 0
5.9980001 -0.43981102 0.5655635 0
6.0020003 -0.45019737 0.56567895 0
6.0050006 -0.46052417 0.56576556 0
6.0090003 -0.47093752 0.56588101 0
6.0130005 -0.48136538 0.56599641 0
6.0170002 -0.49180761 0.56611186 0
6.0210004 -0.50226426 0.56622732 0
6.0250006 -0.51273543 0.56634277 0
6.0280004 -0.52313614 0.56642932 0
6.0320005 -0.53363431 0.56654477 0
6.0360003 -0.54414684 0.56666023 0
6.0400004 -0.55467397 0.56677568 0
6.0440001 -0.56521535 0.56689107 0
6.0480003 -0.57577127 0.56700659 0
6.0510006 -0.58624601 0.56709313 0
6.0550003 -0.59682894 0.56720859 0
6.0590005 -0.60742635 0.56732404 0
6.0630002 -0.61803806 0.56743944 0
6.0670004 -0.62866431 0.56755495 0
6.0710006 -0.63930506 0.56767035 0
6.0750003 -0.6499601 0.5677858 0
6.0790005 -0.66062963 0.56790125 0
6.0830002 -0.67131352 0.56801665 0
6.0860004 -0.68190014 0.56810325 0
6.0900002 -0.6926111 0.56821871 0
6.0940003 -0.7033366 0.56833416 0
6.0980005 -0.71407646 0.56844962 0
6.1020002 -0.72483075 0.56856501 0
6.1060004 -0.73559952 0.56868052 0
6.1100001 -0.74638265 0.56879592 0
6.1140003 -0.75718027 0.56891137 0
6.1180005 -0.76799232 0.56902683 0
6.0000005 -0.41974908 0.55551994 0
5.9940004 -0.42943913 0.55535758 0
5.9980001 -0.43981102 0.55546582 0
6.0020003 -0.45019737 0.55557406 0
6.0050006 -0.46052417 0.55565518 0
6.0090003 -0.47093752 0.55576342 0
6.0130005 -0.48136538 0.55587167 0
6.0170002 -0.49180761 0.55597985 0
6.0210004 -0.50226426 0.55608809 0
6.0250006 -0.51273543 0.55619633 0
6.0280004 -0.52313614 0.55627751 0
6.0320005 -0.53363431 0.55638576 0
6.0360003 -0.54414684 0.55649394 0
6.0400004 -0.55467397 0.55660218 0
6.0440001 -0.56521535 0.55671042 0
6.0480003 -0.57577127 0.55681866 0
6.0510006 -0.58624601 0.55689985 0
6.0550003 -0.59682894 0.55700803 0
6.0590005 -0.60742635 0.55711627 0
6.0630002 -0.61803806 0.55722451 0
6.0670004 -0.62866431 0.55733275 0
6.0710006 -0.63930506 0.557441 0
6.0750003 -0.6499601 0.55754918 0
6.0790005 -0.66062963 0.55765742 0
6.0830002 -0.67131352 0.55776566 0
6.0860004 -0.68190014 0.55784684 0
6.0900002 -0.6926111 0.55795503 0
6.0940003 -0.7033366 0.55806327 0
6.0980005 -0.71407646 0.55817151 0
6.1020002 -0.72483075 0.55827975 0
6.1060004 -0.73559952 0.55838799 0
6.1100001 -0.74638265 0.55849618 0
6.1140003 -0.75718027 0.55860442 0
6.1180005 -0.76799232 0.55871266 0
6.0000005 -0.41974908 0.54541862 0
5.9940004 -0.42943913 0.54526705 0
5.9980001 -0.43981102 0.54536808 0
6.0020003 -0.45019737 0.54546905 0
6.0050006 -0.46052417 0.54554486 0
6.0090003 -0.47093752 0.54564583 0
6.0130005 -0.48136538 0.54574686 0
6.0170002 -0.49180761 0.54584789 0
6.0210004 -0.50226426 0.54594886 0
6.0250006 -0.51273543 0.54604995 0
6.0280004 -0.52313614 0.54612565 0
6.0320005 -0.53363431 0.54622668 0
6.0360003 -0.54414684 0.54632771 0
6.0400004 -0.55467397 0.54642868 0
6.0440001 -0.56521535 0.54652971 0
6.0480003 -0.57577127 0.54663074 0
6.0510006 -0.58624601 0.5467065 0
6.0550003 -0.59682894 0.54680753 0
6.0590005 -0.60742635 0.5469085 0
6.0630002 -0.61803806 0.54700953 0
6.0670004 -0.62866431 0.54711056 0
6.0710006 -0.63930506 0.54721159 0
6.0750003 -0.6499601 0.54731256 0
6.0790005 -0.66062963 0.54741359 0
6.0830002 -0.67131352 0.54751462 0
6.0860004 -0.68190014 0.54759037 0
6.0900002 -0.6926111 0.54769135 0
6.0940003 -0.7033366 0.54779238 0
6.0980005 -0.71407646 0.5478934 0
6.1020002 -0.72483075 0.54799443 0
6.1060004 -0.73559952 0.54809546 0
6.1100001 -0.74638265 0.54819643 0
6.1140003 -0.75718027 0.54829746 0
6.1180005 -0.76799232 0.54839849 0
6.0000005 -0.41974908 0.53531724 0
5.9940004 -0.42943913 0.53517658 0
5.9980001 -0.43981102 0.53527033 0
6.0020003 -0.45019737 0.53536415 0
6.0050006 -0.46052417 0.53543448 0
6.0090003 -0.47093752 0.5355283 0
6.0130005 -0.48136538 0.53562212 0
6.0170002 -0.49180761 0.53571588 0
6.0210004 -0.50226426 0.5358097 0
6.0250006 -0.51273543 0.53590351 0
6.0280004 -0.52313614 0.53597385 0
6.0320005 -0.53363431 0.53606761 0
6.0360003 -0.54414684 0.53616142 0
6.0400004 -0.55467397 0.53625524 0
6.0440001 -0.56521535 0.53634906 0
6.0480003 -0.57577127 0.53644282 0
6.0510006 -0.58624601 0.53651321 0
6.0550003 -0.59682894 0.53660697 0
6.0590005 -0.60742635 0.53670079 0
6.0630002 -0.61803806 0.53679454 0
6.0670004 -0.62866431 0.53688836 0
6.0710006 -0.63930506 0.53698218 0
6.0750003 -0.6499601 0.537076 0
6.0790005 -0.66062963 0.53716975 0
6.0830002 -0.67131352 0.53726357 0
6.0860004 -0.68190014 0.53733391 0
6.0900002 -0.6926111 0.53742772 0
6.0940003 -0.7033366 0.53752148 0
6.0980005 -0.71407646 0.5376153 0
6.1020002 -0.72483075 0.53770912 0
6.1060004 -0.73559952 0.53780288 0
6.1100001 -0.74638265 0.53789669 0
6.1140003 -0.75718027 0.53799051 0
6.1180005 -0.76799232 0.53808427 0
6.0000005 -0.41974908 0.52521592 0
5.9940004 -0.42943913 0.52508605 0
5.9980001 -0.43981102 0.52517265 0
6.0020003 -0.45019737 0.5252592 0
6.0050006 -0.46052417 0.52532417 0
6.0090003 -0.47093752 0.52541071 0
6.0130005 -0.48136538 0.52549732 0
6.0170002 -0.49180761 0.52558392 0
6.0210004 -0.50226426 0.52567047 0
6.0250006 -0.51273543 0.52575707 0
6.0280004 -0.52313614 0.52582198 0
6.0320005 -0.53363431 0.52590859 0
6.0360003 -0.54414684 0.52599519 0
6.0400004 -0.55467397 0.52608174 0
6.0440001 -0.56521535 0.52616835 0
6.0480003 -0.57577127 0.52625489 0
6.0510006 -0.58624601 0.52631986 0
6.0550003 -0.59682894 0.52640641 0
6.0590005 -0.60742635 0.52649301 0
6.0630002 -0.61803806 0.52657962 0
6.0670004 -0.62866431 0.52666616 0
6.0710006 -0.63930506 0.52675277 0
6.0750003 -0.6499601 0.52683938 0
6.0790005 -0.66062963 0.52692592 0
6.0830002 -0.67131352 0.52701253 0
6.0860004 -0.68190014 0.52707744 0
6.0900002 -0.6926111 0.52716404 0
6.0940003 -0.7033366 0.52725065 0
6.0980005 -0.71407646 0.52733719 0
6.1020002 -0.72483075 0.5274238 0
6.1060004 -0.73559952 0.52751034 0
6.1100001 -0.74638265 0.52759695 0
6.1140003 -0.75718027 0.52768356 0
6.1180005 -0.76799232 0.5277701 0
6.0000005 -0.41974908 0.51511461 0
5.9940004 -0.42943913 0.51499557 0
5.9980001 -0.43981102 0.51507491 0
6.0020003 -0.45019737 0.5151543 0
6.0050006 -0.46052417 0.51521385 0
6.0090003 -0.47093752 0.51529318 0
6.0130005 -0.48136538 0.51537251 0
6.0170002 -0.49180761 0.51545191 0
6.0210004 -0.50226426 0.5155313 0
6.0250006 -0.51273543 0.51561064 0
6.0280004 -0.52313614 0.51567018 0
6.0320005 -0.53363431 0.51574957 0
6.0360003 -0.54414684 0.51582891 0
6.0400004 -0.55467397 0.5159083 0
6.0440001 -0.56521535 0.51598763 0
6.0480003 -0.57577127 0.51606703 0
6.0510006 -0.58624601 0.51612651 0
6.0550003 -0.59682894 0.51620591 0
6.0590005 -0.60742635 0.5162853 0
6.0630002 -0.61803806 0.51636463 0
6.0670004 -0.62866431 0.51644403 0
6.0710006 -0.63930506 0.51652336 0
6.0750003 -0.6499601 0.51660275 0
6.0790005 -0.66062963 0.51668215 0
6.0830002 -0.67131352 0.51676148 0
6.0860004 -0.68190014 0.51682103 0
6.0900002 -0.6926111 0.51690036 0
6.0940003 -0.7033366 0.51697975 0
6.0980005 -0.71407646 0.51705909 0
6.1020002 -0.72483075 0.51713848 0
6.1060004 -0.73559952 0.51721787 0
6.1100001 -0.74638265 0.51729721 0
6.1140003 -0.75718027 0.5173766 0
6.1180005 -0.76799232 0.51745594 0
6.0000005 -0.41974908 0.50501329 0
5.9940004 -0.42943913 0.50490505 0
5.9980001 -0.43981102 0.50497723 0
6.0020003 -0.45019737 0.50504935 0
6.0050006 -0.46052417 0.50510347 0
6.0090003 -0.47093752 0.50517559 0
6.0130005 -0.48136538 0.50524777 0
6.0170002 -0.49180761 0.50531995 0
6.0210004 -0.50226426 0.50539207 0
6.0250006 -0.51273543 0.5054642 0
6.0280004 -0.52313614 0.50551832 0
6.0320005 -0.53363431 0.5055905 0
6.0360003 -0.54414684 0.50566262 0
6.0400004 -0.55467397 0.5057348 0
6.0440001 -0.56521535 0.50580692 0
6.0480003 -0.57577127 0.5058791 0
6.0510006 -0.58624601 0.50593323 0
6.0550003 -0.59682894 0.50600535 0
6.0590005 -0.60742635 0.50607753 0
6.0630002 -0.61803806 0.50614965 0
6.0670004 -0.62866431 0.50622183 0
6.0710006 -0.63930506 0.50629401 0
6.0750003 -0.6499601 0.50636613 0
6.0790005 -0.66062963 0.50643826 0
6.0830002 -0.67131352 0.50651044 0
6.0860004 -0.68190014 0.50656456 0
6.0900002 -0.6926111 0.50663668 0
6.0940003 -0.7033366 0.50670886 0
6.0980005 -0.71407646 0.50678098 0
6.1020002 -0.72483075 0.50685316 0
6.1060004 -0.73559952 0.50692534 0
6.1100001 -0.74638265 0.50699747 0
6.1140003 -0.75718027 0.50706959 0
6.1180005 -0.76799232 0.50714177 0
6.0000005 -0.41974908 0.49491194 0
5.9940004 -0.42943913 0.49481454 0
5.9980001 -0.43981102 0.49487948 0
6.0020003 -0.45019737 0.49494442 0
6.0050006 -0.46052417 0.49499312 0
6.0090003 -0.47093752 0.49505806 0
6.0130005 -0.48136538 0.495123 0
6.0170002 -0.49180761 0.49518794 0
6.0210004 -0.50226426 0.49525288 0
6.0250006 -0.51273543 0.49531782 0
6.0280004 -0.52313614 0.49536651 0
6.0320005 -0.53363431 0.49543145 0
6.0360003 -0.54414684 0.49549639 0
6.0400004 -0.55467397 0.4955613 0
6.0440001 -0.56521535 0.49562627 0
6.0480003 -0.57577127 0.49569118 0
6.0510006 -0.58624601 0.49573991 0
6.0550003 -0.59682894 0.49580485 0
6.0590005 -0.60742635 0.49586976 0
6.0630002 -0.61803806 0.49593472 0
6.0670004 -0.62866431 0.49599963 0
6.0710006 -0.63930506 0.4960646 0
6.0750003 -0.6499601 0.49612951 0
6.0790005 -0.66062963 0.49619445 0
6.0830002 -0.67131352 0.49625939 0
6.0860004 -0.68190014 0.49630809 0
6.0900002 -0.6926111 0.49637303 0
6.0940003 -0.7033366 0.49643797 0
6.0980005 -0.71407646 0.49650291 0
6.1020002 -0.72483075 0.49656785 0
6.1060004 -0.73559952 0.49663278 0
6.1100001 -0.74638265 0.49669772 0
6.1140003 -0.75718027 0.49676266 0
6.1180005 -0.76799232 0.4968276 0
6.0000005 -0.41974908 0.48481062 0
5.9940004 -0.42943913 0.48472404 0
5.9980001 -0.43981102 0.48478174 0
6.0020003 -0.45019737 0.4848395 0
6.0050006 -0.46052417 0.48488277 0
6.0090003 -0.47093752 0.4849405 0
6.0130005 -0.48136538 0.48499823 0
6.0170002 -0.49180761 0.48505592 0
6.0210004 -0.50226426 0.48511368 0
6.0250006 -0.51273543 0.48517138 0
6.0280004 -0.52313614 0.48521468 0
6.0320005 -0.53363431 0.48527241 0
6.0360003 -0.54414684 0.4853301 0
6.0400004 -0.55467397 0.48538783 0
6.0440001 -0.56521535 0.48544556 0
6.0480003 -0.57577127 0.48550329 0
6.0510006 -0.58624601 0.48554659 0
6.0550003 -0.59682894 0.48560429 0
6.0590005 -0.60742635 0.48566201 0
6.0630002 -0.61803806 0.48571974 0
6.0670004 -0.62866431 0.48577747 0
6.0710006 -0.63930506 0.48583519 0
6.0750003 -0.6499601 0.48589289 0
6.0790005 -0.66062963 0.48595065 0
6.0830002 -0.67131352 0.48600835 0
6.0860004 -0.68190014 0.48605165 0
6.0900002 -0.6926111 0.48610938 0
6.0940003 -0.7033366 0.48616707 0
6.0980005 -0.71407646 0.4862248 0
6.1020002 -0.72483075 0.48628253 0
6.1060004 -0.73559952 0.48634025 0
6.1100001 -0.74638265 0.48639798 0
6.1140003 -0.75718027 0.48645568 0
6.1180005 -0.76799232 0.48651344 0
6.0000005 -0.41974908 0.4747093 0
5.9940004 -0.42943913 0.47463354 0
5.9980001 -0.43981102 0.47468406 0
6.0020003 -0.45019737 0.47473454 0
6.0050006 -0.46052417 0.47477245 0
6.0090003 -0.47093752 0.47482294 0
6.0130005 -0.48136538 0.47487345 0
6.0170002 -0.49180761 0.47492394 0
6.0210004 -0.50226426 0.47497445 0
6.0250006 -0.51273543 0.47502497 0
6.0280004 -0.52313614 0.47506285 0
6.0320005 -0.53363431 0.47511336 0
6.0360003 -0.54414684 0.47516385 0
6.0400004 -0.55467397 0.47521436 0
6.0440001 -0.56521535 0.47526485 0
6.0480003 -0.57577127 0.47531539 0
6.0510006 -0.58624601 0.47535324 0
6.0550003 -0.59682894 0.47540376 0
6.0590005 -0.60742635 0.47545427 0
6.0630002 -0.61803806 0.47550476 0
6.0670004 -0.62866431 0.4755553 0
6.0710006 -0.63930506 0.47560579 0
6.0750003 -0.6499601 0.4756563 0
6.0790005 -0.66062963 0.47570682 0
6.0830002 -0.67131352 0.4757573 0
6.0860004 -0.68190014 0.47579518 0
6.0900002 -0.6926111 0.47584569 0
6.0940003 -0.7033366 0.47589621 0
6.0980005 -0.71407646 0.47594672 0
6.1020002 -0.72483075 0.47599721 0
6.1060004 -0.73559952 0.47604772 0
6.1100001 -0.74638265 0.47609824 0
6.1140003 -0.75718027 0.47614872 0
6.1180005 -0.76799232 0.47619924 0
6.0000005 -0.41974908 0.46460798 0
5.9940004 -0.42943913 0.46454304 0
5.9980001 -0.43981102 0.46458632 0
6.0020003 -0.45019737 0.46462962 0
6.0050006 -0.46052417 0.46466208 0
6.0090003 -0.47093752 0.46470538 0
6.0130005 -0.48136538 0.46474868 0
6.0170002 -0.49180761 0.46479195 0
6.0210004 -0.50226426 0.46483526 0
6.0250006 -0.51273543 0.46487856 0
6.0280004 -0.52313614 0.46491101 0
6.0320005 -0.53363431 0.46495432 0
6.0360003 -0.54414684 0.46499759 0
6.0400004 -0.55467397 0.46504089 0
6.0440001 -0.56521535 0.46508417 0
6.0480003 -0.57577127 0.46512747 0
6.0510006 -0.58624601 0.46515995 0
6.0550003 -0.59682894 0.46520323 0
6.0590005 -0.60742635 0.46524653 0
6.0630002 -0.61803806 0.4652898 0
6.0670004 -0.62866431 0.4653331 0
6.0710006 -0.63930506 0.46537638 0
6.0750003 -0.6499601 0.46541968 0
6.0790005 -0.66062963 0.46546298 0
6.0830002 -0.67131352 0.46550626 0
6.0860004 -0.68190014 0.46553874 0
6.0900002 -0.6926111 0.46558201 0
6.0940003 -0.7033366 0.46562532 0
6.0980005 -0.71407646 0.46566862 0
6.1020002 -0.72483075 0.46571189 0
6.1060004 -0.73559952 0.46575519 0
6.1100001 -0.74638265 0.4657985 0
6.1140003 -0.75718027 0.46584177 0
6.1180005 -0.76799232 0.46588507 0
6.0000005 -0.41974908 0.45450664 0
5.9940004 -0.42943913 0.45445251 0
5.9980001 -0.43981102 0.45448861 0
6.0020003 -0.45019737 0.4545247 0
6.0050006 -0.46052417 0.45455176 0
6.0090003 -0.47093752 0.45458782 0
6.0130005 -0.48136538 0.45462388 0
6.0170002 -0.49180761 0.45465997 0
6.0210004 -0.50226426 0.45469606 0
6.0250006 -0.51273543 0.45473212 0
6.0280004 -0.52313614 0.45475918 0
6.0320005 -0.53363431 0.45479524 0
6.0360003 -0.54414684 0.45483133 0
6.0400004 -0.55467397 0.45486739 0
6.0440001 -0.56521535 0.45490348 0
6.0480003 -0.57577127 0.45493954 0
6.0510006 -0.58624601 0.4549666 0
6.0550003 -0.59682894 0.4550027 0
6.0590005 -0.60742635 0.45503876 0
6.0630002 -0.61803806 0.45507485 0
6.0670004 -0.62866431 0.45511091 0
6.0710006 -0.63930506 0.455147 0
6.0750003 -0.6499601 0.45518306 0
6.0790005 -0.66062963 0.45521915 0
6.0830002 -0.67131352 0.45525521 0
6.0860004 -0.68190014 0.45528227 0
6.0900002 -0.6926111 0.45531836 0
6.0940003 -0.7033366 0.45535442 0
6.0980005 -0.71407646 0.45539051 0
6.1020002 -0.72483075 0.45542657 0
6.1060004 -0.73559952 0.45546266 0
6.1100001 -0.74638265 0.45549873 0
6.1140003 -0.75718027 0.45553482 0
6.1180005 -0.76799232 0.45557088 0
6.0000005 -0.41974908 0.44440532 0
5.9940004 -0.42943913 0.44436204 0
5.9980001 -0.43981102 0.44439089 0
6.0020003 -0.45019737 0.44441974 0
6.0060005 -0.46059814 0.44444862 0
6.0090003 -0.47093752 0.44447026 0
6.0130005 -0.48136538 0.44449911 0
6.0170002 -0.49180761 0.44452798 0
6.0210004 -0.50226426 0.44455683 0
6.0250006 -0.51273543 0.44458571 0
6.0280004 -0.52313614 0.44460735 0
6.0320005 -0.53363431 0.4446362 0
6.0360003 -0.54414684 0.44466507 0
6.0400004 -0.55467397 0.44469392 0
6.0440001 -0.56521535 0.44472277 0
6.0480003 -0.57577127 0.44475165 0
6.0510006 -0.58624601 0.44477329 0
6.0550003 -0.59682894 0.44480217 0
6.0590005 -0.60742635 0.44483101 0
6.0630002 -0.61803806 0.44485986 0
6.0670004 -0.62866431 0.44488874 0
6.0710006 -0.63930506 0.44491759 0
6.0750003 -0.6499601 0.44494647 0
6.0790005 -0.66062963 0.44497532 0
6.0830002 -0.67131352 0.44500417 0
6.0860004 -0.68190014 0.44502583 0
6.0900002 -0.6926111 0.44505468 0
6.0940003 -0.7033366 0.44508356 0
6.0980005 -0.71407646 0.44511241 0
6.1020002 -0.72483075 0.44514126 0
6.1060004 -0.73559952 0.44517013 0
6.1100001 -0.74638265 0.44519898 0
6.1140003 -0.75718027 0.44522786 0
6.1180005 -0.76799232 0.44525671 0
6.0000005 -0.41974908 0.434304 0
5.9940004 -0.42943913 0.43427151 0
5.9980001 -0.43981102 0.43429318 0
6.0020003 -0.45019737 0.43431482 0
6.0060005 -0.46059814 0.43433645 0
6.0090003 -0.47093752 0.4343527 0
6.0130005 -0.48136538 0.43437433 0
6.0170002 -0.49180761 0.434396 0
6.0210004 -0.50226426 0.43441764 0
6.0250006 -0.51273543 0.43443927 0
6.0280004 -0.52313614 0.43445551 0
6.0320005 -0.53363431 0.43447715 0
6.0360003 -0.54414684 0.43449882 0
6.0400004 -0.55467397 0.43452045 0
6.0440001 -0.56521535 0.43454209 0
6.0480003 -0.57577127 0.43456373 0
6.0510006 -0.58624601 0.43457997 0
6.0550003 -0.59682894 0.4346016 0
6.0590005 -0.60742635 0.43462327 0
6.0630002 -0.61803806 0.43464491 0
6.0670004 -0.62866431 0.43466657 0
6.0710006 -0.63930506 0.43468821 0
6.0750003 -0.6499601 0.43470985 0
6.0790005 -0.66062963 0.43473148 0
6.0830002 -0.67131352 0.43475315 0
6.0860004 -0.68190014 0.43476936 0
6.0900002 -0.6926111 0.43479103 0
6.0940003 -0.7033366 0.43481266 0
6.0980005 -0.71407646 0.4348343 0
6.1020002 -0.72483075 0.43485597 0
6.1060004 -0.73559952 0.4348776 0
6.1100001 -0.74638265 0.43489924 0
6.1140003 -0.75718027 0.43492091 0
6.1180005 -0.76799232 0.43494254 0
6.0000005 -0.41974908 0.42420268 0
5.9940004 -0.42943913 0.42418101 0
5.9980001 -0.43981102 0.42419544 0
6.0020003 -0.45019737 0.42420989 0
6.0060005 -0.46059814 0.42422432 0
6.0090003 -0.47093752 0.42423514 0
6.0130005 -0.48136538 0.42424956 0
6.0170002 -0.49180761 0.42426398 0
6.0210004 -0.50226426 0.42427844 0
6.0250006 -0.51273543 0.42429286 0
6.0280004 -0.52313614 0.42430368 0
6.0320005 -0.53363431 0.4243181 0
6.0360003 -0.54414684 0.42433253 0
6.0400004 -0.55467397 0.42434698 0
6.0440001 -0.56521535 0.42436141 0
6.0480003 -0.57577127 0.42437583 0
6.0510006 -0.58624601 0.42438665 0
6.0550003 -0.59682894 0.42440107 0
6.0590005 -0.60742635 0.42441553 0
6.0630002 -0.61803806 0.42442995 0
6.0670004 -0.62866431 0.42444438 0
6.0710006 -0.63930506 0.4244588 0
6.0750003 -0.6499601 0.42447323 0
6.0790005 -0.66062963 0.42448768 0
6.0830002 -0.67131352 0.4245021 0
6.0860004 -0.68190014 0.42451292 0
6.0900002 -0.6926111 0.42452735 0
6.0940003 -0.7033366 0.42454177 0
6.0980005 -0.71407646 0.42455623 0
6.1020002 -0.72483075 0.42457065 0
6.1060004 -0.73559952 0.42458507 0
6.1100001 -0.74638265 0.4245995 0
6.1140003 -0.75718027 0.42461392 0
6.1180005 -0.76799232 0.42462838 0
6.0000005 -0.41974908 0.41410133 0
5.9940004 -0.42943913 0.41409051 0
5.9980001 -0.43981102 0.41409773 0
6.0020003 -0.45019737 0.41410494 0
6.0060005 -0.46059814 0.41411215 0
6.0090003 -0.47093752 0.41411757 0
6.0130005 -0.48136538 0.41412479 0
6.0170002 -0.49180761 0.414132 0
6.0210004 -0.50226426 0.41413921 0
6.0250006 -0.51273543 0.41414642 0
6.0280004 -0.52313614 0.41415185 0
6.0320005 -0.53363431 0.41415906 0
6.0360003 -0.54414684 0.41416627 0
6.0400004 -0.55467397 0.41417348 0
6.0440001 -0.56521535 0.4141807 0
6.0480003 -0.57577127 0.41418791 0
6.0510006 -0.58624601 0.41419333 0
6.0550003 -0.59682894 0.41420054 0
6.0590005 -0.60742635 0.41420776 0
6.0630002 -0.61803806 0.41421497 0
6.0670004 -0.62866431 0.41422218 0
6.0710006 -0.63930506 0.41422942 0
6.0750003 -0.6499601 0.41423663 0
6.0790005 -0.66062963 0.41424385 0
6.0830002 -0.67131352 0.41425106 0
6.0860004 -0.68190014 0.41425645 0
6.0900002 -0.6926111 0.4142637 0
6.0940003 -0.7033366 0.41427091 0
6.0980005 -0.71407646 0.41427812 0
6.1020002 -0.72483075 0.41428533 0
6.1060004 -0.73559952 0.41429254 0
6.1100001 -0.74638265 0.41429976 0
6.1140003 -0.75718027 0.41430697 0
6.1180005 -0.76799232 0.41431418 0
6.0000005 -0.41974908 0.40400001 0
5.9940004 -0.42943913 0.40400001 0
5.9980001 -0.43981102 0.40400001 0
6.0020003 -0.45019737 0.40400001 0
6.0060005 -0.46059814 0.40400001 0
6.0090003 -0.47093752 0.40400001 0
6.0130005 -0.48136538 0.40400001 0
6.0170002 -0.49180761 0.40400001 0
6.0210004 -0.50226426 0.40400001 0
6.0250006 -0.51273543 0.40400001 0
6.0280004 -0.52313614 0.40400001 0
6.0320005 -0.53363431 0.40400001 0
6.0360003 -0.54414684 0.40400001 0
6.0400004 -0.55467397 0.40400001 0
6.0440001 -0.56521535 0.40400001 0
6.0480003 -0.57577127 0.40400001 0
6.0510006 -0.58624601 0.40400001 0
6.0550003 -0.59682894 0.40400001 0
6.0590005 -0.60742635 0.40400001 0
6.0630002 -0.61803806 0.40400001 0
6.0670004 -0.62866431 0.40400001 0
6.0710006 -0.63930506 0.40400001 0
6.0750003 -0.6499601 0.40400001 0
6.0790005 -0.66062963 0.40400001 0
6.0830002 -0.67131352 0.40400001 0
6.0860004 -0.68190014 0.40400001 0
6.0900002 -0.6926111 0.40400001 0
6.0940003 -0.7033366 0.40400001 0
6.0980005 -0.71407646 0.40400001 0
6.1020002 -0.72483075 0.40400001 0
6.1060004 -0.73559952 0.40400001 0
6.1100001 -0.74638265 0.40400001 0
6.1140003 -0.75718027 0.40400001 0
6.1180005 -0.76799232 0.40400001 0
5.9940004 -0.42943913 0.39390951 0
5.9980001 -0.43981102 0.3939023 0
6.0020003 -0.45019737 0.39389509 0
6.0060005 -0.46059814 0.39388788 0
6.0090003 -0.47093752 0.39388245 0
6.0130005 -0.48136538 0.39387524 0
6.0170002 -0.49180761 0.39386803 0
6.0210004 -0.50226426 0.39386082 0
6.0250006 -0.51273543 0.3938536 0
6.0280004 -0.52313614 0.39384818 0
6.0320005 -0.53363431 0.39384097 0
6.0360003 -0.54414684 0.39383376 0
6.0400004 -0.55467397 0.39382654 0
6.0440001 -0.56521535 0.39381933 0
6.0480003 -0.57577127 0.39381212 0
6.0510006 -0.58624601 0.3938067 0
6.0550003 -0.59682894 0.39379948 0
6.0590005 -0.60742635 0.39379227 0
6.0630002 -0.61803806 0.39378506 0
6.0670004 -0.62866431 0.39377785 0
6.0710006 -0.63930506 0.39377061 0
6.0750003 -0.6499601 0.39376339 0
6.0790005 -0.66062963 0.39375618 0
6.0830002 -0.67131352 0.39374897 0
6.0860004 -0.68190014 0.39374357 0
6.0900002 -0.6926111 0.39373633 0
6.0940003 -0.7033366 0.39372912 0
6.0980005 -0.71407646 0.39372191 0
6.1020002 -0.72483075 0.3937147 0
6.1060004 -0.73559952 0.39370748 0
6.1100001 -0.74638265 0.39370027 0
6.1140003 -0.75718027 0.39369306 0
6.1180005 -0.76799232 0.39368585 0
5.9940004 -0.42943913 0.38381901 0
5.9980001 -0.43981102 0.38380459 0
6.0020003 -0.45019737 0.38379014 0
6.0060005 -0.46059814 0.38377571 0
6.0090003 -0.47093752 0.38376489 0
