# .PCD v0.7 - Point Cloud Data file format
VERSION 0.7
FIELDS x y z intensity
SIZE 4 4 4 4
TYPE F F F F
COUNT 1 1 1 1
WIDTH 1410
HEIGHT 1
VIEWPOINT 0 0 0 1 0 0 0
POINTS 1410
DATA ascii
5.9360003 -1.4739811 0.81342119 0
5.9390001 -1.4847463 0.81364304 0
5.9410005 -1.4952607 0.81379098 0
5.9440002 -1.5060456 0.81401283 0
5.9460006 -1.5165764 0.81416076 0
5.9490004 -1.5273811 0.81438267 0
5.9510002 -1.5379279 0.81453049 0
5.9540005 -1.5487527 0.81475246 0
5.9560003 -1.5593158 0.81490028 0
5.8720002 -1.2008413 0.79881752 0
5.8740005 -1.2111375 0.79896188 0
5.8770003 -1.2216554 0.79917836 0
5.8790002 -1.2319678 0.79932261 0
5.8820004 -1.2425057 0.79953909 0
5.8840003 -1.2528343 0.79968339 0
5.8860002 -1.2631701 0.79982769 0
5.8890004 -1.2737368 0.80004418 0
5.8910003 -1.2840889 0.80018842 0
5.8940005 -1.2946755 0.80040491 0
5.8960004 -1.3050438 0.80054921 0
5.8990002 -1.3156501 0.80076563 0
5.9010005 -1.3260347 0.80091 0
5.9040003 -1.3366609 0.80112642 0
5.9060001 -1.3470616 0.80127072 0
5.9090004 -1.3577077 0.80148721 0
5.9110003 -1.3681246 0.80163145 0
5.9140005 -1.3787906 0.80184793 0
5.9160004 -1.3892238 0.8019923 0
5.9190001 -1.3999095 0.80220872 0
5.9210005 -1.4103591 0.80235302 0
5.9240003 -1.4210646 0.80256951 0
5.9260006 -1.4315305 0.80271381 0
5.9290004 -1.4422559 0.80293024 0
5.9310002 -1.4527377 0.80307454 0
5.9340005 -1.4634831 0.80329102 0
5.9360003 -1.4739811 0.80343533 0
5.9390001 -1.4847463 0.80365175 0
5.9410005 -1.4952607 0.80379605 0
5.9440002 -1.5060456 0.80401254 0
5.9460006 -1.5165764 0.8041569 0
5.9490004 -1.5273811 0.80437326 0
5.9510002 -1.5379279 0.80451763 0
5.9540005 -1.5487527 0.80473411 0
5.9560003 -1.5593158 0.80487835 0
5.8720002 -1.2008413 0.78894711 0
5.8740005 -1.2111375 0.78908783 0
5.8770003 -1.2216554 0.78929889 0
5.8790002 -1.2319678 0.78943956 0
5.8820004 -1.2425057 0.78965062 0
5.8840003 -1.2528343 0.78979129 0
5.8860002 -1.2631701 0.78993201 0
5.8890004 -1.2737368 0.79014301 0
5.8910003 -1.2840889 0.79028374 0
5.8940005 -1.2946755 0.7904948 0
5.8960004 -1.3050438 0.79063547 0
5.8990002 -1.3156501 0.79084647 0
5.9010005 -1.3260347 0.79098725 0
5.9040003 -1.3366609 0.79119825 0
5.9060001 -1.3470616 0.79133898 0
5.9090004 -1.3577077 0.79155004 0
5.9110003 -1.3681246 0.79169071 0
5.9140005 -1.3787906 0.79190177 0
5.9160004 -1.3892238 0.79204249 0
5.9190001 -1.3999095 0.79225349 0
5.9210005 -1.4103591 0.79239422 0
5.9240003 -1.4210646 0.79260522 0
5.9260006 -1.4315305 0.79274595 0
5.9290004 -1.4422559 0.79295695 0
5.9310002 -1.4527377 0.79309767 0
5.9340005 -1.4634831 0.79330873 0
5.9360003 -1.4739811 0.7934494 0
5.9390001 -1.4847463 0.7936604 0
5.9410005 -1.4952607 0.79380119 0
5.9440002 -1.5060456 0.79401219 0
5.9460006 -1.5165764 0.79415298 0
5.9490004 -1.5273811 0.79436398 0
5.9510002 -1.5379279 0.79450464 0
5.9540005 -1.5487527 0.7947157 0
5.9560003 -1.5593158 0.79485643 0
5.8720002 -1.2008413 0.7790767 0
5.8740005 -1.2111375 0.77921379 0
5.8770003 -1.2216554 0.77941942 0
5.8790002 -1.2319678 0.77955651 0
5.8820004 -1.2425057 0.77976215 0
5.8840003 -1.2528343 0.77989924 0
5.8860002 -1.2631701 0.78003633 0
5.8890004 -1.2737368 0.78024197 0
5.8910003 -1.2840889 0.78037906 0
5.8940005 -1.2946755 0.78058469 0
5.8960004 -1.3050438 0.78072178 0
5.8990002 -1.3156501 0.78092742 0
5.9010005 -1.3260347 0.78106451 0
5.9040003 -1.3366609 0.78127015 0
5.9060001 -1.3470616 0.78140718 0
5.9090004 -1.3577077 0.78161287 0
5.9110003 -1.3681246 0.7817499 0
5.9140005 -1.3787906 0.7819556 0
5.9160004 -1.3892238 0.78209269 0
5.9190001 -1.3999095 0.78229827 0
5.9210005 -1.4103591 0.78243542 0
5.9240003 -1.4210646 0.78264099 0
5.9260006 -1.4315305 0.78277814 0
5.9290004 -1.4422559 0.78298372 0
5.9310002 -1.4527377 0.78312081 0
5.9340005 -1.4634831 0.78332651 0
5.9360003 -1.4739811 0.78346354 0
5.9390001 -1.4847463 0.78366911 0
5.9410005 -1.4952607 0.78380626 0
5.9440002 -1.5060456 0.7840119 0
5.9460006 -1.5165764 0.78414899 0
5.9490004 -1.5273811 0.78435463 0
5.9510002 -1.5379279 0.78449172 0
5.9540005 -1.5487527 0.78469735 0
5.9560003 -1.5593158 0.78483444 0
5.9590006 -1.5701603 0.78504008 0
5.8720002 -1.2008413 0.76920623 0
5.8740005 -1.2111375 0.76933974 0
5.8770003 -1.2216554 0.76953995 0
5.8790002 -1.2319678 0.76967347 0
5.8820004 -1.2425057 0.76987362 0
5.8840003 -1.2528343 0.77000713 0
5.8860002 -1.2631701 0.77014059 0
5.8890004 -1.2737368 0.77034086 0
5.8910003 -1.2840889 0.77047431 0
5.8940005 -1.2946755 0.77067459 0
5.8960004 -1.3050438 0.77080798 0
5.8990002 -1.3156501 0.77100825 0
5.9010005 -1.3260347 0.77114177 0
5.9040003 -1.3366609 0.77134192 0
5.9060001 -1.3470616 0.77147543 0
5.9090004 -1.3577077 0.77167565 0
5.9110003 -1.3681246 0.7718091 0
5.9140005 -1.3787906 0.77200937 0
5.9160004 -1.3892238 0.77214289 0
5.9190001 -1.3999095 0.77234304 0
5.9210005 -1.4103591 0.77247655 0
5.9240003 -1.4210646 0.77267677 0
5.9260006 -1.4315305 0.77281028 0
5.9290004 -1.4422559 0.77301049 0
5.9310002 -1.4527377 0.77314395 0
5.9340005 -1.4634831 0.77334416 0
5.9360003 -1.4739811 0.77347767 0
5.9390001 -1.4847463 0.77367789 0
5.9410005 -1.4952607 0.77381134 0
5.9440002 -1.5060456 0.77401161 0
5.9460006 -1.5165764 0.77414507 0
5.9490004 -1.5273811 0.77434528 0
5.9510002 -1.5379279 0.77447879 0
5.9540005 -1.5487527 0.77467901 0
5.9560003 -1.5593158 0.77481246 0
5.9590006 -1.5701603 0.77501273 0
5.8720002 -1.2008413 0.75933576 0
5.8740005 -1.2111375 0.75946569 0
5.8770003 -1.2216554 0.75966048 0
5.8790002 -1.2319678 0.75979036 0
5.8820004 -1.2425057 0.75998521 0
5.8840003 -1.2528343 0.76011503 0
5.8860002 -1.2631701 0.76024491 0
5.8890004 -1.2737368 0.76043975 0
5.8910003 -1.2840889 0.76056957 0
5.8940005 -1.2946755 0.76076442 0
5.8960004 -1.3050438 0.7608943 0
5.8990002 -1.3156501 0.76108909 0
5.9010005 -1.3260347 0.76121902 0
5.9040003 -1.3366609 0.76141381 0
5.9060001 -1.3470616 0.76154363 0
5.9090004 -1.3577077 0.76173848 0
5.9110003 -1.3681246 0.76186836 0
5.9140005 -1.3787906 0.76206315 0
5.9160004 -1.3892238 0.76219302 0
5.9190001 -1.3999095 0.76238787 0
5.9210005 -1.4103591 0.76251769 0
5.9240003 -1.4210646 0.76271254 0
5.9260006 -1.4315305 0.76284242 0
5.9290004 -1.4422559 0.7630372 0
5.9310002 -1.4527377 0.76316708 0
5.9340005 -1.4634831 0.76336193 0
5.9360003 -1.4739811 0.76349175 0
5.9390001 -1.4847463 0.7636866 0
5.9410005 -1.4952607 0.76381648 0
5.9440002 -1.5060456 0.76401126 0
5.9460006 -1.5165764 0.7641412 0
5.9490004 -1.5273811 0.76433599 0
5.9510002 -1.5379279 0.76446581 0
5.9540005 -1.5487527 0.76466066 0
5.9560003 -1.5593158 0.76479053 0
5.9590006 -1.5701603 0.76498532 0
5.8720002 -1.2008413 0.74946535 0
5.8740005 -1.2111375 0.74959165 0
5.8770003 -1.2216554 0.74978101 0
5.8790002 -1.2319678 0.74990726 0
5.8820004 -1.2425057 0.75009668 0
5.8840003 -1.2528343 0.75022292 0
5.8860002 -1.2631701 0.75034922 0
5.8890004 -1.2737368 0.75053859 0
5.8910003 -1.2840889 0.75066495 0
5.8940005 -1.2946755 0.75085425 0
5.8960004 -1.3050438 0.75098062 0
5.8990002 -1.3156501 0.75116992 0
5.9010005 -1.3260347 0.75129628 0
5.9040003 -1.3366609 0.75148559 0
5.9060001 -1.3470616 0.75161189 0
5.9090004 -1.3577077 0.75180131 0
5.9110003 -1.3681246 0.75192755 0
5.9140005 -1.3787906 0.75211698 0
5.9160004 -1.3892238 0.75224328 0
5.9190001 -1.3999095 0.75243264 0
5.9210005 -1.4103591 0.75255895 0
5.9240003 -1.4210646 0.75274831 0
5.9260006 -1.4315305 0.75287461 0
5.9290004 -1.4422559 0.75306398 0
5.9310002 -1.4527377 0.75319022 0
5.9340005 -1.4634831 0.75337964 0
5.9360003 -1.4739811 0.75350589 0
5.9390001 -1.4847463 0.75369525 0
5.9410005 -1.4952607 0.75382161 0
5.9440002 -1.5060456 0.75401098 0
5.9460006 -1.5165764 0.75413728 0
5.9490004 -1.5273811 0.75432664 0
5.9510002 -1.5379279 0.75445288 0
5.9540005 -1.5487527 0.75464231 0
5.9560003 -1.5593158 0.75476855 0
5.9590006 -1.5701603 0.75495797 0
5.8720002 -1.2008413 0.73959494 0
5.8740005 -1.2111375 0.7397176 0
5.8770003 -1.2216554 0.73990154 0
5.8790002 -1.2319678 0.74002421 0
5.8820004 -1.2425057 0.74020827 0
5.8840003 -1.2528343 0.74033087 0
5.8860002 -1.2631701 0.74045354 0
5.8890004 -1.2737368 0.74063754 0
5.8910003 -1.2840889 0.74076021 0
5.8940005 -1.2946755 0.74094421 0
5.8960004 -1.3050438 0.74106681 0
5.8990002 -1.3156501 0.74125081 0
5.9010005 -1.3260347 0.74137348 0
5.9040003 -1.3366609 0.74155748 0
5.9060001 -1.3470616 0.74168015 0
5.9090004 -1.3577077 0.74186414 0
5.9110003 -1.3681246 0.74198675 0
5.9140005 -1.3787906 0.74217081 0
5.9160004 -1.3892238 0.74229342 0
5.9190001 -1.3999095 0.74247742 0
5.9210005 -1.4103591 0.74260008 0
5.9240003 -1.4210646 0.74278402 0
5.9260006 -1.4315305 0.74290675 0
5.9290004 -1.4422559 0.74309075 0
5.9310002 -1.4527377 0.74321336 0
5.9340005 -1.4634831 0.74339736 0
5.9360003 -1.4739811 0.74352002 0
5.9390001 -1.4847463 0.74370396 0
5.9410005 -1.4952607 0.74382663 0
5.9440002 -1.5060456 0.74401063 0
5.9460006 -1.5165764 0.74413335 0
5.9490004 -1.5273811 0.74431729 0
5.9510002 -1.5379279 0.74443996 0
5.9540005 -1.5487527 0.74462396 0
5.9560003 -1.5593158 0.74474657 0
5.9590006 -1.5701603 0.74493062 0
5.8720002 -1.2008413 0.72972447 0
5.8740005 -1.2111375 0.72984356 0
5.8770003 -1.2216554 0.73002213 0
5.8790002 -1.2319678 0.73014116 0
5.8820004 -1.2425057 0.73031974 0
5.8840003 -1.2528343 0.73043877 0
5.8860002 -1.2631701 0.7305578 0
5.8890004 -1.2737368 0.73073643 0
5.8910003 -1.2840889 0.73085546 0
5.8940005 -1.2946755 0.73103404 0
5.8960004 -1.3050438 0.73115313 0
5.8990002 -1.3156501 0.73133165 0
5.9010005 -1.3260347 0.7314508 0
5.9040003 -1.3366609 0.73162931 0
5.9060001 -1.3470616 0.73174834 0
5.9090004 -1.3577077 0.73192692 0
5.9110003 -1.3681246 0.73204601 0
5.9140005 -1.3787906 0.73222458 0
5.9160004 -1.3892238 0.73234367 0
5.9190001 -1.3999095 0.73252219 0
5.9210005 -1.4103591 0.73264122 0
5.9240003 -1.4210646 0.7328198 0
5.9260006 -1.4315305 0.73293889 0
5.9290004 -1.4422559 0.73311746 0
5.9310002 -1.4527377 0.73323655 0
5.9340005 -1.4634831 0.73341513 0
5.9360003 -1.4739811 0.7335341 0
5.9390001 -1.4847463 0.73371267 0
5.9410005 -1.4952607 0.73383176 0
5.9440002 -1.5060456 0.73401034 0
5.9460006 -1.5165764 0.73412943 0
5.9490004 -1.5273811 0.73430794 0
5.9510002 -1.5379279 0.73442698 0
5.9540005 -1.5487527 0.73460561 0
5.9560003 -1.5593158 0.73472464 0
5.9590006 -1.5701603 0.73490322 0
5.8720002 -1.2008413 0.71985406 0
5.8740005 -1.2111375 0.71996951 0
5.8770003 -1.2216554 0.72014266 0
5.8790002 -1.2319678 0.72025812 0
5.8820004 -1.2425057 0.72043127 0
5.8840003 -1.2528343 0.72054672 0
5.8860002 -1.2631701 0.72066212 0
5.8890004 -1.2737368 0.72083533 0
5.8910003 -1.2840889 0.72095072 0
5.8940005 -1.2946755 0.72112393 0
5.8960004 -1.3050438 0.72123939 0
5.8990002 -1.3156501 0.72141254 0
5.9010005 -1.3260347 0.72152799 0
5.9040003 -1.3366609 0.72170115 0
5.9060001 -1.3470616 0.72181654 0
5.9090004 -1.3577077 0.72198975 0
5.9110003 -1.3681246 0.72210521 0
5.9140005 -1.3787906 0.72227836 0
5.9160004 -1.3892238 0.72239381 0
5.9190001 -1.3999095 0.72256696 0
5.9210005 -1.4103591 0.72268242 0
5.9240003 -1.4210646 0.72285557 0
5.9260006 -1.4315305 0.72297108 0
5.9290004 -1.4422559 0.72314417 0
5.9310002 -1.4527377 0.72325963 0
5.9340005 -1.4634831 0.72343278 0
5.9360003 -1.4739811 0.72354829 0
5.9390001 -1.4847463 0.72372139 0
5.9410005 -1.4952607 0.7238369 0
5.9440002 -1.5060456 0.72400999 0
5.9460006 -1.5165764 0.7241255 0
5.9490004 -1.5273811 0.7242986 0
5.9510002 -1.5379279 0.72441411 0
5.9540005 -1.5487527 0.72458726 0
5.9560003 -1.5593158 0.72470272 0
5.9590006 -1.5701603 0.72487587 0
5.8720002 -1.2008413 0.70998359 0
5.8740005 -1.2111375 0.71009547 0
5.8770003 -1.2216554 0.71026319 0
5.8790002 -1.2319678 0.71037501 0
5.8820004 -1.2425057 0.7105428 0
5.8840003 -1.2528343 0.71065462 0
5.8860002 -1.2631701 0.71076643 0
5.8890004 -1.2737368 0.71093422 0
5.8910003 -1.2840889 0.7110461 0
5.8940005 -1.2946755 0.71121383 0
5.8960004 -1.3050438 0.71132565 0
5.8990002 -1.3156501 0.71149337 0
5.9010005 -1.3260347 0.71160519 0
5.9040003 -1.3366609 0.71177298 0
5.9060001 -1.3470616 0.71188486 0
5.9090004 -1.3577077 0.71205258 0
5.9110003 -1.3681246 0.7121644 0
5.9140005 -1.3787906 0.71233213 0
5.9160004 -1.3892238 0.71244401 0
5.9190001 -1.3999095 0.71261179 0
5.9210005 -1.4103591 0.71272361 0
5.9240003 -1.4210646 0.71289134 0
5.9260006 -1.4315305 0.71300316 0
5.9290004 -1.4422559 0.71317089 0
5.9310002 -1.4527377 0.71328276 0
5.9340005 -1.4634831 0.71345055 0
5.9360003 -1.4739811 0.71356237 0
5.9390001 -1.4847463 0.7137301 0
5.9410005 -1.4952607 0.71384197 0
5.9440002 -1.5060456 0.7140097 0
5.9460006 -1.5165764 0.71412158 0
5.9490004 -1.5273811 0.71428931 0
5.9510002 -1.5379279 0.71440113 0
5.9540005 -1.5487527 0.71456891 0
5.9560003 -1.5593158 0.71468073 0
5.9590006 -1.5701603 0.71484852 0
5.8720002 -1.2008413 0.70011318 0
5.8740005 -1.2111375 0.70022142 0
5.8770003 -1.2216554 0.70038378 0
5.8790002 -1.2319678 0.70049196 0
5.8820004 -1.2425057 0.70065433 0
5.8840003 -1.2528343 0.70076251 0
5.8860002 -1.2631701 0.70087075 0
5.8890004 -1.2737368 0.70103312 0
5.8910003 -1.2840889 0.70114136 0
5.8940005 -1.2946755 0.70130372 0
5.8960004 -1.3050438 0.7014119 0
5.8990002 -1.3156501 0.70157421 0
5.9010005 -1.3260347 0.70168251 0
5.9040003 -1.3366609 0.70184481 0
5.9060001 -1.3470616 0.70195305 0
5.9090004 -1.3577077 0.70211542 0
5.9110003 -1.3681246 0.70222366 0
5.9140005 -1.3787906 0.70238602 0
5.9160004 -1.3892238 0.7024942 0
5.9190001 -1.3999095 0.70265651 0
5.9210005 -1.4103591 0.70276475 0
5.9240003 -1.4210646 0.70292711 0
5.9260006 -1.4315305 0.70303535 0
5.9290004 -1.4422559 0.70319772 0
5.9310002 -1.4527377 0.7033059 0
5.9340005 -1.4634831 0.70346826 0
5.9360003 -1.4739811 0.70357645 0
5.9390001 -1.4847463 0.70373881 0
5.9410005 -1.4952607 0.70384705 0
5.9440002 -1.5060456 0.70400941 0
5.9460006 -1.5165764 0.70411766 0
5.9490004 -1.5273811 0.70427996 0
5.9510002 -1.5379279 0.70438814 0
5.9540005 -1.5487527 0.7045505 0
5.9560003 -1.5593158 0.70465875 0
5.9590006 -1.5701603 0.70482111 0
5.8720002 -1.2008413 0.69024277 0
5.8740005 -1.2111375 0.69034737 0
5.8770003 -1.2216554 0.69050431 0
5.8790002 -1.2319678 0.69060892 0
5.8820004 -1.2425057 0.69076586 0
5.8840003 -1.2528343 0.69087046 0
5.8860002 -1.2631701 0.69097507 0
5.8890004 -1.2737368 0.69113207 0
5.8910003 -1.2840889 0.69123662 0
5.8940005 -1.2946755 0.69139361 0
5.8960004 -1.3050438 0.69149816 0
5.8990002 -1.3156501 0.69165516 0
5.9010005 -1.3260347 0.69175971 0
5.9040003 -1.3366609 0.6919167 0
5.9060001 -1.3470616 0.69202125 0
5.9090004 -1.3577077 0.69217825 0
5.9110003 -1.3681246 0.6922828 0
5.9140005 -1.3787906 0.69243979 0
5.9160004 -1.3892238 0.6925444 0
5.9190001 -1.3999095 0.69270134 0
5.9210005 -1.4103591 0.69280595 0
5.9240003 -1.4210646 0.69296288 0
5.9260006 -1.4315305 0.69306755 0
5.9290004 -1.4422559 0.69322443 0
5.9310002 -1.4527377 0.69332904 0
5.9340005 -1.4634831 0.69348598 0
5.9360003 -1.4739811 0.69359064 0
5.9390001 -1.4847463 0.69374752 0
5.9410005 -1.4952607 0.69385219 0
5.9440002 -1.5060456 0.69400907 0
5.9460006 -1.5165764 0.69411373 0
5.9490004 -1.5273811 0.69427061 0
5.9510002 -1.5379279 0.69437528 0
5.9540005 -1.5487527 0.69453216 0
5.9560003 -1.5593158 0.69463682 0
5.9590006 -1.5701603 0.69479376 0
5.8720002 -1.2008413 0.6803723 0
5.8740005 -1.2111375 0.68047333 0
5.8770003 -1.2216554 0.68062484 0
5.8790002 -1.2319678 0.68072581 0
5.8820004 -1.2425057 0.68087733 0
5.8840003 -1.2528343 0.68097836 0
5.8860002 -1.2631701 0.68107939 0
5.8890004 -1.2737368 0.6812309 0
5.8910003 -1.2840889 0.68133187 0
5.8940005 -1.2946755 0.68148345 0
5.8960004 -1.3050438 0.68158448 0
5.8990002 -1.3156501 0.68173599 0
5.9010005 -1.3260347 0.68183696 0
5.9040003 -1.3366609 0.68198848 0
5.9060001 -1.3470616 0.68208951 0
5.9090004 -1.3577077 0.68224108 0
5.9110003 -1.3681246 0.68234205 0
5.9140005 -1.3787906 0.68249357 0
5.9160004 -1.3892238 0.6825946 0
5.9190001 -1.3999095 0.68274605 0
5.9210005 -1.4103591 0.68284714 0
5.9240003 -1.4210646 0.68299866 0
5.9260006 -1.4315305 0.68309963 0
5.9290004 -1.4422559 0.68325114 0
5.9310002 -1.4527377 0.68335223 0
5.9340005 -1.4634831 0.68350375 0
5.9360003 -1.4739811 0.68360472 0
5.9390001 -1.4847463 0.68375623 0
5.9410005 -1.4952607 0.68385726 0
5.9440002 -1.5060456 0.68400878 0
5.9460006 -1.5165764 0.68410981 0
5.9490004 -1.5273811 0.68426132 0
5.9510002 -1.5379279 0.68436229 0
5.9540005 -1.5487527 0.68451381 0
5.9560003 -1.5593158 0.6846149 0
5.9590006 -1.5701603 0.68476641 0
5.8720002 -1.2008413 0.67050183 0
5.8740005 -1.2111375 0.67059928 0
5.8770003 -1.2216554 0.67074537 0
5.8790002 -1.2319678 0.67084277 0
5.8820004 -1.2425057 0.67098892 0
5.8840003 -1.2528343 0.67108631 0
5.8860002 -1.2631701 0.67118371 0
5.8890004 -1.2737368 0.6713298 0
5.8910003 -1.2840889 0.67142725 0
5.8940005 -1.2946755 0.67157334 0
5.8960004 -1.3050438 0.67167073 0
5.8990002 -1.3156501 0.67181683 0
5.9010005 -1.3260347 0.67191422 0
5.9040003 -1.3366609 0.67206037 0
5.9060001 -1.3470616 0.67215776 0
5.9090004 -1.3577077 0.67230386 0
5.9110003 -1.3681246 0.67240125 0
5.9140005 -1.3787906 0.67254734 0
5.9160004 -1.3892238 0.67264479 0
5.9190001 -1.3999095 0.67279088 0
5.9210005 -1.4103591 0.67288828 0
5.9240003 -1.4210646 0.67303443 0
5.9260006 -1.4315305 0.67313182 0
5.9290004 -1.4422559 0.67327791 0
5.9310002 -1.4527377 0.67337531 0
5.9340005 -1.4634831 0.67352146 0
5.9360003 -1.4739811 0.67361879 0
5.9390001 -1.4847463 0.67376494 0
5.9410005 -1.4952607 0.67386234 0
5.9440002 -1.5060456 0.67400849 0
5.9460006 -1.5165764 0.67410588 0
5.9490004 -1.5273811 0.67425197 0
5.9510002 -1.5379279 0.67434937 0
5.9540005 -1.5487527 0.67449546 0
5.9560003 -1.5593158 0.67459291 0
5.9590006 -1.5701603 0.674739 0
5.8720002 -1.2008413 0.66063142 0
5.8740005 -1.2111375 0.66072524 0
5.8770003 -1.2216554 0.6608659 0
5.8790002 -1.2319678 0.66095972 0
5.8820004 -1.2425057 0.66110039 0
5.8840003 -1.2528343 0.66119421 0
5.8860002 -1.2631701 0.66128802 0
5.8890004 -1.2737368 0.66142869 0
5.8910003 -1.2840889 0.66152251 0
5.8940005 -1.2946755 0.66166317 0
5.8960004 -1.3050438 0.66175699 0
5.8990002 -1.3156501 0.66189766 0
5.9010005 -1.3260347 0.66199148 0
5.9040003 -1.3366609 0.66213214 0
5.9060001 -1.3470616 0.66222596 0
5.9090004 -1.3577077 0.66236669 0
5.9110003 -1.3681246 0.66246045 0
5.9140005 -1.3787906 0.66260123 0
5.9160004 -1.3892238 0.66269493 0
5.9190001 -1.3999095 0.66283566 0
5.9210005 -1.4103591 0.66292948 0
5.9240003 -1.4210646 0.6630702 0
5.9260006 -1.4315305 0.66316396 0
5.9290004 -1.4422559 0.66330469 0
5.9310002 -1.4527377 0.66339844 0
5.9340005 -1.4634831 0.66353917 0
5.9360003 -1.4739811 0.66363299 0
5.9390001 -1.4847463 0.66377366 0
5.9410005 -1.4952607 0.66386747 0
5.9440002 -1.5060456 0.66400814 0
5.9460006 -1.5165764 0.66410196 0
5.9490004 -1.5273811 0.66424263 0
5.9510002 -1.5379279 0.66433644 0
5.9540005 -1.5487527 0.66447711 0
5.9560003 -1.5593158 0.66457093 0
5.9590006 -1.5701603 0.66471165 0
5.8720002 -1.2008413 0.65076101 0
5.8740005 -1.2111375 0.65085119 0
5.8770003 -1.2216554 0.65098643 0
5.8790002 -1.2319678 0.65107667 0
5.8820004 -1.2425057 0.65121192 0
5.8840003 -1.2528343 0.6513021 0
5.8860002 -1.2631701 0.65139228 0
5.8890004 -1.2737368 0.65152758 0
5.8910003 -1.2840889 0.65161777 0
5.8940005 -1.2946755 0.65175307 0
5.8960004 -1.3050438 0.65184325 0
5.8990002 -1.3156501 0.65197855 0
5.9010005 -1.3260347 0.65206873 0
5.9040003 -1.3366609 0.65220404 0
5.9060001 -1.3470616 0.65229416 0
5.9090004 -1.3577077 0.65242952 0
5.9110003 -1.3681246 0.6525197 0
5.9140005 -1.3787906 0.65265501 0
5.9160004 -1.3892238 0.65274519 0
5.9190001 -1.3999095 0.65288043 0
5.9210005 -1.4103591 0.65297067 0
5.9240003 -1.4210646 0.65310591 0
5.9260006 -1.4315305 0.6531961 0
5.9290004 -1.4422559 0.6533314 0
5.9310002 -1.4527377 0.65342158 0
5.9340005 -1.4634831 0.65355688 0
5.9360003 -1.4739811 0.65364707 0
5.9390001 -1.4847463 0.65378237 0
5.9410005 -1.4952607 0.65387255 0
5.9440002 -1.5060456 0.65400779 0
5.9460006 -1.5165764 0.65409803 0
5.9490004 -1.5273811 0.65423334 0
5.9510002 -1.5379279 0.65432352 0
5.9540005 -1.5487527 0.65445876 0
5.9560003 -1.5593158 0.654549 0
5.9590006 -1.5701603 0.65468431 0
5.8720002 -1.2008413 0.64089054 0
5.8740005 -1.2111375 0.64097714 0
5.8770003 -1.2216554 0.64110696 0
5.8790002 -1.2319678 0.64119357 0
5.8820004 -1.2425057 0.64132345 0
5.8840003 -1.2528343 0.64140999 0
5.8860002 -1.2631701 0.6414966 0
5.8890004 -1.2737368 0.64162648 0
5.8910003 -1.2840889 0.64171308 0
5.8940005 -1.2946755 0.64184296 0
5.8960004 -1.3050438 0.64192951 0
5.8990002 -1.3156501 0.64205939 0
5.9010005 -1.3260347 0.64214599 0
5.9040003 -1.3366609 0.64227587 0
5.9060001 -1.3470616 0.64236242 0
5.9090004 -1.3577077 0.64249229 0
5.9110003 -1.3681246 0.6425789 0
5.9140005 -1.3787906 0.64270878 0
5.9160004 -1.3892238 0.64279532 0
5.9190001 -1.3999095 0.6429252 0
5.9210005 -1.4103591 0.64301181 0
5.9240003 -1.4210646 0.64314169 0
5.9260006 -1.4315305 0.64322829 0
5.9290004 -1.4422559 0.64335817 0
5.9310002 -1.4527377 0.64344472 0
5.9340005 -1.4634831 0.6435746 0
5.9360003 -1.4739811 0.6436612 0
5.9390001 -1.4847463 0.64379108 0
5.9410005 -1.4952607 0.64387763 0
5.9440002 -1.5060456 0.6440075 0
5.9460006 -1.5165764 0.64409411 0
5.9490004 -1.5273811 0.64422399 0
5.9510002 -1.5379279 0.64431053 0
5.9540005 -1.5487527 0.64444041 0
5.9560003 -1.5593158 0.64452702 0
5.9590006 -1.5701603 0.6446569 0
5.8720002 -1.2008413 0.63102007 0
5.8740005 -1.2111375 0.6311031 0
5.8770003 -1.2216554 0.63122755 0
5.8790002 -1.2319678 0.63131052 0
5.8820004 -1.2425057 0.63143498 0
5.8840003 -1.2528343 0.63151795 0
5.8860002 -1.2631701 0.63160092 0
5.8890004 -1.2737368 0.63172543 0
5.8910003 -1.2840889 0.6318084 0
5.8940005 -1.2946755 0.63193285 0
5.8960004 -1.3050438 0.63201582 0
5.8990002 -1.3156501 0.63214028 0
5.9010005 -1.3260347 0.63222325 0
5.9040003 -1.3366609 0.6323477 0
5.9060001 -1.3470616 0.63243067 0
5.9090004 -1.3577077 0.63255513 0
5.9110003 -1.3681246 0.6326381 0
5.9140005 -1.3787906 0.63276255 0
5.9160004 -1.3892238 0.63284552 0
5.9190001 -1.3999095 0.63297004 0
5.9210005 -1.4103591 0.633053 0
5.9240003 -1.4210646 0.63317746 0
5.9260006 -1.4315305 0.63326043 0
5.9290004 -1.4422559 0.63338488 0
5.9310002 -1.4527377 0.63346785 0
5.9340005 -1.4634831 0.63359237 0
5.9360003 -1.4739811 0.63367534 0
5.9390001 -1.4847463 0.63379979 0
5.9410005 -1.4952607 0.63388276 0
5.9440002 -1.5060456 0.63400722 0
5.9460006 -1.5165764 0.63409019 0
5.9490004 -1.5273811 0.63421464 0
5.9510002 -1.5379279 0.63429761 0
5.9540005 -1.5487527 0.63442206 0
5.9560003 -1.5593158 0.63450503 0
5.9590006 -1.5701603 0.63462955 0
5.8720002 -1.2008413 0.62114966 0
5.8740005 -1.2111375 0.62122905 0
5.8770003 -1.2216554 0.62134808 0
5.8790002 -1.2319678 0.62142742 0
5.8820004 -1.2425057 0.62154651 0
5.8840003 -1.2528343 0.6216259 0
5.8860002 -1.2631701 0.62170523 0
5.8890004 -1.2737368 0.62182426 0
5.8910003 -1.2840889 0.62190366 0
5.8940005 -1.2946755 0.62202275 0
5.8960004 -1.3050438 0.62210208 0
5.8990002 -1.3156501 0.62222111 0
5.9010005 -1.3260347 0.62230051 0
5.9040003 -1.3366609 0.62241954 0
5.9060001 -1.3470616 0.62249893 0
5.9090004 -1.3577077 0.62261796 0
5.9110003 -1.3681246 0.62269735 0
5.9140005 -1.3787906 0.62281638 0
5.9160004 -1.3892238 0.62289572 0
5.9190001 -1.3999095 0.62301481 0
5.9210005 -1.4103591 0.6230942 0
5.9240003 -1.4210646 0.62321323 0
5.9260006 -1.4315305 0.62329262 0
5.9290004 -1.4422559 0.62341166 0
5.9310002 -1.4527377 0.62349099 0
5.9340005 -1.4634831 0.62361008 0
5.9360003 -1.4739811 0.62368941 0
5.9390001 -1.4847463 0.6238085 0
5.9410005 -1.4952607 0.62388784 0
5.9440002 -1.5060456 0.62400687 0
5.9460006 -1.5165764 0.62408626 0
5.9490004 -1.5273811 0.62420529 0
5.9510002 -1.5379279 0.62428468 0
5.9540005 -1.5487527 0.62440372 0
5.9560003 -1.5593158 0.62448311 0
5.9590006 -1.5701603 0.6246022 0
5.8720002 -1.2008413 0.61127925 0
5.8740005 -1.2111375 0.61135501 0
5.8770003 -1.2216554 0.61146861 0
5.8790002 -1.2319678 0.61154437 0
5.8820004 -1.2425057 0.61165804 0
5.8840003 -1.2528343 0.61173379 0
5.8860002 -1.2631701 0.61180955 0
5.8890004 -1.2737368 0.61192322 0
5.8910003 -1.2840889 0.61199892 0
5.8940005 -1.2946755 0.61211258 0
5.8960004 -1.3050438 0.61218834 0
5.8990002 -1.3156501 0.61230195 0
5.9010005 -1.3260347 0.61237776 0
5.9040003 -1.3366609 0.61249137 0
5.9060001 -1.3470616 0.61256713 0
5.9090004 -1.3577077 0.61268079 0
5.9110003 -1.3681246 0.61275655 0
5.9140005 -1.3787906 0.61287022 0
5.9160004 -1.3892238 0.61294591 0
5.9190001 -1.3999095 0.61305958 0
5.9210005 -1.4103591 0.61313534 0
5.9240003 -1.4210646 0.613249 0
5.9260006 -1.4315305 0.61332476 0
5.9290004 -1.4422559 0.61343837 0
5.9310002 -1.4527377 0.61351413 0
5.9340005 -1.4634831 0.61362779 0
5.9360003 -1.4739811 0.61370355 0
5.9390001 -1.4847463 0.61381716 0
5.9410005 -1.4952607 0.61389291 0
5.9440002 -1.5060456 0.61400658 0
5.9460006 -1.5165764 0.61408234 0
5.9490004 -1.5273811 0.614196 0
5.9510002 -1.5379279 0.61427176 0
5.9540005 -1.5487527 0.61438537 0
5.9560003 -1.5593158 0.61446112 0
5.9590006 -1.5701603 0.61457479 0
5.8720002 -1.2008413 0.60140878 0
5.8740005 -1.2111375 0.60148096 0
5.8770003 -1.2216554 0.6015892 0
5.8790002 -1.2319678 0.60166132 0
5.8820004 -1.2425057 0.60176957 0
5.8840003 -1.2528343 0.60184169 0
5.8860002 -1.2631701 0.60191381 0
5.8890004 -1.2737368 0.60202205 0
5.8910003 -1.2840889 0.60209423 0
5.8940005 -1.2946755 0.60220248 0
5.8960004 -1.3050438 0.6022746 0
5.8990002 -1.3156501 0.60238284 0
5.9010005 -1.3260347 0.60245502 0
5.9040003 -1.3366609 0.6025632 0
5.9060001 -1.3470616 0.60263538 0
5.9090004 -1.3577077 0.60274363 0
5.9110003 -1.3681246 0.60281575 0
5.9140005 -1.3787906 0.60292399 0
5.9160004 -1.3892238 0.60299611 0
5.9190001 -1.3999095 0.60310435 0
5.9210005 -1.4103591 0.60317653 0
5.9240003 -1.4210646 0.60328472 0
5.9260006 -1.4315305 0.6033569 0
5.9290004 -1.4422559 0.60346514 0
5.9310002 -1.4527377 0.60353726 0
5.9340005 -1.4634831 0.6036455 0
5.9360003 -1.4739811 0.60371768 0
5.9390001 -1.4847463 0.60382587 0
5.9410005 -1.4952607 0.60389805 0
5.9440002 -1.5060456 0.60400629 0
5.9460006 -1.5165764 0.60407841 0
5.9490004 -1.5273811 0.60418665 0
5.9510002 -1.5379279 0.60425878 0
5.9540005 -1.5487527 0.60436702 0
5.9560003 -1.5593158 0.6044392 0
5.9590006 -1.5701603 0.60454738 0
5.8720002 -1.2008413 0.59153831 0
5.8740005 -1.2111375 0.59160691 0
5.8770003 -1.2216554 0.59170973 0
5.8790002 -1.2319678 0.59177828 0
5.8820004 -1.2425057 0.59188104 0
5.8840003 -1.2528343 0.59194964 0
5.8860002 -1.2631701 0.59201813 0
5.8890004 -1.2737368 0.59212101 0
5.8910003 -1.2840889 0.59218955 0
5.8940005 -1.2946755 0.59229237 0
5.8960004 -1.3050438 0.59236085 0
5.8990002 -1.3156501 0.59246373 0
5.9010005 -1.3260347 0.59253228 0
5.9040003 -1.3366609 0.59263504 0
5.9060001 -1.3470616 0.59270358 0
5.9090004 -1.3577077 0.59280646 0
5.9110003 -1.3681246 0.59287494 0
5.9140005 -1.3787906 0.59297776 0
5.9160004 -1.3892238 0.59304631 0
5.9190001 -1.3999095 0.59314913 0
5.9210005 -1.4103591 0.59321773 0
5.9240003 -1.4210646 0.59332049 0
5.9260006 -1.4315305 0.59338903 0
5.9290004 -1.4422559 0.59349185 0
5.9310002 -1.4527377 0.5935604 0
5.9340005 -1.4634831 0.59366322 0
5.9360003 -1.4739811 0.59373176 0
5.9390001 -1.4847463 0.59383458 0
5.9410005 -1.4952607 0.59390312 0
5.9440002 -1.5060456 0.59400594 0
5.9460006 -1.5165764 0.59407449 0
5.9490004 -1.5273811 0.59417731 0
5.9510002 -1.5379279 0.59424585 0
5.9540005 -1.5487527 0.59434867 0
5.9560003 -1.5593158 0.59441721 0
5.9590006 -1.5701603 0.59452003 0
5.8720002 -1.2008413 0.5816679 0
5.8740005 -1.2111375 0.58173287 0
5.8770003 -1.2216554 0.58183026 0
5.8790002 -1.2319678 0.58189517 0
5.8820004 -1.2425057 0.58199263 0
5.8840003 -1.2528343 0.58205754 0
5.8860002 -1.2631701 0.58212245 0
5.8890004 -1.2737368 0.58221984 0
5.8910003 -1.2840889 0.58228481 0
5.8940005 -1.2946755 0.5823822 0
5.8960004 -1.3050438 0.58244717 0
5.8990002 -1.3156501 0.58254457 0
5.9010005 -1.3260347 0.58260953 0
5.9040003 -1.3366609 0.58270693 0
5.9060001 -1.3470616 0.58277184 0
5.9090004 -1.3577077 0.58286923 0
5.9110003 -1.3681246 0.5829342 0
5.9140005 -1.3787906 0.58303159 0
5.9160004 -1.3892238 0.5830965 0
5.9190001 -1.3999095 0.5831939 0
5.9210005 -1.4103591 0.58325887 0
5.9240003 -1.4210646 0.58335626 0
5.9260006 -1.4315305 0.58342123 0
5.9290004 -1.4422559 0.58351862 0
5.9310002 -1.4527377 0.58358353 0
5.9340005 -1.4634831 0.58368099 0
5.9360003 -1.4739811 0.5837459 0
5.9390001 -1.4847463 0.58384329 0
5.9410005 -1.4952607 0.58390826 0
5.9440002 -1.5060456 0.58400565 0
5.9460006 -1.5165764 0.58407056 0
5.9490004 -1.5273811 0.58416796 0
5.9510002 -1.5379279 0.58423293 0
5.9540005 -1.5487527 0.58433032 0
5.9560003 -1.5593158 0.58439529 0
5.9590006 -1.5701603 0.58449268 0
5.8720002 -1.2008413 0.57179749 0
5.8740005 -1.2111375 0.57185882 0
5.8770003 -1.2216554 0.57195079 0
5.8790002 -1.2319678 0.57201213 0
5.8820004 -1.2425057 0.5721041 0
5.8840003 -1.2528343 0.57216543 0
5.8860002 -1.2631701 0.57222676 0
5.8890004 -1.2737368 0.57231879 0
5.8910003 -1.2840889 0.57238007 0
5.8940005 -1.2946755 0.5724721 0
5.8960004 -1.3050438 0.57253343 0
5.8990002 -1.3156501 0.5726254 0
5.9010005 -1.3260347 0.57268673 0
5.9040003 -1.3366609 0.5727787 0
5.9060001 -1.3470616 0.57284009 0
5.9090004 -1.3577077 0.57293206 0
5.9110003 -1.3681246 0.5729934 0
5.9140005 -1.3787906 0.57308543 0
5.9160004 -1.3892238 0.5731467 0
5.9190001 -1.3999095 0.57323873 0
5.9210005 -1.4103591 0.57330006 0
5.9240003 -1.4210646 0.57339203 0
5.9260006 -1.4315305 0.57345337 0
5.9290004 -1.4422559 0.57354534 0
5.9310002 -1.4527377 0.57360667 0
5.9340005 -1.4634831 0.5736987 0
5.9360003 -1.4739811 0.57376003 0
5.9390001 -1.4847463 0.573852 0
5.9410005 -1.4952607 0.57391334 0
5.9440002 -1.5060456 0.57400531 0
5.9460006 -1.5165764 0.57406664 0
5.9490004 -1.5273811 0.57415867 0
5.9510002 -1.5379279 0.57422 0
5.9540005 -1.5487527 0.57431197 0
5.9560003 -1.5593158 0.5743733 0
5.9590006 -1.5701603 0.57446527 0
5.8720002 -1.2008413 0.56192702 0
5.8740005 -1.2111375 0.56198478 0
5.8770003 -1.2216554 0.56207132 0
5.8790002 -1.2319678 0.56212902 0
5.8820004 -1.2425057 0.56221563 0
5.8840003 -1.2528343 0.56227338 0
5.8860002 -1.2631701 0.56233108 0
5.8890004 -1.2737368 0.56241769 0
5.8910003 -1.2840889 0.56247538 0
5.8940005 -1.2946755 0.56256199 0
5.8960004 -1.3050438 0.56261969 0
5.8990002 -1.3156501 0.56270629 0
5.9010005 -1.3260347 0.56276399 0
5.9040003 -1.3366609 0.56285059 0
5.9060001 -1.3470616 0.56290829 0
5.9090004 -1.3577077 0.5629949 0
5.9110003 -1.3681246 0.56305259 0
5.9140005 -1.3787906 0.5631392 0
5.9160004 -1.3892238 0.5631969 0
5.9190001 -1.3999095 0.5632835 0
5.9210005 -1.4103591 0.5633412 0
5.9240003 -1.4210646 0.56342781 0
5.9260006 -1.4315305 0.5634855 0
5.9290004 -1.4422559 0.56357211 0
5.9310002 -1.4527377 0.56362981 0
5.9340005 -1.4634831 0.56371641 0
5.9360003 -1.4739811 0.56377411 0
5.9390001 -1.4847463 0.56386071 0
5.9410005 -1.4952607 0.56391847 0
5.9440002 -1.5060456 0.56400502 0
5.9460006 -1.5165764 0.56406271 0
5.9490004 -1.5273811 0.56414932 0
5.9510002 -1.5379279 0.56420708 0
5.9540005 -1.5487527 0.56429362 0
5.9560003 -1.5593158 0.56435132 0
5.9590006 -1.5701603 0.56443793 0
5.8720002 -1.2008413 0.55205661 0
5.8740005 -1.2111375 0.55211073 0
5.8770003 -1.2216554 0.55219185 0
5.8790002 -1.2319678 0.55224597 0
5.8820004 -1.2425057 0.55232716 0
5.8840003 -1.2528343 0.55238128 0
5.8860002 -1.2631701 0.5524354 0
5.8890004 -1.2737368 0.55251658 0
5.8910003 -1.2840889 0.5525707 0
5.8940005 -1.2946755 0.55265188 0
5.8960004 -1.3050438 0.55270594 0
5.8990002 -1.3156501 0.55278713 0
5.9010005 -1.3260347 0.55284125 0
5.9040003 -1.3366609 0.55292243 0
5.9060001 -1.3470616 0.55297655 0
5.9090004 -1.3577077 0.55305767 0
5.9110003 -1.3681246 0.55311179 0
5.9140005 -1.3787906 0.55319297 0
5.9160004 -1.3892238 0.55324709 0
5.9190001 -1.3999095 0.55332828 0
5.9210005 -1.4103591 0.5533824 0
5.9240003 -1.4210646 0.55346358 0
5.9260006 -1.4315305 0.5535177 0
5.9290004 -1.4422559 0.55359888 0
5.9310002 -1.4527377 0.55365294 0
5.9340005 -1.4634831 0.55373412 0
5.9360003 -1.4739811 0.55378824 0
5.9390001 -1.4847463 0.55386943 0
5.9410005 -1.4952607 0.55392355 0
5.9440002 -1.5060456 0.55400467 0
5.9460006 -1.5165764 0.55405885 0
5.9490004 -1.5273811 0.55413997 0
5.9510002 -1.5379279 0.55419409 0
5.9540005 -1.5487527 0.55427527 0
5.9560003 -1.5593158 0.5543294 0
5.9590006 -1.5701603 0.55441058 0
5.8720002 -1.2008413 0.54218614 0
5.8740005 -1.2111375 0.54223669 0
5.8770003 -1.2216554 0.54231238 0
5.8790002 -1.2319678 0.54236293 0
5.8820004 -1.2425057 0.54243869 0
5.8840003 -1.2528343 0.54248917 0
5.8860002 -1.2631701 0.54253972 0
5.8890004 -1.2737368 0.54261547 0
5.8910003 -1.2840889 0.54266596 0
5.8940005 -1.2946755 0.54274172 0
5.8960004 -1.3050438 0.5427922 0
5.8990002 -1.3156501 0.54286802 0
5.9010005 -1.3260347 0.5429185 0
5.9040003 -1.3366609 0.54299426 0
5.9060001 -1.3470616 0.54304475 0
5.9090004 -1.3577077 0.5431205 0
5.9110003 -1.3681246 0.54317105 0
5.9140005 -1.3787906 0.54324681 0
5.9160004 -1.3892238 0.54329729 0
5.9190001 -1.3999095 0.54337305 0
5.9210005 -1.4103591 0.54342359 0
5.9240003 -1.4210646 0.54349935 0
5.9260006 -1.4315305 0.54354984 0
5.9290004 -1.4422559 0.54362559 0
5.9310002 -1.4527377 0.54367614 0
5.9340005 -1.4634831 0.54375184 0
5.9360003 -1.4739811 0.54380238 0
5.9390001 -1.4847463 0.54387814 0
5.9410005 -1.4952607 0.54392862 0
5.9440002 -1.5060456 0.54400438 0
5.9460006 -1.5165764 0.54405487 0
5.9490004 -1.5273811 0.54413068 0
5.9510002 -1.5379279 0.54418117 0
5.9540005 -1.5487527 0.54425693 0
5.9560003 -1.5593158 0.54430747 0
5.9590006 -1.5701603 0.54438317 0
5.8720002 -1.2008413 0.53231573 0
5.8740005 -1.2111375 0.53236258 0
5.8770003 -1.2216554 0.53243297 0
5.8790002 -1.2319678 0.53247988 0
5.8820004 -1.2425057 0.53255022 0
5.8840003 -1.2528343 0.53259712 0
5.8860002 -1.2631701 0.53264403 0
5.8890004 -1.2737368 0.53271437 0
5.8910003 -1.2840889 0.53276128 0
5.8940005 -1.2946755 0.53283161 0
5.8960004 -1.3050438 0.53287852 0
5.8990002 -1.3156501 0.53294885 0
5.9010005 -1.3260347 0.53299576 0
5.9040003 -1.3366609 0.53306609 0
5.9060001 -1.3470616 0.533113 0
5.9090004 -1.3577077 0.53318334 0
5.9110003 -1.3681246 0.53323025 0
5.9140005 -1.3787906 0.53330064 0
5.9160004 -1.3892238 0.53334749 0
5.9190001 -1.3999095 0.53341782 0
5.9210005 -1.4103591 0.53346473 0
5.9240003 -1.4210646 0.53353512 0
5.9260006 -1.4315305 0.53358197 0
5.9290004 -1.4422559 0.53365237 0
5.9310002 -1.4527377 0.53369921 0
5.9340005 -1.4634831 0.53376961 0
5.9360003 -1.4739811 0.53381646 0
5.9390001 -1.4847463 0.53388685 0
5.9410005 -1.4952607 0.53393376 0
5.9440002 -1.5060456 0.53400409 0
5.9460006 -1.5165764 0.534051 0
5.9490004 -1.5273811 0.53412133 0
5.9510002 -1.5379279 0.53416824 0
5.9540005 -1.5487527 0.53423858 0
5.9560003 -1.5593158 0.53428549 0
5.9590006 -1.5701603 0.53435582 0
5.8720002 -1.2008413 0.52244526 0
5.8740005 -1.2111375 0.52248859 0
5.8770003 -1.2216554 0.5225535 0
5.8790002 -1.2319678 0.52259678 0
5.8820004 -1.2425057 0.52266175 0
5.8840003 -1.2528343 0.52270502 0
5.8860002 -1.2631701 0.52274829 0
5.8890004 -1.2737368 0.52281326 0
5.8910003 -1.2840889 0.52285653 0
5.8940005 -1.2946755 0.5229215 0
5.8960004 -1.3050438 0.52296478 0
5.8990002 -1.3156501 0.52302969 0
5.9010005 -1.3260347 0.52307302 0
5.9040003 -1.3366609 0.52313793 0
5.9060001 -1.3470616 0.5231812 0
5.9090004 -1.3577077 0.52324617 0
5.9110003 -1.3681246 0.52328944 0
5.9140005 -1.3787906 0.52335441 0
5.9160004 -1.3892238 0.52339768 0
5.9190001 -1.3999095 0.52346259 0
5.9210005 -1.4103591 0.52350593 0
5.9240003 -1.4210646 0.52357084 0
5.9260006 -1.4315305 0.52361417 0
5.9290004 -1.4422559 0.52367908 0
5.9310002 -1.4527377 0.52372235 0
5.9340005 -1.4634831 0.52378732 0
5.9360003 -1.4739811 0.52383059 0
5.9390001 -1.4847463 0.52389556 0
5.9410005 -1.4952607 0.52393883 0
5.9440002 -1.5060456 0.52400374 0
5.9460006 -1.5165764 0.52404708 0
5.9490004 -1.5273811 0.52411199 0
5.9510002 -1.5379279 0.52415526 0
5.9540005 -1.5487527 0.52422023 0
5.9560003 -1.5593158 0.5242635 0
5.9590006 -1.5701603 0.52432847 0
5.8720002 -1.2008413 0.51257485 0
5.8740005 -1.2111375 0.51261455 0
5.8770003 -1.2216554 0.51267403 0
5.8790002 -1.2319678 0.51271373 0
5.8820004 -1.2425057 0.51277328 0
5.8840003 -1.2528343 0.51281297 0
5.8860002 -1.2631701 0.51285261 0
5.8890004 -1.2737368 0.51291215 0
5.8910003 -1.2840889 0.51295185 0
5.8940005 -1.2946755 0.51301134 0
5.8960004 -1.3050438 0.51305103 0
5.8990002 -1.3156501 0.51311058 0
5.9010005 -1.3260347 0.51315027 0
5.9040003 -1.3366609 0.51320976 0
5.9060001 -1.3470616 0.51324946 0
5.9090004 -1.3577077 0.513309 0
5.9110003 -1.3681246 0.5133487 0
5.9140005 -1.3787906 0.51340818 0
5.9160004 -1.3892238 0.51344788 0
5.9190001 -1.3999095 0.51350743 0
5.9210005 -1.4103591 0.51354706 0
5.9240003 -1.4210646 0.51360661 0
5.9260006 -1.4315305 0.5136463 0
5.9290004 -1.4422559 0.51370585 0
5.9310002 -1.4527377 0.51374549 0
5.9340005 -1.4634831 0.51380503 0
5.9360003 -1.4739811 0.51384473 0
5.9390001 -1.4847463 0.51390421 0
5.9410005 -1.4952607 0.51394391 0
5.9440002 -1.5060456 0.51400346 0
5.9460006 -1.5165764 0.51404315 0
5.9490004 -1.5273811 0.51410264 0
5.9510002 -1.5379279 0.51414233 0
5.9540005 -1.5487527 0.51420188 0
5.9560003 -1.5593158 0.51424158 0
5.9590006 -1.5701603 0.51430106 0
5.8720002 -1.2008413 0.50270438 0
5.8740005 -1.2111375 0.5027405 0
5.8770003 -1.2216554 0.50279462 0
5.8790002 -1.2319678 0.50283068 0
5.8820004 -1.2425057 0.50288481 0
5.8840003 -1.2528343 0.50292087 0
5.8860002 -1.2631701 0.50295693 0
5.8890004 -1.2737368 0.50301105 0
5.8910003 -1.2840889 0.50304711 0
5.8940005 -1.2946755 0.50310123 0
5.8960004 -1.3050438 0.50313729 0
5.8990002 -1.3156501 0.50319141 0
5.9010005 -1.3260347 0.50322747 0
5.9040003 -1.3366609 0.50328159 0
5.9060001 -1.3470616 0.50331771 0
5.9090004 -1.3577077 0.50337183 0
5.9110003 -1.3681246 0.5034079 0
5.9140005 -1.3787906 0.50346202 0
5.9160004 -1.3892238 0.50349808 0
5.9190001 -1.3999095 0.5035522 0
5.9210005 -1.4103591 0.50358826 0
5.9240003 -1.4210646 0.50364238 0
5.9260006 -1.4315305 0.50367844 0
5.9290004 -1.4422559 0.50373256 0
5.9310002 -1.4527377 0.50376862 0
5.9340005 -1.4634831 0.50382274 0
5.9360003 -1.4739811 0.5038588 0
5.9390001 -1.4847463 0.50391293 0
5.9410005 -1.4952607 0.50394905 0
5.9440002 -1.5060456 0.50400317 0
5.9460006 -1.5165764 0.50403923 0
5.9490004 -1.5273811 0.50409335 0
5.9510002 -1.5379279 0.50412941 0
5.9540005 -1.5487527 0.50418353 0
5.9560003 -1.5593158 0.50421959 0
5.9590006 -1.5701603 0.50427371 0
5.8720002 -1.2008413 0.49283397 0
5.8740005 -1.2111375 0.49286643 0
5.8770003 -1.2216554 0.49291512 0
5.8790002 -1.2319678 0.49294761 0
5.8820004 -1.2425057 0.49299631 0
5.8840003 -1.2528343 0.49302876 0
5.8860002 -1.2631701 0.49306124 0
5.8890004 -1.2737368 0.49310994 0
5.8910003 -1.2840889 0.49314243 0
5.8940005 -1.2946755 0.49319112 0
5.8960004 -1.3050438 0.49322358 0
5.8990002 -1.3156501 0.49327227 0
5.9010005 -1.3260347 0.49330476 0
5.9040003 -1.3366609 0.49335346 0
5.9060001 -1.3470616 0.49338591 0
5.9090004 -1.3577077 0.49343464 0
5.9110003 -1.3681246 0.49346709 0
5.9140005 -1.3787906 0.49351579 0
5.9160004 -1.3892238 0.49354827 0
5.9190001 -1.3999095 0.49359697 0
5.9210005 -1.4103591 0.49362946 0
5.9240003 -1.4210646 0.49367815 0
5.9260006 -1.4315305 0.49371061 0
5.9290004 -1.4422559 0.4937593 0
5.9310002 -1.4527377 0.49379179 0
5.9340005 -1.4634831 0.49384049 0
5.9360003 -1.4739811 0.49387294 0
5.9390001 -1.4847463 0.49392167 0
5.9410005 -1.4952607 0.49395412 0
5.9440002 -1.5060456 0.49400282 0
5.9460006 -1.5165764 0.4940353 0
5.9490004 -1.5273811 0.494084 0
5.9510002 -1.5379279 0.49411646 0
5.9540005 -1.5487527 0.49416518 0
5.9560003 -1.5593158 0.49419764 0
5.9590006 -1.5701603 0.49424636 0
5.8720002 -1.2008413 0.48296353 0
5.8740005 -1.2111375 0.48299238 0
5.8770003 -1.2216554 0.48303568 0
5.8790002 -1.2319678 0.48306453 0
5.8820004 -1.2425057 0.48310784 0
5.8840003 -1.2528343 0.48313668 0
5.8860002 -1.2631701 0.48316556 0
5.8890004 -1.2737368 0.48320884 0
5.8910003 -1.2840889 0.48323768 0
5.8940005 -1.2946755 0.48328099 0
5.8960004 -1.3050438 0.48330986 0
5.8990002 -1.3156501 0.48335314 0
5.9010005 -1.3260347 0.48338202 0
5.9040003 -1.3366609 0.48342529 0
5.9060001 -1.3470616 0.48345417 0
5.9090004 -1.3577077 0.48349744 0
5.9110003 -1.3681246 0.48352632 0
5.9140005 -1.3787906 0.48356962 0
5.9160004 -1.3892238 0.48359847 0
5.9190001 -1.3999095 0.48364174 0
5.9210005 -1.4103591 0.48367062 0
5.9240003 -1.4210646 0.4837139 0
5.9260006 -1.4315305 0.48374277 0
5.9290004 -1.4422559 0.48378605 0
5.9310002 -1.4527377 0.48381492 0
5.9340005 -1.4634831 0.48385823 0
5.9360003 -1.4739811 0.48388708 0
5.9390001 -1.4847463 0.48393035 0
5.9410005 -1.4952607 0.48395923 0
5.9440002 -1.5060456 0.48400253 0
5.9460006 -1.5165764 0.48403138 0
5.9490004 -1.5273811 0.48407465 0
5.9510002 -1.5379279 0.48410353 0
5.9540005 -1.5487527 0.48414683 0
5.9560003 -1.5593158 0.48417568 0
5.9590006 -1.5701603 0.48421898 0
5.8720002 -1.2008413 0.47309309 0
5.8740005 -1.2111375 0.47311834 0
5.8770003 -1.2216554 0.47315621 0
5.8790002 -1.2319678 0.47318149 0
5.8820004 -1.2425057 0.47321934 0
5.8840003 -1.2528343 0.47324461 0
5.8860002 -1.2631701 0.47326985 0
5.8890004 -1.2737368 0.47330773 0
5.8910003 -1.2840889 0.473333 0
5.8940005 -1.2946755 0.47337088 0
5.8960004 -1.3050438 0.47339612 0
5.8990002 -1.3156501 0.473434 0
5.9010005 -1.3260347 0.47345924 0
5.9040003 -1.3366609 0.47349715 0
5.9060001 -1.3470616 0.47352239 0
5.9090004 -1.3577077 0.47356027 0
5.9110003 -1.3681246 0.47358552 0
5.9140005 -1.3787906 0.47362339 0
5.9160004 -1.3892238 0.47364867 0
5.9190001 -1.3999095 0.47368652 0
5.9210005 -1.4103591 0.47371179 0
5.9240003 -1.4210646 0.47374967 0
5.9260006 -1.4315305 0.47377491 0
5.9290004 -1.4422559 0.47381282 0
5.9310002 -1.4527377 0.47383806 0
5.9340005 -1.4634831 0.47387594 0
5.9360003 -1.4739811 0.47390118 0
5.9390001 -1.4847463 0.47393906 0
5.9410005 -1.4952607 0.47396433 0
5.9440002 -1.5060456 0.47400221 0
5.9460006 -1.5165764 0.47402745 0
5.9490004 -1.5273811 0.47406533 0
5.9510002 -1.5379279 0.47409058 0
5.9540005 -1.5487527 0.47412848 0
5.9560003 -1.5593158 0.47415373 0
5.9590006 -1.5701603 0.47419161 0
5.8720002 -1.2008413 0.46322265 0
5.8740005 -1.2111375 0.46324429 0
5.8770003 -1.2216554 0.46327674 0
5.8790002 -1.2319678 0.46329841 0
5.8820004 -1.2425057 0.46333086 0
5.8840003 -1.2528343 0.4633525 0
5.8860002 -1.2631701 0.46337417 0
5.8890004 -1.2737368 0.46340662 0
5.8910003 -1.2840889 0.46342829 0
5.8940005 -1.2946755 0.46346074 0
5.8960004 -1.3050438 0.46348238 0
5.8990002 -1.3156501 0.46351486 0
5.9010005 -1.3260347 0.4635365 0
5.9040003 -1.3366609 0.46356899 0
5.9060001 -1.3470616 0.46359062 0
5.9090004 -1.3577077 0.46362311 0
5.9110003 -1.3681246 0.46364474 0
5.9140005 -1.3787906 0.4636772 0
5.9160004 -1.3892238 0.46369886 0
5.9190001 -1.3999095 0.46373132 0
5.9210005 -1.4103591 0.46375299 0
5.9240003 -1.4210646 0.46378544 0
5.9260006 -1.4315305 0.46380708 0
5.9290004 -1.4422559 0.46383956 0
5.9310002 -1.4527377 0.4638612 0
5.9340005 -1.4634831 0.46389365 0
5.9360003 -1.4739811 0.46391532 0
5.9390001 -1.4847463 0.46394777 0
5.9410005 -1.4952607 0.46396941 0
5.9440002 -1.5060456 0.46400189 0
5.9460006 -1.5165764 0.46402353 0
5.9490004 -1.5273811 0.46405602 0
5.9510002 -1.5379279 0.46407765 0
5.9540005 -1.5487527 0.46411011 0
5.9560003 -1.5593158 0.46413177 0
5.9590006 -1.5701603 0.46416423 0
5.8720002 -1.2008413 0.45335221 0
5.8740005 -1.2111375 0.45337024 0
5.8770003 -1.2216554 0.4533973 0
5.8790002 -1.2319678 0.45341533 0
5.8820004 -1.2425057 0.45344239 0
5.8840003 -1.2528343 0.45346043 0
5.8860002 -1.2631701 0.45347846 0
5.8890004 -1.2737368 0.45350552 0
5.8910003 -1.2840889 0.45352358 0
5.8940005 -1.2946755 0.45355064 0
5.8960004 -1.3050438 0.45356867 0
5.8990002 -1.3156501 0.45359573 0
5.9010005 -1.3260347 0.45361376 0
5.9040003 -1.3366609 0.45364082 0
5.9060001 -1.3470616 0.45365885 0
5.9090004 -1.3577077 0.45368591 0
5.9110003 -1.3681246 0.45370394 0
5.9140005 -1.3787906 0.453731 0
5.9160004 -1.3892238 0.45374906 0
5.9190001 -1.3999095 0.45377609 0
5.9210005 -1.4103591 0.45379415 0
5.9240003 -1.4210646 0.45382118 0
5.9260006 -1.4315305 0.45383924 0
5.9290004 -1.4422559 0.4538663 0
5.9310002 -1.4527377 0.45388433 0
5.9340005 -1.4634831 0.45391139 0
5.9360003 -1.4739811 0.45392942 0
5.9390001 -1.4847463 0.45395648 0
5.9410005 -1.4952607 0.45397452 0
5.9440002 -1.5060456 0.45400158 0
5.9460006 -1.5165764 0.45401961 0
5.9490004 -1.5273811 0.45404667 0
5.9510002 -1.5379279 0.45406473 0
5.9540005 -1.5487527 0.45409179 0
5.9560003 -1.5593158 0.45410982 0
5.9590006 -1.5701603 0.45413685 0
5.8720002 -1.2008413 0.44348177 0
5.8740005 -1.2111375 0.4434962 0
5.8770003 -1.2216554 0.44351783 0
5.8790002 -1.2319678 0.44353229 0
5.8820004 -1.2425057 0.44355392 0
5.8840003 -1.2528343 0.44356835 0
5.8860002 -1.2631701 0.44358277 0
5.8890004 -1.2737368 0.44360444 0
5.8910003 -1.2840889 0.44361886 0
5.8940005 -1.2946755 0.4436405 0
5.8960004 -1.3050438 0.44365492 0
5.8990002 -1.3156501 0.44367659 0
5.9010005 -1.3260347 0.44369102 0
5.9040003 -1.3366609 0.44371265 0
5.9060001 -1.3470616 0.44372708 0
5.9090004 -1.3577077 0.44374874 0
5.9110003 -1.3681246 0.44376317 0
5.9140005 -1.3787906 0.4437848 0
5.9160004 -1.3892238 0.44379923 0
5.9190001 -1.3999095 0.44382089 0
5.9210005 -1.4103591 0.44383532 0
5.9240003 -1.4210646 0.44385695 0
5.9260006 -1.4315305 0.44387138 0
5.9290004 -1.4422559 0.44389305 0
5.9310002 -1.4527377 0.44390747 0
5.9340005 -1.4634831 0.44392911 0
5.9360003 -1.4739811 0.44394356 0
5.9390001 -1.4847463 0.4439652 0
5.9410005 -1.4952607 0.44397962 0
5.9440002 -1.5060456 0.44400126 0
5.9460006 -1.5165764 0.44401568 0
5.9490004 -1.5273811 0.44403735 0
5.9510002 -1.5379279 0.44405177 0
5.9540005 -1.5487527 0.44407341 0
5.9560003 -1.5593158 0.44408786 0
5.9590006 -1.5701603 0.4441095 0
5.8720002 -1.2008413 0.43361133 0
5.8740005 -1.2111375 0.43362215 0
5.8770003 -1.2216554 0.43363839 0
5.8790002 -1.2319678 0.43364921 0
5.8820004 -1.2425057 0.43366545 0
5.8840003 -1.2528343 0.43367627 0
5.8860002 -1.2631701 0.43368709 0
5.8890004 -1.2737368 0.43370333 0
5.8910003 -1.2840889 0.43371415 0
5.8940005 -1.2946755 0.43373039 0
5.8960004 -1.3050438 0.43374121 0
5.8990002 -1.3156501 0.43375742 0
5.9010005 -1.3260347 0.43376827 0
5.9040003 -1.3366609 0.43378448 0
5.9060001 -1.3470616 0.4337953 0
5.9090004 -1.3577077 0.43381155 0
5.9110003 -1.3681246 0.43382236 0
5.9140005 -1.3787906 0.43383861 0
5.9160004 -1.3892238 0.43384942 0
5.9190001 -1.3999095 0.43386567 0
5.9210005 -1.4103591 0.43387648 0
5.9240003 -1.4210646 0.43389273 0
5.9260006 -1.4315305 0.43390355 0
5.9290004 -1.4422559 0.43391979 0
5.9310002 -1.4527377 0.43393061 0
5.9340005 -1.4634831 0.43394685 0
5.9360003 -1.4739811 0.43395767 0
5.9390001 -1.4847463 0.43397391 0
5.9410005 -1.4952607 0.43398473 0
5.9440002 -1.5060456 0.43400094 0
5.9460006 -1.5165764 0.43401179 0
5.9490004 -1.5273811 0.434028 0
5.9510002 -1.5379279 0.43403882 0
5.9540005 -1.5487527 0.43405506 0
5.9560003 -1.5593158 0.43406588 0
5.9590006 -1.5701603 0.43408212 0
5.8720002 -1.2008413 0.42374089 0
5.8740005 -1.2111375 0.42374811 0
5.8770003 -1.2216554 0.42375892 0
5.8790002 -1.2319678 0.42376614 0
5.8820004 -1.2425057 0.42377695 0
5.8840003 -1.2528343 0.4237842 0
5.8860002 -1.2631701 0.42379141 0
5.8890004 -1.2737368 0.42380223 0
5.8910003 -1.2840889 0.42380944 0
5.8940005 -1.2946755 0.42382026 0
5.8960004 -1.3050438 0.42382747 0
5.8990002 -1.3156501 0.42383829 0
5.9010005 -1.3260347 0.4238455 0
5.9040003 -1.3366609 0.42385635 0
5.9060001 -1.3470616 0.42386356 0
5.9090004 -1.3577077 0.42387438 0
5.9110003 -1.3681246 0.42388159 0
5.9140005 -1.3787906 0.42389241 0
5.9160004 -1.3892238 0.42389962 0
5.9190001 -1.3999095 0.42391044 0
5.9210005 -1.4103591 0.42391765 0
5.9240003 -1.4210646 0.4239285 0
5.9260006 -1.4315305 0.42393571 0
5.9290004 -1.4422559 0.42394653 0
5.9310002 -1.4527377 0.42395374 0
5.9340005 -1.4634831 0.42396456 0
5.9360003 -1.4739811 0.42397177 0
5.9390001 -1.4847463 0.42398259 0
5.9410005 -1.4952607 0.42398983 0
5.9440002 -1.5060456 0.42400065 0
5.9460006 -1.5165764 0.42400786 0
5.9490004 -1.5273811 0.42401868 0
5.9510002 -1.5379279 0.42402589 0
5.9540005 -1.5487527 0.42403671 0
5.9560003 -1.5593158 0.42404392 0
