# .PCD v0.7 - Point Cloud Data file format
VERSION 0.7
FIELDS x y z intensity
SIZE 4 4 4 4
TYPE F F F F
COUNT 1 1 1 1
WIDTH 1459
HEIGHT 1
VIEWPOINT 0 0 0 1 0 0 0
POINTS 1459
DATA ascii
7.5100002 -3.585721 2.0712597 0
7.5000005 -3.5935497 2.0689151 0
7.4910007 -3.6018436 2.0668046 0
7.4810004 -3.6096017 2.0644596 0
7.4720006 -3.6178291 2.0623491 0
7.4620004 -3.6255169 2.0600042 0
7.4530005 -3.6336772 2.0578938 0
7.4430003 -3.6412947 2.0555487 0
7.4340005 -3.6493883 2.0534384 0
7.4250002 -3.6574495 2.0513277 0
7.4150004 -3.6649623 2.0489829 0
7.4060006 -3.6729569 2.0468726 0
7.3970003 -3.6809189 2.0447619 0
7.3870006 -3.6883273 2.042417 0
7.3780003 -3.6962223 2.0403066 0
7.3690004 -3.7040854 2.0381961 0
7.3600006 -3.7119157 2.0360856 0
7.3510003 -3.7197134 2.0339751 0
7.3410006 -3.7269487 2.0316303 0
7.3320003 -3.7346795 2.0295198 0
7.3230004 -3.742378 2.0274093 0
7.3140006 -3.7500448 2.0252988 0
7.3050003 -3.7576778 2.0231884 0
7.2960005 -3.7652793 2.0210779 0
7.2870007 -3.7728481 2.0189676 0
7.2780004 -3.7803845 2.0168569 0
7.2690005 -3.7878885 2.0147467 0
7.2600002 -3.7953596 2.0126362 0
7.2510004 -3.8027987 2.0105257 0
7.2420006 -3.810205 2.0084152 0
7.2330003 -3.8175788 2.0063047 0
7.2250004 -3.8254745 2.0044289 0
7.2160006 -3.8327851 2.0023184 0
7.2070003 -3.8400633 2.0002079 0
7.1980004 -3.8473094 1.9980975 0
7.1890006 -3.8545229 1.9959872 0
7.1810002 -3.8622665 1.9941111 0
7.1720004 -3.8694167 1.9920007 0
7.1630006 -3.8765345 1.9898902 0
7.1550002 -3.8841879 1.9880142 0
7.1460004 -3.891243 1.9859037 0
7.1370006 -3.8982654 1.9837934 0
7.9370003 -3.2273009 2.157794 0
7.9260006 -3.2362332 2.1552346 0
7.9150004 -3.245126 2.1526749 0
7.9050007 -3.2544069 2.1503479 0
7.8940005 -3.263222 2.1477883 0
7.8830004 -3.2719972 2.1452286 0
7.8730006 -3.2811663 2.1429019 0
7.8620005 -3.2898641 2.1403422 0
7.8520002 -3.2989588 2.1380153 0
7.8410006 -3.3075793 2.1354556 0
7.8310003 -3.3166001 2.1331289 0
7.8200006 -3.3251431 2.1305692 0
7.8100004 -3.33409 2.1282423 0
7.7990003 -3.3425553 2.1256826 0
7.7890005 -3.351428 2.1233556 0
7.7790003 -3.360265 2.1210289 0
7.7680006 -3.3686149 2.1184692 0
7.7580004 -3.3773775 2.1161423 0
7.7480006 -3.3861046 2.1138155 0
7.7380004 -3.3947952 2.1114886 0
7.7270002 -3.4029915 2.1089289 0
7.7170005 -3.4116085 2.106602 0
7.7070003 -3.4201891 2.104275 0
7.6970005 -3.4287338 2.101948 0
7.6870003 -3.4372423 2.0996211 0
7.6770005 -3.4457152 2.0972943 0
7.6670003 -3.4541512 2.0949674 0
7.6570005 -3.4625518 2.0926406 0
7.6470003 -3.470916 2.0903134 0
7.6370006 -3.4792442 2.0879867 0
7.6270003 -3.4875362 2.0856597 0
7.6170006 -3.4957924 2.0833328 0
7.6070004 -3.5040121 2.0810058 0
7.5970006 -3.5121961 2.0786791 0
7.5880003 -3.5208273 2.0765848 0
7.5780005 -3.5289409 2.0742579 0
7.5680003 -3.5370183 2.0719309 0
7.5580006 -3.5450597 2.0696042 0
7.5490003 -3.5535555 2.0675097 0
7.5390005 -3.5615268 2.0651829 0
7.5290003 -3.5694616 2.062856 0
7.5200005 -3.5778565 2.0607617 0
7.5100002 -3.585721 2.0584347 0
7.5000005 -3.5935497 2.056108 0
7.4910007 -3.6018436 2.0540137 0
7.4810004 -3.6096017 2.0516868 0
7.4720006 -3.6178291 2.0495927 0
7.4620004 -3.6255169 2.0472658 0
7.4530005 -3.6336772 2.0451715 0
7.4430003 -3.6412947 2.0428445 0
7.4340005 -3.6493883 2.0407503 0
7.4250002 -3.6574495 2.038656 0
7.4150004 -3.6649623 2.0363293 0
7.4060006 -3.6729569 2.034235 0
7.3970003 -3.6809189 2.0321407 0
7.3870006 -3.6883273 2.0298138 0
7.3780003 -3.6962223 2.0277197 0
7.3690004 -3.7040854 2.0256255 0
7.3600006 -3.7119157 2.0235312 0
7.3510003 -3.7197134 2.0214369 0
7.3410006 -3.7269487 2.01911 0
7.3320003 -3.7346795 2.0170157 0
7.3230004 -3.742378 2.0149214 0
7.3140006 -3.7500448 2.0128274 0
7.3050003 -3.7576778 2.0107331 0
7.2960005 -3.7652793 2.0086389 0
7.2870007 -3.7728481 2.0065448 0
7.2780004 -3.7803845 2.0044506 0
7.2690005 -3.7878885 2.0023563 0
7.2600002 -3.7953596 2.000262 0
7.2510004 -3.8027987 1.9981679 0
7.2420006 -3.810205 1.9960736 0
7.2330003 -3.8175788 1.9939795 0
7.2250004 -3.8254745 1.9921179 0
7.2160006 -3.8327851 1.9900237 0
7.2070003 -3.8400633 1.9879295 0
7.1980004 -3.8473094 1.9858352 0
7.1890006 -3.8545229 1.983741 0
7.1810002 -3.8622665 1.9818795 0
7.1720004 -3.8694167 1.9797852 0
7.1630006 -3.8765345 1.9776911 0
7.1550002 -3.8841879 1.9758295 0
7.1460004 -3.891243 1.9737352 0
7.1370006 -3.8982654 1.9716411 0
7.9370003 -3.2273009 2.1441987 0
7.9260006 -3.2362332 2.141659 0
7.9150004 -3.245126 2.1391191 0
7.9050007 -3.2544069 2.1368103 0
7.8940005 -3.263222 2.1342707 0
7.8830004 -3.2719972 2.1317308 0
7.8730006 -3.2811663 2.1294219 0
7.8620005 -3.2898641 2.1268821 0
7.8520002 -3.2989588 2.1245732 0
7.8410006 -3.3075793 2.1220336 0
7.8310003 -3.3166001 2.1197245 0
7.8200006 -3.3251431 2.1171849 0
7.8100004 -3.33409 2.114876 0
7.7990003 -3.3425553 2.1123362 0
7.7890005 -3.351428 2.1100273 0
7.7790003 -3.360265 2.1077185 0
7.7680006 -3.3686149 2.1051788 0
7.7580004 -3.3773775 2.1028697 0
7.7480006 -3.3861046 2.1005611 0
7.7380004 -3.3947952 2.0982521 0
7.7270002 -3.4029915 2.0957124 0
7.7170005 -3.4116085 2.0934036 0
7.7070003 -3.4201891 2.0910945 0
7.6970005 -3.4287338 2.0887856 0
7.6870003 -3.4372423 2.0864768 0
7.6770005 -3.4457152 2.084168 0
7.6670003 -3.4541512 2.0818591 0
7.6570005 -3.4625518 2.0795503 0
7.6470003 -3.470916 2.0772414 0
7.6370006 -3.4792442 2.0749326 0
7.6270003 -3.4875362 2.0726235 0
7.6170006 -3.4957924 2.0703149 0
7.6070004 -3.5040121 2.0680058 0
7.5970006 -3.5121961 2.065697 0
7.5880003 -3.5208273 2.0636189 0
7.5780005 -3.5289409 2.0613101 0
7.5680003 -3.5370183 2.0590012 0
7.5580006 -3.5450597 2.0566924 0
7.5490003 -3.5535555 2.0546143 0
7.5390005 -3.5615268 2.0523055 0
7.5290003 -3.5694616 2.0499966 0
7.5200005 -3.5778565 2.0479186 0
7.5100002 -3.585721 2.0456097 0
7.5000005 -3.5935497 2.0433009 0
7.4910007 -3.6018436 2.041223 0
7.4810004 -3.6096017 2.038914 0
7.4720006 -3.6178291 2.0368361 0
7.4620004 -3.6255169 2.0345271 0
7.4530005 -3.6336772 2.0324492 0
7.4430003 -3.6412947 2.0301404 0
7.4340005 -3.6493883 2.0280623 0
7.4250002 -3.6574495 2.0259843 0
7.4150004 -3.6649623 2.0236754 0
7.4060006 -3.6729569 2.0215976 0
7.3970003 -3.6809189 2.0195196 0
7.3870006 -3.6883273 2.0172107 0
7.3780003 -3.6962223 2.0151327 0
7.3690004 -3.7040854 2.0130546 0
7.3600006 -3.7119157 2.0109768 0
7.3510003 -3.7197134 2.0088987 0
7.3410006 -3.7269487 2.0065899 0
7.3320003 -3.7346795 2.0045118 0
7.3230004 -3.742378 2.0024338 0
7.3140006 -3.7500448 2.000356 0
7.3050003 -3.7576778 1.9982779 0
7.2960005 -3.7652793 1.9962 0
7.2870007 -3.7728481 1.994122 0
7.2780004 -3.7803845 1.992044 0
7.2690005 -3.7878885 1.989966 0
7.2600002 -3.7953596 1.987888 0
7.2510004 -3.8027987 1.98581 0
7.2420006 -3.810205 1.983732 0
7.2330003 -3.8175788 1.9816539 0
7.2250004 -3.8254745 1.9798069 0
7.2160006 -3.8327851 1.977729 0
7.2070003 -3.8400633 1.9756509 0
7.1980004 -3.8473094 1.973573 0
7.1890006 -3.8545229 1.971495 0
7.1810002 -3.8622665 1.9696479 0
7.1720004 -3.8694167 1.9675698 0
7.1630006 -3.8765345 1.9654919 0
7.1550002 -3.8841879 1.9636447 0
7.1460004 -3.891243 1.9615668 0
7.1370006 -3.8982654 1.9594889 0
7.9370003 -3.2273009 2.1306033 0
7.9260006 -3.2362332 2.1280835 0
7.9150004 -3.245126 2.1255636 0
7.9050007 -3.2544069 2.1232729 0
7.8940005 -3.263222 2.1207528 0
7.8830004 -3.2719972 2.118233 0
7.8730006 -3.2811663 2.115942 0
7.8620005 -3.2898641 2.1134222 0
7.8520002 -3.2989588 2.1111312 0
7.8410006 -3.3075793 2.1086113 0
7.8310003 -3.3166001 2.1063204 0
7.8200006 -3.3251431 2.1038008 0
7.8100004 -3.33409 2.1015098 0
7.7990003 -3.3425553 2.09899 0
7.7890005 -3.351428 2.096699 0
7.7790003 -3.360265 2.094408 0
7.7680006 -3.3686149 2.0918884 0
7.7580004 -3.3773775 2.0895975 0
7.7480006 -3.3861046 2.0873065 0
7.7380004 -3.3947952 2.0850158 0
7.7270002 -3.4029915 2.0824957 0
7.7170005 -3.4116085 2.080205 0
7.7070003 -3.4201891 2.0779142 0
7.6970005 -3.4287338 2.0756233 0
7.6870003 -3.4372423 2.0733325 0
7.6770005 -3.4457152 2.0710418 0
7.6670003 -3.4541512 2.0687509 0
7.6570005 -3.4625518 2.0664599 0
7.6470003 -3.470916 2.0641692 0
7.6370006 -3.4792442 2.0618784 0
7.6270003 -3.4875362 2.0595875 0
7.6170006 -3.4957924 2.0572968 0
7.6070004 -3.5040121 2.0550058 0
7.5970006 -3.5121961 2.0527151 0
7.5880003 -3.5208273 2.0506532 0
7.5780005 -3.5289409 2.0483625 0
7.5680003 -3.5370183 2.0460715 0
7.5580006 -3.5450597 2.0437808 0
7.5490003 -3.5535555 2.041719 0
7.5390005 -3.5615268 2.0394282 0
7.5290003 -3.5694616 2.0371373 0
7.5200005 -3.5778565 2.0350757 0
7.5100002 -3.585721 2.0327847 0
7.5000005 -3.5935497 2.030494 0
7.4910007 -3.6018436 2.0284321 0
7.4810004 -3.6096017 2.0261414 0
7.4720006 -3.6178291 2.0240796 0
7.4620004 -3.6255169 2.0217886 0
7.4530005 -3.6336772 2.019727 0
7.4430003 -3.6412947 2.017436 0
7.4340005 -3.6493883 2.0153744 0
7.4250002 -3.6574495 2.0133126 0
7.4150004 -3.6649623 2.0110219 0
7.4060006 -3.6729569 2.00896 0
7.3970003 -3.6809189 2.0068982 0
7.3870006 -3.6883273 2.0046074 0
7.3780003 -3.6962223 2.0025456 0
7.3690004 -3.7040854 2.000484 0
7.3600006 -3.7119157 1.9984223 0
7.3510003 -3.7197134 1.9963604 0
7.3410006 -3.7269487 1.9940697 0
7.3320003 -3.7346795 1.9920079 0
7.3230004 -3.742378 1.9899461 0
7.3140006 -3.7500448 1.9878844 0
7.3050003 -3.7576778 1.9858226 0
7.2960005 -3.7652793 1.9837608 0
7.2870007 -3.7728481 1.9816991 0
7.2780004 -3.7803845 1.9796374 0
7.2690005 -3.7878885 1.9775755 0
7.2600002 -3.7953596 1.9755138 0
7.2510004 -3.8027987 1.9734521 0
7.2420006 -3.810205 1.9713904 0
7.2330003 -3.8175788 1.9693285 0
7.2250004 -3.8254745 1.9674959 0
7.2160006 -3.8327851 1.9654342 0
7.2070003 -3.8400633 1.9633723 0
7.1980004 -3.8473094 1.9613107 0
7.1890006 -3.8545229 1.9592489 0
7.1810002 -3.8622665 1.9574162 0
7.1720004 -3.8694167 1.9553546 0
7.1630006 -3.8765345 1.9532927 0
7.1550002 -3.8841879 1.95146 0
7.1460004 -3.891243 1.9493984 0
7.1370006 -3.8982654 1.9473366 0
7.9370003 -3.2273009 2.1170082 0
7.9260006 -3.2362332 2.1145082 0
7.9150004 -3.245126 2.1120079 0
7.9050007 -3.2544069 2.1097353 0
7.8940005 -3.263222 2.1072352 0
7.8830004 -3.2719972 2.1047349 0
7.8730006 -3.2811663 2.1024623 0
7.8620005 -3.2898641 2.099962 0
7.8520002 -3.2989588 2.0976894 0
7.8410006 -3.3075793 2.0951893 0
7.8310003 -3.3166001 2.0929165 0
7.8200006 -3.3251431 2.0904164 0
7.8100004 -3.33409 2.0881436 0
7.7990003 -3.3425553 2.0856435 0
7.7890005 -3.351428 2.0833707 0
7.7790003 -3.360265 2.0810978 0
7.7680006 -3.3686149 2.0785978 0
7.7580004 -3.3773775 2.0763249 0
7.7480006 -3.3861046 2.0740523 0
7.7380004 -3.3947952 2.0717795 0
7.7270002 -3.4029915 2.0692794 0
7.7170005 -3.4116085 2.0670066 0
7.7070003 -3.4201891 2.0647337 0
7.6970005 -3.4287338 2.0624609 0
7.6870003 -3.4372423 2.0601881 0
7.6770005 -3.4457152 2.0579154 0
7.6670003 -3.4541512 2.0556426 0
7.6570005 -3.4625518 2.0533698 0
7.6470003 -3.470916 2.0510969 0
7.6370006 -3.4792442 2.0488243 0
7.6270003 -3.4875362 2.0465515 0
7.6170006 -3.4957924 2.0442786 0
7.6070004 -3.5040121 2.0420058 0
7.5970006 -3.5121961 2.0397329 0
7.5880003 -3.5208273 2.0376875 0
7.5780005 -3.5289409 2.0354147 0
7.5680003 -3.5370183 2.0331419 0
7.5580006 -3.5450597 2.0308692 0
7.5490003 -3.5535555 2.0288236 0
7.5390005 -3.5615268 2.0265508 0
7.5290003 -3.5694616 2.0242779 0
7.5200005 -3.5778565 2.0222325 0
7.5100002 -3.585721 2.0199597 0
7.5000005 -3.5935497 2.0176868 0
7.4910007 -3.6018436 2.0156415 0
7.4810004 -3.6096017 2.0133686 0
7.4720006 -3.6178291 2.011323 0
7.4620004 -3.6255169 2.0090501 0
7.4530005 -3.6336772 2.0070047 0
7.4430003 -3.6412947 2.0047319 0
7.4340005 -3.6493883 2.0026865 0
7.4250002 -3.6574495 2.0006409 0
7.4150004 -3.6649623 1.998368 0
7.4060006 -3.6729569 1.9963226 0
7.3970003 -3.6809189 1.994277 0
7.3870006 -3.6883273 1.9920043 0
7.3780003 -3.6962223 1.9899588 0
7.3690004 -3.7040854 1.9879133 0
7.3600006 -3.7119157 1.9858677 0
7.3510003 -3.7197134 1.9838222 0
7.3410006 -3.7269487 1.9815494 0
7.3320003 -3.7346795 1.9795039 0
7.3230004 -3.742378 1.9774584 0
7.3140006 -3.7500448 1.9754128 0
7.3050003 -3.7576778 1.9733673 0
7.2960005 -3.7652793 1.9713218 0
7.2870007 -3.7728481 1.9692763 0
7.2780004 -3.7803845 1.9672308 0
7.2690005 -3.7878885 1.9651853 0
7.2600002 -3.7953596 1.9631398 0
7.2510004 -3.8027987 1.9610941 0
7.2420006 -3.810205 1.9590487 0
7.2330003 -3.8175788 1.9570031 0
7.2250004 -3.8254745 1.9551849 0
7.2160006 -3.8327851 1.9531394 0
7.2070003 -3.8400633 1.9510938 0
7.1980004 -3.8473094 1.9490484 0
7.1890006 -3.8545229 1.9470029 0
7.1810002 -3.8622665 1.9451846 0
7.1720004 -3.8694167 1.9431391 0
7.1630006 -3.8765345 1.9410936 0
7.1550002 -3.8841879 1.9392753 0
7.1460004 -3.891243 1.9372299 0
7.1370006 -3.8982654 1.9351844 0
7.9370003 -3.2273009 2.1034126 0
7.9260006 -3.2362332 2.1009326 0
7.9150004 -3.245126 2.0984523 0
7.9050007 -3.2544069 2.0961976 0
7.8940005 -3.263222 2.0937173 0
7.8830004 -3.2719972 2.0912371 0
7.8730006 -3.2811663 2.0889823 0
7.8620005 -3.2898641 2.0865021 0
7.8520002 -3.2989588 2.0842474 0
7.8410006 -3.3075793 2.0817671 0
7.8310003 -3.3166001 2.0795124 0
7.8200006 -3.3251431 2.0770321 0
7.8100004 -3.33409 2.0747774 0
7.7990003 -3.3425553 2.0722971 0
7.7890005 -3.351428 2.0700424 0
7.7790003 -3.360265 2.0677874 0
7.7680006 -3.3686149 2.0653074 0
7.7580004 -3.3773775 2.0630527 0
7.7480006 -3.3861046 2.0607979 0
7.7380004 -3.3947952 2.0585432 0
7.7270002 -3.4029915 2.0560627 0
7.7170005 -3.4116085 2.0538082 0
7.7070003 -3.4201891 2.0515532 0
7.6970005 -3.4287338 2.0492985 0
7.6870003 -3.4372423 2.0470438 0
7.6770005 -3.4457152 2.0447891 0
7.6670003 -3.4541512 2.0425341 0
7.6570005 -3.4625518 2.0402796 0
7.6470003 -3.470916 2.0380247 0
7.6370006 -3.4792442 2.0357699 0
7.6270003 -3.4875362 2.0335152 0
7.6170006 -3.4957924 2.0312605 0
7.6070004 -3.5040121 2.0290058 0
7.5970006 -3.5121961 2.026751 0
7.5880003 -3.5208273 2.0247216 0
7.5780005 -3.5289409 2.0224669 0
7.5680003 -3.5370183 2.0202122 0
7.5580006 -3.5450597 2.0179574 0
7.5490003 -3.5535555 2.015928 0
7.5390005 -3.5615268 2.0136733 0
7.5290003 -3.5694616 2.0114186 0
7.5200005 -3.5778565 2.0093894 0
7.5100002 -3.585721 2.0071344 0
7.5000005 -3.5935497 2.0048797 0
7.4910007 -3.6018436 2.0028505 0
7.4810004 -3.6096017 2.0005958 0
7.4720006 -3.6178291 1.9985665 0
7.4620004 -3.6255169 1.9963118 0
7.4530005 -3.6336772 1.9942825 0
7.4430003 -3.6412947 1.9920276 0
7.4340005 -3.6493883 1.9899985 0
7.4250002 -3.6574495 1.987969 0
7.4150004 -3.6649623 1.9857144 0
7.4060006 -3.6729569 1.9836851 0
7.3970003 -3.6809189 1.9816557 0
7.3870006 -3.6883273 1.9794011 0
7.3780003 -3.6962223 1.9773717 0
7.3690004 -3.7040854 1.9753425 0
7.3600006 -3.7119157 1.9733132 0
7.3510003 -3.7197134 1.9712838 0
7.3410006 -3.7269487 1.9690292 0
7.3320003 -3.7346795 1.9669998 0
7.3230004 -3.742378 1.9649706 0
7.3140006 -3.7500448 1.9629413 0
7.3050003 -3.7576778 1.960912 0
7.2960005 -3.7652793 1.9588828 0
7.2870007 -3.7728481 1.9568535 0
7.2780004 -3.7803845 1.9548242 0
7.2690005 -3.7878885 1.9527949 0
7.2600002 -3.7953596 1.9507655 0
7.2510004 -3.8027987 1.9487363 0
7.2420006 -3.810205 1.9467071 0
7.2330003 -3.8175788 1.9446777 0
7.2250004 -3.8254745 1.942874 0
7.2160006 -3.8327851 1.9408447 0
7.2070003 -3.8400633 1.9388154 0
7.1980004 -3.8473094 1.9367862 0
7.1890006 -3.8545229 1.9347569 0
7.1810002 -3.8622665 1.9329529 0
7.1720004 -3.8694167 1.9309237 0
7.1630006 -3.8765345 1.9288945 0
7.1550002 -3.8841879 1.9270905 0
7.1460004 -3.891243 1.9250613 0
7.1370006 -3.8982654 1.923032 0
7.9370003 -3.2273009 2.0898175 0
7.9260006 -3.2362332 2.087357 0
7.9150004 -3.245126 2.0848968 0
7.9050007 -3.2544069 2.08266 0
7.8940005 -3.263222 2.0801997 0
7.8830004 -3.2719972 2.0777392 0
7.8730006 -3.2811663 2.0755024 0
7.8620005 -3.2898641 2.0730422 0
7.8520002 -3.2989588 2.0708053 0
7.8410006 -3.3075793 2.0683451 0
7.8310003 -3.3166001 2.0661082 0
7.8200006 -3.3251431 2.063648 0
7.8100004 -3.33409 2.0614111 0
7.7990003 -3.3425553 2.0589507 0
7.7890005 -3.351428 2.0567141 0
7.7790003 -3.360265 2.0544772 0
7.7680006 -3.3686149 2.052017 0
7.7580004 -3.3773775 2.0497801 0
7.7480006 -3.3861046 2.0475435 0
7.7380004 -3.3947952 2.0453067 0
7.7270002 -3.4029915 2.0428464 0
7.7170005 -3.4116085 2.0406096 0
7.7070003 -3.4201891 2.0383728 0
7.6970005 -3.4287338 2.0361362 0
7.6870003 -3.4372423 2.0338993 0
7.6770005 -3.4457152 2.0316627 0
7.6670003 -3.4541512 2.0294261 0
7.6570005 -3.4625518 2.0271893 0
7.6470003 -3.470916 2.0249527 0
7.6370006 -3.4792442 2.0227158 0
7.6270003 -3.4875362 2.020479 0
7.6170006 -3.4957924 2.0182424 0
7.6070004 -3.5040121 2.0160058 0
7.5970006 -3.5121961 2.0137689 0
7.5880003 -3.5208273 2.0117559 0
7.5780005 -3.5289409 2.0095193 0
7.5680003 -3.5370183 2.0072825 0
7.5580006 -3.5450597 2.0050457 0
7.5490003 -3.5535555 2.0030327 0
7.5390005 -3.5615268 2.0007958 0
7.5290003 -3.5694616 1.9985592 0
7.5200005 -3.5778565 1.9965463 0
7.5100002 -3.585721 1.9943095 0
7.5000005 -3.5935497 1.9920728 0
7.4910007 -3.6018436 1.9900597 0
7.4810004 -3.6096017 1.9878231 0
7.4720006 -3.6178291 1.98581 0
7.4620004 -3.6255169 1.9835733 0
7.4530005 -3.6336772 1.9815603 0
7.4430003 -3.6412947 1.9793235 0
7.4340005 -3.6493883 1.9773105 0
7.4250002 -3.6574495 1.9752973 0
7.4150004 -3.6649623 1.9730607 0
7.4060006 -3.6729569 1.9710476 0
7.3970003 -3.6809189 1.9690346 0
7.3870006 -3.6883273 1.9667978 0
7.3780003 -3.6962223 1.9647847 0
7.3690004 -3.7040854 1.9627718 0
7.3600006 -3.7119157 1.9607587 0
7.3510003 -3.7197134 1.9587456 0
7.3410006 -3.7269487 1.956509 0
7.3320003 -3.7346795 1.9544958 0
7.3230004 -3.742378 1.9524828 0
7.3140006 -3.7500448 1.9504699 0
7.3050003 -3.7576778 1.9484568 0
7.2960005 -3.7652793 1.9464437 0
7.2870007 -3.7728481 1.9444307 0
7.2780004 -3.7803845 1.9424175 0
7.2690005 -3.7878885 1.9404045 0
7.2600002 -3.7953596 1.9383914 0
7.2510004 -3.8027987 1.9363785 0
7.2420006 -3.810205 1.9343655 0
7.2330003 -3.8175788 1.9323522 0
7.2250004 -3.8254745 1.930563 0
7.2160006 -3.8327851 1.92855 0
7.2070003 -3.8400633 1.9265368 0
7.1980004 -3.8473094 1.9245238 0
7.1890006 -3.8545229 1.9225107 0
7.1810002 -3.8622665 1.9207213 0
7.1720004 -3.8694167 1.9187083 0
7.1630006 -3.8765345 1.9166954 0
7.1550002 -3.8841879 1.9149058 0
7.1460004 -3.891243 1.9128928 0
7.1370006 -3.8982654 1.9108799 0
7.9370003 -3.2273009 2.0762222 0
7.9260006 -3.2362332 2.0737817 0
7.9150004 -3.245126 2.071341 0
7.9050007 -3.2544069 2.0691226 0
7.8940005 -3.263222 2.0666819 0
7.8830004 -3.2719972 2.0642414 0
7.8730006 -3.2811663 2.0620227 0
7.8620005 -3.2898641 2.059582 0
7.8520002 -3.2989588 2.0573633 0
7.8410006 -3.3075793 2.0549228 0
7.8310003 -3.3166001 2.0527041 0
7.8200006 -3.3251431 2.0502636 0
7.8100004 -3.33409 2.0480449 0
7.7990003 -3.3425553 2.0456042 0
7.7890005 -3.351428 2.0433857 0
7.7790003 -3.360265 2.041167 0
7.7680006 -3.3686149 2.0387263 0
7.7580004 -3.3773775 2.0365078 0
7.7480006 -3.3861046 2.0342891 0
7.7380004 -3.3947952 2.0320704 0
7.7270002 -3.4029915 2.0296297 0
7.7170005 -3.4116085 2.0274112 0
7.7070003 -3.4201891 2.0251925 0
7.6970005 -3.4287338 2.0229738 0
7.6870003 -3.4372423 2.0207551 0
7.6770005 -3.4457152 2.0185363 0
7.6670003 -3.4541512 2.0163176 0
7.6570005 -3.4625518 2.0140991 0
7.6470003 -3.470916 2.0118804 0
7.6370006 -3.4792442 2.0096617 0
7.6270003 -3.4875362 2.007443 0
7.6170006 -3.4957924 2.0052242 0
7.6070004 -3.5040121 2.0030057 0
7.5970006 -3.5121961 2.000787 0
7.5880003 -3.5208273 1.9987901 0
7.5780005 -3.5289409 1.9965715 0
7.5680003 -3.5370183 1.9943527 0
7.5580006 -3.5450597 1.9921342 0
7.5490003 -3.5535555 1.9901373 0
7.5390005 -3.5615268 1.9879186 0
7.5290003 -3.5694616 1.9856999 0
7.5200005 -3.5778565 1.9837031 0
7.5100002 -3.585721 1.9814844 0
7.5000005 -3.5935497 1.9792658 0
7.4910007 -3.6018436 1.9772689 0
7.4810004 -3.6096017 1.9750502 0
7.4720006 -3.6178291 1.9730536 0
7.4620004 -3.6255169 1.9708347 0
7.4530005 -3.6336772 1.968838 0
7.4430003 -3.6412947 1.9666193 0
7.4340005 -3.6493883 1.9646225 0
7.4250002 -3.6574495 1.9626256 0
7.4150004 -3.6649623 1.9604069 0
7.4060006 -3.6729569 1.9584101 0
7.3970003 -3.6809189 1.9564134 0
7.3870006 -3.6883273 1.9541947 0
7.3780003 -3.6962223 1.9521978 0
7.3690004 -3.7040854 1.9502009 0
7.3600006 -3.7119157 1.9482043 0
7.3510003 -3.7197134 1.9462074 0
7.3410006 -3.7269487 1.9439887 0
7.3320003 -3.7346795 1.9419919 0
7.3230004 -3.742378 1.9399951 0
7.3140006 -3.7500448 1.9379983 0
7.3050003 -3.7576778 1.9360014 0
7.2960005 -3.7652793 1.9340047 0
7.2870007 -3.7728481 1.9320079 0
7.2780004 -3.7803845 1.9300109 0
7.2690005 -3.7878885 1.9280142 0
7.2600002 -3.7953596 1.9260173 0
7.2510004 -3.8027987 1.9240205 0
7.2420006 -3.810205 1.9220238 0
7.2330003 -3.8175788 1.9200269 0
7.2250004 -3.8254745 1.918252 0
7.2160006 -3.8327851 1.9162551 0
7.2070003 -3.8400633 1.9142584 0
7.1980004 -3.8473094 1.9122615 0
7.1890006 -3.8545229 1.9102647 0
7.1810002 -3.8622665 1.9084897 0
7.1720004 -3.8694167 1.9064929 0
7.1630006 -3.8765345 1.9044962 0
7.1550002 -3.8841879 1.902721 0
7.1460004 -3.891243 1.9007244 0
7.1370006 -3.8982654 1.8987275 0
7.9370003 -3.2273009 2.0626268 0
7.9260006 -3.2362332 2.0602062 0
7.9150004 -3.245126 2.0577855 0
7.9050007 -3.2544069 2.0555849 0
7.8940005 -3.263222 2.0531642 0
7.8830004 -3.2719972 2.0507433 0
7.8730006 -3.2811663 2.0485427 0
7.8620005 -3.2898641 2.0461221 0
7.8520002 -3.2989588 2.0439215 0
7.8410006 -3.3075793 2.0415008 0
7.8310003 -3.3166001 2.0393 0
7.8200006 -3.3251431 2.0368793 0
7.8100004 -3.33409 2.0346787 0
7.7990003 -3.3425553 2.032258 0
7.7890005 -3.351428 2.0300574 0
7.7790003 -3.360265 2.0278566 0
7.7680006 -3.3686149 2.0254359 0
7.7580004 -3.3773775 2.0232353 0
7.7480006 -3.3861046 2.0210347 0
7.7380004 -3.3947952 2.0188341 0
7.7270002 -3.4029915 2.0164135 0
7.7170005 -3.4116085 2.0142128 0
7.7070003 -3.4201891 2.012012 0
7.6970005 -3.4287338 2.0098114 0
7.6870003 -3.4372423 2.0076108 0
7.6770005 -3.4457152 2.0054102 0
7.6670003 -3.4541512 2.0032094 0
7.6570005 -3.4625518 2.0010087 0
7.6470003 -3.470916 1.9988083 0
7.6370006 -3.4792442 1.9966077 0
7.6270003 -3.4875362 1.9944069 0
7.6170006 -3.4957924 1.9922063 0
7.6070004 -3.5040121 1.9900056 0
7.5970006 -3.5121961 1.987805 0
7.5880003 -3.5208273 1.9858245 0
7.5780005 -3.5289409 1.9836239 0
7.5680003 -3.5370183 1.9814231 0
7.5580006 -3.5450597 1.9792225 0
7.5490003 -3.5535555 1.9772419 0
7.5390005 -3.5615268 1.9750413 0
7.5290003 -3.5694616 1.9728405 0
7.5200005 -3.5778565 1.97086 0
7.5100002 -3.585721 1.9686594 0
7.5000005 -3.5935497 1.9664588 0
7.4910007 -3.6018436 1.9644781 0
7.4810004 -3.6096017 1.9622774 0
7.4720006 -3.6178291 1.960297 0
7.4620004 -3.6255169 1.9580963 0
7.4530005 -3.6336772 1.9561157 0
7.4430003 -3.6412947 1.953915 0
7.4340005 -3.6493883 1.9519346 0
7.4250002 -3.6574495 1.9499538 0
7.4150004 -3.6649623 1.9477532 0
7.4060006 -3.6729569 1.9457726 0
7.3970003 -3.6809189 1.9437921 0
7.3870006 -3.6883273 1.9415915 0
7.3780003 -3.6962223 1.9396108 0
7.3690004 -3.7040854 1.9376302 0
7.3600006 -3.7119157 1.9356498 0
7.3510003 -3.7197134 1.9336691 0
7.3410006 -3.7269487 1.9314685 0
7.3320003 -3.7346795 1.9294878 0
7.3230004 -3.742378 1.9275073 0
7.3140006 -3.7500448 1.9255267 0
7.3050003 -3.7576778 1.9235461 0
7.2960005 -3.7652793 1.9215657 0
7.2870007 -3.7728481 1.919585 0
7.2780004 -3.7803845 1.9176043 0
7.2690005 -3.7878885 1.9156239 0
7.2600002 -3.7953596 1.9136432 0
7.2510004 -3.8027987 1.9116626 0
7.2420006 -3.810205 1.9096822 0
7.2330003 -3.8175788 1.9077015 0
7.2250004 -3.8254745 1.9059409 0
7.2160006 -3.8327851 1.9039605 0
7.2070003 -3.8400633 1.9019798 0
7.1980004 -3.8473094 1.8999991 0
7.1890006 -3.8545229 1.8980187 0
7.1810002 -3.8622665 1.8962581 0
7.1720004 -3.8694167 1.8942775 0
7.1630006 -3.8765345 1.892297 0
7.1550002 -3.8841879 1.8905363 0
7.1460004 -3.891243 1.8885559 0
7.1370006 -3.8982654 1.8865753 0
7.9370003 -3.2273009 2.0490317 0
7.9260006 -3.2362332 2.0466309 0
7.9150004 -3.245126 2.04423 0
7.9050007 -3.2544069 2.0420473 0
7.8940005 -3.263222 2.0396464 0
7.8830004 -3.2719972 2.0372455 0
7.8730006 -3.2811663 2.035063 0
7.8620005 -3.2898641 2.0326622 0
7.8520002 -3.2989588 2.0304794 0
7.8410006 -3.3075793 2.0280786 0
7.8310003 -3.3166001 2.0258958 0
7.8200006 -3.3251431 2.0234952 0
7.8100004 -3.33409 2.0213125 0
7.7990003 -3.3425553 2.0189116 0
7.7890005 -3.351428 2.0167289 0
7.7790003 -3.360265 2.0145464 0
7.7680006 -3.3686149 2.0121455 0
7.7580004 -3.3773775 2.009963 0
7.7480006 -3.3861046 2.0077803 0
7.7380004 -3.3947952 2.0055976 0
7.7270002 -3.4029915 2.0031967 0
7.7170005 -3.4116085 2.0010142 0
7.7070003 -3.4201891 1.9988316 0
7.6970005 -3.4287338 1.9966491 0
7.6870003 -3.4372423 1.9944664 0
7.6770005 -3.4457152 1.9922838 0
7.6670003 -3.4541512 1.9901012 0
7.6570005 -3.4625518 1.9879186 0
7.6470003 -3.470916 1.985736 0
7.6370006 -3.4792442 1.9835534 0
7.6270003 -3.4875362 1.9813708 0
7.6170006 -3.4957924 1.9791883 0
7.6070004 -3.5040121 1.9770056 0
7.5970006 -3.5121961 1.974823 0
7.5880003 -3.5208273 1.9728587 0
7.5780005 -3.5289409 1.9706761 0
7.5680003 -3.5370183 1.9684933 0
7.5580006 -3.5450597 1.9663109 0
7.5490003 -3.5535555 1.9643464 0
7.5390005 -3.5615268 1.9621638 0
7.5290003 -3.5694616 1.9599812 0
7.5200005 -3.5778565 1.9580169 0
7.5100002 -3.585721 1.9558343 0
7.5000005 -3.5935497 1.9536517 0
7.4910007 -3.6018436 1.9516873 0
7.4810004 -3.6096017 1.9495047 0
7.4720006 -3.6178291 1.9475404 0
7.4620004 -3.6255169 1.9453577 0
7.4530005 -3.6336772 1.9433935 0
7.4430003 -3.6412947 1.9412107 0
7.4340005 -3.6493883 1.9392465 0
7.4250002 -3.6574495 1.9372821 0
7.4150004 -3.6649623 1.9350996 0
7.4060006 -3.6729569 1.9331353 0
7.3970003 -3.6809189 1.9311708 0
7.3870006 -3.6883273 1.9289882 0
7.3780003 -3.6962223 1.9270239 0
7.3690004 -3.7040854 1.9250596 0
7.3600006 -3.7119157 1.9230952 0
7.3510003 -3.7197134 1.9211309 0
7.3410006 -3.7269487 1.9189483 0
7.3320003 -3.7346795 1.9169838 0
7.3230004 -3.742378 1.9150195 0
7.3140006 -3.7500448 1.9130552 0
7.3050003 -3.7576778 1.9110907 0
7.2960005 -3.7652793 1.9091265 0
7.2870007 -3.7728481 1.9071622 0
7.2780004 -3.7803845 1.9051977 0
7.2690005 -3.7878885 1.9032334 0
7.2600002 -3.7953596 1.9012691 0
7.2510004 -3.8027987 1.8993047 0
7.2420006 -3.810205 1.8973405 0
7.2330003 -3.8175788 1.8953761 0
7.2250004 -3.8254745 1.8936299 0
7.2160006 -3.8327851 1.8916657 0
7.2070003 -3.8400633 1.8897012 0
7.1980004 -3.8473094 1.8877369 0
7.1890006 -3.8545229 1.8857726 0
7.1810002 -3.8622665 1.8840265 0
7.1720004 -3.8694167 1.8820622 0
7.1630006 -3.8765345 1.8800979 0
7.1550002 -3.8841879 1.8783517 0
7.1460004 -3.891243 1.8763874 0
7.1370006 -3.8982654 1.874423 0
7.9370003 -3.2273009 2.0354362 0
7.9260006 -3.2362332 2.0330553 0
7.9150004 -3.245126 2.0306742 0
7.9050007 -3.2544069 2.0285099 0
7.8940005 -3.263222 2.0261285 0
7.8830004 -3.2719972 2.0237477 0
7.8730006 -3.2811663 2.0215831 0
7.8620005 -3.2898641 2.019202 0
7.8520002 -3.2989588 2.0170374 0
7.8410006 -3.3075793 2.0146565 0
7.8310003 -3.3166001 2.0124919 0
7.8200006 -3.3251431 2.0101109 0
7.8100004 -3.33409 2.0079463 0
7.7990003 -3.3425553 2.0055652 0
7.7890005 -3.351428 2.0034008 0
7.7790003 -3.360265 2.0012362 0
7.7680006 -3.3686149 1.9988551 0
7.7580004 -3.3773775 1.9966905 0
7.7480006 -3.3861046 1.994526 0
7.7380004 -3.3947952 1.9923614 0
7.7270002 -3.4029915 1.9899803 0
7.7170005 -3.4116085 1.9878159 0
7.7070003 -3.4201891 1.9856513 0
7.6970005 -3.4287338 1.9834868 0
7.6870003 -3.4372423 1.9813221 0
7.6770005 -3.4457152 1.9791576 0
7.6670003 -3.4541512 1.976993 0
7.6570005 -3.4625518 1.9748284 0
7.6470003 -3.470916 1.9726638 0
7.6370006 -3.4792442 1.9704993 0
7.6270003 -3.4875362 1.9683347 0
7.6170006 -3.4957924 1.9661701 0
7.6070004 -3.5040121 1.9640056 0
7.5970006 -3.5121961 1.9618411 0
7.5880003 -3.5208273 1.9598927 0
7.5780005 -3.5289409 1.9577283 0
7.5680003 -3.5370183 1.9555637 0
7.5580006 -3.5450597 1.9533992 0
7.5490003 -3.5535555 1.9514509 0
7.5390005 -3.5615268 1.9492865 0
7.5290003 -3.5694616 1.9471219 0
7.5200005 -3.5778565 1.9451737 0
7.5100002 -3.585721 1.9430091 0
7.5000005 -3.5935497 1.9408447 0
7.4910007 -3.6018436 1.9388965 0
7.4810004 -3.6096017 1.9367319 0
7.4720006 -3.6178291 1.9347839 0
7.4620004 -3.6255169 1.9326193 0
7.4530005 -3.6336772 1.9306712 0
7.4430003 -3.6412947 1.9285066 0
7.4340005 -3.6493883 1.9265586 0
7.4250002 -3.6574495 1.9246103 0
7.4150004 -3.6649623 1.9224458 0
7.4060006 -3.6729569 1.9204978 0
7.3970003 -3.6809189 1.9185495 0
7.3870006 -3.6883273 1.9163851 0
7.3780003 -3.6962223 1.9144369 0
7.3690004 -3.7040854 1.9124888 0
7.3600006 -3.7119157 1.9105407 0
7.3510003 -3.7197134 1.9085925 0
7.3410006 -3.7269487 1.906428 0
7.3320003 -3.7346795 1.9044799 0
7.3230004 -3.742378 1.9025317 0
7.3140006 -3.7500448 1.9005836 0
7.3050003 -3.7576778 1.8986355 0
7.2960005 -3.7652793 1.8966874 0
7.2870007 -3.7728481 1.8947394 0
7.2780004 -3.7803845 1.8927913 0
7.2690005 -3.7878885 1.890843 0
7.2600002 -3.7953596 1.8888949 0
7.2510004 -3.8027987 1.8869469 0
7.2420006 -3.810205 1.8849988 0
7.2330003 -3.8175788 1.8830506 0
7.2250004 -3.8254745 1.881319 0
7.2160006 -3.8327851 1.8793709 0
7.2070003 -3.8400633 1.8774227 0
7.1980004 -3.8473094 1.8754746 0
7.1890006 -3.8545229 1.8735266 0
7.1810002 -3.8622665 1.8717948 0
7.1720004 -3.8694167 1.8698467 0
7.1630006 -3.8765345 1.8678987 0
7.1550002 -3.8841879 1.8661669 0
7.1460004 -3.891243 1.8642188 0
7.1370006 -3.8982654 1.8622708 0
7.9370003 -3.2273009 2.021841 0
7.9260006 -3.2362332 2.0194798 0
7.9150004 -3.245126 2.0171187 0
7.9050007 -3.2544069 2.0149722 0
7.8940005 -3.263222 2.0126109 0
7.8830004 -3.2719972 2.0102499 0
7.8730006 -3.2811663 2.0081031 0
7.8620005 -3.2898641 2.0057421 0
7.8520002 -3.2989588 2.0035954 0
7.8410006 -3.3075793 2.0012343 0
7.8310003 -3.3166001 1.9990877 0
7.8200006 -3.3251431 1.9967266 0
7.8100004 -3.33409 1.9945801 0
7.7990003 -3.3425553 1.9922189 0
7.7890005 -3.351428 1.9900725 0
7.7790003 -3.360265 1.9879258 0
7.7680006 -3.3686149 1.9855647 0
7.7580004 -3.3773775 1.9834181 0
7.7480006 -3.3861046 1.9812716 0
7.7380004 -3.3947952 1.9791251 0
7.7270002 -3.4029915 1.9767638 0
7.7170005 -3.4116085 1.9746174 0
7.7070003 -3.4201891 1.9724708 0
7.6970005 -3.4287338 1.9703244 0
7.6870003 -3.4372423 1.9681777 0
7.6770005 -3.4457152 1.9660313 0
7.6670003 -3.4541512 1.9638846 0
7.6570005 -3.4625518 1.9617382 0
7.6470003 -3.470916 1.9595916 0
7.6370006 -3.4792442 1.9574451 0
7.6270003 -3.4875362 1.9552985 0
7.6170006 -3.4957924 1.9531521 0
7.6070004 -3.5040121 1.9510056 0
7.5970006 -3.5121961 1.948859 0
7.5880003 -3.5208273 1.9469271 0
7.5780005 -3.5289409 1.9447806 0
7.5680003 -3.5370183 1.942634 0
7.5580006 -3.5450597 1.9404875 0
7.5490003 -3.5535555 1.9385556 0
7.5390005 -3.5615268 1.9364091 0
7.5290003 -3.5694616 1.9342625 0
7.5200005 -3.5778565 1.9323306 0
7.5100002 -3.585721 1.9301841 0
7.5000005 -3.5935497 1.9280376 0
7.4910007 -3.6018436 1.9261057 0
7.4810004 -3.6096017 1.9239593 0
7.4720006 -3.6178291 1.9220273 0
7.4620004 -3.6255169 1.9198809 0
7.4530005 -3.6336772 1.917949 0
7.4430003 -3.6412947 1.9158024 0
7.4340005 -3.6493883 1.9138705 0
7.4250002 -3.6574495 1.9119387 0
7.4150004 -3.6649623 1.9097921 0
7.4060006 -3.6729569 1.9078603 0
7.3970003 -3.6809189 1.9059283 0
7.3870006 -3.6883273 1.9037819 0
7.3780003 -3.6962223 1.9018499 0
7.3690004 -3.7040854 1.8999181 0
7.3600006 -3.7119157 1.8979862 0
7.3510003 -3.7197134 1.8960543 0
7.3410006 -3.7269487 1.8939078 0
7.3320003 -3.7346795 1.8919759 0
7.3230004 -3.742378 1.890044 0
7.3140006 -3.7500448 1.8881122 0
7.3050003 -3.7576778 1.8861802 0
7.2960005 -3.7652793 1.8842484 0
7.2870007 -3.7728481 1.8823165 0
7.2780004 -3.7803845 1.8803847 0
7.2690005 -3.7878885 1.8784528 0
7.2600002 -3.7953596 1.8765209 0
7.2510004 -3.8027987 1.874589 0
7.2420006 -3.810205 1.8726572 0
7.2330003 -3.8175788 1.8707252 0
7.2250004 -3.8254745 1.8690081 0
7.2160006 -3.8327851 1.8670762 0
7.2070003 -3.8400633 1.8651443 0
7.1980004 -3.8473094 1.8632123 0
7.1890006 -3.8545229 1.8612806 0
7.1810002 -3.8622665 1.8595632 0
7.1720004 -3.8694167 1.8576313 0
7.1630006 -3.8765345 1.8556995 0
7.1550002 -3.8841879 1.8539822 0
7.1460004 -3.891243 1.8520504 0
7.1370006 -3.8982654 1.8501185 0
7.9370003 -3.2273009 2.0082457 0
7.9260006 -3.2362332 2.0059044 0
7.9150004 -3.245126 2.0035629 0
7.9050007 -3.2544069 2.0014346 0
7.8940005 -3.263222 1.9990933 0
7.8830004 -3.2719972 1.9967519 0
7.8730006 -3.2811663 1.9946234 0
7.8620005 -3.2898641 1.992282 0
7.8520002 -3.2989588 1.9901534 0
7.8410006 -3.3075793 1.9878122 0
7.8310003 -3.3166001 1.9856837 0
7.8200006 -3.3251431 1.9833424 0
7.8100004 -3.33409 1.9812139 0
7.7990003 -3.3425553 1.9788725 0
7.7890005 -3.351428 1.9767441 0
7.7790003 -3.360265 1.9746156 0
7.7680006 -3.3686149 1.9722743 0
7.7580004 -3.3773775 1.9701457 0
7.7480006 -3.3861046 1.9680173 0
7.7380004 -3.3947952 1.9658887 0
7.7270002 -3.4029915 1.9635473 0
7.7170005 -3.4116085 1.961419 0
7.7070003 -3.4201891 1.9592904 0
7.6970005 -3.4287338 1.9571619 0
7.6870003 -3.4372423 1.9550334 0
7.6770005 -3.4457152 1.9529049 0
7.6670003 -3.4541512 1.9507765 0
7.6570005 -3.4625518 1.948648 0
7.6470003 -3.470916 1.9465194 0
7.6370006 -3.4792442 1.944391 0
7.6270003 -3.4875362 1.9422624 0
7.6170006 -3.4957924 1.940134 0
7.6070004 -3.5040121 1.9380054 0
7.5970006 -3.5121961 1.935877 0
7.5880003 -3.5208273 1.9339613 0
7.5780005 -3.5289409 1.9318328 0
7.5680003 -3.5370183 1.9297043 0
7.5580006 -3.5450597 1.9275758 0
7.5490003 -3.5535555 1.9256601 0
7.5390005 -3.5615268 1.9235317 0
7.5290003 -3.5694616 1.9214032 0
7.5200005 -3.5778565 1.9194876 0
7.5100002 -3.585721 1.9173591 0
7.5000005 -3.5935497 1.9152306 0
7.4910007 -3.6018436 1.9133149 0
7.4810004 -3.6096017 1.9111865 0
7.4720006 -3.6178291 1.9092708 0
7.4620004 -3.6255169 1.9071423 0
7.4530005 -3.6336772 1.9052266 0
7.4430003 -3.6412947 1.9030981 0
7.4340005 -3.6493883 1.9011825 0
7.4250002 -3.6574495 1.8992668 0
7.4150004 -3.6649623 1.8971384 0
7.4060006 -3.6729569 1.8952228 0
7.3970003 -3.6809189 1.893307 0
7.3870006 -3.6883273 1.8911786 0
7.3780003 -3.6962223 1.8892629 0
7.3690004 -3.7040854 1.8873473 0
7.3600006 -3.7119157 1.8854318 0
7.3510003 -3.7197134 1.883516 0
7.3410006 -3.7269487 1.8813875 0
7.3320003 -3.7346795 1.8794719 0
7.3230004 -3.742378 1.8775563 0
7.3140006 -3.7500448 1.8756406 0
7.3050003 -3.7576778 1.8737249 0
7.2960005 -3.7652793 1.8718092 0
7.2870007 -3.7728481 1.8698938 0
7.2780004 -3.7803845 1.867978 0
7.2690005 -3.7878885 1.8660624 0
7.2600002 -3.7953596 1.8641467 0
7.2510004 -3.8027987 1.862231 0
7.2420006 -3.810205 1.8603156 0
7.2330003 -3.8175788 1.8583997 0
7.2250004 -3.8254745 1.856697 0
7.2160006 -3.8327851 1.8547814 0
7.2070003 -3.8400633 1.8528657 0
7.1980004 -3.8473094 1.8509501 0
7.1890006 -3.8545229 1.8490344 0
7.1810002 -3.8622665 1.8473316 0
7.1720004 -3.8694167 1.8454159 0
7.1630006 -3.8765345 1.8435004 0
7.1550002 -3.8841879 1.8417975 0
7.1460004 -3.891243 1.8398819 0
7.1370006 -3.8982654 1.8379663 0
7.9370003 -3.2273009 1.9946505 0
7.9260006 -3.2362332 1.992329 0
7.9150004 -3.245126 1.9900075 0
7.9050007 -3.2544069 1.987897 0
7.8940005 -3.263222 1.9855754 0
7.8830004 -3.2719972 1.983254 0
7.8730006 -3.2811663 1.9811436 0
7.8620005 -3.2898641 1.978822 0
7.8520002 -3.2989588 1.9767115 0
7.8410006 -3.3075793 1.97439 0
7.8310003 -3.3166001 1.9722795 0
7.8200006 -3.3251431 1.9699582 0
7.8100004 -3.33409 1.9678477 0
7.7990003 -3.3425553 1.9655262 0
7.7890005 -3.351428 1.9634157 0
7.7790003 -3.360265 1.9613053 0
7.7680006 -3.3686149 1.9589838 0
7.7580004 -3.3773775 1.9568733 0
7.7480006 -3.3861046 1.9547629 0
7.7380004 -3.3947952 1.9526523 0
7.7270002 -3.4029915 1.9503309 0
7.7170005 -3.4116085 1.9482205 0
7.7070003 -3.4201891 1.9461099 0
7.6970005 -3.4287338 1.9439995 0
7.6870003 -3.4372423 1.941889 0
7.6770005 -3.4457152 1.9397787 0
7.6670003 -3.4541512 1.9376681 0
7.6570005 -3.4625518 1.9355577 0
7.6470003 -3.470916 1.9334472 0
7.6370006 -3.4792442 1.9313369 0
7.6270003 -3.4875362 1.9292263 0
7.6170006 -3.4957924 1.9271159 0
7.6070004 -3.5040121 1.9250054 0
7.5970006 -3.5121961 1.9228951 0
7.5880003 -3.5208273 1.9209956 0
7.5780005 -3.5289409 1.9188851 0
7.5680003 -3.5370183 1.9167746 0
7.5580006 -3.5450597 1.9146643 0
7.5490003 -3.5535555 1.9127648 0
7.5390005 -3.5615268 1.9106543 0
7.5290003 -3.5694616 1.9085438 0
7.5200005 -3.5778565 1.9066445 0
7.5100002 -3.585721 1.9045339 0
7.5000005 -3.5935497 1.9024236 0
7.4910007 -3.6018436 1.9005243 0
7.4810004 -3.6096017 1.8984137 0
7.4720006 -3.6178291 1.8965143 0
7.4620004 -3.6255169 1.8944038 0
7.4530005 -3.6336772 1.8925045 0
7.4430003 -3.6412947 1.8903939 0
7.4340005 -3.6493883 1.8884945 0
7.4250002 -3.6574495 1.886595 0
7.4150004 -3.6649623 1.8844848 0
7.4060006 -3.6729569 1.8825854 0
7.3970003 -3.6809189 1.8806859 0
7.3870006 -3.6883273 1.8785754 0
7.3780003 -3.6962223 1.876676 0
7.3690004 -3.7040854 1.8747766 0
7.3600006 -3.7119157 1.8728772 0
7.3510003 -3.7197134 1.8709778 0
7.3410006 -3.7269487 1.8688673 0
7.3320003 -3.7346795 1.8669678 0
7.3230004 -3.742378 1.8650684 0
7.3140006 -3.7500448 1.8631691 0
7.3050003 -3.7576778 1.8612696 0
7.2960005 -3.7652793 1.8593702 0
7.2870007 -3.7728481 1.8574709 0
7.2780004 -3.7803845 1.8555714 0
7.2690005 -3.7878885 1.853672 0
7.2600002 -3.7953596 1.8517725 0
7.2510004 -3.8027987 1.8498732 0
7.2420006 -3.810205 1.8479738 0
7.2330003 -3.8175788 1.8460743 0
7.2250004 -3.8254745 1.844386 0
7.2160006 -3.8327851 1.8424866 0
7.2070003 -3.8400633 1.8405871 0
7.1980004 -3.8473094 1.8386878 0
7.1890006 -3.8545229 1.8367884 0
7.1810002 -3.8622665 1.8350999 0
7.1720004 -3.8694167 1.8332006 0
7.1630006 -3.8765345 1.8313012 0
7.1550002 -3.8841879 1.8296129 0
7.1460004 -3.891243 1.8277134 0
7.1370006 -3.8982654 1.825814 0
7.9370003 -3.2273009 1.981055 0
7.9260006 -3.2362332 1.9787536 0
7.9150004 -3.245126 1.9764519 0
7.9050007 -3.2544069 1.9743595 0
7.8940005 -3.263222 1.9720578 0
7.8830004 -3.2719972 1.969756 0
7.8730006 -3.2811663 1.9676636 0
7.8620005 -3.2898641 1.9653621 0
7.8520002 -3.2989588 1.9632696 0
7.8410006 -3.3075793 1.960968 0
7.8310003 -3.3166001 1.9588755 0
7.8200006 -3.3251431 1.956574 0
7.8100004 -3.33409 1.9544815 0
7.7990003 -3.3425553 1.9521797 0
7.7890005 -3.351428 1.9500873 0
7.7790003 -3.360265 1.9479949 0
7.7680006 -3.3686149 1.9456933 0
7.7580004 -3.3773775 1.9436008 0
7.7480006 -3.3861046 1.9415084 0
7.7380004 -3.3947952 1.9394159 0
7.7270002 -3.4029915 1.9371144 0
7.7170005 -3.4116085 1.935022 0
7.7070003 -3.4201891 1.9329295 0
7.6970005 -3.4287338 1.9308372 0
7.6870003 -3.4372423 1.9287447 0
7.6770005 -3.4457152 1.9266523 0
7.6670003 -3.4541512 1.9245598 0
7.6570005 -3.4625518 1.9224675 0
7.6470003 -3.470916 1.920375 0
7.6370006 -3.4792442 1.9182826 0
7.6270003 -3.4875362 1.9161901 0
7.6170006 -3.4957924 1.9140978 0
7.6070004 -3.5040121 1.9120053 0
7.5970006 -3.5121961 1.9099129 0
7.5880003 -3.5208273 1.9080298 0
7.5780005 -3.5289409 1.9059374 0
7.5680003 -3.5370183 1.903845 0
7.5580006 -3.5450597 1.9017526 0
7.5490003 -3.5535555 1.8998693 0
7.5390005 -3.5615268 1.897777 0
7.5290003 -3.5694616 1.8956845 0
7.5200005 -3.5778565 1.8938013 0
7.5100002 -3.585721 1.8917089 0
7.5000005 -3.5935497 1.8896165 0
7.4910007 -3.6018436 1.8877335 0
7.4810004 -3.6096017 1.885641 0
7.4720006 -3.6178291 1.8837577 0
7.4620004 -3.6255169 1.8816652 0
7.4530005 -3.6336772 1.8797822 0
7.4430003 -3.6412947 1.8776897 0
7.4340005 -3.6493883 1.8758066 0
7.4250002 -3.6574495 1.8739233 0
7.4150004 -3.6649623 1.8718309 0
7.4060006 -3.6729569 1.8699478 0
7.3970003 -3.6809189 1.8680646 0
7.3870006 -3.6883273 1.8659723 0
7.3780003 -3.6962223 1.8640889 0
7.3690004 -3.7040854 1.8622059 0
7.3600006 -3.7119157 1.8603227 0
7.3510003 -3.7197134 1.8584394 0
7.3410006 -3.7269487 1.8563471 0
7.3320003 -3.7346795 1.8544638 0
7.3230004 -3.742378 1.8525808 0
7.3140006 -3.7500448 1.8506975 0
7.3050003 -3.7576778 1.8488144 0
7.2960005 -3.7652793 1.8469312 0
7.2870007 -3.7728481 1.8450481 0
7.2780004 -3.7803845 1.8431648 0
7.2690005 -3.7878885 1.8412818 0
7.2600002 -3.7953596 1.8393984 0
7.2510004 -3.8027987 1.8375154 0
7.2420006 -3.810205 1.8356322 0
7.2330003 -3.8175788 1.8337489 0
7.2250004 -3.8254745 1.832075 0
7.2160006 -3.8327851 1.8301919 0
7.2070003 -3.8400633 1.8283086 0
7.1980004 -3.8473094 1.8264256 0
7.1890006 -3.8545229 1.8245423 0
7.1810002 -3.8622665 1.8228683 0
7.1720004 -3.8694167 1.8209852 0
7.1630006 -3.8765345 1.819102 0
7.1550002 -3.8841879 1.8174281 0
7.1460004 -3.891243 1.8155448 0
7.1370006 -3.8982654 1.8136618 0
7.9370003 -3.2273009 1.9674598 0
7.9260006 -3.2362332 1.965178 0
7.9150004 -3.245126 1.9628962 0
7.9050007 -3.2544069 1.9608219 0
7.8940005 -3.263222 1.9585401 0
7.8830004 -3.2719972 1.9562582 0
7.8730006 -3.2811663 1.9541839 0
7.8620005 -3.2898641 1.951902 0
7.8520002 -3.2989588 1.9498277 0
7.8410006 -3.3075793 1.9475458 0
7.8310003 -3.3166001 1.9454714 0
7.8200006 -3.3251431 1.9431896 0
7.8100004 -3.33409 1.9411151 0
7.7990003 -3.3425553 1.9388334 0
7.7890005 -3.351428 1.936759 0
7.7790003 -3.360265 1.9346846 0
7.7680006 -3.3686149 1.9324028 0
7.7580004 -3.3773775 1.9303285 0
7.7480006 -3.3861046 1.9282541 0
7.7380004 -3.3947952 1.9261798 0
7.7270002 -3.4029915 1.9238979 0
7.7170005 -3.4116085 1.9218235 0
7.7070003 -3.4201891 1.919749 0
7.6970005 -3.4287338 1.9176748 0
7.6870003 -3.4372423 1.9156003 0
7.6770005 -3.4457152 1.9135259 0
7.6670003 -3.4541512 1.9114516 0
7.6570005 -3.4625518 1.9093772 0
7.6470003 -3.470916 1.9073029 0
7.6370006 -3.4792442 1.9052285 0
7.6270003 -3.4875362 1.9031541 0
7.6170006 -3.4957924 1.9010798 0
7.6070004 -3.5040121 1.8990053 0
7.5970006 -3.5121961 1.8969309 0
7.5880003 -3.5208273 1.8950639 0
7.5780005 -3.5289409 1.8929896 0
7.5680003 -3.5370183 1.8909152 0
7.5580006 -3.5450597 1.8888409 0
7.5490003 -3.5535555 1.8869739 0
7.5390005 -3.5615268 1.8848996 0
7.5290003 -3.5694616 1.8828251 0
7.5200005 -3.5778565 1.8809582 0
7.5100002 -3.585721 1.8788838 0
7.5000005 -3.5935497 1.8768095 0
7.4910007 -3.6018436 1.8749427 0
7.4810004 -3.6096017 1.8728682 0
7.4720006 -3.6178291 1.8710012 0
7.4620004 -3.6255169 1.8689268 0
7.4530005 -3.6336772 1.8670598 0
7.4430003 -3.6412947 1.8649855 0
7.4340005 -3.6493883 1.8631185 0
7.4250002 -3.6574495 1.8612516 0
7.4150004 -3.6649623 1.8591772 0
7.4060006 -3.6729569 1.8573103 0
7.3970003 -3.6809189 1.8554434 0
7.3870006 -3.6883273 1.853369 0
7.3780003 -3.6962223 1.8515021 0
7.3690004 -3.7040854 1.8496351 0
7.3600006 -3.7119157 1.8477682 0
7.3510003 -3.7197134 1.8459013 0
7.3410006 -3.7269487 1.8438268 0
7.3320003 -3.7346795 1.8419598 0
7.3230004 -3.742378 1.8400929 0
7.3140006 -3.7500448 1.8382261 0
7.3050003 -3.7576778 1.836359 0
7.2960005 -3.7652793 1.8344921 0
7.2870007 -3.7728481 1.8326253 0
7.2780004 -3.7803845 1.8307582 0
7.2690005 -3.7878885 1.8288914 0
7.2600002 -3.7953596 1.8270243 0
7.2510004 -3.8027987 1.8251574 0
7.2420006 -3.810205 1.8232906 0
7.2330003 -3.8175788 1.8214235 0
7.2250004 -3.8254745 1.819764 0
7.2160006 -3.8327851 1.8178971 0
7.2070003 -3.8400633 1.81603 0
7.1980004 -3.8473094 1.8141632 0
7.1890006 -3.8545229 1.8122963 0
7.1810002 -3.8622665 1.8106366 0
7.1720004 -3.8694167 1.8087698 0
7.1630006 -3.8765345 1.8069029 0
7.1550002 -3.8841879 1.8052434 0
7.1460004 -3.891243 1.8033764 0
7.1370006 -3.8982654 1.8015095 0
7.9370003 -3.2273009 1.9538645 0
7.9260006 -3.2362332 1.9516026 0
7.9150004 -3.245126 1.9493406 0
7.9050007 -3.2544069 1.9472843 0
7.8940005 -3.263222 1.9450222 0
7.8830004 -3.2719972 1.9427602 0
7.8730006 -3.2811663 1.940704 0
7.8620005 -3.2898641 1.938442 0
7.8520002 -3.2989588 1.9363856 0
7.8410006 -3.3075793 1.9341236 0
7.8310003 -3.3166001 1.9320673 0
7.8200006 -3.3251431 1.9298054 0
7.8100004 -3.33409 1.927749 0
7.7990003 -3.3425553 1.925487 0
7.7890005 -3.351428 1.9234308 0
7.7790003 -3.360265 1.9213743 0
7.7680006 -3.3686149 1.9191124 0
7.7580004 -3.3773775 1.917056 0
7.7480006 -3.3861046 1.9149997 0
7.7380004 -3.3947952 1.9129434 0
7.7270002 -3.4029915 1.9106814 0
7.7170005 -3.4116085 1.9086251 0
7.7070003 -3.4201891 1.9065688 0
7.6970005 -3.4287338 1.9045123 0
7.6870003 -3.4372423 1.9024559 0
7.6770005 -3.4457152 1.9003997 0
7.6670003 -3.4541512 1.8983433 0
7.6570005 -3.4625518 1.896287 0
7.6470003 -3.470916 1.8942306 0
7.6370006 -3.4792442 1.8921744 0
7.6270003 -3.4875362 1.890118 0
7.6170006 -3.4957924 1.8880616 0
7.6070004 -3.5040121 1.8860053 0
7.5970006 -3.5121961 1.883949 0
7.5880003 -3.5208273 1.8820982 0
7.5780005 -3.5289409 1.880042 0
7.5680003 -3.5370183 1.8779856 0
7.5580006 -3.5450597 1.8759292 0
7.5490003 -3.5535555 1.8740785 0
7.5390005 -3.5615268 1.8720223 0
7.5290003 -3.5694616 1.8699658 0
7.5200005 -3.5778565 1.8681152 0
7.5100002 -3.585721 1.8660588 0
7.5000005 -3.5935497 1.8640023 0
7.4910007 -3.6018436 1.8621519 0
7.4810004 -3.6096017 1.8600954 0
7.4720006 -3.6178291 1.8582448 0
7.4620004 -3.6255169 1.8561884 0
7.4530005 -3.6336772 1.8543377 0
7.4430003 -3.6412947 1.8522813 0
7.4340005 -3.6493883 1.8504306 0
7.4250002 -3.6574495 1.8485799 0
7.4150004 -3.6649623 1.8465235 0
7.4060006 -3.6729569 1.8446729 0
7.3970003 -3.6809189 1.8428221 0
7.3870006 -3.6883273 1.8407658 0
7.3780003 -3.6962223 1.838915 0
7.3690004 -3.7040854 1.8370644 0
7.3600006 -3.7119157 1.8352137 0
7.3510003 -3.7197134 1.8333628 0
7.3410006 -3.7269487 1.8313066 0
7.3320003 -3.7346795 1.8294559 0
7.3230004 -3.742378 1.8276052 0
7.3140006 -3.7500448 1.8257545 0
7.3050003 -3.7576778 1.8239038 0
7.2960005 -3.7652793 1.8220531 0
7.2870007 -3.7728481 1.8202024 0
7.2780004 -3.7803845 1.8183516 0
7.2690005 -3.7878885 1.8165009 0
7.2600002 -3.7953596 1.8146503 0
7.2510004 -3.8027987 1.8127996 0
7.2420006 -3.810205 1.8109488 0
7.2330003 -3.8175788 1.8090981 0
7.2250004 -3.8254745 1.807453 0
7.2160006 -3.8327851 1.8056023 0
7.2070003 -3.8400633 1.8037516 0
7.1980004 -3.8473094 1.801901 0
7.1890006 -3.8545229 1.8000503 0
7.1810002 -3.8622665 1.7984051 0
7.1720004 -3.8694167 1.7965544 0
7.1630006 -3.8765345 1.7947037 0
7.1550002 -3.8841879 1.7930586 0
7.1460004 -3.891243 1.7912079 0
7.1370006 -3.8982654 1.7893573 0
7.9370003 -3.2273009 1.9402692 0
7.9260006 -3.2362332 1.9380271 0
7.9150004 -3.245126 1.9357851 0
7.9050007 -3.2544069 1.9337467 0
7.8940005 -3.263222 1.9315045 0
7.8830004 -3.2719972 1.9292624 0
7.8730006 -3.2811663 1.927224 0
7.8620005 -3.2898641 1.924982 0
7.8520002 -3.2989588 1.9229436 0
7.8410006 -3.3075793 1.9207016 0
7.8310003 -3.3166001 1.9186631 0
7.8200006 -3.3251431 1.9164212 0
7.8100004 -3.33409 1.9143827 0
7.7990003 -3.3425553 1.9121406 0
7.7890005 -3.351428 1.9101024 0
7.7790003 -3.360265 1.908064 0
7.7680006 -3.3686149 1.9058219 0
7.7580004 -3.3773775 1.9037836 0
7.7480006 -3.3861046 1.9017453 0
7.7380004 -3.3947952 1.899707 0
7.7270002 -3.4029915 1.8974648 0
7.7170005 -3.4116085 1.8954266 0
7.7070003 -3.4201891 1.8933883 0
7.6970005 -3.4287338 1.8913499 0
7.6870003 -3.4372423 1.8893117 0
7.6770005 -3.4457152 1.8872733 0
7.6670003 -3.4541512 1.8852351 0
7.6570005 -3.4625518 1.8831968 0
7.6470003 -3.470916 1.8811584 0
7.6370006 -3.4792442 1.8791202 0
7.6270003 -3.4875362 1.8770818 0
7.6170006 -3.4957924 1.8750435 0
7.6070004 -3.5040121 1.8730053 0
7.5970006 -3.5121961 1.8709669 0
7.5880003 -3.5208273 1.8691324 0
7.5780005 -3.5289409 1.8670943 0
7.5680003 -3.5370183 1.8650558 0
7.5580006 -3.5450597 1.8630176 0
7.5490003 -3.5535555 1.861183 0
7.5390005 -3.5615268 1.8591448 0
7.5290003 -3.5694616 1.8571064 0
7.5200005 -3.5778565 1.8552721 0
7.5100002 -3.585721 1.8532336 0
7.5000005 -3.5935497 1.8511955 0
7.4910007 -3.6018436 1.8493609 0
7.4810004 -3.6096017 1.8473226 0
7.4720006 -3.6178291 1.8454882 0
7.4620004 -3.6255169 1.8434498 0
7.4530005 -3.6336772 1.8416154 0
7.4430003 -3.6412947 1.839577 0
7.4340005 -3.6493883 1.8377426 0
7.4250002 -3.6574495 1.8359081 0
7.4150004 -3.6649623 1.8338698 0
7.4060006 -3.6729569 1.8320353 0
7.3970003 -3.6809189 1.8302008 0
7.3870006 -3.6883273 1.8281627 0
7.3780003 -3.6962223 1.826328 0
7.3690004 -3.7040854 1.8244935 0
7.3600006 -3.7119157 1.8226591 0
7.3510003 -3.7197134 1.8208246 0
7.3410006 -3.7269487 1.8187864 0
7.3320003 -3.7346795 1.8169519 0
7.3230004 -3.742378 1.8151174 0
7.3140006 -3.7500448 1.813283 0
7.3050003 -3.7576778 1.8114485 0
7.2960005 -3.7652793 1.8096141 0
7.2870007 -3.7728481 1.8077796 0
7.2780004 -3.7803845 1.805945 0
7.2690005 -3.7878885 1.8041105 0
7.2600002 -3.7953596 1.802276 0
7.2510004 -3.8027987 1.8004416 0
7.2420006 -3.810205 1.7986072 0
7.2330003 -3.8175788 1.7967727 0
