# .PCD v0.7 - Point Cloud Data file format
VERSION 0.7
FIELDS x y z intensity
SIZE 4 4 4 4
TYPE F F F F
COUNT 1 1 1 1
WIDTH 1416
HEIGHT 1
VIEWPOINT 0 0 0 1 0 0 0
POINTS 1416
DATA ascii
3.3450003 -1.3156195 0.19151141 0
3.3400002 -1.3187671 0.19187216 0
3.3360002 -1.3223314 0.19216079 0
3.3310003 -1.3254448 0.19252154 0
3.3260002 -1.3285401 0.1928823 0
3.3220003 -1.3320575 0.19317091 0
3.3170002 -1.3351187 0.19353168 0
3.3120003 -1.3381617 0.19389242 0
3.3080003 -1.3416322 0.19418104 0
3.3030002 -1.344641 0.19454181 0
3.2980003 -1.3476317 0.19490255 0
3.2940001 -1.3510551 0.19519117 0
3.2890003 -1.3540117 0.19555193 0
3.2850003 -1.3574047 0.19584054 0
3.2800002 -1.3603268 0.19620131 0
3.2750003 -1.3632311 0.19656207 0
3.2710001 -1.366577 0.19685067 0
3.2660003 -1.3694469 0.19721143 0
3.2620003 -1.3727623 0.19750004 0
3.2570002 -1.3755978 0.19786081 0
3.2530003 -1.3788826 0.19814941 0
3.2480001 -1.3816839 0.1985102 0
3.2440002 -1.3849379 0.19879879 0
3.2400002 -1.3881776 0.1990874 0
3.2350001 -1.3909284 0.19944817 0
3.2310002 -1.3941374 0.19973677 0
3.2260003 -1.396854 0.20009753 0
3.2220001 -1.4000322 0.20038614 0
3.2180002 -1.4031961 0.20067476 0
3.2130003 -1.4058622 0.20103551 0
3.2090001 -1.4089954 0.20132414 0
3.2050002 -1.4121141 0.20161273 0
3.2000003 -1.4147297 0.20197348 0
3.1960003 -1.417818 0.20226209 0
3.1920002 -1.4208914 0.20255072 0
3.1870003 -1.4234565 0.20291147 0
3.1830003 -1.4264996 0.20320007 0
3.1790001 -1.4295281 0.20348869 0
3.1750002 -1.4325423 0.20377731 0
3.1700003 -1.4350406 0.20413806 0
3.1660001 -1.438024 0.20442668 0
3.1620002 -1.4409932 0.20471528 0
3.1580002 -1.4439478 0.20500389 0
3.1540003 -1.446888 0.20529251 0
3.1500003 -1.4498138 0.2055811 0
3.1450002 -1.4522128 0.20594187 0
3.1410003 -1.4551079 0.20623048 0
3.1370003 -1.4579886 0.20651908 0
3.1330001 -1.4608549 0.2068077 0
3.1290002 -1.4637067 0.20709631 0
3.1250002 -1.466544 0.20738491 0
3.1210003 -1.469367 0.20767352 0
3.1170003 -1.4721757 0.20796213 0
3.1130002 -1.4749696 0.20825075 0
3.1090002 -1.4777493 0.20853937 0
3.1050003 -1.4805145 0.20882796 0
3.1010003 -1.4832654 0.20911656 0
3.0970001 -1.4860017 0.20940518 0
3.0930002 -1.4887238 0.2096938 0
3.0890002 -1.4914312 0.2099824 0
3.0850003 -1.4941244 0.210271 0
3.0810003 -1.4968029 0.21055962 0
3.0770001 -1.4994671 0.21084823 0
3.0730002 -1.5021169 0.21113683 0
3.0690002 -1.5047523 0.21142544 0
3.0650003 -1.5073733 0.21171406 0
3.0610001 -1.5099797 0.21200266 0
3.0570002 -1.5125718 0.21229129 0
3.0530002 -1.5151495 0.21257989 0
3.0500002 -1.5182682 0.21279635 0
3.0460002 -1.5208189 0.21308495 0
3.0420003 -1.5233551 0.21337356 0
3.0380001 -1.5258768 0.21366218 0
3.0340002 -1.5283841 0.21395078 0
3.0300002 -1.530877 0.21423939 0
3.0270002 -1.5339217 0.21445586 0
3.0230002 -1.5363876 0.21474445 0
3.0190003 -1.538839 0.21503305 0
3.0150001 -1.5412759 0.21532169 0
3.0120003 -1.5442721 0.21553811 0
3.3600001 -1.3060682 0.18508986 0
3.3550003 -1.30927 0.18545963 0
3.3500001 -1.3124537 0.18582942 0
3.3450003 -1.3156195 0.18619917 0
3.3400002 -1.3187671 0.18656898 0
3.3360002 -1.3223314 0.18686479 0
3.3310003 -1.3254448 0.18723457 0
3.3260002 -1.3285401 0.18760435 0
3.3220003 -1.3320575 0.18790017 0
3.3170002 -1.3351187 0.18826997 0
3.3120003 -1.3381617 0.18863975 0
3.3080003 -1.3416322 0.18893555 0
3.3030002 -1.344641 0.18930535 0
3.2980003 -1.3476317 0.18967512 0
3.2940001 -1.3510551 0.18997097 0
3.2890003 -1.3540117 0.19034073 0
3.2850003 -1.3574047 0.19063655 0
3.2800002 -1.3603268 0.19100635 0
3.2750003 -1.3632311 0.19137612 0
3.2710001 -1.366577 0.19167195 0
3.2660003 -1.3694469 0.19204172 0
3.2620003 -1.3727623 0.19233754 0
3.2570002 -1.3755978 0.19270733 0
3.2530003 -1.3788826 0.19300315 0
3.2480001 -1.3816839 0.19337294 0
3.2440002 -1.3849379 0.19366877 0
3.2400002 -1.3881776 0.19396459 0
3.2350001 -1.3909284 0.19433437 0
3.2310002 -1.3941374 0.19463019 0
3.2260003 -1.396854 0.19499996 0
3.2220001 -1.4000322 0.1952958 0
3.2180002 -1.4031961 0.19559163 0
3.2130003 -1.4058622 0.1959614 0
3.2090001 -1.4089954 0.19625723 0
3.2050002 -1.4121141 0.19655305 0
3.2000003 -1.4147297 0.19692282 0
3.1960003 -1.417818 0.19721864 0
3.1920002 -1.4208914 0.19751449 0
3.1870003 -1.4234565 0.19788426 0
3.1830003 -1.4264996 0.19818006 0
3.1790001 -1.4295281 0.19847591 0
3.1750002 -1.4325423 0.19877174 0
3.1700003 -1.4350406 0.1991415 0
3.1660001 -1.438024 0.19943735 0
3.1620002 -1.4409932 0.19973317 0
3.1580002 -1.4439478 0.20002899 0
3.1540003 -1.446888 0.2003248 0
3.1500003 -1.4498138 0.20062064 0
3.1450002 -1.4522128 0.20099041 0
3.1410003 -1.4551079 0.20128624 0
3.1370003 -1.4579886 0.20158206 0
3.1330001 -1.4608549 0.20187789 0
3.1290002 -1.4637067 0.20217371 0
3.1250002 -1.466544 0.20246954 0
3.1210003 -1.469367 0.20276536 0
3.1170003 -1.4721757 0.20306118 0
3.1130002 -1.4749696 0.20335703 0
3.1090002 -1.4777493 0.20365283 0
3.1050003 -1.4805145 0.20394866 0
3.1010003 -1.4832654 0.20424448 0
3.0970001 -1.4860017 0.20454031 0
3.0930002 -1.4887238 0.20483615 0
3.0890002 -1.4914312 0.20513195 0
3.0850003 -1.4941244 0.20542778 0
3.0810003 -1.4968029 0.2057236 0
3.0770001 -1.4994671 0.20601943 0
3.0730002 -1.5021169 0.20631526 0
3.0690002 -1.5047523 0.20661108 0
3.0650003 -1.5073733 0.2069069 0
3.0610001 -1.5099797 0.20720275 0
3.0570002 -1.5125718 0.20749857 0
3.0530002 -1.5151495 0.20779438 0
3.0500002 -1.5182682 0.20801626 0
3.0460002 -1.5208189 0.20831206 0
3.0420003 -1.5233551 0.2086079 0
3.0380001 -1.5258768 0.20890374 0
3.0340002 -1.5283841 0.20919955 0
3.0300002 -1.530877 0.20949538 0
3.0270002 -1.5339217 0.20971724 0
3.0230002 -1.5363876 0.21001306 0
3.0190003 -1.538839 0.21030889 0
3.0150001 -1.5412759 0.21060471 0
3.0120003 -1.5442721 0.21082658 0
3.3600001 -1.3060682 0.17975059 0
3.3550003 -1.30927 0.18012936 0
3.3500001 -1.3124537 0.18050818 0
3.3450003 -1.3156195 0.18088697 0
3.3400002 -1.3187671 0.18126577 0
3.3360002 -1.3223314 0.18156882 0
3.3310003 -1.3254448 0.1819476 0
3.3260002 -1.3285401 0.18232641 0
3.3220003 -1.3320575 0.18262945 0
3.3170002 -1.3351187 0.18300827 0
3.3120003 -1.3381617 0.18338704 0
3.3080003 -1.3416322 0.18369009 0
3.3030002 -1.344641 0.1840689 0
3.2980003 -1.3476317 0.18444768 0
3.2940001 -1.3510551 0.18475074 0
3.2890003 -1.3540117 0.18512954 0
3.2850003 -1.3574047 0.18543255 0
3.2800002 -1.3603268 0.18581137 0
3.2750003 -1.3632311 0.18619017 0
3.2710001 -1.366577 0.18649322 0
3.2660003 -1.3694469 0.18687201 0
3.2620003 -1.3727623 0.18717504 0
3.2570002 -1.3755978 0.18755385 0
3.2530003 -1.3788826 0.1878569 0
3.2480001 -1.3816839 0.18823569 0
3.2440002 -1.3849379 0.18853873 0
3.2400002 -1.3881776 0.18884176 0
3.2350001 -1.3909284 0.18922058 0
3.2310002 -1.3941374 0.18952362 0
3.2260003 -1.396854 0.1899024 0
3.2220001 -1.4000322 0.19020545 0
3.2180002 -1.4031961 0.19050848 0
3.2130003 -1.4058622 0.19088727 0
3.2090001 -1.4089954 0.19119035 0
3.2050002 -1.4121141 0.19149336 0
3.2000003 -1.4147297 0.19187216 0
3.1960003 -1.417818 0.19217521 0
3.1920002 -1.4208914 0.19247825 0
3.1870003 -1.4234565 0.19285704 0
3.1830003 -1.4264996 0.19316007 0
3.1790001 -1.4295281 0.19346313 0
3.1750002 -1.4325423 0.19376616 0
3.1700003 -1.4350406 0.19414495 0
3.1660001 -1.438024 0.19444801 0
3.1620002 -1.4409932 0.19475104 0
3.1580002 -1.4439478 0.19505408 0
3.1540003 -1.446888 0.19535711 0
3.1500003 -1.4498138 0.19566016 0
3.1450002 -1.4522128 0.19603896 0
3.1410003 -1.4551079 0.19634199 0
3.1370003 -1.4579886 0.19664504 0
3.1330001 -1.4608549 0.19694808 0
3.1290002 -1.4637067 0.19725113 0
3.1250002 -1.466544 0.19755416 0
3.1210003 -1.469367 0.1978572 0
3.1170003 -1.4721757 0.19816023 0
3.1130002 -1.4749696 0.19846329 0
3.1090002 -1.4777493 0.19876632 0
3.1050003 -1.4805145 0.19906935 0
3.1010003 -1.4832654 0.1993724 0
3.0970001 -1.4860017 0.19967544 0
3.0930002 -1.4887238 0.19997849 0
3.0890002 -1.4914312 0.20028152 0
3.0850003 -1.4941244 0.20058456 0
3.0810003 -1.4968029 0.20088759 0
3.0770001 -1.4994671 0.20119064 0
3.0730002 -1.5021169 0.20149368 0
3.0690002 -1.5047523 0.20179671 0
3.0650003 -1.5073733 0.20209976 0
3.0610001 -1.5099797 0.2024028 0
3.0570002 -1.5125718 0.20270585 0
3.0530002 -1.5151495 0.20300889 0
3.0500002 -1.5182682 0.20323616 0
3.0460002 -1.5208189 0.20353921 0
3.0420003 -1.5233551 0.20384224 0
3.0380001 -1.5258768 0.2041453 0
3.0340002 -1.5283841 0.20444831 0
3.0300002 -1.530877 0.20475136 0
3.0270002 -1.5339217 0.20497863 0
3.0230002 -1.5363876 0.20528167 0
3.0190003 -1.538839 0.2055847 0
3.0150001 -1.5412759 0.20588776 0
3.0120003 -1.5442721 0.20611502 0
3.3600001 -1.3060682 0.17441131 0
3.3550003 -1.30927 0.17479911 0
3.3500001 -1.3124537 0.17518695 0
3.3450003 -1.3156195 0.17557475 0
3.3400002 -1.3187671 0.17596258 0
3.3360002 -1.3223314 0.17627284 0
3.3310003 -1.3254448 0.17666064 0
3.3260002 -1.3285401 0.17704846 0
3.3220003 -1.3320575 0.17735873 0
3.3170002 -1.3351187 0.17774655 0
3.3120003 -1.3381617 0.17813435 0
3.3080003 -1.3416322 0.17844462 0
3.3030002 -1.344641 0.17883244 0
3.2980003 -1.3476317 0.17922024 0
3.2940001 -1.3510551 0.17953052 0
3.2890003 -1.3540117 0.17991833 0
3.2850003 -1.3574047 0.18022858 0
3.2800002 -1.3603268 0.18061641 0
3.2750003 -1.3632311 0.18100421 0
3.2710001 -1.366577 0.18131448 0
3.2660003 -1.3694469 0.1817023 0
3.2620003 -1.3727623 0.18201254 0
3.2570002 -1.3755978 0.18240038 0
3.2530003 -1.3788826 0.18271062 0
3.2480001 -1.3816839 0.18309845 0
3.2440002 -1.3849379 0.18340869 0
3.2400002 -1.3881776 0.18371895 0
3.2350001 -1.3909284 0.18410678 0
3.2310002 -1.3941374 0.18441704 0
3.2260003 -1.396854 0.18480484 0
3.2220001 -1.4000322 0.18511511 0
3.2180002 -1.4031961 0.18542536 0
3.2130003 -1.4058622 0.18581317 0
3.2090001 -1.4089954 0.18612343 0
3.2050002 -1.4121141 0.18643369 0
3.2000003 -1.4147297 0.18682149 0
3.1960003 -1.417818 0.18713175 0
3.1920002 -1.4208914 0.18744202 0
3.1870003 -1.4234565 0.18782982 0
3.1830003 -1.4264996 0.18814008 0
3.1790001 -1.4295281 0.18845035 0
3.1750002 -1.4325423 0.18876059 0
3.1700003 -1.4350406 0.18914841 0
3.1660001 -1.438024 0.18945867 0
3.1620002 -1.4409932 0.18976893 0
3.1580002 -1.4439478 0.19007917 0
3.1540003 -1.446888 0.19038944 0
3.1500003 -1.4498138 0.19069968 0
3.1450002 -1.4522128 0.19108751 0
3.1410003 -1.4551079 0.19139776 0
3.1370003 -1.4579886 0.19170801 0
3.1330001 -1.4608549 0.19201827 0
3.1290002 -1.4637067 0.19232854 0
3.1250002 -1.466544 0.19263878 0
3.1210003 -1.469367 0.19294904 0
3.1170003 -1.4721757 0.19325928 0
3.1130002 -1.4749696 0.19356956 0
3.1090002 -1.4777493 0.1938798 0
3.1050003 -1.4805145 0.19419006 0
3.1010003 -1.4832654 0.19450031 0
3.0970001 -1.4860017 0.19481058 0
3.0930002 -1.4887238 0.19512083 0
3.0890002 -1.4914312 0.19543108 0
3.0850003 -1.4941244 0.19574133 0
3.0810003 -1.4968029 0.19605158 0
3.0770001 -1.4994671 0.19636185 0
3.0730002 -1.5021169 0.1966721 0
3.0690002 -1.5047523 0.19698235 0
3.0650003 -1.5073733 0.1972926 0
3.0610001 -1.5099797 0.19760287 0
3.0570002 -1.5125718 0.19791313 0
3.0530002 -1.5151495 0.19822338 0
3.0500002 -1.5182682 0.19845606 0
3.0460002 -1.5208189 0.19876632 0
3.0420003 -1.5233551 0.19907656 0
3.0380001 -1.5258768 0.19938685 0
3.0340002 -1.5283841 0.19969709 0
3.0300002 -1.530877 0.20000735 0
3.0270002 -1.5339217 0.20024003 0
3.0230002 -1.5363876 0.20055029 0
3.0190003 -1.538839 0.20086053 0
3.0150001 -1.5412759 0.2011708 0
3.0120003 -1.5442721 0.20140348 0
3.3600001 -1.3060682 0.16907203 0
3.3550003 -1.30927 0.16946886 0
3.3500001 -1.3124537 0.16986571 0
3.3450003 -1.3156195 0.17026255 0
3.3400002 -1.3187671 0.17065939 0
3.3360002 -1.3223314 0.17097685 0
3.3310003 -1.3254448 0.1713737 0
3.3260002 -1.3285401 0.17177053 0
3.3220003 -1.3320575 0.172088 0
3.3170002 -1.3351187 0.17248483 0
3.3120003 -1.3381617 0.17288168 0
3.3080003 -1.3416322 0.17319913 0
3.3030002 -1.344641 0.17359599 0
3.2980003 -1.3476317 0.17399281 0
3.2940001 -1.3510551 0.1743103 0
3.2890003 -1.3540117 0.17470713 0
3.2850003 -1.3574047 0.17502458 0
3.2800002 -1.3603268 0.17542145 0
3.2750003 -1.3632311 0.17581826 0
3.2710001 -1.366577 0.17613575 0
3.2660003 -1.3694469 0.17653258 0
3.2620003 -1.3727623 0.17685005 0
3.2570002 -1.3755978 0.17724688 0
3.2530003 -1.3788826 0.17756435 0
3.2480001 -1.3816839 0.1779612 0
3.2440002 -1.3849379 0.17827867 0
3.2400002 -1.3881776 0.17859614 0
3.2350001 -1.3909284 0.17899297 0
3.2310002 -1.3941374 0.17931046 0
3.2260003 -1.396854 0.17970727 0
3.2220001 -1.4000322 0.18002476 0
3.2180002 -1.4031961 0.18034223 0
3.2130003 -1.4058622 0.18073906 0
3.2090001 -1.4089954 0.18105654 0
3.2050002 -1.4121141 0.181374 0
3.2000003 -1.4147297 0.18177083 0
3.1960003 -1.417818 0.1820883 0
3.1920002 -1.4208914 0.18240578 0
3.1870003 -1.4234565 0.18280262 0
3.1830003 -1.4264996 0.18312007 0
3.1790001 -1.4295281 0.18343757 0
3.1750002 -1.4325423 0.18375503 0
3.1700003 -1.4350406 0.18415186 0
3.1660001 -1.438024 0.18446934 0
3.1620002 -1.4409932 0.18478681 0
3.1580002 -1.4439478 0.18510428 0
3.1540003 -1.446888 0.18542174 0
3.1500003 -1.4498138 0.18573922 0
3.1450002 -1.4522128 0.18613605 0
3.1410003 -1.4551079 0.18645354 0
3.1370003 -1.4579886 0.18677099 0
3.1330001 -1.4608549 0.18708847 0
3.1290002 -1.4637067 0.18740594 0
3.1250002 -1.466544 0.1877234 0
3.1210003 -1.469367 0.18804088 0
3.1170003 -1.4721757 0.18835834 0
3.1130002 -1.4749696 0.18867582 0
3.1090002 -1.4777493 0.18899329 0
3.1050003 -1.4805145 0.18931076 0
3.1010003 -1.4832654 0.18962823 0
3.0970001 -1.4860017 0.18994571 0
3.0930002 -1.4887238 0.19026317 0
3.0890002 -1.4914312 0.19058064 0
3.0850003 -1.4941244 0.19089811 0
3.0810003 -1.4968029 0.19121557 0
3.0770001 -1.4994671 0.19153306 0
3.0730002 -1.5021169 0.19185051 0
3.0690002 -1.5047523 0.192168 0
3.0650003 -1.5073733 0.19248545 0
3.0610001 -1.5099797 0.19280294 0
3.0570002 -1.5125718 0.19312041 0
3.0530002 -1.5151495 0.19343787 0
3.0500002 -1.5182682 0.19367598 0
3.0460002 -1.5208189 0.19399345 0
3.0420003 -1.5233551 0.1943109 0
3.0380001 -1.5258768 0.1946284 0
3.0340002 -1.5283841 0.19494586 0
3.0300002 -1.530877 0.19526333 0
3.0270002 -1.5339217 0.19550143 0
3.0230002 -1.5363876 0.1958189 0
3.0190003 -1.538839 0.19613637 0
3.0150001 -1.5412759 0.19645385 0
3.0120003 -1.5442721 0.19669193 0
3.3600001 -1.3060682 0.16373277 0
3.3550003 -1.30927 0.16413862 0
3.3500001 -1.3124537 0.16454448 0
3.3450003 -1.3156195 0.16495033 0
3.3400002 -1.3187671 0.16535619 0
3.3360002 -1.3223314 0.16568086 0
3.3310003 -1.3254448 0.16608673 0
3.3260002 -1.3285401 0.1664926 0
3.3220003 -1.3320575 0.16681728 0
3.3170002 -1.3351187 0.16722314 0
3.3120003 -1.3381617 0.16762897 0
3.3080003 -1.3416322 0.16795366 0
3.3030002 -1.344641 0.16835952 0
3.2980003 -1.3476317 0.16876538 0
3.2940001 -1.3510551 0.16909009 0
3.2890003 -1.3540117 0.16949593 0
3.2850003 -1.3574047 0.16982061 0
3.2800002 -1.3603268 0.17022647 0
3.2750003 -1.3632311 0.1706323 0
3.2710001 -1.366577 0.17095701 0
3.2660003 -1.3694469 0.17136288 0
3.2620003 -1.3727623 0.17168754 0
3.2570002 -1.3755978 0.17209342 0
3.2530003 -1.3788826 0.17241809 0
3.2480001 -1.3816839 0.17282395 0
3.2440002 -1.3849379 0.17314865 0
3.2400002 -1.3881776 0.17347333 0
3.2350001 -1.3909284 0.17387918 0
3.2310002 -1.3941374 0.17420387 0
3.2260003 -1.396854 0.17460971 0
3.2220001 -1.4000322 0.17493442 0
3.2180002 -1.4031961 0.1752591 0
3.2130003 -1.4058622 0.17566495 0
3.2090001 -1.4089954 0.17598964 0
3.2050002 -1.4121141 0.17631432 0
3.2000003 -1.4147297 0.17672017 0
3.1960003 -1.417818 0.17704485 0
3.1920002 -1.4208914 0.17736956 0
3.1870003 -1.4234565 0.1777754 0
3.1830003 -1.4264996 0.17810008 0
3.1790001 -1.4295281 0.17842479 0
3.1750002 -1.4325423 0.17874946 0
3.1700003 -1.4350406 0.17915531 0
3.1660001 -1.438024 0.17948002 0
3.1620002 -1.4409932 0.1798047 0
3.1580002 -1.4439478 0.18012936 0
3.1540003 -1.446888 0.18045406 0
3.1500003 -1.4498138 0.18077874 0
3.1450002 -1.4522128 0.18118459 0
3.1410003 -1.4551079 0.18150929 0
3.1370003 -1.4579886 0.18183397 0
3.1330001 -1.4608549 0.18215866 0
3.1290002 -1.4637067 0.18248335 0
3.1250002 -1.466544 0.18280803 0
3.1210003 -1.469367 0.18313271 0
3.1170003 -1.4721757 0.18345739 0
3.1130002 -1.4749696 0.1837821 0
3.1090002 -1.4777493 0.18410677 0
3.1050003 -1.4805145 0.18443146 0
3.1010003 -1.4832654 0.18475613 0
3.0970001 -1.4860017 0.18508084 0
3.0930002 -1.4887238 0.18540551 0
3.0890002 -1.4914312 0.1857302 0
3.0850003 -1.4941244 0.18605489 0
3.0810003 -1.4968029 0.18637955 0
3.0770001 -1.4994671 0.18670426 0
3.0730002 -1.5021169 0.18702894 0
3.0690002 -1.5047523 0.18735363 0
3.0650003 -1.5073733 0.18767831 0
3.0610001 -1.5099797 0.188003 0
3.0570002 -1.5125718 0.18832768 0
3.0530002 -1.5151495 0.18865238 0
3.0500002 -1.5182682 0.18889588 0
3.0460002 -1.5208189 0.18922056 0
3.0420003 -1.5233551 0.18954524 0
3.0380001 -1.5258768 0.18986996 0
3.0340002 -1.5283841 0.19019462 0
3.0300002 -1.530877 0.1905193 0
3.0270002 -1.5339217 0.19076283 0
3.0230002 -1.5363876 0.19108751 0
3.0190003 -1.538839 0.19141218 0
3.0150001 -1.5412759 0.19173689 0
3.0120003 -1.5442721 0.19198039 0
3.3600001 -1.3060682 0.15839349 0
3.3550003 -1.30927 0.15880837 0
3.3500001 -1.3124537 0.15922326 0
3.3450003 -1.3156195 0.15963812 0
3.3400002 -1.3187671 0.16005298 0
3.3360002 -1.3223314 0.16038491 0
3.3310003 -1.3254448 0.16079977 0
3.3260002 -1.3285401 0.16121463 0
3.3220003 -1.3320575 0.16154654 0
3.3170002 -1.3351187 0.16196142 0
3.3120003 -1.3381617 0.16237628 0
3.3080003 -1.3416322 0.16270819 0
3.3030002 -1.344641 0.16312307 0
3.2980003 -1.3476317 0.16353793 0
3.2940001 -1.3510551 0.16386984 0
3.2890003 -1.3540117 0.16428471 0
3.2850003 -1.3574047 0.16461663 0
3.2800002 -1.3603268 0.16503149 0
3.2750003 -1.3632311 0.16544636 0
3.2710001 -1.366577 0.16577826 0
3.2660003 -1.3694469 0.16619314 0
3.2620003 -1.3727623 0.16652505 0
3.2570002 -1.3755978 0.16693991 0
3.2530003 -1.3788826 0.16727182 0
3.2480001 -1.3816839 0.16768673 0
3.2440002 -1.3849379 0.16801861 0
3.2400002 -1.3881776 0.16835049 0
3.2350001 -1.3909284 0.16876538 0
3.2310002 -1.3941374 0.1690973 0
3.2260003 -1.396854 0.16951217 0
3.2220001 -1.4000322 0.16984408 0
3.2180002 -1.4031961 0.17017595 0
3.2130003 -1.4058622 0.17059083 0
3.2090001 -1.4089954 0.17092274 0
3.2050002 -1.4121141 0.17125465 0
3.2000003 -1.4147297 0.17166951 0
3.1960003 -1.417818 0.17200141 0
3.1920002 -1.4208914 0.17233332 0
3.1870003 -1.4234565 0.17274818 0
3.1830003 -1.4264996 0.17308009 0
3.1790001 -1.4295281 0.17341201 0
3.1750002 -1.4325423 0.1737439 0
3.1700003 -1.4350406 0.17415875 0
3.1660001 -1.438024 0.17449068 0
3.1620002 -1.4409932 0.17482258 0
3.1580002 -1.4439478 0.17515448 0
3.1540003 -1.446888 0.17548637 0
3.1500003 -1.4498138 0.17581826 0
3.1450002 -1.4522128 0.17623316 0
3.1410003 -1.4551079 0.17656505 0
3.1370003 -1.4579886 0.17689694 0
3.1330001 -1.4608549 0.17722885 0
3.1290002 -1.4637067 0.17756076 0
3.1250002 -1.466544 0.17789266 0
3.1210003 -1.469367 0.17822455 0
3.1170003 -1.4721757 0.17855644 0
3.1130002 -1.4749696 0.17888835 0
3.1090002 -1.4777493 0.17922026 0
3.1050003 -1.4805145 0.17955215 0
3.1010003 -1.4832654 0.17988405 0
3.0970001 -1.4860017 0.18021595 0
3.0930002 -1.4887238 0.18054786 0
3.0890002 -1.4914312 0.18087976 0
3.0850003 -1.4941244 0.18121165 0
3.0810003 -1.4968029 0.18154354 0
3.0770001 -1.4994671 0.18187547 0
3.0730002 -1.5021169 0.18220736 0
3.0690002 -1.5047523 0.18253925 0
3.0650003 -1.5073733 0.18287115 0
3.0610001 -1.5099797 0.18320307 0
3.0570002 -1.5125718 0.18353498 0
3.0530002 -1.5151495 0.18386687 0
3.0500002 -1.5182682 0.1841158 0
3.0460002 -1.5208189 0.18444769 0
3.0420003 -1.5233551 0.18477958 0
3.0380001 -1.5258768 0.18511151 0
3.0340002 -1.5283841 0.1854434 0
3.0300002 -1.530877 0.18577529 0
3.0270002 -1.5339217 0.18602422 0
3.0230002 -1.5363876 0.18635613 0
3.0190003 -1.538839 0.18668802 0
3.0150001 -1.5412759 0.18701993 0
3.0120003 -1.5442721 0.18726884 0
3.3600001 -1.3060682 0.15305424 0
3.3550003 -1.30927 0.15347812 0
3.3500001 -1.3124537 0.15390199 0
3.3450003 -1.3156195 0.15432589 0
3.3400002 -1.3187671 0.1547498 0
3.3360002 -1.3223314 0.15508892 0
3.3310003 -1.3254448 0.15551281 0
3.3260002 -1.3285401 0.1559367 0
3.3220003 -1.3320575 0.15627579 0
3.3170002 -1.3351187 0.15669972 0
3.3120003 -1.3381617 0.1571236 0
3.3080003 -1.3416322 0.15746272 0
3.3030002 -1.344641 0.15788661 0
3.2980003 -1.3476317 0.1583105 0
3.2940001 -1.3510551 0.15864962 0
3.2890003 -1.3540117 0.15907352 0
3.2850003 -1.3574047 0.15941262 0
3.2800002 -1.3603268 0.15983655 0
3.2750003 -1.3632311 0.16026041 0
3.2710001 -1.366577 0.16059956 0
3.2660003 -1.3694469 0.16102342 0
3.2620003 -1.3727623 0.16136256 0
3.2570002 -1.3755978 0.16178645 0
3.2530003 -1.3788826 0.16212557 0
3.2480001 -1.3816839 0.16254947 0
3.2440002 -1.3849379 0.16288859 0
3.2400002 -1.3881776 0.16322768 0
3.2350001 -1.3909284 0.1636516 0
3.2310002 -1.3941374 0.16399071 0
3.2260003 -1.396854 0.1644146 0
3.2220001 -1.4000322 0.16475372 0
3.2180002 -1.4031961 0.16509284 0
3.2130003 -1.4058622 0.1655167 0
3.2090001 -1.4089954 0.16585585 0
3.2050002 -1.4121141 0.16619496 0
3.2000003 -1.4147297 0.16661885 0
3.1960003 -1.417818 0.16695794 0
3.1920002 -1.4208914 0.1672971 0
3.1870003 -1.4234565 0.16772096 0
3.1830003 -1.4264996 0.16806008 0
3.1790001 -1.4295281 0.16839921 0
3.1750002 -1.4325423 0.16873834 0
3.1700003 -1.4350406 0.1691622 0
3.1660001 -1.438024 0.16950135 0
3.1620002 -1.4409932 0.16984044 0
3.1580002 -1.4439478 0.17017956 0
3.1540003 -1.446888 0.17051868 0
3.1500003 -1.4498138 0.17085779 0
3.1450002 -1.4522128 0.17128171 0
3.1410003 -1.4551079 0.1716208 0
3.1370003 -1.4579886 0.17195992 0
3.1330001 -1.4608549 0.17229904 0
3.1290002 -1.4637067 0.17263816 0
3.1250002 -1.466544 0.17297727 0
3.1210003 -1.469367 0.17331639 0
3.1170003 -1.4721757 0.1736555 0
3.1130002 -1.4749696 0.17399463 0
3.1090002 -1.4777493 0.17433374 0
3.1050003 -1.4805145 0.17467284 0
3.1010003 -1.4832654 0.17501196 0
3.0970001 -1.4860017 0.1753511 0
3.0930002 -1.4887238 0.1756902 0
3.0890002 -1.4914312 0.17602932 0
3.0850003 -1.4941244 0.17636843 0
3.0810003 -1.4968029 0.17670754 0
3.0770001 -1.4994671 0.17704667 0
3.0730002 -1.5021169 0.17738579 0
3.0690002 -1.5047523 0.1777249 0
3.0650003 -1.5073733 0.178064 0
3.0610001 -1.5099797 0.17840314 0
3.0570002 -1.5125718 0.17874224 0
3.0530002 -1.5151495 0.17908137 0
3.0500002 -1.5182682 0.1793357 0
3.0460002 -1.5208189 0.17967482 0
3.0420003 -1.5233551 0.18001392 0
3.0380001 -1.5258768 0.18035306 0
3.0340002 -1.5283841 0.18069217 0
3.0300002 -1.530877 0.18103127 0
3.0270002 -1.5339217 0.18128562 0
3.0230002 -1.5363876 0.18162473 0
3.0190003 -1.538839 0.18196385 0
3.0150001 -1.5412759 0.18230298 0
3.0120003 -1.5442721 0.1825573 0
3.3600001 -1.3060682 0.14771494 0
3.3550003 -1.30927 0.14814785 0
3.3500001 -1.3124537 0.14858076 0
3.3450003 -1.3156195 0.14901367 0
3.3400002 -1.3187671 0.14944661 0
3.3360002 -1.3223314 0.14979291 0
3.3310003 -1.3254448 0.15022582 0
3.3260002 -1.3285401 0.15065876 0
3.3220003 -1.3320575 0.15100509 0
3.3170002 -1.3351187 0.151438 0
3.3120003 -1.3381617 0.15187094 0
3.3080003 -1.3416322 0.15221724 0
3.3030002 -1.344641 0.15265015 0
3.2980003 -1.3476317 0.15308309 0
3.2940001 -1.3510551 0.15342942 0
3.2890003 -1.3540117 0.1538623 0
3.2850003 -1.3574047 0.15420865 0
3.2800002 -1.3603268 0.15464157 0
3.2750003 -1.3632311 0.15507446 0
3.2710001 -1.366577 0.15542082 0
3.2660003 -1.3694469 0.15585372 0
3.2620003 -1.3727623 0.15620005 0
3.2570002 -1.3755978 0.15663297 0
3.2530003 -1.3788826 0.15697931 0
3.2480001 -1.3816839 0.1574122 0
3.2440002 -1.3849379 0.15775853 0
3.2400002 -1.3881776 0.15810488 0
3.2350001 -1.3909284 0.15853781 0
3.2310002 -1.3941374 0.15888414 0
3.2260003 -1.396854 0.15931703 0
3.2220001 -1.4000322 0.15966339 0
3.2180002 -1.4031961 0.1600097 0
3.2130003 -1.4058622 0.16044259 0
3.2090001 -1.4089954 0.16078895 0
3.2050002 -1.4121141 0.16113529 0
3.2000003 -1.4147297 0.16156818 0
3.1960003 -1.417818 0.16191451 0
3.1920002 -1.4208914 0.16226085 0
3.1870003 -1.4234565 0.16269377 0
3.1830003 -1.4264996 0.16304009 0
3.1790001 -1.4295281 0.16338643 0
3.1750002 -1.4325423 0.16373275 0
3.1700003 -1.4350406 0.16416568 0
3.1660001 -1.438024 0.16451201 0
3.1620002 -1.4409932 0.16485834 0
3.1580002 -1.4439478 0.16520467 0
3.1540003 -1.446888 0.16555098 0
3.1500003 -1.4498138 0.16589731 0
3.1450002 -1.4522128 0.16633023 0
3.1410003 -1.4551079 0.16667657 0
3.1370003 -1.4579886 0.1670229 0
3.1330001 -1.4608549 0.16736923 0
3.1290002 -1.4637067 0.16771556 0
3.1250002 -1.466544 0.1680619 0
3.1210003 -1.469367 0.16840823 0
3.1170003 -1.4721757 0.16875455 0
3.1130002 -1.4749696 0.16910091 0
3.1090002 -1.4777493 0.16944721 0
3.1050003 -1.4805145 0.16979355 0
3.1010003 -1.4832654 0.17013988 0
3.0970001 -1.4860017 0.17048624 0
3.0930002 -1.4887238 0.17083254 0
3.0890002 -1.4914312 0.17117888 0
3.0850003 -1.4941244 0.17152521 0
3.0810003 -1.4968029 0.17187151 0
3.0770001 -1.4994671 0.17221788 0
3.0730002 -1.5021169 0.17256421 0
3.0690002 -1.5047523 0.17291054 0
3.0650003 -1.5073733 0.17325684 0
3.0610001 -1.5099797 0.17360321 0
3.0570002 -1.5125718 0.17394954 0
3.0530002 -1.5151495 0.17429586 0
3.0500002 -1.5182682 0.17455561 0
3.0460002 -1.5208189 0.17490193 0
3.0420003 -1.5233551 0.17524827 0
3.0380001 -1.5258768 0.17559461 0
3.0340002 -1.5283841 0.17594093 0
3.0300002 -1.530877 0.17628726 0
3.0270002 -1.5339217 0.17654701 0
3.0230002 -1.5363876 0.17689334 0
3.0190003 -1.538839 0.17723967 0
3.0150001 -1.5412759 0.177586 0
3.0120003 -1.5442721 0.17784575 0
3.3600001 -1.3060682 0.14237568 0
3.3550003 -1.30927 0.14281759 0
3.3500001 -1.3124537 0.14325956 0
3.3450003 -1.3156195 0.14370146 0
3.3400002 -1.3187671 0.1441434 0
3.3360002 -1.3223314 0.14449695 0
3.3310003 -1.3254448 0.14493886 0
3.3260002 -1.3285401 0.14538082 0
3.3220003 -1.3320575 0.14573437 0
3.3170002 -1.3351187 0.14617631 0
3.3120003 -1.3381617 0.14661822 0
3.3080003 -1.3416322 0.14697176 0
3.3030002 -1.344641 0.1474137 0
3.2980003 -1.3476317 0.14785561 0
3.2940001 -1.3510551 0.14820918 0
3.2890003 -1.3540117 0.14865112 0
3.2850003 -1.3574047 0.14900467 0
3.2800002 -1.3603268 0.14944658 0
3.2750003 -1.3632311 0.14988852 0
3.2710001 -1.366577 0.15024209 0
3.2660003 -1.3694469 0.150684 0
3.2620003 -1.3727623 0.15103754 0
3.2570002 -1.3755978 0.15147948 0
3.2530003 -1.3788826 0.15183303 0
3.2480001 -1.3816839 0.15227497 0
3.2440002 -1.3849379 0.15262851 0
3.2400002 -1.3881776 0.15298206 0
3.2350001 -1.3909284 0.15342399 0
3.2310002 -1.3941374 0.15377754 0
3.2260003 -1.396854 0.15421946 0
3.2220001 -1.4000322 0.15457304 0
3.2180002 -1.4031961 0.15492658 0
3.2130003 -1.4058622 0.15536851 0
3.2090001 -1.4089954 0.15572205 0
3.2050002 -1.4121141 0.1560756 0
3.2000003 -1.4147297 0.15651752 0
3.1960003 -1.417818 0.15687107 0
3.1920002 -1.4208914 0.15722463 0
3.1870003 -1.4234565 0.15766655 0
3.1830003 -1.4264996 0.15802009 0
3.1790001 -1.4295281 0.15837364 0
3.1750002 -1.4325423 0.15872718 0
3.1700003 -1.4350406 0.15916911 0
3.1660001 -1.438024 0.15952268 0
3.1620002 -1.4409932 0.15987623 0
3.1580002 -1.4439478 0.16022974 0
3.1540003 -1.446888 0.16058329 0
3.1500003 -1.4498138 0.16093683 0
3.1450002 -1.4522128 0.16137879 0
3.1410003 -1.4551079 0.16173233 0
3.1370003 -1.4579886 0.16208588 0
3.1330001 -1.4608549 0.16243942 0
3.1290002 -1.4637067 0.16279297 0
3.1250002 -1.466544 0.16314651 0
3.1210003 -1.469367 0.16350006 0
3.1170003 -1.4721757 0.1638536 0
3.1130002 -1.4749696 0.16420718 0
3.1090002 -1.4777493 0.16456069 0
3.1050003 -1.4805145 0.16491424 0
3.1010003 -1.4832654 0.16526778 0
3.0970001 -1.4860017 0.16562136 0
3.0930002 -1.4887238 0.1659749 0
3.0890002 -1.4914312 0.16632845 0
3.0850003 -1.4941244 0.16668199 0
3.0810003 -1.4968029 0.16703551 0
3.0770001 -1.4994671 0.16738908 0
3.0730002 -1.5021169 0.16774262 0
3.0690002 -1.5047523 0.16809617 0
3.0650003 -1.5073733 0.16844971 0
3.0610001 -1.5099797 0.16880326 0
3.0570002 -1.5125718 0.1691568 0
3.0530002 -1.5151495 0.16951035 0
3.0500002 -1.5182682 0.16977552 0
3.0460002 -1.5208189 0.17012906 0
3.0420003 -1.5233551 0.17048261 0
3.0380001 -1.5258768 0.17083618 0
3.0340002 -1.5283841 0.1711897 0
3.0300002 -1.530877 0.17154324 0
3.0270002 -1.5339217 0.17180841 0
3.0230002 -1.5363876 0.17216195 0
3.0190003 -1.538839 0.1725155 0
3.0150001 -1.5412759 0.17286907 0
3.0120003 -1.5442721 0.17313419 0
3.3600001 -1.3060682 0.13703641 0
3.3550003 -1.30927 0.13748732 0
3.3500001 -1.3124537 0.13793832 0
3.3450003 -1.3156195 0.13838923 0
3.3400002 -1.3187671 0.13884023 0
3.3360002 -1.3223314 0.13920099 0
3.3310003 -1.3254448 0.13965189 0
3.3260002 -1.3285401 0.14010286 0
3.3220003 -1.3320575 0.14046362 0
3.3170002 -1.3351187 0.14091459 0
3.3120003 -1.3381617 0.14136553 0
3.3080003 -1.3416322 0.14172629 0
3.3030002 -1.344641 0.14217725 0
3.2980003 -1.3476317 0.14262819 0
3.2940001 -1.3510551 0.14298898 0
3.2890003 -1.3540117 0.14343992 0
3.2850003 -1.3574047 0.14380068 0
3.2800002 -1.3603268 0.14425164 0
3.2750003 -1.3632311 0.14470255 0
3.2710001 -1.366577 0.14506334 0
3.2660003 -1.3694469 0.14551431 0
3.2620003 -1.3727623 0.14587507 0
3.2570002 -1.3755978 0.14632601 0
3.2530003 -1.3788826 0.14668676 0
3.2480001 -1.3816839 0.14713773 0
3.2440002 -1.3849379 0.14749849 0
3.2400002 -1.3881776 0.14785925 0
3.2350001 -1.3909284 0.14831021 0
3.2310002 -1.3941374 0.14867097 0
3.2260003 -1.396854 0.14912188 0
3.2220001 -1.4000322 0.14948267 0
3.2180002 -1.4031961 0.14984342 0
3.2130003 -1.4058622 0.15029439 0
3.2090001 -1.4089954 0.15065515 0
3.2050002 -1.4121141 0.15101591 0
3.2000003 -1.4147297 0.15146685 0
3.1960003 -1.417818 0.1518276 0
3.1920002 -1.4208914 0.15218839 0
3.1870003 -1.4234565 0.15263933 0
3.1830003 -1.4264996 0.15300009 0
3.1790001 -1.4295281 0.15336087 0
3.1750002 -1.4325423 0.15372163 0
3.1700003 -1.4350406 0.15417255 0
3.1660001 -1.438024 0.15453334 0
3.1620002 -1.4409932 0.1548941 0
3.1580002 -1.4439478 0.15525486 0
3.1540003 -1.446888 0.15561561 0
3.1500003 -1.4498138 0.15597637 0
3.1450002 -1.4522128 0.15642734 0
3.1410003 -1.4551079 0.1567881 0
3.1370003 -1.4579886 0.15714885 0
3.1330001 -1.4608549 0.15750961 0
3.1290002 -1.4637067 0.15787037 0
3.1250002 -1.466544 0.15823115 0
3.1210003 -1.469367 0.15859191 0
3.1170003 -1.4721757 0.15895267 0
3.1130002 -1.4749696 0.15931343 0
3.1090002 -1.4777493 0.15967418 0
3.1050003 -1.4805145 0.16003494 0
3.1010003 -1.4832654 0.1603957 0
3.0970001 -1.4860017 0.16075647 0
3.0930002 -1.4887238 0.16111723 0
3.0890002 -1.4914312 0.16147798 0
3.0850003 -1.4941244 0.16183874 0
3.0810003 -1.4968029 0.1621995 0
3.0770001 -1.4994671 0.16256028 0
3.0730002 -1.5021169 0.16292104 0
3.0690002 -1.5047523 0.1632818 0
3.0650003 -1.5073733 0.16364256 0
3.0610001 -1.5099797 0.16400333 0
3.0570002 -1.5125718 0.16436408 0
3.0530002 -1.5151495 0.16472484 0
3.0500002 -1.5182682 0.16499543 0
3.0460002 -1.5208189 0.16535619 0
3.0420003 -1.5233551 0.16571695 0
3.0380001 -1.5258768 0.16607773 0
3.0340002 -1.5283841 0.16643849 0
3.0300002 -1.530877 0.16679925 0
3.0270002 -1.5339217 0.16706981 0
3.0230002 -1.5363876 0.16743056 0
3.0190003 -1.538839 0.16779132 0
3.0150001 -1.5412759 0.16815209 0
3.0120003 -1.5442721 0.16842265 0
3.3600001 -1.3060682 0.13169712 0
3.3550003 -1.30927 0.13215712 0
3.3500001 -1.3124537 0.13261709 0
3.3450003 -1.3156195 0.13307703 0
3.3400002 -1.3187671 0.13353702 0
3.3360002 -1.3223314 0.13390499 0
3.3310003 -1.3254448 0.13436493 0
3.3260002 -1.3285401 0.1348249 0
3.3220003 -1.3320575 0.1351929 0
3.3170002 -1.3351187 0.1356529 0
3.3120003 -1.3381617 0.13611284 0
3.3080003 -1.3416322 0.13648081 0
3.3030002 -1.344641 0.13694078 0
3.2980003 -1.3476317 0.13740075 0
3.2940001 -1.3510551 0.13776875 0
3.2890003 -1.3540117 0.13822871 0
3.2850003 -1.3574047 0.13859668 0
3.2800002 -1.3603268 0.13905665 0
3.2750003 -1.3632311 0.13951662 0
3.2710001 -1.366577 0.13988462 0
3.2660003 -1.3694469 0.14034456 0
3.2620003 -1.3727623 0.14071256 0
3.2570002 -1.3755978 0.14117253 0
3.2530003 -1.3788826 0.1415405 0
3.2480001 -1.3816839 0.1420005 0
3.2440002 -1.3849379 0.14236847 0
3.2400002 -1.3881776 0.14273643 0
3.2350001 -1.3909284 0.1431964 0
3.2310002 -1.3941374 0.14356437 0
3.2260003 -1.396854 0.14402434 0
3.2220001 -1.4000322 0.14439234 0
3.2180002 -1.4031961 0.14476031 0
3.2130003 -1.4058622 0.14522025 0
3.2090001 -1.4089954 0.14558825 0
3.2050002 -1.4121141 0.14595622 0
3.2000003 -1.4147297 0.14641622 0
3.1960003 -1.417818 0.14678419 0
3.1920002 -1.4208914 0.14715216 0
3.1870003 -1.4234565 0.14761212 0
3.1830003 -1.4264996 0.14798009 0
3.1790001 -1.4295281 0.14834809 0
3.1750002 -1.4325423 0.14871606 0
3.1700003 -1.4350406 0.14917603 0
3.1660001 -1.438024 0.14954403 0
3.1620002 -1.4409932 0.149912 0
3.1580002 -1.4439478 0.15027997 0
3.1540003 -1.446888 0.15064794 0
3.1500003 -1.4498138 0.15101591 0
3.1450002 -1.4522128 0.15147588 0
3.1410003 -1.4551079 0.15184385 0
3.1370003 -1.4579886 0.15221184 0
3.1330001 -1.4608549 0.15257984 0
3.1290002 -1.4637067 0.15294781 0
3.1250002 -1.466544 0.15331575 0
3.1210003 -1.469367 0.15368372 0
3.1170003 -1.4721757 0.15405171 0
3.1130002 -1.4749696 0.15441969 0
3.1090002 -1.4777493 0.15478766 0
3.1050003 -1.4805145 0.15515566 0
3.1010003 -1.4832654 0.15552363 0
3.0970001 -1.4860017 0.15589163 0
3.0930002 -1.4887238 0.15625958 0
3.0890002 -1.4914312 0.15662755 0
3.0850003 -1.4941244 0.15699552 0
3.0810003 -1.4968029 0.15736349 0
3.0770001 -1.4994671 0.15773149 0
3.0730002 -1.5021169 0.15809947 0
3.0690002 -1.5047523 0.15846744 0
3.0650003 -1.5073733 0.15883541 0
3.0610001 -1.5099797 0.15920341 0
3.0570002 -1.5125718 0.15957138 0
3.0530002 -1.5151495 0.15993935 0
3.0500002 -1.5182682 0.16021533 0
3.0460002 -1.5208189 0.16058329 0
3.0420003 -1.5233551 0.16095129 0
3.0380001 -1.5258768 0.16131929 0
3.0340002 -1.5283841 0.16168725 0
3.0300002 -1.530877 0.16205522 0
3.0270002 -1.5339217 0.16233119 0
3.0230002 -1.5363876 0.16269916 0
3.0190003 -1.538839 0.16306713 0
3.0150001 -1.5412759 0.16343513 0
3.0120003 -1.5442721 0.16371112 0
3.3600001 -1.3060682 0.12635785 0
3.3550003 -1.30927 0.12682685 0
3.3500001 -1.3124537 0.12729582 0
3.3450003 -1.3156195 0.12776482 0
3.3400002 -1.3187671 0.12823382 0
3.3360002 -1.3223314 0.128609 0
3.3310003 -1.3254448 0.12907797 0
3.3260002 -1.3285401 0.12954697 0
3.3220003 -1.3320575 0.12992215 0
3.3170002 -1.3351187 0.13039118 0
3.3120003 -1.3381617 0.13086015 0
3.3080003 -1.3416322 0.13123533 0
3.3030002 -1.344641 0.13170433 0
3.2980003 -1.3476317 0.13217333 0
3.2940001 -1.3510551 0.13254851 0
3.2890003 -1.3540117 0.13301751 0
3.2850003 -1.3574047 0.13339269 0
3.2800002 -1.3603268 0.13386169 0
3.2750003 -1.3632311 0.13433066 0
3.2710001 -1.366577 0.13470587 0
3.2660003 -1.3694469 0.13517484 0
3.2620003 -1.3727623 0.13555005 0
3.2570002 -1.3755978 0.13601905 0
3.2530003 -1.3788826 0.13639426 0
3.2480001 -1.3816839 0.13686323 0
3.2440002 -1.3849379 0.13723844 0
3.2400002 -1.3881776 0.13761362 0
3.2350001 -1.3909284 0.13808262 0
3.2310002 -1.3941374 0.1384578 0
3.2260003 -1.396854 0.13892677 0
3.2220001 -1.4000322 0.13930199 0
3.2180002 -1.4031961 0.13967717 0
3.2130003 -1.4058622 0.14014614 0
3.2090001 -1.4089954 0.14052138 0
3.2050002 -1.4121141 0.14089656 0
3.2000003 -1.4147297 0.14136553 0
3.1960003 -1.417818 0.14174071 0
3.1920002 -1.4208914 0.14211592 0
3.1870003 -1.4234565 0.14258489 0
3.1830003 -1.4264996 0.14296007 0
3.1790001 -1.4295281 0.14333531 0
3.1750002 -1.4325423 0.14371049 0
3.1700003 -1.4350406 0.14417946 0
3.1660001 -1.438024 0.14455467 0
3.1620002 -1.4409932 0.14492986 0
3.1580002 -1.4439478 0.14530507 0
3.1540003 -1.446888 0.14568025 0
3.1500003 -1.4498138 0.14605543 0
3.1450002 -1.4522128 0.14652443 0
3.1410003 -1.4551079 0.14689961 0
3.1370003 -1.4579886 0.14727482 0
3.1330001 -1.4608549 0.14765003 0
3.1290002 -1.4637067 0.14802518 0
3.1250002 -1.466544 0.14840037 0
3.1210003 -1.469367 0.14877558 0
3.1170003 -1.4721757 0.14915076 0
3.1130002 -1.4749696 0.14952597 0
3.1090002 -1.4777493 0.14990115 0
3.1050003 -1.4805145 0.15027636 0
3.1010003 -1.4832654 0.15065154 0
3.0970001 -1.4860017 0.15102673 0
3.0930002 -1.4887238 0.15140191 0
3.0890002 -1.4914312 0.15177712 0
3.0850003 -1.4941244 0.1521523 0
3.0810003 -1.4968029 0.15252748 0
3.0770001 -1.4994671 0.15290269 0
3.0730002 -1.5021169 0.1532779 0
3.0690002 -1.5047523 0.15365309 0
3.0650003 -1.5073733 0.15402825 0
3.0610001 -1.5099797 0.15440348 0
3.0570002 -1.5125718 0.15477866 0
3.0530002 -1.5151495 0.15515384 0
3.0500002 -1.5182682 0.15543525 0
3.0460002 -1.5208189 0.15581043 0
3.0420003 -1.5233551 0.15618563 0
3.0380001 -1.5258768 0.15656084 0
3.0340002 -1.5283841 0.15693602 0
3.0300002 -1.530877 0.1573112 0
3.0270002 -1.5339217 0.15759259 0
3.0230002 -1.5363876 0.15796778 0
3.0190003 -1.538839 0.15834299 0
3.0150001 -1.5412759 0.15871818 0
3.0120003 -1.5442721 0.15899956 0
3.3600001 -1.3060682 0.12101859 0
3.3550003 -1.30927 0.12149659 0
3.3500001 -1.3124537 0.12197459 0
3.3450003 -1.3156195 0.12245262 0
3.3400002 -1.3187671 0.12293062 0
3.3360002 -1.3223314 0.12331304 0
3.3310003 -1.3254448 0.12379101 0
3.3260002 -1.3285401 0.12426904 0
3.3220003 -1.3320575 0.12465143 0
3.3170002 -1.3351187 0.12512946 0
3.3120003 -1.3381617 0.12560746 0
3.3080003 -1.3416322 0.12598988 0
3.3030002 -1.344641 0.12646788 0
3.2980003 -1.3476317 0.12694588 0
3.2940001 -1.3510551 0.12732831 0
3.2890003 -1.3540117 0.12780631 0
3.2850003 -1.3574047 0.1281887 0
3.2800002 -1.3603268 0.12866673 0
3.2750003 -1.3632311 0.12914473 0
3.2710001 -1.366577 0.12952715 0
3.2660003 -1.3694469 0.13000515 0
3.2620003 -1.3727623 0.13038757 0
3.2570002 -1.3755978 0.13086557 0
3.2530003 -1.3788826 0.13124797 0
3.2480001 -1.3816839 0.131726 0
3.2440002 -1.3849379 0.13210839 0
3.2400002 -1.3881776 0.13249081 0
3.2350001 -1.3909284 0.13296881 0
3.2310002 -1.3941374 0.13335124 0
3.2260003 -1.396854 0.13382921 0
3.2220001 -1.4000322 0.13421166 0
3.2180002 -1.4031961 0.13459405 0
3.2130003 -1.4058622 0.13507205 0
3.2090001 -1.4089954 0.13545448 0
3.2050002 -1.4121141 0.13583687 0
3.2000003 -1.4147297 0.13631487 0
3.1960003 -1.417818 0.13669726 0
3.1920002 -1.4208914 0.13707972 0
3.1870003 -1.4234565 0.13755769 0
3.1830003 -1.4264996 0.13794011 0
3.1790001 -1.4295281 0.13832253 0
3.1750002 -1.4325423 0.1387049 0
3.1700003 -1.4350406 0.13918293 0
3.1660001 -1.438024 0.13956535 0
3.1620002 -1.4409932 0.13994774 0
3.1580002 -1.4439478 0.14033014 0
3.1540003 -1.446888 0.14071256 0
3.1500003 -1.4498138 0.14109495 0
3.1450002 -1.4522128 0.14157298 0
3.1410003 -1.4551079 0.14195538 0
3.1370003 -1.4579886 0.1423378 0
3.1330001 -1.4608549 0.14272022 0
3.1290002 -1.4637067 0.14310259 0
3.1250002 -1.466544 0.14348501 0
3.1210003 -1.469367 0.1438674 0
3.1170003 -1.4721757 0.14424983 0
3.1130002 -1.4749696 0.14463225 0
3.1090002 -1.4777493 0.14501464 0
3.1050003 -1.4805145 0.14539704 0
3.1010003 -1.4832654 0.14577943 0
3.0970001 -1.4860017 0.14616188 0
3.0930002 -1.4887238 0.14654428 0
3.0890002 -1.4914312 0.14692667 0
3.0850003 -1.4941244 0.14730909 0
3.0810003 -1.4968029 0.14769146 0
3.0770001 -1.4994671 0.14807391 0
3.0730002 -1.5021169 0.14845631 0
3.0690002 -1.5047523 0.14883873 0
3.0650003 -1.5073733 0.14922112 0
3.0610001 -1.5099797 0.14960355 0
3.0570002 -1.5125718 0.14998594 0
3.0530002 -1.5151495 0.15036833 0
3.0500002 -1.5182682 0.15065515 0
3.0460002 -1.5208189 0.15103754 0
3.0420003 -1.5233551 0.15141994 0
3.0380001 -1.5258768 0.15180239 0
3.0340002 -1.5283841 0.15218478 0
3.0300002 -1.530877 0.15256721 0
3.0270002 -1.5339217 0.152854 0
3.0230002 -1.5363876 0.15323639 0
3.0190003 -1.538839 0.15361881 0
3.0150001 -1.5412759 0.15400122 0
3.0120003 -1.5442721 0.15428802 0
3.3600001 -1.3060682 0.11567932 0
3.3550003 -1.30927 0.11616632 0
3.3500001 -1.3124537 0.11665338 0
3.3450003 -1.3156195 0.11714038 0
3.3400002 -1.3187671 0.11762741 0
3.3360002 -1.3223314 0.11801705 0
3.3310003 -1.3254448 0.11850405 0
3.3260002 -1.3285401 0.11899108 0
3.3220003 -1.3320575 0.11938071 0
3.3170002 -1.3351187 0.11986774 0
3.3120003 -1.3381617 0.12035477 0
3.3080003 -1.3416322 0.12074438 0
3.3030002 -1.344641 0.12123144 0
3.2980003 -1.3476317 0.12171844 0
3.2940001 -1.3510551 0.1221081 0
3.2890003 -1.3540117 0.1225951 0
3.2850003 -1.3574047 0.12298474 0
3.2800002 -1.3603268 0.12347177 0
3.2750003 -1.3632311 0.12395877 0
3.2710001 -1.366577 0.12434843 0
3.2660003 -1.3694469 0.12483543 0
3.2620003 -1.3727623 0.12522504 0
3.2570002 -1.3755978 0.1257121 0
3.2530003 -1.3788826 0.1261017 0
3.2480001 -1.3816839 0.12658873 0
3.2440002 -1.3849379 0.12697837 0
3.2400002 -1.3881776 0.12736797 0
3.2350001 -1.3909284 0.12785503 0
3.2310002 -1.3941374 0.12824464 0
3.2260003 -1.396854 0.12873167 0
3.2220001 -1.4000322 0.1291213 0
3.2180002 -1.4031961 0.12951094 0
3.2130003 -1.4058622 0.12999794 0
3.2090001 -1.4089954 0.13038757 0
3.2050002 -1.4121141 0.13077718 0
3.2000003 -1.4147297 0.13126421 0
3.1960003 -1.417818 0.13165382 0
3.1920002 -1.4208914 0.13204345 0
3.1870003 -1.4234565 0.13253048 0
3.1830003 -1.4264996 0.13292009 0
3.1790001 -1.4295281 0.13330972 0
3.1750002 -1.4325423 0.13369936 0
3.1700003 -1.4350406 0.13418636 0
3.1660001 -1.438024 0.13457602 0
3.1620002 -1.4409932 0.13496563 0
3.1580002 -1.4439478 0.13535523 0
3.1540003 -1.446888 0.13574487 0
3.1500003 -1.4498138 0.13613448 0
3.1450002 -1.4522128 0.13662151 0
3.1410003 -1.4551079 0.13701114 0
3.1370003 -1.4579886 0.13740075 0
3.1330001 -1.4608549 0.13779041 0
3.1290002 -1.4637067 0.13818002 0
3.1250002 -1.466544 0.13856962 0
3.1210003 -1.469367 0.13895926 0
3.1170003 -1.4721757 0.13934886 0
3.1130002 -1.4749696 0.1397385 0
3.1090002 -1.4777493 0.14012811 0
3.1050003 -1.4805145 0.14051774 0
3.1010003 -1.4832654 0.14090738 0
3.0970001 -1.4860017 0.14129701 0
3.0930002 -1.4887238 0.14168662 0
3.0890002 -1.4914312 0.14207622 0
3.0850003 -1.4941244 0.14246586 0
3.0810003 -1.4968029 0.14285547 0
3.0770001 -1.4994671 0.14324513 0
3.0730002 -1.5021169 0.14363471 0
3.0690002 -1.5047523 0.14402434 0
3.0650003 -1.5073733 0.14441398 0
3.0610001 -1.5099797 0.14480361 0
3.0570002 -1.5125718 0.14519325 0
3.0530002 -1.5151495 0.14558282 0
3.0500002 -1.5182682 0.14587507 0
3.0460002 -1.5208189 0.14626467 0
3.0420003 -1.5233551 0.14665428 0
3.0380001 -1.5258768 0.14704394 0
3.0340002 -1.5283841 0.14743355 0
3.0300002 -1.530877 0.14782318 0
3.0270002 -1.5339217 0.1481154 0
3.0230002 -1.5363876 0.148505 0
3.0190003 -1.538839 0.14889464 0
3.0150001 -1.5412759 0.14928424 0
3.0120003 -1.5442721 0.14957646 0
3.3600001 -1.3060682 0.11034003 0
3.3550003 -1.30927 0.11083609 0
3.3500001 -1.3124537 0.11133215 0
3.3450003 -1.3156195 0.11182818 0
3.3400002 -1.3187671 0.11232424 0
3.3360002 -1.3223314 0.11272106 0
3.3310003 -1.3254448 0.11321709 0
3.3260002 -1.3285401 0.11371315 0
3.3220003 -1.3320575 0.11410999 0
3.3170002 -1.3351187 0.11460605 0
3.3120003 -1.3381617 0.11510208 0
3.3080003 -1.3416322 0.1154989 0
3.3030002 -1.344641 0.11599496 0
3.2980003 -1.3476317 0.11649102 0
3.2940001 -1.3510551 0.11688787 0
3.2890003 -1.3540117 0.1173839 0
3.2850003 -1.3574047 0.11778072 0
3.2800002 -1.3603268 0.11827677 0
3.2750003 -1.3632311 0.11877283 0
3.2710001 -1.366577 0.11916968 0
3.2660003 -1.3694469 0.11966574 0
3.2620003 -1.3727623 0.12006253 0
3.2570002 -1.3755978 0.12055859 0
3.2530003 -1.3788826 0.12095544 0
3.2480001 -1.3816839 0.1214515 0
3.2440002 -1.3849379 0.12184834 0
3.2400002 -1.3881776 0.12224516 0
3.2350001 -1.3909284 0.12274122 0
3.2310002 -1.3941374 0.12313807 0
3.2260003 -1.396854 0.1236341 0
3.2220001 -1.4000322 0.12403095 0
3.2180002 -1.4031961 0.12442777 0
3.2130003 -1.4058622 0.12492383 0
3.2090001 -1.4089954 0.12532067 0
3.2050002 -1.4121141 0.12571749 0
3.2000003 -1.4147297 0.12621352 0
3.1960003 -1.417818 0.12661037 0
3.1920002 -1.4208914 0.12700725 0
3.1870003 -1.4234565 0.12750328 0
3.1830003 -1.4264996 0.12790009 0
3.1790001 -1.4295281 0.12829694 0
3.1750002 -1.4325423 0.12869379 0
3.1700003 -1.4350406 0.12918982 0
3.1660001 -1.438024 0.12958667 0
3.1620002 -1.4409932 0.12998351 0
3.1580002 -1.4439478 0.13038036 0
3.1540003 -1.446888 0.13077715 0
3.1500003 -1.4498138 0.131174 0
3.1450002 -1.4522128 0.13167006 0
3.1410003 -1.4551079 0.13206691 0
3.1370003 -1.4579886 0.13246372 0
3.1330001 -1.4608549 0.1328606 0
3.1290002 -1.4637067 0.13325742 0
3.1250002 -1.466544 0.13365424 0
3.1210003 -1.469367 0.13405108 0
3.1170003 -1.4721757 0.13444793 0
3.1130002 -1.4749696 0.13484478 0
3.1090002 -1.4777493 0.1352416 0
3.1050003 -1.4805145 0.13563845 0
3.1010003 -1.4832654 0.13603529 0
3.0970001 -1.4860017 0.13643211 0
3.0930002 -1.4887238 0.13682896 0
3.0890002 -1.4914312 0.13722581 0
3.0850003 -1.4941244 0.13762265 0
3.0810003 -1.4968029 0.13801944 0
3.0770001 -1.4994671 0.13841632 0
3.0730002 -1.5021169 0.13881317 0
3.0690002 -1.5047523 0.13920999 0
3.0650003 -1.5073733 0.1396068 0
3.0610001 -1.5099797 0.14000368 0
3.0570002 -1.5125718 0.1404005 0
3.0530002 -1.5151495 0.14079735 0
3.0500002 -1.5182682 0.14109498 0
3.0460002 -1.5208189 0.1414918 0
3.0420003 -1.5233551 0.14188862 0
3.0380001 -1.5258768 0.1422855 0
3.0340002 -1.5283841 0.14268231 0
3.0300002 -1.530877 0.14307916 0
3.0270002 -1.5339217 0.1433768 0
3.0230002 -1.5363876 0.14377362 0
3.0190003 -1.538839 0.14417043 0
3.0150001 -1.5412759 0.14456731 0
3.0120003 -1.5442721 0.14486489 0
3.3600001 -1.3060682 0.10500076 0
3.3550003 -1.30927 0.10550582 0
3.3500001 -1.3124537 0.10601091 0
3.3450003 -1.3156195 0.10651594 0
3.3400002 -1.3187671 0.10702103 0
3.3360002 -1.3223314 0.10742509 0
3.3310003 -1.3254448 0.10793012 0
3.3260002 -1.3285401 0.10843521 0
3.3220003 -1.3320575 0.10883927 0
3.3170002 -1.3351187 0.10934433 0
3.3120003 -1.3381617 0.10984939 0
3.3080003 -1.3416322 0.11025345 0
3.3030002 -1.344641 0.11075851 0
3.2980003 -1.3476317 0.11126357 0
3.2940001 -1.3510551 0.11166766 0
3.2890003 -1.3540117 0.11217269 0
3.2850003 -1.3574047 0.11257675 0
3.2800002 -1.3603268 0.11308184 0
3.2750003 -1.3632311 0.11358687 0
3.2710001 -1.366577 0.11399096 0
3.2660003 -1.3694469 0.11449602 0
3.2620003 -1.3727623 0.11490005 0
3.2570002 -1.3755978 0.11540514 0
3.2530003 -1.3788826 0.11580917 0
3.2480001 -1.3816839 0.11631426 0
3.2440002 -1.3849379 0.11671829 0
3.2400002 -1.3881776 0.11712235 0
3.2350001 -1.3909284 0.11762741 0
3.2310002 -1.3941374 0.11803147 0
3.2260003 -1.396854 0.11853653 0
3.2220001 -1.4000322 0.11894062 0
3.2180002 -1.4031961 0.11934465 0
3.2130003 -1.4058622 0.11984971 0
3.2090001 -1.4089954 0.12025377 0
3.2050002 -1.4121141 0.12065783 0
3.2000003 -1.4147297 0.12116286 0
3.1960003 -1.417818 0.12156692 0
3.1920002 -1.4208914 0.12197098 0
3.1870003 -1.4234565 0.12247607 0
3.1830003 -1.4264996 0.1228801 0
3.1790001 -1.4295281 0.12328416 0
3.1750002 -1.4325423 0.12368822 0
3.1700003 -1.4350406 0.12419328 0
3.1660001 -1.438024 0.12459734 0
3.1620002 -1.4409932 0.1250014 0
3.1580002 -1.4439478 0.12540543 0
3.1540003 -1.446888 0.12580949 0
3.1500003 -1.4498138 0.12621352 0
3.1450002 -1.4522128 0.12671861 0
3.1410003 -1.4551079 0.12712267 0
3.1370003 -1.4579886 0.1275267 0
3.1330001 -1.4608549 0.12793079 0
3.1290002 -1.4637067 0.12833482 0
3.1250002 -1.466544 0.12873888 0
3.1210003 -1.469367 0.12914294 0
3.1170003 -1.4721757 0.12954697 0
3.1130002 -1.4749696 0.12995103 0
3.1090002 -1.4777493 0.13035509 0
3.1050003 -1.4805145 0.13075915 0
3.1010003 -1.4832654 0.13116318 0
3.0970001 -1.4860017 0.13156727 0
3.0930002 -1.4887238 0.13197133 0
3.0890002 -1.4914312 0.13237533 0
3.0850003 -1.4941244 0.13277939 0
3.0810003 -1.4968029 0.13318345 0
3.0770001 -1.4994671 0.13358751 0
3.0730002 -1.5021169 0.13399157 0
3.0690002 -1.5047523 0.13439563 0
3.0650003 -1.5073733 0.13479969 0
3.0610001 -1.5099797 0.13520372 0
3.0570002 -1.5125718 0.13560778 0
3.0530002 -1.5151495 0.13601184 0
3.0500002 -1.5182682 0.13631487 0
3.0460002 -1.5208189 0.13671893 0
3.0420003 -1.5233551 0.13712296 0
3.0380001 -1.5258768 0.13752705 0
3.0340002 -1.5283841 0.13793111 0
3.0300002 -1.530877 0.13833514 0
3.0270002 -1.5339217 0.1386382 0
3.0230002 -1.5363876 0.13904223 0
3.0190003 -1.538839 0.13944626 0
3.0150001 -1.5412759 0.13985035 0
3.0120003 -1.5442721 0.14015335 0
3.3600001 -1.3060682 0.099661499 0
3.3550003 -1.30927 0.10017556 0
3.3500001 -1.3124537 0.10068965 0
3.3450003 -1.3156195 0.10120374 0
3.3400002 -1.3187671 0.10171783 0
3.3360002 -1.3223314 0.1021291 0
3.3310003 -1.3254448 0.10264316 0
3.3260002 -1.3285401 0.10315725 0
