# .PCD v0.7 - Point Cloud Data file format
VERSION 0.7
FIELDS x y z intensity
SIZE 4 4 4 4
TYPE F F F F
COUNT 1 1 1 1
WIDTH 1049
HEIGHT 1
VIEWPOINT 0 0 0 1 0 0 0
POINTS 1049
DATA ascii
7.5980005 -2.7855842 2.4554422 0
7.5890002 -2.7951262 2.4528773 0
7.5810003 -2.8050203 2.4505973 0
7.5730004 -2.8148854 2.4483173 0
7.5640006 -2.8243337 2.4457524 0
7.6230006 -2.7560127 2.4495385 0
7.6150002 -2.7660255 2.4472728 0
7.6060004 -2.7756307 2.4447241 0
7.5980005 -2.7855842 2.4424584 0
7.5890002 -2.7951262 2.4399095 0
7.5810003 -2.8050203 2.437644 0
7.5730004 -2.8148854 2.4353786 0
7.5640006 -2.8243337 2.4328296 0
7.6580005 -2.7167761 2.4463582 0
7.6490006 -2.7265403 2.443826 0
7.6400003 -2.7362719 2.4412932 0
7.6320004 -2.7463441 2.4390421 0
7.6230006 -2.7560127 2.4365096 0
7.6150002 -2.7660255 2.4342582 0
7.6060004 -2.7756307 2.431726 0
7.5980005 -2.7855842 2.4294746 0
7.5890002 -2.7951262 2.4269421 0
7.5810003 -2.8050203 2.424691 0
7.5730004 -2.8148854 2.4224398 0
7.5640006 -2.8243337 2.4199073 0
7.6750007 -2.6967866 2.4380195 0
7.6660004 -2.7066135 2.435503 0
7.6580005 -2.7167761 2.4332664 0
7.6490006 -2.7265403 2.4307501 0
7.6400003 -2.7362719 2.4282336 0
7.6320004 -2.7463441 2.425997 0
7.6230006 -2.7560127 2.4234805 0
7.6150002 -2.7660255 2.4212439 0
7.6060004 -2.7756307 2.4187276 0
7.5980005 -2.7855842 2.4164908 0
7.5890002 -2.7951262 2.4139745 0
7.5810003 -2.8050203 2.4117379 0
7.5730004 -2.8148854 2.4095011 0
7.5640006 -2.8243337 2.4069848 0
7.6750007 -2.6967866 2.4248967 0
7.6660004 -2.7066135 2.4223964 0
7.6580005 -2.7167761 2.4201741 0
7.6490006 -2.7265403 2.4176741 0
7.6400003 -2.7362719 2.415174 0
7.6320004 -2.7463441 2.4129517 0
7.6230006 -2.7560127 2.4104517 0
7.6150002 -2.7660255 2.4082294 0
7.6060004 -2.7756307 2.4057293 0
7.5980005 -2.7855842 2.403507 0
7.5890002 -2.7951262 2.4010069 0
7.5810003 -2.8050203 2.3987846 0
7.5730004 -2.8148854 2.3965623 0
7.5640006 -2.8243337 2.3940623 0
7.6750007 -2.6967866 2.4117739 0
7.6660004 -2.7066135 2.4092898 0
7.6580005 -2.7167761 2.4070821 0
7.6490006 -2.7265403 2.4045982 0
7.6400003 -2.7362719 2.4021146 0
7.6320004 -2.7463441 2.3999066 0
7.6230006 -2.7560127 2.3974228 0
7.6150002 -2.7660255 2.3952148 0
7.6060004 -2.7756307 2.392731 0
7.5980005 -2.7855842 2.3905232 0
7.5890002 -2.7951262 2.3880391 0
7.5810003 -2.8050203 2.3858314 0
7.5730004 -2.8148854 2.3836236 0
7.5640006 -2.8243337 2.3811398 0
7.6750007 -2.6967866 2.3986511 0
7.6660004 -2.7066135 2.3961835 0
7.6580005 -2.7167761 2.39399 0
7.6490006 -2.7265403 2.3915226 0
7.6400003 -2.7362719 2.3890548 0
7.6320004 -2.7463441 2.3868613 0
7.6230006 -2.7560127 2.3843939 0
7.6150002 -2.7660255 2.3822005 0
7.6060004 -2.7756307 2.3797326 0
7.5980005 -2.7855842 2.3775394 0
7.5890002 -2.7951262 2.3750718 0
7.5810003 -2.8050203 2.3728783 0
7.5730004 -2.8148854 2.3706849 0
7.5640006 -2.8243337 2.3682175 0
7.6750007 -2.6967866 2.3855286 0
7.6660004 -2.7066135 2.3830769 0
7.6580005 -2.7167761 2.380898 0
7.6490006 -2.7265403 2.3784468 0
7.6400003 -2.7362719 2.3759952 0
7.6320004 -2.7463441 2.3738165 0
7.6230006 -2.7560127 2.3713651 0
7.6150002 -2.7660255 2.3691857 0
7.6060004 -2.7756307 2.3667345 0
7.5980005 -2.7855842 2.3645556 0
7.5890002 -2.7951262 2.3621042 0
7.5810003 -2.8050203 2.3599253 0
7.5730004 -2.8148854 2.3577461 0
7.5640006 -2.8243337 2.3552947 0
7.6750007 -2.6967866 2.3724058 0
7.6660004 -2.7066135 2.3699706 0
7.6580005 -2.7167761 2.367806 0
7.6490006 -2.7265403 2.365371 0
7.6400003 -2.7362719 2.3629355 0
7.6320004 -2.7463441 2.3607712 0
7.6230006 -2.7560127 2.358336 0
7.6150002 -2.7660255 2.3561714 0
7.6060004 -2.7756307 2.3537362 0
7.5980005 -2.7855842 2.3515718 0
7.5890002 -2.7951262 2.3491364 0
7.5810003 -2.8050203 2.346972 0
7.5730004 -2.8148854 2.3448074 0
7.5640006 -2.8243337 2.3423724 0
7.6750007 -2.6967866 2.3592832 0
7.6660004 -2.7066135 2.356864 0
7.6580005 -2.7167761 2.3547139 0
7.6490006 -2.7265403 2.3522952 0
7.6400003 -2.7362719 2.3498762 0
7.6320004 -2.7463441 2.3477259 0
7.6230006 -2.7560127 2.3453071 0
7.6150002 -2.7660255 2.3431571 0
7.6060004 -2.7756307 2.3407381 0
7.5980005 -2.7855842 2.338588 0
7.5890002 -2.7951262 2.336169 0
7.5810003 -2.8050203 2.3340187 0
7.5730004 -2.8148854 2.3318689 0
7.5640006 -2.8243337 2.3294499 0
7.6750007 -2.6967866 2.3461604 0
7.6660004 -2.7066135 2.3437576 0
7.6580005 -2.7167761 2.3416219 0
7.6490006 -2.7265403 2.3392193 0
7.6400003 -2.7362719 2.3368165 0
7.6320004 -2.7463441 2.3346808 0
7.6230006 -2.7560127 2.3322783 0
7.6150002 -2.7660255 2.3301425 0
7.6060004 -2.7756307 2.3277397 0
7.5980005 -2.7855842 2.3256042 0
7.5890002 -2.7951262 2.3232014 0
7.5810003 -2.8050203 2.3210659 0
7.5730004 -2.8148854 2.3189299 0
7.5640006 -2.8243337 2.3165274 0
7.6750007 -2.6967866 2.3330376 0
7.6660004 -2.7066135 2.3306513 0
7.6580005 -2.7167761 2.3285298 0
7.6490006 -2.7265403 2.3261435 0
7.6400003 -2.7362719 2.3237569 0
7.6320004 -2.7463441 2.3216357 0
7.6230006 -2.7560127 2.3192494 0
7.6150002 -2.7660255 2.3171279 0
7.6060004 -2.7756307 2.3147416 0
7.5980005 -2.7855842 2.3126204 0
7.5890002 -2.7951262 2.3102336 0
7.5810003 -2.8050203 2.3081126 0
7.5730004 -2.8148854 2.3059912 0
7.5640006 -2.8243337 2.3036048 0
7.6750007 -2.6967866 2.3199148 0
7.6660004 -2.7066135 2.3175447 0
7.6580005 -2.7167761 2.315438 0
7.6490006 -2.7265403 2.3130677 0
7.6400003 -2.7362719 2.3106973 0
7.6320004 -2.7463441 2.3085907 0
7.6230006 -2.7560127 2.3062205 0
7.6150002 -2.7660255 2.3041134 0
7.6060004 -2.7756307 2.3017433 0
7.5980005 -2.7855842 2.2996366 0
7.5890002 -2.7951262 2.2972662 0
7.5810003 -2.8050203 2.2951593 0
7.5730004 -2.8148854 2.2930527 0
7.5640006 -2.8243337 2.2906826 0
7.6750007 -2.6967866 2.3067923 0
7.6660004 -2.7066135 2.3044384 0
7.6580005 -2.7167761 2.3023458 0
7.6490006 -2.7265403 2.2999918 0
7.6400003 -2.7362719 2.2976379 0
7.6320004 -2.7463441 2.2955453 0
7.6230006 -2.7560127 2.2931914 0
7.6150002 -2.7660255 2.2910991 0
7.6060004 -2.7756307 2.2887449 0
7.5980005 -2.7855842 2.2866528 0
7.5890002 -2.7951262 2.2842987 0
7.5810003 -2.8050203 2.2822063 0
7.5730004 -2.8148854 2.2801139 0
7.5640006 -2.8243337 2.2777598 0
7.6750007 -2.6967866 2.2936695 0
7.6660004 -2.7066135 2.2913318 0
7.6580005 -2.7167761 2.289254 0
7.6490006 -2.7265403 2.286916 0
7.6400003 -2.7362719 2.2845783 0
7.6320004 -2.7463441 2.2825003 0
7.6230006 -2.7560127 2.2801626 0
7.6150002 -2.7660255 2.2780845 0
7.6060004 -2.7756307 2.2757468 0
7.5980005 -2.7855842 2.273669 0
7.5890002 -2.7951262 2.2713311 0
7.5810003 -2.8050203 2.2692533 0
7.5730004 -2.8148854 2.2671752 0
7.5640006 -2.8243337 2.2648375 0
7.6750007 -2.6967866 2.2805469 0
7.6660004 -2.7066135 2.2782254 0
7.6580005 -2.7167761 2.2761617 0
7.6490006 -2.7265403 2.2738402 0
7.6400003 -2.7362719 2.2715187 0
7.6320004 -2.7463441 2.2694552 0
7.6230006 -2.7560127 2.2671337 0
7.6150002 -2.7660255 2.26507 0
7.6060004 -2.7756307 2.2627485 0
7.5980005 -2.7855842 2.2606852 0
7.5890002 -2.7951262 2.2583635 0
7.5810003 -2.8050203 2.2563 0
7.5730004 -2.8148854 2.2542365 0
7.5640006 -2.8243337 2.251915 0
7.6750007 -2.6967866 2.2674241 0
7.6660004 -2.7066135 2.2651188 0
7.6580005 -2.7167761 2.2630699 0
7.6490006 -2.7265403 2.2607644 0
7.6400003 -2.7362719 2.2584591 0
7.6320004 -2.7463441 2.2564101 0
7.6230006 -2.7560127 2.2541046 0
7.6150002 -2.7660255 2.2520556 0
7.6060004 -2.7756307 2.2497504 0
7.5980005 -2.7855842 2.2477014 0
7.5890002 -2.7951262 2.2453959 0
7.5810003 -2.8050203 2.2433467 0
7.5730004 -2.8148854 2.2412977 0
7.5640006 -2.8243337 2.2389925 0
7.6750007 -2.6967866 2.2543013 0
7.6660004 -2.7066135 2.2520123 0
7.6580005 -2.7167761 2.2499776 0
7.6490006 -2.7265403 2.2476888 0
7.6400003 -2.7362719 2.2453995 0
7.6320004 -2.7463441 2.2433648 0
7.6230006 -2.7560127 2.2410758 0
7.6150002 -2.7660255 2.2390411 0
7.6060004 -2.7756307 2.236752 0
7.5980005 -2.7855842 2.2347176 0
7.5890002 -2.7951262 2.2324283 0
7.5810003 -2.8050203 2.2303936 0
7.5730004 -2.8148854 2.228359 0
7.5640006 -2.8243337 2.2260699 0
7.6750007 -2.6967866 2.2411788 0
7.6660004 -2.7066135 2.2389059 0
7.6580005 -2.7167761 2.2368855 0
7.6490006 -2.7265403 2.2346129 0
7.6400003 -2.7362719 2.2323401 0
7.6320004 -2.7463441 2.2303197 0
7.6230006 -2.7560127 2.2280471 0
7.6150002 -2.7660255 2.2260268 0
7.6060004 -2.7756307 2.2237539 0
7.5980005 -2.7855842 2.2217336 0
7.5890002 -2.7951262 2.2194607 0
7.5810003 -2.8050203 2.2174406 0
7.5730004 -2.8148854 2.2154202 0
7.5640006 -2.8243337 2.2131476 0
7.6750007 -2.6967866 2.228056 0
7.6660004 -2.7066135 2.2257993 0
7.6580005 -2.7167761 2.2237935 0
7.6490006 -2.7265403 2.2215371 0
7.6400003 -2.7362719 2.2192805 0
7.6320004 -2.7463441 2.2172747 0
7.6230006 -2.7560127 2.215018 0
7.6150002 -2.7660255 2.2130122 0
7.6060004 -2.7756307 2.2107556 0
7.5980005 -2.7855842 2.2087498 0
7.5890002 -2.7951262 2.2064931 0
7.5810003 -2.8050203 2.2044873 0
7.5730004 -2.8148854 2.2024815 0
7.5640006 -2.8243337 2.2002251 0
7.6750007 -2.6967866 2.2149334 0
7.6660004 -2.7066135 2.212693 0
7.6580005 -2.7167761 2.2107015 0
7.6490006 -2.7265403 2.2084613 0
7.6400003 -2.7362719 2.2062209 0
7.6320004 -2.7463441 2.2042294 0
7.6230006 -2.7560127 2.2019892 0
7.6150002 -2.7660255 2.1999977 0
7.6060004 -2.7756307 2.1977575 0
7.5980005 -2.7855842 2.195766 0
7.5890002 -2.7951262 2.1935256 0
7.5810003 -2.8050203 2.1915343 0
7.5730004 -2.8148854 2.1895428 0
7.5640006 -2.8243337 2.1873026 0
7.6750007 -2.6967866 2.2018106 0
7.6660004 -2.7066135 2.1995864 0
7.6580005 -2.7167761 2.1976094 0
7.6490006 -2.7265403 2.1953855 0
7.6400003 -2.7362719 2.1931612 0
7.6320004 -2.7463441 2.1911843 0
7.6230006 -2.7560127 2.1889603 0
7.6150002 -2.7660255 2.1869831 0
7.6060004 -2.7756307 2.1847591 0
7.5980005 -2.7855842 2.1827822 0
7.5890002 -2.7951262 2.180558 0
7.5810003 -2.8050203 2.1785812 0
7.5730004 -2.8148854 2.176604 0
7.5640006 -2.8243337 2.1743801 0
7.6750007 -2.6967866 2.1886878 0
7.6660004 -2.7066135 2.18648 0
7.6580005 -2.7167761 2.1845174 0
7.6490006 -2.7265403 2.1823096 0
7.6400003 -2.7362719 2.1801016 0
7.6320004 -2.7463441 2.1781392 0
7.6230006 -2.7560127 2.1759315 0
7.6150002 -2.7660255 2.1739688 0
7.6060004 -2.7756307 2.171761 0
7.5980005 -2.7855842 2.1697984 0
7.5890002 -2.7951262 2.1675904 0
7.5810003 -2.8050203 2.165628 0
7.5730004 -2.8148854 2.1636655 0
7.5640006 -2.8243337 2.1614575 0
7.6750007 -2.6967866 2.1755652 0
7.6660004 -2.7066135 2.1733735 0
7.6580005 -2.7167761 2.1714256 0
7.6490006 -2.7265403 2.1692338 0
7.6400003 -2.7362719 2.167042 0
7.6320004 -2.7463441 2.1650941 0
7.6230006 -2.7560127 2.1629024 0
7.6150002 -2.7660255 2.1609542 0
7.6060004 -2.7756307 2.1587627 0
7.5980005 -2.7855842 2.1568146 0
7.5890002 -2.7951262 2.1546228 0
7.5810003 -2.8050203 2.1526749 0
7.5730004 -2.8148854 2.1507268 0
7.5640006 -2.8243337 2.148535 0
7.6750007 -2.6967866 2.1624424 0
7.6660004 -2.7066135 2.1602671 0
7.6580005 -2.7167761 2.1583333 0
7.6490006 -2.7265403 2.156158 0
7.6400003 -2.7362719 2.1539826 0
7.6320004 -2.7463441 2.1520491 0
7.6230006 -2.7560127 2.1498735 0
7.6150002 -2.7660255 2.1479397 0
7.6060004 -2.7756307 2.1457644 0
7.5980005 -2.7855842 2.1438308 0
7.5890002 -2.7951262 2.1416552 0
7.5810003 -2.8050203 2.1397216 0
7.5730004 -2.8148854 2.1377881 0
7.5640006 -2.8243337 2.1356127 0
7.6750007 -2.6967866 2.1493199 0
7.6660004 -2.7066135 2.1471605 0
7.6580005 -2.7167761 2.1452413 0
7.6490006 -2.7265403 2.1430821 0
7.6400003 -2.7362719 2.140923 0
7.6320004 -2.7463441 2.1390038 0
7.6230006 -2.7560127 2.1368446 0
7.6150002 -2.7660255 2.1349254 0
7.6060004 -2.7756307 2.1327662 0
7.5980005 -2.7855842 2.130847 0
7.5890002 -2.7951262 2.1286876 0
7.5810003 -2.8050203 2.1267686 0
7.5730004 -2.8148854 2.1248493 0
7.5640006 -2.8243337 2.1226902 0
7.6750007 -2.6967866 2.1361971 0
7.6660004 -2.7066135 2.1340542 0
7.6580005 -2.7167761 2.1321492 0
7.6490006 -2.7265403 2.1300063 0
7.6400003 -2.7362719 2.1278634 0
7.6320004 -2.7463441 2.1259587 0
7.6230006 -2.7560127 2.1238158 0
7.6150002 -2.7660255 2.1219108 0
7.6060004 -2.7756307 2.1197679 0
7.5980005 -2.7855842 2.1178632 0
7.5890002 -2.7951262 2.11572 0
7.5810003 -2.8050203 2.1138153 0
7.5730004 -2.8148854 2.1119106 0
7.5640006 -2.8243337 2.1097677 0
7.6750007 -2.6967866 2.1230743 0
7.6660004 -2.7066135 2.1209476 0
7.6580005 -2.7167761 2.1190572 0
7.6490006 -2.7265403 2.1169307 0
7.6400003 -2.7362719 2.1148038 0
7.6320004 -2.7463441 2.1129134 0
7.6230006 -2.7560127 2.1107869 0
7.6150002 -2.7660255 2.1088965 0
7.6060004 -2.7756307 2.1067696 0
7.5980005 -2.7855842 2.1048794 0
7.5890002 -2.7951262 2.1027527 0
7.5810003 -2.8050203 2.1008623 0
7.5730004 -2.8148854 2.0989718 0
7.5640006 -2.8243337 2.0968451 0
7.6750007 -2.6967866 2.1099517 0
7.6660004 -2.7066135 2.107841 0
7.6580005 -2.7167761 2.1059651 0
7.6490006 -2.7265403 2.1038547 0
7.6400003 -2.7362719 2.1017442 0
7.6320004 -2.7463441 2.0998683 0
7.6230006 -2.7560127 2.0977578 0
7.6150002 -2.7660255 2.0958819 0
7.6060004 -2.7756307 2.0937715 0
7.5980005 -2.7855842 2.0918956 0
7.5890002 -2.7951262 2.0897849 0
7.5810003 -2.8050203 2.087909 0
7.5730004 -2.8148854 2.0860331 0
7.5640006 -2.8243337 2.0839226 0
7.6750007 -2.6967866 2.0968289 0
7.6660004 -2.7066135 2.0947347 0
7.6580005 -2.7167761 2.0928731 0
7.6490006 -2.7265403 2.0907791 0
7.6400003 -2.7362719 2.0886848 0
7.6320004 -2.7463441 2.0868232 0
7.6230006 -2.7560127 2.084729 0
7.6150002 -2.7660255 2.0828674 0
7.6060004 -2.7756307 2.0807731 0
7.5980005 -2.7855842 2.0789118 0
7.5890002 -2.7951262 2.0768175 0
7.5810003 -2.8050203 2.0749559 0
7.5730004 -2.8148854 2.0730944 0
7.5640006 -2.8243337 2.0710003 0
7.6750007 -2.6967866 2.0837064 0
7.6660004 -2.7066135 2.0816283 0
7.6580005 -2.7167761 2.0797811 0
7.6490006 -2.7265403 2.0777032 0
7.6400003 -2.7362719 2.0756252 0
7.6320004 -2.7463441 2.0737782 0
7.6230006 -2.7560127 2.0717001 0
7.6150002 -2.7660255 2.0698528 0
7.6060004 -2.7756307 2.067775 0
7.5980005 -2.7855842 2.065928 0
7.5890002 -2.7951262 2.0638499 0
7.5810003 -2.8050203 2.0620027 0
7.5730004 -2.8148854 2.0601556 0
7.5640006 -2.8243337 2.0580778 0
7.6750007 -2.6967866 2.0705836 0
7.6660004 -2.7066135 2.0685217 0
7.6580005 -2.7167761 2.066689 0
7.6490006 -2.7265403 2.0646274 0
7.6400003 -2.7362719 2.0625656 0
7.6320004 -2.7463441 2.0607328 0
7.6230006 -2.7560127 2.0586712 0
7.6150002 -2.7660255 2.0568385 0
7.6060004 -2.7756307 2.0547767 0
7.5980005 -2.7855842 2.0529442 0
7.5890002 -2.7951262 2.0508821 0
7.5810003 -2.8050203 2.0490496 0
7.5730004 -2.8148854 2.0472171 0
7.5640006 -2.8243337 2.0451553 0
7.6750007 -2.6967866 2.0574608 0
7.6660004 -2.7066135 2.0554154 0
7.6580005 -2.7167761 2.053597 0
7.6490006 -2.7265403 2.0515516 0
7.6400003 -2.7362719 2.0495059 0
7.6320004 -2.7463441 2.0476878 0
7.6230006 -2.7560127 2.0456424 0
7.6150002 -2.7660255 2.043824 0
7.6060004 -2.7756307 2.0417786 0
7.5980005 -2.7855842 2.0399604 0
7.5890002 -2.7951262 2.0379148 0
7.5810003 -2.8050203 2.0360966 0
7.5730004 -2.8148854 2.0342782 0
7.5640006 -2.8243337 2.0322328 0
7.6750007 -2.6967866 2.0443382 0
7.6660004 -2.7066135 2.0423088 0
7.6580005 -2.7167761 2.0405049 0
7.6490006 -2.7265403 2.0384758 0
7.6400003 -2.7362719 2.0364466 0
7.6320004 -2.7463441 2.0346427 0
7.6230006 -2.7560127 2.0326133 0
7.6150002 -2.7660255 2.0308094 0
7.6060004 -2.7756307 2.0287802 0
7.5980005 -2.7855842 2.0269766 0
7.5890002 -2.7951262 2.0249472 0
7.5810003 -2.8050203 2.0231433 0
7.5730004 -2.8148854 2.0213397 0
7.5640006 -2.8243337 2.0193102 0
7.6750007 -2.6967866 2.0312154 0
7.6660004 -2.7066135 2.0292022 0
7.6580005 -2.7167761 2.0274129 0
7.6490006 -2.7265403 2.0253999 0
7.6400003 -2.7362719 2.0233867 0
7.6320004 -2.7463441 2.0215976 0
7.6230006 -2.7560127 2.0195844 0
7.6150002 -2.7660255 2.0177951 0
7.6060004 -2.7756307 2.0157821 0
7.5980005 -2.7855842 2.0139925 0
7.5890002 -2.7951262 2.0119796 0
7.5810003 -2.8050203 2.0101902 0
7.5730004 -2.8148854 2.0084007 0
7.5640006 -2.8243337 2.0063877 0
7.6750007 -2.6967866 2.0180926 0
7.6660004 -2.7066135 2.0160959 0
7.6580005 -2.7167761 2.0143211 0
7.6490006 -2.7265403 2.0123241 0
7.6400003 -2.7362719 2.0103273 0
7.6320004 -2.7463441 2.0085523 0
7.6230006 -2.7560127 2.0065556 0
7.6150002 -2.7660255 2.0047805 0
7.6060004 -2.7756307 2.0027838 0
7.5980005 -2.7855842 2.0010087 0
7.5890002 -2.7951262 1.999012 0
7.5810003 -2.8050203 1.9972371 0
7.5730004 -2.8148854 1.9954622 0
7.5640006 -2.8243337 1.9934654 0
7.6750007 -2.6967866 2.0049701 0
7.6660004 -2.7066135 2.0029893 0
7.6580005 -2.7167761 2.001229 0
7.6490006 -2.7265403 1.9992484 0
7.6400003 -2.7362719 1.9972677 0
7.6320004 -2.7463441 1.9955072 0
7.6230006 -2.7560127 1.9935267 0
7.6150002 -2.7660255 1.9917662 0
7.6060004 -2.7756307 1.9897856 0
7.5980005 -2.7855842 1.9880251 0
7.5890002 -2.7951262 1.9860445 0
7.5810003 -2.8050203 1.9842839 0
7.5730004 -2.8148854 1.9825234 0
7.5640006 -2.8243337 1.9805429 0
7.6750007 -2.6967866 1.9918474 0
7.6660004 -2.7066135 1.9898829 0
7.6580005 -2.7167761 1.9881369 0
7.6490006 -2.7265403 1.9861727 0
7.6400003 -2.7362719 1.9842082 0
7.6320004 -2.7463441 1.982462 0
7.6230006 -2.7560127 1.9804978 0
7.6150002 -2.7660255 1.9787517 0
7.6060004 -2.7756307 1.9767873 0
7.5980005 -2.7855842 1.9750413 0
7.5890002 -2.7951262 1.9730768 0
7.5810003 -2.8050203 1.9713308 0
7.5730004 -2.8148854 1.9695847 0
7.5640006 -2.8243337 1.9676204 0
7.6750007 -2.6967866 1.9787247 0
7.6660004 -2.7066135 1.9767765 0
7.6580005 -2.7167761 1.9750448 0
7.6490006 -2.7265403 1.9730968 0
7.6400003 -2.7362719 1.9711486 0
7.6320004 -2.7463441 1.969417 0
7.6230006 -2.7560127 1.967469 0
7.6150002 -2.7660255 1.9657372 0
7.6060004 -2.7756307 1.9637891 0
7.5980005 -2.7855842 1.9620575 0
7.5890002 -2.7951262 1.9601092 0
7.5810003 -2.8050203 1.9583776 0
7.5730004 -2.8148854 1.956646 0
7.5640006 -2.8243337 1.954698 0
7.6750007 -2.6967866 1.965602 0
7.6660004 -2.7066135 1.96367 0
7.6580005 -2.7167761 1.9619528 0
7.6490006 -2.7265403 1.9600209 0
7.6400003 -2.7362719 1.9580891 0
7.6320004 -2.7463441 1.9563718 0
7.6230006 -2.7560127 1.95444 0
7.6150002 -2.7660255 1.9527227 0
7.6060004 -2.7756307 1.9507909 0
7.5980005 -2.7855842 1.9490737 0
7.5890002 -2.7951262 1.9471418 0
7.5810003 -2.8050203 1.9454244 0
7.5730004 -2.8148854 1.9437073 0
7.5640006 -2.8243337 1.9417754 0
7.6750007 -2.6967866 1.9524792 0
7.6660004 -2.7066135 1.9505637 0
7.6580005 -2.7167761 1.9488608 0
7.6490006 -2.7265403 1.9469452 0
7.6400003 -2.7362719 1.9450294 0
7.6320004 -2.7463441 1.9433267 0
7.6230006 -2.7560127 1.9414111 0
7.6150002 -2.7660255 1.9397082 0
7.6060004 -2.7756307 1.9377927 0
7.5980005 -2.7855842 1.9360899 0
7.5890002 -2.7951262 1.9341741 0
7.5810003 -2.8050203 1.9324714 0
7.5730004 -2.8148854 1.9307686 0
7.5640006 -2.8243337 1.9288529 0
7.6750007 -2.6967866 1.9393566 0
7.6660004 -2.7066135 1.9374571 0
7.6580005 -2.7167761 1.9357687 0
7.6490006 -2.7265403 1.9338694 0
7.6400003 -2.7362719 1.9319699 0
7.6320004 -2.7463441 1.9302815 0
7.6230006 -2.7560127 1.9283822 0
7.6150002 -2.7660255 1.9266938 0
7.6060004 -2.7756307 1.9247944 0
7.5980005 -2.7855842 1.9231061 0
7.5890002 -2.7951262 1.9212066 0
7.5810003 -2.8050203 1.9195181 0
7.5730004 -2.8148854 1.9178299 0
7.5640006 -2.8243337 1.9159305 0
7.6750007 -2.6967866 1.9262339 0
7.6660004 -2.7066135 1.9243506 0
7.6580005 -2.7167761 1.9226767 0
7.6490006 -2.7265403 1.9207935 0
7.6400003 -2.7362719 1.9189104 0
7.6320004 -2.7463441 1.9172364 0
7.6230006 -2.7560127 1.9153533 0
7.6150002 -2.7660255 1.9136792 0
7.6060004 -2.7756307 1.9117962 0
7.5980005 -2.7855842 1.9101223 0
7.5890002 -2.7951262 1.908239 0
7.5810003 -2.8050203 1.9065651 0
7.5730004 -2.8148854 1.9048911 0
7.5640006 -2.8243337 1.903008 0
7.6750007 -2.6967866 1.9131111 0
7.6660004 -2.7066135 1.9112442 0
7.6580005 -2.7167761 1.9095846 0
7.6490006 -2.7265403 1.9077178 0
7.6400003 -2.7362719 1.9058508 0
7.6320004 -2.7463441 1.9041913 0
7.6230006 -2.7560127 1.9023244 0
7.6150002 -2.7660255 1.9006648 0
7.6060004 -2.7756307 1.898798 0
7.5980005 -2.7855842 1.8971384 0
7.5890002 -2.7951262 1.8952713 0
7.5810003 -2.8050203 1.8936119 0
7.5730004 -2.8148854 1.8919524 0
7.5640006 -2.8243337 1.8900855 0
7.6750007 -2.6967866 1.8999884 0
7.6660004 -2.7066135 1.8981377 0
7.6580005 -2.7167761 1.8964926 0
7.6490006 -2.7265403 1.8946419 0
7.6400003 -2.7362719 1.8927913 0
7.6320004 -2.7463441 1.8911462 0
7.6230006 -2.7560127 1.8892955 0
7.6150002 -2.7660255 1.8876503 0
7.6060004 -2.7756307 1.8857996 0
7.5980005 -2.7855842 1.8841546 0
7.5890002 -2.7951262 1.8823038 0
7.5810003 -2.8050203 1.8806587 0
7.5730004 -2.8148854 1.8790138 0
7.5640006 -2.8243337 1.8771631 0
7.6750007 -2.6967866 1.8868657 0
7.6660004 -2.7066135 1.8850312 0
7.6580005 -2.7167761 1.8834006 0
7.6490006 -2.7265403 1.8815662 0
7.6400003 -2.7362719 1.8797317 0
7.6320004 -2.7463441 1.878101 0
7.6230006 -2.7560127 1.8762665 0
7.6150002 -2.7660255 1.8746359 0
7.6060004 -2.7756307 1.8728013 0
7.5980005 -2.7855842 1.8711708 0
7.5890002 -2.7951262 1.8693362 0
7.5810003 -2.8050203 1.8677056 0
7.5730004 -2.8148854 1.8660749 0
7.5640006 -2.8243337 1.8642405 0
7.6750007 -2.6967866 1.8737431 0
7.6660004 -2.7066135 1.8719248 0
7.6580005 -2.7167761 1.8703085 0
7.6490006 -2.7265403 1.8684903 0
7.6400003 -2.7362719 1.866672 0
7.6320004 -2.7463441 1.8650558 0
7.6230006 -2.7560127 1.8632376 0
7.6150002 -2.7660255 1.8616214 0
7.6060004 -2.7756307 1.8598031 0
7.5980005 -2.7855842 1.858187 0
7.5890002 -2.7951262 1.8563687 0
7.5810003 -2.8050203 1.8547525 0
7.5730004 -2.8148854 1.8531363 0
7.5640006 -2.8243337 1.851318 0
7.6750007 -2.6967866 1.8606204 0
7.6660004 -2.7066135 1.8588182 0
7.6580005 -2.7167761 1.8572166 0
7.6490006 -2.7265403 1.8554145 0
7.6400003 -2.7362719 1.8536124 0
7.6320004 -2.7463441 1.8520106 0
7.6230006 -2.7560127 1.8502088 0
7.6150002 -2.7660255 1.8486068 0
7.6060004 -2.7756307 1.8468049 0
7.5980005 -2.7855842 1.8452032 0
7.5890002 -2.7951262 1.8434011 0
7.5810003 -2.8050203 1.8417993 0
7.5730004 -2.8148854 1.8401976 0
7.5640006 -2.8243337 1.8383956 0
7.6750007 -2.6967866 1.8474976 0
7.6660004 -2.7066135 1.8457117 0
7.6580005 -2.7167761 1.8441246 0
7.6490006 -2.7265403 1.8423388 0
7.6400003 -2.7362719 1.8405529 0
7.6320004 -2.7463441 1.8389655 0
7.6230006 -2.7560127 1.8371798 0
7.6150002 -2.7660255 1.8355924 0
7.6060004 -2.7756307 1.8338066 0
7.5980005 -2.7855842 1.8322194 0
7.5890002 -2.7951262 1.8304336 0
7.5810003 -2.8050203 1.8288462 0
7.5730004 -2.8148854 1.8272588 0
7.5640006 -2.8243337 1.8254731 0
7.6750007 -2.6967866 1.8343749 0
7.6660004 -2.7066135 1.8326054 0
7.6580005 -2.7167761 1.8310325 0
7.6490006 -2.7265403 1.8292629 0
7.6400003 -2.7362719 1.8274933 0
7.6320004 -2.7463441 1.8259205 0
7.6230006 -2.7560127 1.8241509 0
7.6150002 -2.7660255 1.822578 0
7.6060004 -2.7756307 1.8208084 0
7.5980005 -2.7855842 1.8192356 0
7.5890002 -2.7951262 1.8174659 0
7.5810003 -2.8050203 1.8158931 0
7.5730004 -2.8148854 1.8143202 0
7.5640006 -2.8243337 1.8125505 0
7.6750007 -2.6967866 1.8212522 0
7.6660004 -2.7066135 1.8194989 0
7.6580005 -2.7167761 1.8179404 0
7.6490006 -2.7265403 1.8161871 0
7.6400003 -2.7362719 1.8144338 0
7.6320004 -2.7463441 1.8128753 0
7.6230006 -2.7560127 1.8111221 0
7.6150002 -2.7660255 1.8095635 0
7.6060004 -2.7756307 1.8078102 0
7.5980005 -2.7855842 1.8062516 0
7.5890002 -2.7951262 1.8044983 0
7.5810003 -2.8050203 1.8029399 0
7.5730004 -2.8148854 1.8013813 0
7.5640006 -2.8243337 1.7996281 0
7.6750007 -2.6967866 1.8081294 0
7.6660004 -2.7066135 1.8063924 0
7.6580005 -2.7167761 1.8048483 0
7.6490006 -2.7265403 1.8031113 0
7.6400003 -2.7362719 1.8013742 0
7.6320004 -2.7463441 1.7998302 0
7.6230006 -2.7560127 1.7980932 0
7.6150002 -2.7660255 1.796549 0
7.6060004 -2.7756307 1.794812 0
7.5980005 -2.7855842 1.7932678 0
7.5890002 -2.7951262 1.7915308 0
7.5810003 -2.8050203 1.7899867 0
7.5730004 -2.8148854 1.7884427 0
7.5640006 -2.8243337 1.7867056 0
7.6750007 -2.6967866 1.7950069 0
7.6660004 -2.7066135 1.793286 0
7.6580005 -2.7167761 1.7917563 0
7.6490006 -2.7265403 1.7900355 0
7.6400003 -2.7362719 1.7883146 0
7.6320004 -2.7463441 1.786785 0
7.6230006 -2.7560127 1.7850642 0
7.6150002 -2.7660255 1.7835345 0
7.6060004 -2.7756307 1.7818137 0
7.5980005 -2.7855842 1.780284 0
7.5890002 -2.7951262 1.7785631 0
7.5810003 -2.8050203 1.7770336 0
7.5730004 -2.8148854 1.775504 0
7.5640006 -2.8243337 1.7737832 0
7.6750007 -2.6967866 1.7818841 0
7.6660004 -2.7066135 1.7801795 0
7.6580005 -2.7167761 1.7786642 0
7.6490006 -2.7265403 1.7769598 0
7.6400003 -2.7362719 1.775255 0
7.6320004 -2.7463441 1.7737399 0
7.6230006 -2.7560127 1.7720352 0
7.6150002 -2.7660255 1.77052 0
7.6060004 -2.7756307 1.7688154 0
7.5980005 -2.7855842 1.7673002 0
7.5890002 -2.7951262 1.7655957 0
7.5810003 -2.8050203 1.7640804 0
7.5730004 -2.8148854 1.7625653 0
7.5640006 -2.8243337 1.7608607 0
7.6750007 -2.6967866 1.7687614 0
7.6660004 -2.7066135 1.7670729 0
7.6580005 -2.7167761 1.7655722 0
7.6490006 -2.7265403 1.7638839 0
7.6400003 -2.7362719 1.7621955 0
7.6320004 -2.7463441 1.7606947 0
7.6230006 -2.7560127 1.7590064 0
7.6150002 -2.7660255 1.7575055 0
7.6060004 -2.7756307 1.7558172 0
7.5980005 -2.7855842 1.7543164 0
7.5890002 -2.7951262 1.7526281 0
7.5810003 -2.8050203 1.7511274 0
7.5730004 -2.8148854 1.7496266 0
7.5640006 -2.8243337 1.7479382 0
7.6750007 -2.6967866 1.7556387 0
7.6660004 -2.7066135 1.7539665 0
7.6580005 -2.7167761 1.7524801 0
7.6490006 -2.7265403 1.750808 0
7.6400003 -2.7362719 1.749136 0
7.6320004 -2.7463441 1.7476497 0
7.6230006 -2.7560127 1.7459775 0
7.6150002 -2.7660255 1.7444911 0
7.6060004 -2.7756307 1.742819 0
7.5980005 -2.7855842 1.7413327 0
7.5890002 -2.7951262 1.7396605 0
7.5810003 -2.8050203 1.7381741 0
7.5730004 -2.8148854 1.7366878 0
7.5640006 -2.8243337 1.7350157 0
7.6750007 -2.6967866 1.7425159 0
7.6660004 -2.7066135 1.74086 0
7.6580005 -2.7167761 1.7393881 0
7.6490006 -2.7265403 1.7377323 0
7.6400003 -2.7362719 1.7360764 0
7.6320004 -2.7463441 1.7346045 0
7.6230006 -2.7560127 1.7329485 0
7.6150002 -2.7660255 1.7314765 0
7.6060004 -2.7756307 1.7298207 0
7.5980005 -2.7855842 1.7283489 0
7.5890002 -2.7951262 1.7266929 0
7.5810003 -2.8050203 1.725221 0
7.5730004 -2.8148854 1.7237492 0
7.5640006 -2.8243337 1.7220932 0
7.6750007 -2.6967866 1.7293934 0
7.6660004 -2.7066135 1.7277535 0
7.6580005 -2.7167761 1.7262961 0
7.6490006 -2.7265403 1.7246565 0
7.6400003 -2.7362719 1.7230169 0
7.6320004 -2.7463441 1.7215593 0
7.6230006 -2.7560127 1.7199197 0
7.6150002 -2.7660255 1.7184621 0
7.6060004 -2.7756307 1.7168225 0
7.5980005 -2.7855842 1.7153651 0
7.5890002 -2.7951262 1.7137253 0
7.5810003 -2.8050203 1.7122679 0
7.5730004 -2.8148854 1.7108104 0
7.5640006 -2.8243337 1.7091707 0
7.6750007 -2.6967866 1.7162706 0
7.6660004 -2.7066135 1.7146471 0
7.6580005 -2.7167761 1.713204 0
7.6490006 -2.7265403 1.7115806 0
7.6400003 -2.7362719 1.7099571 0
7.6320004 -2.7463441 1.7085141 0
7.6230006 -2.7560127 1.7068907 0
7.6150002 -2.7660255 1.7054477 0
7.6060004 -2.7756307 1.7038243 0
7.5980005 -2.7855842 1.7023813 0
7.5890002 -2.7951262 1.7007577 0
7.5810003 -2.8050203 1.6993147 0
7.5730004 -2.8148854 1.6978717 0
7.5640006 -2.8243337 1.6962483 0
7.6750007 -2.6967866 1.7031479 0
7.6660004 -2.7066135 1.7015407 0
7.6580005 -2.7167761 1.7001121 0
7.6490006 -2.7265403 1.6985049 0
7.6400003 -2.7362719 1.6968976 0
7.6320004 -2.7463441 1.695469 0
7.6230006 -2.7560127 1.6938618 0
7.6150002 -2.7660255 1.6924332 0
7.6060004 -2.7756307 1.6908261 0
7.5980005 -2.7855842 1.6893975 0
7.5890002 -2.7951262 1.6877902 0
7.5810003 -2.8050203 1.6863616 0
7.5730004 -2.8148854 1.6849329 0
7.5640006 -2.8243337 1.6833258 0
7.6750007 -2.6967866 1.6900252 0
7.6660004 -2.7066135 1.6884342 0
7.6580005 -2.7167761 1.6870201 0
7.6490006 -2.7265403 1.685429 0
7.6400003 -2.7362719 1.683838 0
7.6320004 -2.7463441 1.6824238 0
7.6230006 -2.7560127 1.680833 0
7.6150002 -2.7660255 1.6794187 0
7.6060004 -2.7756307 1.6778278 0
7.5980005 -2.7855842 1.6764137 0
7.5890002 -2.7951262 1.6748226 0
7.5810003 -2.8050203 1.6734084 0
7.5730004 -2.8148854 1.6719943 0
7.5640006 -2.8243337 1.6704032 0
7.6750007 -2.6967866 1.6769024 0
7.6660004 -2.7066135 1.6753277 0
7.6580005 -2.7167761 1.673928 0
7.6490006 -2.7265403 1.6723533 0
7.6400003 -2.7362719 1.6707785 0
7.6320004 -2.7463441 1.6693788 0
7.6230006 -2.7560127 1.667804 0
7.6150002 -2.7660255 1.6664042 0
7.6060004 -2.7756307 1.6648296 0
7.5980005 -2.7855842 1.6634299 0
7.5890002 -2.7951262 1.661855 0
7.5810003 -2.8050203 1.6604552 0
7.5730004 -2.8148854 1.6590555 0
7.5640006 -2.8243337 1.6574808 0
7.6750007 -2.6967866 1.6637797 0
7.6660004 -2.7066135 1.6622212 0
7.6580005 -2.7167761 1.660836 0
7.6490006 -2.7265403 1.6592774 0
7.6400003 -2.7362719 1.6577189 0
7.6320004 -2.7463441 1.6563336 0
7.6230006 -2.7560127 1.6547751 0
7.6150002 -2.7660255 1.6533897 0
7.6060004 -2.7756307 1.6518313 0
7.5980005 -2.7855842 1.6504461 0
7.5890002 -2.7951262 1.6488875 0
7.5810003 -2.8050203 1.6475022 0
7.5730004 -2.8148854 1.6461169 0
7.5640006 -2.8243337 1.6445583 0
7.6750007 -2.6967866 1.6506571 0
7.6660004 -2.7066135 1.6491147 0
7.6580005 -2.7167761 1.6477438 0
7.6490006 -2.7265403 1.6462016 0
7.6400003 -2.7362719 1.6446594 0
7.6320004 -2.7463441 1.6432885 0
7.6230006 -2.7560127 1.6417463 0
7.6150002 -2.7660255 1.6403753 0
7.6060004 -2.7756307 1.638833 0
7.5980005 -2.7855842 1.6374621 0
7.5890002 -2.7951262 1.6359198 0
7.5810003 -2.8050203 1.6345489 0
7.5730004 -2.8148854 1.6331781 0
7.5640006 -2.8243337 1.6316359 0
7.6750007 -2.6967866 1.6375343 0
7.6660004 -2.7066135 1.6360083 0
7.6580005 -2.7167761 1.6346518 0
7.6490006 -2.7265403 1.6331259 0
7.6400003 -2.7362719 1.6315997 0
7.6320004 -2.7463441 1.6302433 0
7.6230006 -2.7560127 1.6287173 0
7.6150002 -2.7660255 1.6273608 0
7.6060004 -2.7756307 1.6258348 0
7.5980005 -2.7855842 1.6244783 0
7.5890002 -2.7951262 1.6229522 0
7.5810003 -2.8050203 1.6215959 0
7.5730004 -2.8148854 1.6202394 0
7.5640006 -2.8243337 1.6187135 0
7.6750007 -2.6967866 1.6244117 0
7.6660004 -2.7066135 1.6229018 0
7.6580005 -2.7167761 1.6215597 0
7.6490006 -2.7265403 1.62005 0
7.6400003 -2.7362719 1.6185402 0
7.6320004 -2.7463441 1.6171982 0
7.6230006 -2.7560127 1.6156884 0
7.6150002 -2.7660255 1.6143463 0
7.6060004 -2.7756307 1.6128366 0
7.5980005 -2.7855842 1.6114945 0
7.5890002 -2.7951262 1.6099848 0
7.5810003 -2.8050203 1.6086427 0
7.5730004 -2.8148854 1.6073008 0
7.5640006 -2.8243337 1.605791 0
7.6660004 -2.7066135 1.6097953 0
7.6580005 -2.7167761 1.6084677 0
7.6490006 -2.7265403 1.6069742 0
7.6400003 -2.7362719 1.6054806 0
7.6320004 -2.7463441 1.604153 0
7.6230006 -2.7560127 1.6026595 0
7.6150002 -2.7660255 1.6013318 0
7.6060004 -2.7756307 1.5998383 0
7.5980005 -2.7855842 1.5985107 0
7.5890002 -2.7951262 1.597017 0
7.5810003 -2.8050203 1.5956895 0
7.5730004 -2.8148854 1.5943619 0
7.5640006 -2.8243337 1.5928684 0
7.6490006 -2.7265403 1.5938984 0
7.6400003 -2.7362719 1.5924211 0
7.6320004 -2.7463441 1.591108 0
7.6230006 -2.7560127 1.5896306 0
7.6150002 -2.7660255 1.5883174 0
7.6060004 -2.7756307 1.58684 0
7.5980005 -2.7855842 1.5855269 0
7.5890002 -2.7951262 1.5840496 0
7.5810003 -2.8050203 1.5827364 0
7.5730004 -2.8148854 1.5814233 0
7.5640006 -2.8243337 1.579946 0
7.6320004 -2.7463441 1.5780627 0
7.6230006 -2.7560127 1.5766017 0
7.6150002 -2.7660255 1.575303 0
7.6060004 -2.7756307 1.5738418 0
7.5980005 -2.7855842 1.5725431 0
7.5890002 -2.7951262 1.571082 0
7.5810003 -2.8050203 1.5697833 0
7.5730004 -2.8148854 1.5684844 0
7.5640006 -2.8243337 1.5670235 0
7.6230006 -2.7560127 1.5635728 0
7.6150002 -2.7660255 1.5622884 0
7.6060004 -2.7756307 1.5608436 0
7.5980005 -2.7855842 1.5595592 0
7.5890002 -2.7951262 1.5581143 0
7.5810003 -2.8050203 1.55683 0
7.5730004 -2.8148854 1.5555458 0
7.5640006 -2.8243337 1.554101 0
7.6150002 -2.7660255 1.549274 0
7.6060004 -2.7756307 1.5478454 0
7.5980005 -2.7855842 1.5465754 0
7.5890002 -2.7951262 1.5451468 0
7.5810003 -2.8050203 1.543877 0
7.5730004 -2.8148854 1.5426071 0
7.5640006 -2.8243337 1.5411786 0
7.6060004 -2.7756307 1.5348471 0
7.5980005 -2.7855842 1.5335916 0
7.5890002 -2.7951262 1.5321792 0
7.5810003 -2.8050203 1.5309238 0
7.5730004 -2.8148854 1.5296683 0
7.5640006 -2.8243337 1.5282561 0
7.5980005 -2.7855842 1.5206078 0
7.5890002 -2.7951262 1.5192116 0
7.5810003 -2.8050203 1.5179707 0
7.5730004 -2.8148854 1.5167297 0
7.5640006 -2.8243337 1.5153335 0
7.5890002 -2.7951262 1.5062441 0
7.5810003 -2.8050203 1.5050175 0
7.5730004 -2.8148854 1.503791 0
7.5640006 -2.8243337 1.5024111 0
7.5810003 -2.8050203 1.4920644 0
7.5730004 -2.8148854 1.4908522 0
7.5640006 -2.8243337 1.4894886 0
7.5810003 -2.8050203 1.4791112 0
7.5730004 -2.8148854 1.4779135 0
7.5640006 -2.8243337 1.4765661 0
7.5730004 -2.8148854 1.4649748 0
7.5640006 -2.8243337 1.4636437 0
7.5730004 -2.8148854 1.452036 0
7.5640006 -2.8243337 1.4507211 0
7.5640006 -2.8243337 1.4377986 0
7.5640006 -2.8243337 1.4248762 0
7.5640006 -2.8243337 1.3214962 0
7.5640006 -2.8243337 1.3085738 0
7.5640006 -2.8243337 1.2956513 0
7.5730004 -2.8148854 1.2838328 0
7.5640006 -2.8243337 1.2827288 0
7.5730004 -2.8148854 1.2708941 0
7.5640006 -2.8243337 1.2698064 0
7.5810003 -2.8050203 1.2589077 0
7.5730004 -2.8148854 1.2579553 0
7.5640006 -2.8243337 1.2568839 0
7.5810003 -2.8050203 1.2459545 0
7.5730004 -2.8148854 1.2450166 0
7.5640006 -2.8243337 1.2439613 0
7.5890002 -2.7951262 1.233925 0
7.5810003 -2.8050203 1.2330014 0
7.5730004 -2.8148854 1.2320778 0
7.5640006 -2.8243337 1.2310389 0
7.5890002 -2.7951262 1.2209574 0
7.5810003 -2.8050203 1.2200483 0
7.5730004 -2.8148854 1.2191391 0
7.5640006 -2.8243337 1.2181164 0
7.5980005 -2.7855842 1.2089963 0
7.5890002 -2.7951262 1.2079898 0
7.5810003 -2.8050203 1.2070951 0
7.5730004 -2.8148854 1.2062004 0
7.5640006 -2.8243337 1.2051939 0
7.6060004 -2.7756307 1.1968927 0
7.5980005 -2.7855842 1.1960125 0
7.5890002 -2.7951262 1.1950222 0
7.5810003 -2.8050203 1.194142 0
7.5730004 -2.8148854 1.1932617 0
7.5640006 -2.8243337 1.1922715 0
7.6150002 -2.7660255 1.1848686 0
7.6060004 -2.7756307 1.1838945 0
7.5980005 -2.7855842 1.1830287 0
7.5890002 -2.7951262 1.1820546 0
7.5810003 -2.8050203 1.1811888 0
7.5730004 -2.8148854 1.180323 0
7.5640006 -2.8243337 1.1793489 0
7.6230006 -2.7560127 1.1727055 0
7.6150002 -2.7660255 1.1718541 0
7.6060004 -2.7756307 1.1708963 0
7.5980005 -2.7855842 1.1700449 0
7.5890002 -2.7951262 1.1690871 0
7.5810003 -2.8050203 1.1682357 0
7.5730004 -2.8148854 1.1673843 0
7.5640006 -2.8243337 1.1664264 0
7.6230006 -2.7560127 1.1596767 0
7.6150002 -2.7660255 1.1588396 0
7.6060004 -2.7756307 1.1578981 0
7.5980005 -2.7855842 1.1570611 0
7.5890002 -2.7951262 1.1561195 0
7.5810003 -2.8050203 1.1552825 0
7.5730004 -2.8148854 1.1544455 0
7.5640006 -2.8243337 1.153504 0
7.6230006 -2.7560127 1.1466477 0
7.6150002 -2.7660255 1.1458251 0
7.6060004 -2.7756307 1.1448998 0
7.5980005 -2.7855842 1.1440773 0
7.5890002 -2.7951262 1.1431519 0
7.5810003 -2.8050203 1.1423293 0
7.6230006 -2.7560127 1.1336188 0
7.6150002 -2.7660255 1.1328107 0
7.6060004 -2.7756307 1.1319015 0
7.6230006 -2.7560127 1.1205899 0
7.6150002 -2.7660255 1.1197962 0
7.6150002 -2.7660255 1.1067817 0
