# .PCD v0.7 - Point Cloud Data file format
VERSION 0.7
FIELDS x y z intensity
SIZE 4 4 4 4
TYPE F F F F
COUNT 1 1 1 1
WIDTH 1455
HEIGHT 1
VIEWPOINT 0 0 0 1 0 0 0
POINTS 1455
DATA ascii
3.3280003 -1.5195526 1.4761548 0
3.3230002 -1.5223087 1.4743239 0
3.3180003 -1.5250471 1.4724932 0
3.3130002 -1.5277671 1.4706622 0
3.3080003 -1.5304693 1.4688313 0
3.3040001 -1.5336655 1.4673666 0
3.2990003 -1.5363334 1.4655358 0
3.2940001 -1.5389832 1.4637048 0
3.2890003 -1.541615 1.4618741 0
3.2850003 -1.5447482 1.4604094 0
3.2800002 -1.5473456 1.4585785 0
3.2750003 -1.5499252 1.4567477 0
3.2700002 -1.5524865 1.4549168 0
3.2660003 -1.5555567 1.4534521 0
3.2610002 -1.5580837 1.4516212 0
3.2560003 -1.5605929 1.4497904 0
3.2520003 -1.5636162 1.4483256 0
3.2470002 -1.5660908 1.4464948 0
3.2430003 -1.5690833 1.4450301 0
3.2380002 -1.5715238 1.4431992 0
3.2330003 -1.5739465 1.4413685 0
3.2290003 -1.5768921 1.4399037 0
3.2240002 -1.5792803 1.4380728 0
3.2200003 -1.5821953 1.4366081 0
3.2150002 -1.5845492 1.4347773 0
3.2110002 -1.5874335 1.4333125 0
3.2060003 -1.5897533 1.4314817 0
3.2020001 -1.5926068 1.430017 0
3.1970003 -1.5948923 1.4281861 0
3.1930003 -1.5977153 1.4267215 0
3.1880002 -1.5999663 1.4248906 0
3.1840003 -1.6027586 1.4234259 0
3.1800003 -1.6055366 1.4219612 0
3.1750002 -1.6077372 1.4201303 0
3.1710002 -1.6104844 1.4186655 0
3.1660001 -1.6126506 1.4168347 0
3.1620002 -1.6153673 1.4153701 0
3.1580002 -1.6180693 1.4139054 0
3.3520002 -1.5050067 1.4796181 0
3.3480003 -1.5083474 1.4781606 0
3.3430002 -1.5111756 1.4763387 0
3.3380003 -1.5139861 1.4745169 0
3.3330002 -1.5167783 1.472695 0
3.3280003 -1.5195526 1.4708732 0
3.3230002 -1.5223087 1.4690515 0
3.3180003 -1.5250471 1.4672296 0
3.3130002 -1.5277671 1.4654077 0
3.3080003 -1.5304693 1.463586 0
3.3040001 -1.5336655 1.4621284 0
3.2990003 -1.5363334 1.4603065 0
3.2940001 -1.5389832 1.4584846 0
3.2890003 -1.541615 1.4566629 0
3.2850003 -1.5447482 1.4552053 0
3.2800002 -1.5473456 1.4533834 0
3.2750003 -1.5499252 1.4515617 0
3.2700002 -1.5524865 1.4497398 0
3.2660003 -1.5555567 1.4482824 0
3.2610002 -1.5580837 1.4464605 0
3.2560003 -1.5605929 1.4446387 0
3.2520003 -1.5636162 1.4431813 0
3.2470002 -1.5660908 1.4413593 0
3.2430003 -1.5690833 1.4399018 0
3.2380002 -1.5715238 1.43808 0
3.2330003 -1.5739465 1.4362582 0
3.2290003 -1.5768921 1.4348007 0
3.2240002 -1.5792803 1.4329787 0
3.2200003 -1.5821953 1.4315213 0
3.2150002 -1.5845492 1.4296994 0
3.2110002 -1.5874335 1.4282421 0
3.2060003 -1.5897533 1.4264203 0
3.2020001 -1.5926068 1.4249628 0
3.1970003 -1.5948923 1.4231409 0
3.1930003 -1.5977153 1.4216834 0
3.1880002 -1.5999663 1.4198616 0
3.1840003 -1.6027586 1.4184041 0
3.1800003 -1.6055366 1.4169466 0
3.1750002 -1.6077372 1.4151248 0
3.1710002 -1.6104844 1.4136672 0
3.1660001 -1.6126506 1.4118453 0
3.1620002 -1.6153673 1.4103879 0
3.1580002 -1.6180693 1.4089304 0
3.3520002 -1.5050067 1.4742934 0
3.3480003 -1.5083474 1.4728431 0
3.3430002 -1.5111756 1.4710302 0
3.3380003 -1.5139861 1.4692173 0
3.3330002 -1.5167783 1.4674045 0
3.3280003 -1.5195526 1.4655917 0
3.3230002 -1.5223087 1.4637789 0
3.3180003 -1.5250471 1.4619662 0
3.3130002 -1.5277671 1.4601532 0
3.3080003 -1.5304693 1.4583404 0
3.3040001 -1.5336655 1.45689 0
3.2990003 -1.5363334 1.4550773 0
3.2940001 -1.5389832 1.4532645 0
3.2890003 -1.541615 1.4514517 0
3.2850003 -1.5447482 1.4500015 0
3.2800002 -1.5473456 1.4481885 0
3.2750003 -1.5499252 1.4463757 0
3.2700002 -1.5524865 1.4445628 0
3.2660003 -1.5555567 1.4431126 0
3.2610002 -1.5580837 1.4412998 0
3.2560003 -1.5605929 1.439487 0
3.2520003 -1.5636162 1.4380368 0
3.2470002 -1.5660908 1.4362239 0
3.2430003 -1.5690833 1.4347737 0
3.2380002 -1.5715238 1.4329607 0
3.2330003 -1.5739465 1.4311481 0
3.2290003 -1.5768921 1.4296978 0
3.2240002 -1.5792803 1.4278849 0
3.2200003 -1.5821953 1.4264346 0
3.2150002 -1.5845492 1.4246217 0
3.2110002 -1.5874335 1.4231715 0
3.2060003 -1.5897533 1.4213587 0
3.2020001 -1.5926068 1.4199084 0
3.1970003 -1.5948923 1.4180956 0
3.1930003 -1.5977153 1.4166454 0
3.1880002 -1.5999663 1.4148325 0
3.1840003 -1.6027586 1.4133823 0
3.1800003 -1.6055366 1.411932 0
3.1750002 -1.6077372 1.4101192 0
3.1710002 -1.6104844 1.4086689 0
3.1660001 -1.6126506 1.4068561 0
3.1620002 -1.6153673 1.4054058 0
3.1580002 -1.6180693 1.4039556 0
3.3520002 -1.5050067 1.4689684 0
3.3480003 -1.5083474 1.4675254 0
3.3430002 -1.5111756 1.4657216 0
3.3380003 -1.5139861 1.4639177 0
3.3330002 -1.5167783 1.462114 0
3.3280003 -1.5195526 1.4603101 0
3.3230002 -1.5223087 1.4585063 0
3.3180003 -1.5250471 1.4567026 0
3.3130002 -1.5277671 1.4548987 0
3.3080003 -1.5304693 1.453095 0
3.3040001 -1.5336655 1.4516518 0
3.2990003 -1.5363334 1.4498481 0
3.2940001 -1.5389832 1.4480442 0
3.2890003 -1.541615 1.4462404 0
3.2850003 -1.5447482 1.4447974 0
3.2800002 -1.5473456 1.4429935 0
3.2750003 -1.5499252 1.4411899 0
3.2700002 -1.5524865 1.4393859 0
3.2660003 -1.5555567 1.4379429 0
3.2610002 -1.5580837 1.4361391 0
3.2560003 -1.5605929 1.4343352 0
3.2520003 -1.5636162 1.4328922 0
3.2470002 -1.5660908 1.4310884 0
3.2430003 -1.5690833 1.4296454 0
3.2380002 -1.5715238 1.4278417 0
3.2330003 -1.5739465 1.4260378 0
3.2290003 -1.5768921 1.4245948 0
3.2240002 -1.5792803 1.422791 0
3.2200003 -1.5821953 1.421348 0
3.2150002 -1.5845492 1.419544 0
3.2110002 -1.5874335 1.418101 0
3.2060003 -1.5897533 1.4162973 0
3.2020001 -1.5926068 1.4148542 0
3.1970003 -1.5948923 1.4130504 0
3.1930003 -1.5977153 1.4116074 0
3.1880002 -1.5999663 1.4098035 0
3.1840003 -1.6027586 1.4083605 0
3.1800003 -1.6055366 1.4069175 0
3.1750002 -1.6077372 1.4051136 0
3.1710002 -1.6104844 1.4036705 0
3.1660001 -1.6126506 1.4018667 0
3.1620002 -1.6153673 1.4004236 0
3.1580002 -1.6180693 1.3989806 0
3.3520002 -1.5050067 1.4636436 0
3.3480003 -1.5083474 1.4622078 0
3.3430002 -1.5111756 1.460413 0
3.3380003 -1.5139861 1.4586182 0
3.3330002 -1.5167783 1.4568233 0
3.3280003 -1.5195526 1.4550287 0
3.3230002 -1.5223087 1.4532337 0
3.3180003 -1.5250471 1.4514391 0
3.3130002 -1.5277671 1.4496442 0
3.3080003 -1.5304693 1.4478494 0
3.3040001 -1.5336655 1.4464135 0
3.2990003 -1.5363334 1.4446188 0
3.2940001 -1.5389832 1.442824 0
3.2890003 -1.541615 1.4410292 0
3.2850003 -1.5447482 1.4395934 0
3.2800002 -1.5473456 1.4377986 0
3.2750003 -1.5499252 1.4360039 0
3.2700002 -1.5524865 1.434209 0
3.2660003 -1.5555567 1.4327732 0
3.2610002 -1.5580837 1.4309783 0
3.2560003 -1.5605929 1.4291837 0
3.2520003 -1.5636162 1.4277478 0
3.2470002 -1.5660908 1.425953 0
3.2430003 -1.5690833 1.4245172 0
3.2380002 -1.5715238 1.4227223 0
3.2330003 -1.5739465 1.4209276 0
3.2290003 -1.5768921 1.4194919 0
3.2240002 -1.5792803 1.417697 0
3.2200003 -1.5821953 1.4162612 0
3.2150002 -1.5845492 1.4144663 0
3.2110002 -1.5874335 1.4130305 0
3.2060003 -1.5897533 1.4112358 0
3.2020001 -1.5926068 1.4097999 0
3.1970003 -1.5948923 1.4080051 0
3.1930003 -1.5977153 1.4065694 0
3.1880002 -1.5999663 1.4047744 0
3.1840003 -1.6027586 1.4033387 0
3.1800003 -1.6055366 1.4019028 0
3.1750002 -1.6077372 1.400108 0
3.1710002 -1.6104844 1.3986722 0
3.1660001 -1.6126506 1.3968774 0
3.1620002 -1.6153673 1.3954415 0
3.1580002 -1.6180693 1.3940058 0
3.3520002 -1.5050067 1.4583187 0
3.3480003 -1.5083474 1.4568901 0
3.3430002 -1.5111756 1.4551042 0
3.3380003 -1.5139861 1.4533186 0
3.3330002 -1.5167783 1.4515327 0
3.3280003 -1.5195526 1.4497471 0
3.3230002 -1.5223087 1.4479613 0
3.3180003 -1.5250471 1.4461756 0
3.3130002 -1.5277671 1.4443898 0
3.3080003 -1.5304693 1.4426041 0
3.3040001 -1.5336655 1.4411753 0
3.2990003 -1.5363334 1.4393896 0
3.2940001 -1.5389832 1.4376038 0
3.2890003 -1.541615 1.4358181 0
3.2850003 -1.5447482 1.4343895 0
3.2800002 -1.5473456 1.4326037 0
3.2750003 -1.5499252 1.430818 0
3.2700002 -1.5524865 1.4290321 0
3.2660003 -1.5555567 1.4276035 0
3.2610002 -1.5580837 1.4258177 0
3.2560003 -1.5605929 1.424032 0
3.2520003 -1.5636162 1.4226034 0
3.2470002 -1.5660908 1.4208176 0
3.2430003 -1.5690833 1.419389 0
3.2380002 -1.5715238 1.4176031 0
3.2330003 -1.5739465 1.4158174 0
3.2290003 -1.5768921 1.4143888 0
3.2240002 -1.5792803 1.412603 0
3.2200003 -1.5821953 1.4111744 0
3.2150002 -1.5845492 1.4093885 0
3.2110002 -1.5874335 1.4079599 0
3.2060003 -1.5897533 1.4061743 0
3.2020001 -1.5926068 1.4047456 0
3.1970003 -1.5948923 1.4029598 0
3.1930003 -1.5977153 1.4015312 0
3.1880002 -1.5999663 1.3997455 0
3.1840003 -1.6027586 1.3983169 0
3.1800003 -1.6055366 1.3968883 0
3.1750002 -1.6077372 1.3951024 0
3.1710002 -1.6104844 1.3936738 0
3.1660001 -1.6126506 1.391888 0
3.1620002 -1.6153673 1.3904594 0
3.1580002 -1.6180693 1.3890308 0
3.3520002 -1.5050067 1.4529939 0
3.3480003 -1.5083474 1.4515725 0
3.3430002 -1.5111756 1.4497957 0
3.3380003 -1.5139861 1.4480189 0
3.3330002 -1.5167783 1.4462422 0
3.3280003 -1.5195526 1.4444655 0
3.3230002 -1.5223087 1.4426887 0
3.3180003 -1.5250471 1.440912 0
3.3130002 -1.5277671 1.4391352 0
3.3080003 -1.5304693 1.4373585 0
3.3040001 -1.5336655 1.435937 0
3.2990003 -1.5363334 1.4341604 0
3.2940001 -1.5389832 1.4323835 0
3.2890003 -1.541615 1.4306068 0
3.2850003 -1.5447482 1.4291854 0
3.2800002 -1.5473456 1.4274087 0
3.2750003 -1.5499252 1.425632 0
3.2700002 -1.5524865 1.4238552 0
3.2660003 -1.5555567 1.4224339 0
3.2610002 -1.5580837 1.420657 0
3.2560003 -1.5605929 1.4188802 0
3.2520003 -1.5636162 1.4174589 0
3.2470002 -1.5660908 1.4156821 0
3.2430003 -1.5690833 1.4142607 0
3.2380002 -1.5715238 1.4124839 0
3.2330003 -1.5739465 1.4107072 0
3.2290003 -1.5768921 1.4092859 0
3.2240002 -1.5792803 1.407509 0
3.2200003 -1.5821953 1.4060876 0
3.2150002 -1.5845492 1.4043108 0
3.2110002 -1.5874335 1.4028895 0
3.2060003 -1.5897533 1.4011128 0
3.2020001 -1.5926068 1.3996913 0
3.1970003 -1.5948923 1.3979146 0
3.1930003 -1.5977153 1.3964933 0
3.1880002 -1.5999663 1.3947164 0
3.1840003 -1.6027586 1.393295 0
3.1800003 -1.6055366 1.3918736 0
3.1750002 -1.6077372 1.3900969 0
3.1710002 -1.6104844 1.3886755 0
3.1660001 -1.6126506 1.3868986 0
3.1620002 -1.6153673 1.3854773 0
3.1580002 -1.6180693 1.384056 0
3.3520002 -1.5050067 1.447669 0
3.3480003 -1.5083474 1.4462548 0
3.3430002 -1.5111756 1.4444871 0
3.3380003 -1.5139861 1.4427193 0
3.3330002 -1.5167783 1.4409517 0
3.3280003 -1.5195526 1.439184 0
3.3230002 -1.5223087 1.4374162 0
3.3180003 -1.5250471 1.4356486 0
3.3130002 -1.5277671 1.4338807 0
3.3080003 -1.5304693 1.4321131 0
3.3040001 -1.5336655 1.4306989 0
3.2990003 -1.5363334 1.4289311 0
3.2940001 -1.5389832 1.4271634 0
3.2890003 -1.541615 1.4253956 0
3.2850003 -1.5447482 1.4239814 0
3.2800002 -1.5473456 1.4222138 0
3.2750003 -1.5499252 1.420446 0
3.2700002 -1.5524865 1.4186783 0
3.2660003 -1.5555567 1.4172641 0
3.2610002 -1.5580837 1.4154962 0
3.2560003 -1.5605929 1.4137287 0
3.2520003 -1.5636162 1.4123145 0
3.2470002 -1.5660908 1.4105467 0
3.2430003 -1.5690833 1.4091325 0
3.2380002 -1.5715238 1.4073647 0
3.2330003 -1.5739465 1.4055971 0
3.2290003 -1.5768921 1.4041829 0
3.2240002 -1.5792803 1.402415 0
3.2200003 -1.5821953 1.4010009 0
3.2150002 -1.5845492 1.3992331 0
3.2110002 -1.5874335 1.3978189 0
3.2060003 -1.5897533 1.3960513 0
3.2020001 -1.5926068 1.394637 0
3.1970003 -1.5948923 1.3928694 0
3.1930003 -1.5977153 1.3914552 0
3.1880002 -1.5999663 1.3896874 0
3.1840003 -1.6027586 1.3882732 0
3.1800003 -1.6055366 1.3868591 0
3.1750002 -1.6077372 1.3850913 0
3.1710002 -1.6104844 1.3836771 0
3.1660001 -1.6126506 1.3819094 0
3.1620002 -1.6153673 1.3804952 0
3.1580002 -1.6180693 1.3790811 0
3.3520002 -1.5050067 1.4423442 0
3.3480003 -1.5083474 1.4409373 0
3.3430002 -1.5111756 1.4391785 0
3.3380003 -1.5139861 1.4374198 0
3.3330002 -1.5167783 1.4356611 0
3.3280003 -1.5195526 1.4339024 0
3.3230002 -1.5223087 1.4321437 0
3.3180003 -1.5250471 1.430385 0
3.3130002 -1.5277671 1.4286263 0
3.3080003 -1.5304693 1.4268676 0
3.3040001 -1.5336655 1.4254606 0
3.2990003 -1.5363334 1.4237019 0
3.2940001 -1.5389832 1.4219431 0
3.2890003 -1.541615 1.4201845 0
3.2850003 -1.5447482 1.4187776 0
3.2800002 -1.5473456 1.4170188 0
3.2750003 -1.5499252 1.4152601 0
3.2700002 -1.5524865 1.4135013 0
3.2660003 -1.5555567 1.4120944 0
3.2610002 -1.5580837 1.4103357 0
3.2560003 -1.5605929 1.408577 0
3.2520003 -1.5636162 1.4071701 0
3.2470002 -1.5660908 1.4054112 0
3.2430003 -1.5690833 1.4040042 0
3.2380002 -1.5715238 1.4022455 0
3.2330003 -1.5739465 1.4004868 0
3.2290003 -1.5768921 1.3990798 0
3.2240002 -1.5792803 1.3973212 0
3.2200003 -1.5821953 1.3959142 0
3.2150002 -1.5845492 1.3941554 0
3.2110002 -1.5874335 1.3927485 0
3.2060003 -1.5897533 1.3909898 0
3.2020001 -1.5926068 1.3895828 0
3.1970003 -1.5948923 1.3878241 0
3.1930003 -1.5977153 1.3864172 0
3.1880002 -1.5999663 1.3846585 0
3.1840003 -1.6027586 1.3832514 0
3.1800003 -1.6055366 1.3818445 0
3.1750002 -1.6077372 1.3800857 0
3.1710002 -1.6104844 1.3786788 0
3.1660001 -1.6126506 1.37692 0
3.1620002 -1.6153673 1.3755131 0
3.1580002 -1.6180693 1.374106 0
3.3520002 -1.5050067 1.4370195 0
3.3480003 -1.5083474 1.4356197 0
3.3430002 -1.5111756 1.43387 0
3.3380003 -1.5139861 1.4321203 0
3.3330002 -1.5167783 1.4303706 0
3.3280003 -1.5195526 1.4286208 0
3.3230002 -1.5223087 1.4268711 0
3.3180003 -1.5250471 1.4251214 0
3.3130002 -1.5277671 1.4233717 0
3.3080003 -1.5304693 1.421622 0
3.3040001 -1.5336655 1.4202223 0
3.2990003 -1.5363334 1.4184725 0
3.2940001 -1.5389832 1.4167229 0
3.2890003 -1.541615 1.4149733 0
3.2850003 -1.5447482 1.4135735 0
3.2800002 -1.5473456 1.4118237 0
3.2750003 -1.5499252 1.4100741 0
3.2700002 -1.5524865 1.4083244 0
3.2660003 -1.5555567 1.4069246 0
3.2610002 -1.5580837 1.4051749 0
3.2560003 -1.5605929 1.4034252 0
3.2520003 -1.5636162 1.4020255 0
3.2470002 -1.5660908 1.4002757 0
3.2430003 -1.5690833 1.3988761 0
3.2380002 -1.5715238 1.3971263 0
3.2330003 -1.5739465 1.3953767 0
3.2290003 -1.5768921 1.3939769 0
3.2240002 -1.5792803 1.3922272 0
3.2200003 -1.5821953 1.3908274 0
3.2150002 -1.5845492 1.3890777 0
3.2110002 -1.5874335 1.387678 0
3.2060003 -1.5897533 1.3859284 0
3.2020001 -1.5926068 1.3845285 0
3.1970003 -1.5948923 1.3827789 0
3.1930003 -1.5977153 1.3813791 0
3.1880002 -1.5999663 1.3796294 0
3.1840003 -1.6027586 1.3782296 0
3.1800003 -1.6055366 1.37683 0
3.1750002 -1.6077372 1.3750802 0
3.1710002 -1.6104844 1.3736805 0
3.1660001 -1.6126506 1.3719307 0
3.1620002 -1.6153673 1.370531 0
3.1580002 -1.6180693 1.3691312 0
3.3520002 -1.5050067 1.4316945 0
3.3480003 -1.5083474 1.430302 0
3.3430002 -1.5111756 1.4285613 0
3.3380003 -1.5139861 1.4268208 0
3.3330002 -1.5167783 1.4250799 0
3.3280003 -1.5195526 1.4233394 0
3.3230002 -1.5223087 1.4215987 0
3.3180003 -1.5250471 1.419858 0
3.3130002 -1.5277671 1.4181173 0
3.3080003 -1.5304693 1.4163766 0
3.3040001 -1.5336655 1.414984 0
3.2990003 -1.5363334 1.4132434 0
3.2940001 -1.5389832 1.4115026 0
3.2890003 -1.541615 1.409762 0
3.2850003 -1.5447482 1.4083695 0
3.2800002 -1.5473456 1.4066288 0
3.2750003 -1.5499252 1.4048882 0
3.2700002 -1.5524865 1.4031475 0
3.2660003 -1.5555567 1.401755 0
3.2610002 -1.5580837 1.4000143 0
3.2560003 -1.5605929 1.3982735 0
3.2520003 -1.5636162 1.396881 0
3.2470002 -1.5660908 1.3951403 0
3.2430003 -1.5690833 1.3937478 0
3.2380002 -1.5715238 1.3920071 0
3.2330003 -1.5739465 1.3902664 0
3.2290003 -1.5768921 1.3888739 0
3.2240002 -1.5792803 1.3871332 0
3.2200003 -1.5821953 1.3857406 0
3.2150002 -1.5845492 1.3839999 0
3.2110002 -1.5874335 1.3826075 0
3.2060003 -1.5897533 1.3808669 0
3.2020001 -1.5926068 1.3794743 0
3.1970003 -1.5948923 1.3777336 0
3.1930003 -1.5977153 1.3763411 0
3.1880002 -1.5999663 1.3746004 0
3.1840003 -1.6027586 1.3732078 0
3.1800003 -1.6055366 1.3718153 0
3.1750002 -1.6077372 1.3700746 0
3.1710002 -1.6104844 1.3686821 0
3.1660001 -1.6126506 1.3669413 0
3.1620002 -1.6153673 1.3655488 0
3.1580002 -1.6180693 1.3641562 0
3.3520002 -1.5050067 1.4263698 0
3.3480003 -1.5083474 1.4249845 0
3.3430002 -1.5111756 1.4232527 0
3.3380003 -1.5139861 1.4215212 0
3.3330002 -1.5167783 1.4197893 0
3.3280003 -1.5195526 1.4180577 0
3.3230002 -1.5223087 1.416326 0
3.3180003 -1.5250471 1.4145944 0
3.3130002 -1.5277671 1.4128628 0
3.3080003 -1.5304693 1.4111311 0
3.3040001 -1.5336655 1.4097457 0
3.2990003 -1.5363334 1.4080142 0
3.2940001 -1.5389832 1.4062824 0
3.2890003 -1.541615 1.4045509 0
3.2850003 -1.5447482 1.4031655 0
3.2800002 -1.5473456 1.4014338 0
3.2750003 -1.5499252 1.3997022 0
3.2700002 -1.5524865 1.3979706 0
3.2660003 -1.5555567 1.3965852 0
3.2610002 -1.5580837 1.3948535 0
3.2560003 -1.5605929 1.393122 0
3.2520003 -1.5636162 1.3917366 0
3.2470002 -1.5660908 1.3900049 0
3.2430003 -1.5690833 1.3886195 0
3.2380002 -1.5715238 1.3868879 0
3.2330003 -1.5739465 1.3851563 0
3.2290003 -1.5768921 1.3837709 0
3.2240002 -1.5792803 1.3820392 0
3.2200003 -1.5821953 1.380654 0
3.2150002 -1.5845492 1.3789222 0
3.2110002 -1.5874335 1.377537 0
3.2060003 -1.5897533 1.3758054 0
3.2020001 -1.5926068 1.3744199 0
3.1970003 -1.5948923 1.3726884 0
3.1930003 -1.5977153 1.3713031 0
3.1880002 -1.5999663 1.3695713 0
3.1840003 -1.6027586 1.368186 0
3.1800003 -1.6055366 1.3668007 0
3.1750002 -1.6077372 1.365069 0
3.1710002 -1.6104844 1.3636837 0
3.1660001 -1.6126506 1.3619521 0
3.1620002 -1.6153673 1.3605667 0
3.1580002 -1.6180693 1.3591814 0
3.3520002 -1.5050067 1.4210448 0
3.3480003 -1.5083474 1.4196668 0
3.3430002 -1.5111756 1.4179441 0
3.3380003 -1.5139861 1.4162215 0
3.3330002 -1.5167783 1.4144988 0
3.3280003 -1.5195526 1.4127762 0
3.3230002 -1.5223087 1.4110535 0
3.3180003 -1.5250471 1.4093308 0
3.3130002 -1.5277671 1.4076083 0
3.3080003 -1.5304693 1.4058857 0
3.3040001 -1.5336655 1.4045075 0
3.2990003 -1.5363334 1.4027849 0
3.2940001 -1.5389832 1.4010623 0
3.2890003 -1.541615 1.3993396 0
3.2850003 -1.5447482 1.3979615 0
3.2800002 -1.5473456 1.3962388 0
3.2750003 -1.5499252 1.3945162 0
3.2700002 -1.5524865 1.3927937 0
3.2660003 -1.5555567 1.3914155 0
3.2610002 -1.5580837 1.3896928 0
3.2560003 -1.5605929 1.3879702 0
3.2520003 -1.5636162 1.3865921 0
3.2470002 -1.5660908 1.3848695 0
3.2430003 -1.5690833 1.3834914 0
3.2380002 -1.5715238 1.3817686 0
3.2330003 -1.5739465 1.380046 0
3.2290003 -1.5768921 1.378668 0
3.2240002 -1.5792803 1.3769454 0
3.2200003 -1.5821953 1.3755673 0
3.2150002 -1.5845492 1.3738446 0
3.2110002 -1.5874335 1.3724664 0
3.2060003 -1.5897533 1.3707439 0
3.2020001 -1.5926068 1.3693657 0
3.1970003 -1.5948923 1.3676431 0
3.1930003 -1.5977153 1.3662649 0
3.1880002 -1.5999663 1.3645422 0
3.1840003 -1.6027586 1.3631642 0
3.1800003 -1.6055366 1.3617861 0
3.1750002 -1.6077372 1.3600634 0
3.1710002 -1.6104844 1.3586854 0
3.1660001 -1.6126506 1.3569627 0
3.1620002 -1.6153673 1.3555845 0
3.1580002 -1.6180693 1.3542064 0
3.3520002 -1.5050067 1.41572 0
3.3480003 -1.5083474 1.4143492 0
3.3430002 -1.5111756 1.4126356 0
3.3380003 -1.5139861 1.4109219 0
3.3330002 -1.5167783 1.4092083 0
3.3280003 -1.5195526 1.4074947 0
3.3230002 -1.5223087 1.4057809 0
3.3180003 -1.5250471 1.4040674 0
3.3130002 -1.5277671 1.4023538 0
3.3080003 -1.5304693 1.4006401 0
3.3040001 -1.5336655 1.3992692 0
3.2990003 -1.5363334 1.3975557 0
3.2940001 -1.5389832 1.395842 0
3.2890003 -1.541615 1.3941284 0
3.2850003 -1.5447482 1.3927575 0
3.2800002 -1.5473456 1.3910439 0
3.2750003 -1.5499252 1.3893303 0
3.2700002 -1.5524865 1.3876166 0
3.2660003 -1.5555567 1.3862457 0
3.2610002 -1.5580837 1.3845321 0
3.2560003 -1.5605929 1.3828185 0
3.2520003 -1.5636162 1.3814477 0
3.2470002 -1.5660908 1.379734 0
3.2430003 -1.5690833 1.3783631 0
3.2380002 -1.5715238 1.3766495 0
3.2330003 -1.5739465 1.3749359 0
3.2290003 -1.5768921 1.3735651 0
3.2240002 -1.5792803 1.3718513 0
3.2200003 -1.5821953 1.3704805 0
3.2150002 -1.5845492 1.3687669 0
3.2110002 -1.5874335 1.367396 0
3.2060003 -1.5897533 1.3656824 0
3.2020001 -1.5926068 1.3643115 0
3.1970003 -1.5948923 1.3625978 0
3.1930003 -1.5977153 1.3612269 0
3.1880002 -1.5999663 1.3595133 0
3.1840003 -1.6027586 1.3581424 0
3.1800003 -1.6055366 1.3567715 0
3.1750002 -1.6077372 1.3550578 0
3.1710002 -1.6104844 1.353687 0
3.1660001 -1.6126506 1.3519733 0
3.1620002 -1.6153673 1.3506025 0
3.1580002 -1.6180693 1.3492316 0
3.3520002 -1.5050067 1.4103951 0
3.3480003 -1.5083474 1.4090315 0
3.3430002 -1.5111756 1.4073268 0
3.3380003 -1.5139861 1.4056224 0
3.3330002 -1.5167783 1.4039177 0
3.3280003 -1.5195526 1.4022131 0
3.3230002 -1.5223087 1.4005084 0
3.3180003 -1.5250471 1.3988038 0
3.3130002 -1.5277671 1.3970993 0
3.3080003 -1.5304693 1.3953947 0
3.3040001 -1.5336655 1.3940309 0
3.2990003 -1.5363334 1.3923264 0
3.2940001 -1.5389832 1.3906218 0
3.2890003 -1.541615 1.3889172 0
3.2850003 -1.5447482 1.3875535 0
3.2800002 -1.5473456 1.3858489 0
3.2750003 -1.5499252 1.3841444 0
3.2700002 -1.5524865 1.3824397 0
3.2660003 -1.5555567 1.381076 0
3.2610002 -1.5580837 1.3793714 0
3.2560003 -1.5605929 1.377667 0
3.2520003 -1.5636162 1.3763032 0
3.2470002 -1.5660908 1.3745985 0
3.2430003 -1.5690833 1.3732349 0
3.2380002 -1.5715238 1.3715303 0
3.2330003 -1.5739465 1.3698256 0
3.2290003 -1.5768921 1.368462 0
3.2240002 -1.5792803 1.3667574 0
3.2200003 -1.5821953 1.3653938 0
3.2150002 -1.5845492 1.3636892 0
3.2110002 -1.5874335 1.3623254 0
3.2060003 -1.5897533 1.3606209 0
3.2020001 -1.5926068 1.3592571 0
3.1970003 -1.5948923 1.3575526 0
3.1930003 -1.5977153 1.3561889 0
3.1880002 -1.5999663 1.3544843 0
3.1840003 -1.6027586 1.3531206 0
3.1800003 -1.6055366 1.3517569 0
3.1750002 -1.6077372 1.3500524 0
3.1710002 -1.6104844 1.3486887 0
3.1660001 -1.6126506 1.346984 0
3.1620002 -1.6153673 1.3456204 0
3.1580002 -1.6180693 1.3442568 0
3.3520002 -1.5050067 1.4050703 0
3.3480003 -1.5083474 1.4037139 0
3.3430002 -1.5111756 1.4020182 0
3.3380003 -1.5139861 1.4003227 0
3.3330002 -1.5167783 1.398627 0
3.3280003 -1.5195526 1.3969315 0
3.3230002 -1.5223087 1.395236 0
3.3180003 -1.5250471 1.3935404 0
3.3130002 -1.5277671 1.3918447 0
3.3080003 -1.5304693 1.3901492 0
3.3040001 -1.5336655 1.3887928 0
3.2990003 -1.5363334 1.3870971 0
3.2940001 -1.5389832 1.3854016 0
3.2890003 -1.541615 1.383706 0
3.2850003 -1.5447482 1.3823496 0
3.2800002 -1.5473456 1.3806539 0
3.2750003 -1.5499252 1.3789585 0
3.2700002 -1.5524865 1.3772627 0
3.2660003 -1.5555567 1.3759063 0
3.2610002 -1.5580837 1.3742107 0
3.2560003 -1.5605929 1.3725152 0
3.2520003 -1.5636162 1.3711587 0
3.2470002 -1.5660908 1.3694631 0
3.2430003 -1.5690833 1.3681066 0
3.2380002 -1.5715238 1.3664111 0
3.2330003 -1.5739465 1.3647155 0
3.2290003 -1.5768921 1.3633591 0
3.2240002 -1.5792803 1.3616635 0
3.2200003 -1.5821953 1.360307 0
3.2150002 -1.5845492 1.3586115 0
3.2110002 -1.5874335 1.357255 0
3.2060003 -1.5897533 1.3555593 0
3.2020001 -1.5926068 1.3542029 0
3.1970003 -1.5948923 1.3525074 0
3.1930003 -1.5977153 1.3511509 0
3.1880002 -1.5999663 1.3494554 0
3.1840003 -1.6027586 1.3480989 0
3.1800003 -1.6055366 1.3467423 0
3.1750002 -1.6077372 1.3450468 0
3.1710002 -1.6104844 1.3436903 0
3.1660001 -1.6126506 1.3419946 0
3.1620002 -1.6153673 1.3406383 0
3.1580002 -1.6180693 1.3392818 0
3.3520002 -1.5050067 1.3997455 0
3.3480003 -1.5083474 1.3983963 0
3.3430002 -1.5111756 1.3967096 0
3.3380003 -1.5139861 1.3950231 0
3.3330002 -1.5167783 1.3933365 0
3.3280003 -1.5195526 1.39165 0
3.3230002 -1.5223087 1.3899634 0
3.3180003 -1.5250471 1.3882768 0
3.3130002 -1.5277671 1.3865902 0
3.3080003 -1.5304693 1.3849037 0
3.3040001 -1.5336655 1.3835545 0
3.2990003 -1.5363334 1.3818679 0
3.2940001 -1.5389832 1.3801813 0
3.2890003 -1.541615 1.3784949 0
3.2850003 -1.5447482 1.3771456 0
3.2800002 -1.5473456 1.375459 0
3.2750003 -1.5499252 1.3737725 0
3.2700002 -1.5524865 1.3720858 0
3.2660003 -1.5555567 1.3707366 0
3.2610002 -1.5580837 1.36905 0
3.2560003 -1.5605929 1.3673635 0
3.2520003 -1.5636162 1.3660142 0
3.2470002 -1.5660908 1.3643277 0
3.2430003 -1.5690833 1.3629785 0
3.2380002 -1.5715238 1.3612918 0
3.2330003 -1.5739465 1.3596053 0
3.2290003 -1.5768921 1.3582561 0
3.2240002 -1.5792803 1.3565695 0
3.2200003 -1.5821953 1.3552202 0
3.2150002 -1.5845492 1.3535337 0
3.2110002 -1.5874335 1.3521844 0
3.2060003 -1.5897533 1.350498 0
3.2020001 -1.5926068 1.3491486 0
3.1970003 -1.5948923 1.3474621 0
3.1930003 -1.5977153 1.3461128 0
3.1880002 -1.5999663 1.3444263 0
3.1840003 -1.6027586 1.3430771 0
3.1800003 -1.6055366 1.3417279 0
3.1750002 -1.6077372 1.3400412 0
3.1710002 -1.6104844 1.3386919 0
3.1660001 -1.6126506 1.3370054 0
3.1620002 -1.6153673 1.3356562 0
3.1580002 -1.6180693 1.334307 0
3.3520002 -1.5050067 1.3944206 0
3.3480003 -1.5083474 1.3930787 0
3.3430002 -1.5111756 1.3914011 0
3.3380003 -1.5139861 1.3897234 0
3.3330002 -1.5167783 1.3880459 0
3.3280003 -1.5195526 1.3863684 0
3.3230002 -1.5223087 1.3846909 0
3.3180003 -1.5250471 1.3830134 0
3.3130002 -1.5277671 1.3813357 0
3.3080003 -1.5304693 1.3796583 0
3.3040001 -1.5336655 1.3783162 0
3.2990003 -1.5363334 1.3766388 0
3.2940001 -1.5389832 1.374961 0
3.2890003 -1.541615 1.3732835 0
3.2850003 -1.5447482 1.3719416 0
3.2800002 -1.5473456 1.3702639 0
3.2750003 -1.5499252 1.3685865 0
3.2700002 -1.5524865 1.3669089 0
3.2660003 -1.5555567 1.365567 0
3.2610002 -1.5580837 1.3638893 0
3.2560003 -1.5605929 1.3622118 0
3.2520003 -1.5636162 1.3608698 0
3.2470002 -1.5660908 1.3591921 0
3.2430003 -1.5690833 1.3578502 0
3.2380002 -1.5715238 1.3561726 0
3.2330003 -1.5739465 1.3544952 0
3.2290003 -1.5768921 1.3531531 0
3.2240002 -1.5792803 1.3514756 0
3.2200003 -1.5821953 1.3501335 0
3.2150002 -1.5845492 1.348456 0
3.2110002 -1.5874335 1.3471138 0
3.2060003 -1.5897533 1.3454363 0
3.2020001 -1.5926068 1.3440943 0
3.1970003 -1.5948923 1.3424168 0
3.1930003 -1.5977153 1.3410748 0
3.1880002 -1.5999663 1.3393972 0
3.1840003 -1.6027586 1.3380553 0
3.1800003 -1.6055366 1.3367132 0
3.1750002 -1.6077372 1.3350357 0
3.1710002 -1.6104844 1.3336936 0
3.1660001 -1.6126506 1.332016 0
3.1620002 -1.6153673 1.3306739 0
3.1580002 -1.6180693 1.329332 0
3.3520002 -1.5050067 1.3890958 0
3.3480003 -1.5083474 1.387761 0
3.3430002 -1.5111756 1.3860924 0
3.3380003 -1.5139861 1.3844239 0
3.3330002 -1.5167783 1.3827554 0
3.3280003 -1.5195526 1.3810869 0
3.3230002 -1.5223087 1.3794183 0
3.3180003 -1.5250471 1.3777498 0
3.3130002 -1.5277671 1.3760813 0
3.3080003 -1.5304693 1.3744128 0
3.3040001 -1.5336655 1.3730779 0
3.2990003 -1.5363334 1.3714094 0
3.2940001 -1.5389832 1.3697408 0
3.2890003 -1.541615 1.3680724 0
3.2850003 -1.5447482 1.3667376 0
3.2800002 -1.5473456 1.365069 0
3.2750003 -1.5499252 1.3634006 0
3.2700002 -1.5524865 1.361732 0
3.2660003 -1.5555567 1.3603972 0
3.2610002 -1.5580837 1.3587286 0
3.2560003 -1.5605929 1.3570602 0
3.2520003 -1.5636162 1.3557254 0
3.2470002 -1.5660908 1.3540567 0
3.2430003 -1.5690833 1.3527219 0
3.2380002 -1.5715238 1.3510535 0
3.2330003 -1.5739465 1.3493849 0
3.2290003 -1.5768921 1.3480501 0
3.2240002 -1.5792803 1.3463815 0
3.2200003 -1.5821953 1.3450468 0
3.2150002 -1.5845492 1.3433783 0
3.2110002 -1.5874335 1.3420434 0
3.2060003 -1.5897533 1.3403749 0
3.2020001 -1.5926068 1.33904 0
3.1970003 -1.5948923 1.3373716 0
3.1930003 -1.5977153 1.3360367 0
3.1880002 -1.5999663 1.3343682 0
3.1840003 -1.6027586 1.3330334 0
3.1800003 -1.6055366 1.3316987 0
3.1750002 -1.6077372 1.33003 0
3.1710002 -1.6104844 1.3286952 0
3.1660001 -1.6126506 1.3270267 0
3.1620002 -1.6153673 1.3256918 0
3.1580002 -1.6180693 1.324357 0
3.3520002 -1.5050067 1.3837709 0
3.3480003 -1.5083474 1.3824433 0
3.3430002 -1.5111756 1.3807838 0
3.3380003 -1.5139861 1.3791243 0
3.3330002 -1.5167783 1.3774648 0
3.3280003 -1.5195526 1.3758053 0
3.3230002 -1.5223087 1.3741459 0
3.3180003 -1.5250471 1.3724864 0
3.3130002 -1.5277671 1.3708267 0
3.3080003 -1.5304693 1.3691673 0
3.3040001 -1.5336655 1.3678397 0
3.2990003 -1.5363334 1.3661802 0
3.2940001 -1.5389832 1.3645207 0
3.2890003 -1.541615 1.3628613 0
3.2850003 -1.5447482 1.3615335 0
3.2800002 -1.5473456 1.3598741 0
3.2750003 -1.5499252 1.3582146 0
3.2700002 -1.5524865 1.3565551 0
3.2660003 -1.5555567 1.3552275 0
3.2610002 -1.5580837 1.353568 0
3.2560003 -1.5605929 1.3519084 0
3.2520003 -1.5636162 1.3505809 0
3.2470002 -1.5660908 1.3489213 0
3.2430003 -1.5690833 1.3475938 0
3.2380002 -1.5715238 1.3459343 0
3.2330003 -1.5739465 1.3442748 0
3.2290003 -1.5768921 1.3429472 0
3.2240002 -1.5792803 1.3412876 0
3.2200003 -1.5821953 1.33996 0
3.2150002 -1.5845492 1.3383005 0
3.2110002 -1.5874335 1.3369728 0
3.2060003 -1.5897533 1.3353134 0
3.2020001 -1.5926068 1.3339858 0
3.1970003 -1.5948923 1.3323263 0
3.1930003 -1.5977153 1.3309988 0
3.1880002 -1.5999663 1.3293391 0
3.1840003 -1.6027586 1.3280116 0
3.1800003 -1.6055366 1.326684 0
3.1750002 -1.6077372 1.3250245 0
3.1710002 -1.6104844 1.3236969 0
3.1660001 -1.6126506 1.3220373 0
3.1620002 -1.6153673 1.3207097 0
3.1580002 -1.6180693 1.3193822 0
3.3520002 -1.5050067 1.378446 0
3.3480003 -1.5083474 1.3771256 0
3.3430002 -1.5111756 1.3754752 0
3.3380003 -1.5139861 1.3738247 0
3.3330002 -1.5167783 1.3721743 0
3.3280003 -1.5195526 1.3705238 0
3.3230002 -1.5223087 1.3688732 0
3.3180003 -1.5250471 1.3672228 0
3.3130002 -1.5277671 1.3655723 0
3.3080003 -1.5304693 1.3639219 0
3.3040001 -1.5336655 1.3626014 0
3.2990003 -1.5363334 1.3609509 0
3.2940001 -1.5389832 1.3593004 0
3.2890003 -1.541615 1.3576499 0
3.2850003 -1.5447482 1.3563296 0
3.2800002 -1.5473456 1.3546791 0
3.2750003 -1.5499252 1.3530287 0
3.2700002 -1.5524865 1.3513781 0
3.2660003 -1.5555567 1.3500577 0
3.2610002 -1.5580837 1.3484071 0
3.2560003 -1.5605929 1.3467567 0
3.2520003 -1.5636162 1.3454363 0
3.2470002 -1.5660908 1.3437859 0
3.2430003 -1.5690833 1.3424655 0
3.2380002 -1.5715238 1.3408149 0
3.2330003 -1.5739465 1.3391645 0
3.2290003 -1.5768921 1.3378441 0
3.2240002 -1.5792803 1.3361936 0
3.2200003 -1.5821953 1.3348733 0
3.2150002 -1.5845492 1.3332227 0
3.2110002 -1.5874335 1.3319024 0
3.2060003 -1.5897533 1.3302519 0
3.2020001 -1.5926068 1.3289315 0
3.1970003 -1.5948923 1.3272811 0
3.1930003 -1.5977153 1.3259608 0
3.1880002 -1.5999663 1.3243102 0
3.1840003 -1.6027586 1.3229898 0
3.1800003 -1.6055366 1.3216695 0
3.1750002 -1.6077372 1.3200189 0
3.1710002 -1.6104844 1.3186985 0
3.1660001 -1.6126506 1.3170481 0
3.1620002 -1.6153673 1.3157277 0
3.1580002 -1.6180693 1.3144072 0
3.3520002 -1.5050067 1.3731213 0
3.3480003 -1.5083474 1.3718081 0
3.3430002 -1.5111756 1.3701667 0
3.3380003 -1.5139861 1.3685253 0
3.3330002 -1.5167783 1.3668836 0
3.3280003 -1.5195526 1.3652422 0
3.3230002 -1.5223087 1.3636007 0
3.3180003 -1.5250471 1.3619593 0
3.3130002 -1.5277671 1.3603178 0
3.3080003 -1.5304693 1.3586764 0
3.3040001 -1.5336655 1.3573631 0
3.2990003 -1.5363334 1.3557217 0
3.2940001 -1.5389832 1.3540802 0
3.2890003 -1.541615 1.3524388 0
3.2850003 -1.5447482 1.3511257 0
3.2800002 -1.5473456 1.3494842 0
3.2750003 -1.5499252 1.3478427 0
3.2700002 -1.5524865 1.3462012 0
3.2660003 -1.5555567 1.3448881 0
3.2610002 -1.5580837 1.3432466 0
3.2560003 -1.5605929 1.3416052 0
3.2520003 -1.5636162 1.340292 0
3.2470002 -1.5660908 1.3386505 0
3.2430003 -1.5690833 1.3373373 0
3.2380002 -1.5715238 1.3356957 0
3.2330003 -1.5739465 1.3340544 0
3.2290003 -1.5768921 1.3327413 0
3.2240002 -1.5792803 1.3310997 0
3.2200003 -1.5821953 1.3297867 0
3.2150002 -1.5845492 1.328145 0
3.2110002 -1.5874335 1.3268319 0
3.2060003 -1.5897533 1.3251905 0
3.2020001 -1.5926068 1.3238772 0
3.1970003 -1.5948923 1.3222358 0
3.1930003 -1.5977153 1.3209227 0
3.1880002 -1.5999663 1.3192811 0
3.1840003 -1.6027586 1.317968 0
3.1800003 -1.6055366 1.3166549 0
3.1750002 -1.6077372 1.3150134 0
3.1710002 -1.6104844 1.3137002 0
3.1660001 -1.6126506 1.3120587 0
3.1620002 -1.6153673 1.3107456 0
3.1580002 -1.6180693 1.3094324 0
3.3520002 -1.5050067 1.3677964 0
3.3480003 -1.5083474 1.3664904 0
3.3430002 -1.5111756 1.364858 0
3.3380003 -1.5139861 1.3632256 0
3.3330002 -1.5167783 1.361593 0
3.3280003 -1.5195526 1.3599607 0
3.3230002 -1.5223087 1.3583281 0
3.3180003 -1.5250471 1.3566958 0
3.3130002 -1.5277671 1.3550632 0
3.3080003 -1.5304693 1.3534309 0
3.3040001 -1.5336655 1.3521249 0
3.2990003 -1.5363334 1.3504925 0
3.2940001 -1.5389832 1.34886 0
3.2890003 -1.541615 1.3472276 0
3.2850003 -1.5447482 1.3459216 0
3.2800002 -1.5473456 1.3442892 0
3.2750003 -1.5499252 1.3426567 0
3.2700002 -1.5524865 1.3410243 0
3.2660003 -1.5555567 1.3397183 0
3.2610002 -1.5580837 1.3380859 0
3.2560003 -1.5605929 1.3364534 0
3.2520003 -1.5636162 1.3351475 0
3.2470002 -1.5660908 1.333515 0
3.2430003 -1.5690833 1.332209 0
3.2380002 -1.5715238 1.3305767 0
3.2330003 -1.5739465 1.3289442 0
3.2290003 -1.5768921 1.3276383 0
3.2240002 -1.5792803 1.3260057 0
3.2200003 -1.5821953 1.3246999 0
3.2150002 -1.5845492 1.3230673 0
3.2110002 -1.5874335 1.3217614 0
3.2060003 -1.5897533 1.320129 0
3.2020001 -1.5926068 1.318823 0
3.1970003 -1.5948923 1.3171905 0
3.1930003 -1.5977153 1.3158846 0
3.1880002 -1.5999663 1.3142521 0
3.1840003 -1.6027586 1.3129462 0
3.1800003 -1.6055366 1.3116403 0
3.1750002 -1.6077372 1.3100078 0
3.1710002 -1.6104844 1.3087019 0
3.1660001 -1.6126506 1.3070693 0
3.1620002 -1.6153673 1.3057635 0
3.1580002 -1.6180693 1.3044574 0
3.3520002 -1.5050067 1.3624716 0
3.3480003 -1.5083474 1.3611728 0
3.3430002 -1.5111756 1.3595493 0
3.3380003 -1.5139861 1.357926 0
3.3330002 -1.5167783 1.3563025 0
3.3280003 -1.5195526 1.3546791 0
3.3230002 -1.5223087 1.3530557 0
3.3180003 -1.5250471 1.3514323 0
3.3130002 -1.5277671 1.3498088 0
3.3080003 -1.5304693 1.3481854 0
3.3040001 -1.5336655 1.3468866 0
3.2990003 -1.5363334 1.3452632 0
3.2940001 -1.5389832 1.3436397 0
3.2890003 -1.541615 1.3420163 0
3.2850003 -1.5447482 1.3407177 0
3.2800002 -1.5473456 1.3390942 0
3.2750003 -1.5499252 1.3374709 0
3.2700002 -1.5524865 1.3358474 0
3.2660003 -1.5555567 1.3345486 0
3.2610002 -1.5580837 1.3329251 0
3.2560003 -1.5605929 1.3313017 0
3.2520003 -1.5636162 1.330003 0
3.2470002 -1.5660908 1.3283796 0
3.2430003 -1.5690833 1.3270808 0
3.2380002 -1.5715238 1.3254573 0
3.2330003 -1.5739465 1.3238339 0
3.2290003 -1.5768921 1.3225353 0
3.2240002 -1.5792803 1.3209118 0
3.2200003 -1.5821953 1.3196131 0
3.2150002 -1.5845492 1.3179896 0
3.2110002 -1.5874335 1.3166909 0
3.2060003 -1.5897533 1.3150675 0
3.2020001 -1.5926068 1.3137687 0
3.1970003 -1.5948923 1.3121454 0
3.1930003 -1.5977153 1.3108466 0
3.1880002 -1.5999663 1.3092232 0
3.1840003 -1.6027586 1.3079244 0
3.1800003 -1.6055366 1.3066256 0
3.1750002 -1.6077372 1.3050022 0
3.1710002 -1.6104844 1.3037035 0
3.1660001 -1.6126506 1.30208 0
3.1620002 -1.6153673 1.3007812 0
3.1580002 -1.6180693 1.2994826 0
3.3520002 -1.5050067 1.3571467 0
3.3480003 -1.5083474 1.3558552 0
3.3430002 -1.5111756 1.3542408 0
3.3380003 -1.5139861 1.3526264 0
3.3330002 -1.5167783 1.351012 0
3.3280003 -1.5195526 1.3493977 0
3.3230002 -1.5223087 1.3477832 0
3.3180003 -1.5250471 1.3461688 0
3.3130002 -1.5277671 1.3445543 0
3.3080003 -1.5304693 1.34294 0
3.3040001 -1.5336655 1.3416483 0
3.2990003 -1.5363334 1.340034 0
3.2940001 -1.5389832 1.3384196 0
3.2890003 -1.541615 1.3368052 0
3.2850003 -1.5447482 1.3355137 0
3.2800002 -1.5473456 1.3338993 0
3.2750003 -1.5499252 1.3322849 0
3.2700002 -1.5524865 1.3306705 0
3.2660003 -1.5555567 1.329379 0
3.2610002 -1.5580837 1.3277645 0
3.2560003 -1.5605929 1.3261501 0
3.2520003 -1.5636162 1.3248585 0
3.2470002 -1.5660908 1.3232442 0
3.2430003 -1.5690833 1.3219526 0
3.2380002 -1.5715238 1.3203381 0
3.2330003 -1.5739465 1.3187238 0
3.2290003 -1.5768921 1.3174323 0
3.2240002 -1.5792803 1.3158178 0
3.2200003 -1.5821953 1.3145263 0
3.2150002 -1.5845492 1.3129119 0
3.2110002 -1.5874335 1.3116204 0
3.2060003 -1.5897533 1.310006 0
3.2020001 -1.5926068 1.3087144 0
3.1970003 -1.5948923 1.3071001 0
3.1930003 -1.5977153 1.3058085 0
3.1880002 -1.5999663 1.3041941 0
3.1840003 -1.6027586 1.3029026 0
3.1800003 -1.6055366 1.3016111 0
3.1750002 -1.6077372 1.2999966 0
3.1710002 -1.6104844 1.2987051 0
3.1660001 -1.6126506 1.2970906 0
3.1620002 -1.6153673 1.2957991 0
3.1580002 -1.6180693 1.2945077 0
3.3520002 -1.5050067 1.3518219 0
3.3480003 -1.5083474 1.3505375 0
3.3430002 -1.5111756 1.3489321 0
3.3380003 -1.5139861 1.3473269 0
3.3330002 -1.5167783 1.3457214 0
3.3280003 -1.5195526 1.344116 0
3.3230002 -1.5223087 1.3425106 0
3.3180003 -1.5250471 1.3409053 0
3.3130002 -1.5277671 1.3392999 0
3.3080003 -1.5304693 1.3376944 0
3.3040001 -1.5336655 1.33641 0
3.2990003 -1.5363334 1.3348048 0
3.2940001 -1.5389832 1.3331994 0
3.2890003 -1.541615 1.331594 0
3.2850003 -1.5447482 1.3303096 0
3.2800002 -1.5473456 1.3287042 0
3.2750003 -1.5499252 1.3270988 0
3.2700002 -1.5524865 1.3254935 0
3.2660003 -1.5555567 1.3242092 0
3.2610002 -1.5580837 1.3226037 0
3.2560003 -1.5605929 1.3209984 0
3.2520003 -1.5636162 1.3197141 0
3.2470002 -1.5660908 1.3181087 0
3.2430003 -1.5690833 1.3168243 0
3.2380002 -1.5715238 1.3152189 0
3.2330003 -1.5739465 1.3136137 0
3.2290003 -1.5768921 1.3123293 0
3.2240002 -1.5792803 1.3107239 0
3.2200003 -1.5821953 1.3094395 0
3.2150002 -1.5845492 1.3078341 0
3.2110002 -1.5874335 1.3065499 0
3.2060003 -1.5897533 1.3049445 0
3.2020001 -1.5926068 1.3036602 0
3.1970003 -1.5948923 1.3020548 0
3.1930003 -1.5977153 1.3007705 0
3.1880002 -1.5999663 1.2991651 0
3.1840003 -1.6027586 1.2978808 0
3.1800003 -1.6055366 1.2965965 0
3.1750002 -1.6077372 1.294991 0
3.1710002 -1.6104844 1.2937068 0
3.1660001 -1.6126506 1.2921014 0
3.1620002 -1.6153673 1.290817 0
3.1580002 -1.6180693 1.2895328 0
3.3520002 -1.5050067 1.3464971 0
3.3480003 -1.5083474 1.34522 0
3.3430002 -1.5111756 1.3436235 0
3.3380003 -1.5139861 1.3420273 0
3.3330002 -1.5167783 1.3404307 0
3.3280003 -1.5195526 1.3388345 0
3.3230002 -1.5223087 1.3372381 0
3.3180003 -1.5250471 1.3356417 0
3.3130002 -1.5277671 1.3340453 0
3.3080003 -1.5304693 1.3324491 0
3.3040001 -1.5336655 1.3311719 0
3.2990003 -1.5363334 1.3295755 0
3.2940001 -1.5389832 1.3279792 0
3.2890003 -1.541615 1.3263828 0
3.2850003 -1.5447482 1.3251057 0
3.2800002 -1.5473456 1.3235092 0
3.2750003 -1.5499252 1.3219129 0
3.2700002 -1.5524865 1.3203166 0
3.2660003 -1.5555567 1.3190395 0
3.2610002 -1.5580837 1.317443 0
3.2560003 -1.5605929 1.3158467 0
3.2520003 -1.5636162 1.3145697 0
3.2470002 -1.5660908 1.3129733 0
3.2430003 -1.5690833 1.3116962 0
3.2380002 -1.5715238 1.3100997 0
3.2330003 -1.5739465 1.3085034 0
3.2290003 -1.5768921 1.3072263 0
3.2240002 -1.5792803 1.30563 0
3.2200003 -1.5821953 1.3043529 0
3.2150002 -1.5845492 1.3027564 0
3.2110002 -1.5874335 1.3014793 0
3.2060003 -1.5897533 1.299883 0
3.2020001 -1.5926068 1.2986059 0
3.1970003 -1.5948923 1.2970096 0
3.1930003 -1.5977153 1.2957325 0
3.1880002 -1.5999663 1.294136 0
3.1840003 -1.6027586 1.292859 0
3.1800003 -1.6055366 1.2915819 0
3.1750002 -1.6077372 1.2899855 0
3.1710002 -1.6104844 1.2887084 0
3.1660001 -1.6126506 1.287112 0
3.1620002 -1.6153673 1.2858349 0
3.1580002 -1.6180693 1.2845578 0
3.3520002 -1.5050067 1.3411721 0
3.3480003 -1.5083474 1.3399023 0
3.3430002 -1.5111756 1.3383149 0
3.3380003 -1.5139861 1.3367276 0
3.3330002 -1.5167783 1.3351402 0
3.3280003 -1.5195526 1.333553 0
3.3230002 -1.5223087 1.3319654 0
3.3180003 -1.5250471 1.3303783 0
3.3130002 -1.5277671 1.3287908 0
3.3080003 -1.5304693 1.3272035 0
3.3040001 -1.5336655 1.3259336 0
3.2990003 -1.5363334 1.3243463 0
3.2940001 -1.5389832 1.3227589 0
3.2890003 -1.541615 1.3211715 0
3.2850003 -1.5447482 1.3199017 0
3.2800002 -1.5473456 1.3183143 0
3.2750003 -1.5499252 1.316727 0
3.2700002 -1.5524865 1.3151397 0
3.2660003 -1.5555567 1.3138697 0
3.2610002 -1.5580837 1.3122823 0
3.2560003 -1.5605929 1.3106951 0
3.2520003 -1.5636162 1.3094251 0
3.2470002 -1.5660908 1.3078378 0
3.2430003 -1.5690833 1.3065679 0
3.2380002 -1.5715238 1.3049805 0
3.2330003 -1.5739465 1.3033932 0
3.2290003 -1.5768921 1.3021234 0
3.2240002 -1.5792803 1.300536 0
3.2200003 -1.5821953 1.2992661 0
3.2150002 -1.5845492 1.2976787 0
3.2110002 -1.5874335 1.2964089 0
3.2060003 -1.5897533 1.2948216 0
3.2020001 -1.5926068 1.2935517 0
3.1970003 -1.5948923 1.2919643 0
3.1930003 -1.5977153 1.2906945 0
3.1880002 -1.5999663 1.2891071 0
3.1840003 -1.6027586 1.2878373 0
3.1800003 -1.6055366 1.2865673 0
3.1750002 -1.6077372 1.2849799 0
3.1710002 -1.6104844 1.28371 0
3.1660001 -1.6126506 1.2821227 0
3.1620002 -1.6153673 1.2808528 0
3.1580002 -1.6180693 1.279583 0
3.3520002 -1.5050067 1.3358474 0
3.3480003 -1.5083474 1.3345847 0
3.3430002 -1.5111756 1.3330064 0
3.3380003 -1.5139861 1.3314281 0
3.3330002 -1.5167783 1.3298497 0
3.3280003 -1.5195526 1.3282714 0
3.3230002 -1.5223087 1.3266931 0
3.3180003 -1.5250471 1.3251147 0
3.3130002 -1.5277671 1.3235364 0
3.3080003 -1.5304693 1.3219581 0
3.3040001 -1.5336655 1.3206953 0
3.2990003 -1.5363334 1.3191171 0
3.2940001 -1.5389832 1.3175386 0
3.2890003 -1.541615 1.3159604 0
3.2850003 -1.5447482 1.3146977 0
3.2800002 -1.5473456 1.3131194 0
3.2750003 -1.5499252 1.3115411 0
3.2700002 -1.5524865 1.3099627 0
3.2660003 -1.5555567 1.3087 0
3.2610002 -1.5580837 1.3071216 0
3.2560003 -1.5605929 1.3055433 0
3.2520003 -1.5636162 1.3042808 0
3.2470002 -1.5660908 1.3027024 0
3.2430003 -1.5690833 1.3014398 0
3.2380002 -1.5715238 1.2998614 0
3.2330003 -1.5739465 1.2982831 0
3.2290003 -1.5768921 1.2970204 0
3.2240002 -1.5792803 1.295442 0
3.2200003 -1.5821953 1.2941794 0
3.2150002 -1.5845492 1.292601 0
3.2110002 -1.5874335 1.2913383 0
3.2060003 -1.5897533 1.2897601 0
3.2020001 -1.5926068 1.2884973 0
3.1970003 -1.5948923 1.2869191 0
3.1930003 -1.5977153 1.2856563 0
3.1880002 -1.5999663 1.284078 0
3.1840003 -1.6027586 1.2828155 0
3.1800003 -1.6055366 1.2815528 0
3.1750002 -1.6077372 1.2799743 0
3.1710002 -1.6104844 1.2787117 0
3.1660001 -1.6126506 1.2771333 0
3.1620002 -1.6153673 1.2758707 0
3.1580002 -1.6180693 1.274608 0
3.3520002 -1.5050067 1.3305225 0
3.3480003 -1.5083474 1.329267 0
3.3430002 -1.5111756 1.3276978 0
3.3380003 -1.5139861 1.3261285 0
3.3330002 -1.5167783 1.3245591 0
3.3280003 -1.5195526 1.3229898 0
3.3230002 -1.5223087 1.3214204 0
3.3180003 -1.5250471 1.3198512 0
3.3130002 -1.5277671 1.3182819 0
3.3080003 -1.5304693 1.3167126 0
3.3040001 -1.5336655 1.3154571 0
3.2990003 -1.5363334 1.3138878 0
3.2940001 -1.5389832 1.3123184 0
3.2890003 -1.541615 1.3107492 0
3.2850003 -1.5447482 1.3094938 0
3.2800002 -1.5473456 1.3079244 0
3.2750003 -1.5499252 1.3063551 0
3.2700002 -1.5524865 1.3047858 0
3.2660003 -1.5555567 1.3035303 0
3.2610002 -1.5580837 1.3019611 0
3.2560003 -1.5605929 1.3003917 0
3.2520003 -1.5636162 1.2991363 0
3.2470002 -1.5660908 1.2975669 0
3.2430003 -1.5690833 1.2963115 0
3.2380002 -1.5715238 1.2947421 0
3.2330003 -1.5739465 1.2931728 0
3.2290003 -1.5768921 1.2919174 0
3.2240002 -1.5792803 1.2903481 0
3.2200003 -1.5821953 1.2890927 0
3.2150002 -1.5845492 1.2875233 0
3.2110002 -1.5874335 1.2862679 0
3.2060003 -1.5897533 1.2846986 0
3.2020001 -1.5926068 1.2834431 0
3.1970003 -1.5948923 1.2818738 0
3.1930003 -1.5977153 1.2806183 0
3.1880002 -1.5999663 1.279049 0
3.1840003 -1.6027586 1.2777935 0
3.1800003 -1.6055366 1.2765381 0
3.1750002 -1.6077372 1.2749687 0
3.1710002 -1.6104844 1.2737134 0
3.1660001 -1.6126506 1.272144 0
3.1620002 -1.6153673 1.2708886 0
3.1580002 -1.6180693 1.2696332 0
3.3520002 -1.5050067 1.3251977 0
3.3480003 -1.5083474 1.3239495 0
3.3430002 -1.5111756 1.3223891 0
3.3380003 -1.5139861 1.3208289 0
3.3330002 -1.5167783 1.3192686 0
3.3280003 -1.5195526 1.3177083 0
3.3230002 -1.5223087 1.3161479 0
3.3180003 -1.5250471 1.3145877 0
3.3130002 -1.5277671 1.3130274 0
3.3080003 -1.5304693 1.3114672 0
3.3040001 -1.5336655 1.3102188 0
3.2990003 -1.5363334 1.3086586 0
3.2940001 -1.5389832 1.3070983 0
3.2890003 -1.541615 1.3055379 0
3.2850003 -1.5447482 1.3042897 0
3.2800002 -1.5473456 1.3027294 0
3.2750003 -1.5499252 1.3011692 0
3.2700002 -1.5524865 1.2996088 0
3.2660003 -1.5555567 1.2983606 0
3.2610002 -1.5580837 1.2968003 0
3.2560003 -1.5605929 1.29524 0
3.2520003 -1.5636162 1.2939918 0
3.2470002 -1.5660908 1.2924315 0
3.2430003 -1.5690833 1.2911832 0
3.2380002 -1.5715238 1.2896229 0
3.2330003 -1.5739465 1.2880627 0
3.2290003 -1.5768921 1.2868145 0
3.2240002 -1.5792803 1.2852541 0
3.2200003 -1.5821953 1.2840059 0
3.2150002 -1.5845492 1.2824455 0
3.2110002 -1.5874335 1.2811973 0
3.2060003 -1.5897533 1.2796371 0
3.2020001 -1.5926068 1.2783889 0
3.1970003 -1.5948923 1.2768285 0
3.1930003 -1.5977153 1.2755803 0
3.1880002 -1.5999663 1.27402 0
3.1840003 -1.6027586 1.2727717 0
3.1800003 -1.6055366 1.2715236 0
3.1750002 -1.6077372 1.2699633 0
3.1710002 -1.6104844 1.268715 0
3.1660001 -1.6126506 1.2671547 0
3.1620002 -1.6153673 1.2659065 0
3.1580002 -1.6180693 1.2646582 0
3.3520002 -1.5050067 1.3198729 0
3.3480003 -1.5083474 1.3186318 0
3.3430002 -1.5111756 1.3170805 0
3.3380003 -1.5139861 1.3155292 0
3.3330002 -1.5167783 1.313978 0
3.3280003 -1.5195526 1.3124267 0
3.3230002 -1.5223087 1.3108754 0
3.3180003 -1.5250471 1.3093241 0
3.3130002 -1.5277671 1.3077729 0
3.3080003 -1.5304693 1.3062216 0
3.3040001 -1.5336655 1.3049805 0
3.2990003 -1.5363334 1.3034292 0
3.2940001 -1.5389832 1.301878 0
3.2890003 -1.541615 1.3003267 0
3.2850003 -1.5447482 1.2990857 0
3.2800002 -1.5473456 1.2975345 0
3.2750003 -1.5499252 1.2959832 0
3.2700002 -1.5524865 1.2944319 0
3.2660003 -1.5555567 1.2931908 0
3.2610002 -1.5580837 1.2916396 0
3.2560003 -1.5605929 1.2900883 0
3.2520003 -1.5636162 1.2888473 0
3.2470002 -1.5660908 1.2872961 0
3.2430003 -1.5690833 1.2860551 0
3.2380002 -1.5715238 1.2845037 0
3.2330003 -1.5739465 1.2829525 0
3.2290003 -1.5768921 1.2817115 0
3.2240002 -1.5792803 1.2801602 0
3.2200003 -1.5821953 1.2789192 0
3.2150002 -1.5845492 1.2773678 0
3.2110002 -1.5874335 1.2761269 0
3.2060003 -1.5897533 1.2745756 0
3.2020001 -1.5926068 1.2733345 0
3.1970003 -1.5948923 1.2717832 0
3.1930003 -1.5977153 1.2705423 0
3.1880002 -1.5999663 1.268991 0
3.1840003 -1.6027586 1.26775 0
3.1800003 -1.6055366 1.2665089 0
3.1750002 -1.6077372 1.2649577 0
3.1710002 -1.6104844 1.2637167 0
3.1660001 -1.6126506 1.2621654 0
3.1620002 -1.6153673 1.2609243 0
3.1580002 -1.6180693 1.2596834 0
3.3520002 -1.5050067 1.314548 0
3.3480003 -1.5083474 1.3133142 0
3.3430002 -1.5111756 1.3117719 0
3.3380003 -1.5139861 1.3102297 0
3.3330002 -1.5167783 1.3086874 0
3.3280003 -1.5195526 1.3071452 0
3.3230002 -1.5223087 1.3056029 0
3.3180003 -1.5250471 1.3040607 0
3.3130002 -1.5277671 1.3025184 0
3.3080003 -1.5304693 1.3009762 0
3.3040001 -1.5336655 1.2997423 0
3.2990003 -1.5363334 1.2982001 0
3.2940001 -1.5389832 1.2966578 0
3.2890003 -1.541615 1.2951156 0
3.2850003 -1.5447482 1.2938818 0
3.2800002 -1.5473456 1.2923394 0
3.2750003 -1.5499252 1.2907972 0
3.2700002 -1.5524865 1.289255 0
3.2660003 -1.5555567 1.2880212 0
3.2610002 -1.5580837 1.2864789 0
3.2560003 -1.5605929 1.2849367 0
3.2520003 -1.5636162 1.2837029 0
3.2470002 -1.5660908 1.2821606 0
3.2430003 -1.5690833 1.2809268 0
3.2380002 -1.5715238 1.2793845 0
3.2330003 -1.5739465 1.2778423 0
3.2290003 -1.5768921 1.2766085 0
3.2240002 -1.5792803 1.2750663 0
3.2200003 -1.5821953 1.2738324 0
3.2150002 -1.5845492 1.2722901 0
3.2110002 -1.5874335 1.2710564 0
3.2060003 -1.5897533 1.2695142 0
3.2020001 -1.5926068 1.2682803 0
3.1970003 -1.5948923 1.2667381 0
3.1930003 -1.5977153 1.2655042 0
3.1880002 -1.5999663 1.2639619 0
3.1840003 -1.6027586 1.2627282 0
3.1800003 -1.6055366 1.2614944 0
3.1750002 -1.6077372 1.2599521 0
3.1710002 -1.6104844 1.2587184 0
3.1660001 -1.6126506 1.257176 0
3.1620002 -1.6153673 1.2559422 0
3.1580002 -1.6180693 1.2547084 0
3.3520002 -1.5050067 1.3092232 0
3.3480003 -1.5083474 1.3079965 0
3.3430002 -1.5111756 1.3064634 0
3.3380003 -1.5139861 1.3049301 0
3.3330002 -1.5167783 1.3033968 0
3.3280003 -1.5195526 1.3018637 0
3.3230002 -1.5223087 1.3003303 0
3.3180003 -1.5250471 1.2987971 0
3.3130002 -1.5277671 1.2972639 0
3.3080003 -1.5304693 1.2957307 0
3.3040001 -1.5336655 1.294504 0
3.2990003 -1.5363334 1.2929708 0
3.2940001 -1.5389832 1.2914375 0
3.2890003 -1.541615 1.2899044 0
3.2850003 -1.5447482 1.2886778 0
3.2800002 -1.5473456 1.2871445 0
3.2750003 -1.5499252 1.2856113 0
3.2700002 -1.5524865 1.284078 0
3.2660003 -1.5555567 1.2828515 0
3.2610002 -1.5580837 1.2813182 0
3.2560003 -1.5605929 1.279785 0
3.2520003 -1.5636162 1.2785584 0
3.2470002 -1.5660908 1.2770251 0
3.2430003 -1.5690833 1.2757986 0
3.2380002 -1.5715238 1.2742653 0
3.2330003 -1.5739465 1.2727321 0
3.2290003 -1.5768921 1.2715056 0
3.2240002 -1.5792803 1.2699722 0
3.2200003 -1.5821953 1.2687457 0
3.2150002 -1.5845492 1.2672124 0
3.2110002 -1.5874335 1.2659858 0
3.2060003 -1.5897533 1.2644527 0
3.2020001 -1.5926068 1.263226 0
3.1970003 -1.5948923 1.2616928 0
3.1930003 -1.5977153 1.2604662 0
3.1880002 -1.5999663 1.2589329 0
3.1840003 -1.6027586 1.2577064 0
3.1800003 -1.6055366 1.2564799 0
3.1750002 -1.6077372 1.2549466 0
3.1710002 -1.6104844 1.25372 0
3.1660001 -1.6126506 1.2521867 0
