# .PCD v0.7 - Point Cloud Data file format
VERSION 0.7
FIELDS x y z intensity
SIZE 4 4 4 4
TYPE F F F F
COUNT 1 1 1 1
WIDTH 573
HEIGHT 1
VIEWPOINT 0 0 0 1 0 0 0
POINTS 573
DATA ascii
5.8320003 1.4041463 2.4518418 0
5.8310003 1.3940829 2.4514649 0
5.8320003 1.4041463 2.4420435 0
5.8310003 1.3940829 2.4416685 0
5.8300004 1.3840231 2.4412932 0
5.8320003 1.4041463 2.4322453 0
5.8310003 1.3940829 2.4318719 0
5.8300004 1.3840231 2.4314985 0
5.8320003 1.4041463 2.422447 0
5.8310003 1.3940829 2.4220753 0
5.8300004 1.3840231 2.4217038 0
5.8320003 1.4041463 2.4126487 0
5.8310003 1.3940829 2.4122791 0
5.8300004 1.3840231 2.4119091 0
5.8320003 1.4041463 2.4028504 0
5.8310003 1.3940829 2.4024825 0
5.8300004 1.3840231 2.4021146 0
5.8320003 1.4041463 2.3930521 0
5.8310003 1.3940829 2.3926859 0
5.8300004 1.3840231 2.3923197 0
5.8320003 1.4041463 2.3832538 0
5.8310003 1.3940829 2.3828893 0
5.8300004 1.3840231 2.3825252 0
5.8320003 1.4041463 2.3734555 0
5.8310003 1.3940829 2.3730931 0
5.8300004 1.3840231 2.3727305 0
5.8320003 1.4041463 2.3636572 0
5.8310003 1.3940829 2.3632965 0
5.8300004 1.3840231 2.3629355 0
5.8320003 1.4041463 2.3538589 0
5.8310003 1.3940829 2.3534999 0
5.8300004 1.3840231 2.3531411 0
5.8320003 1.4041463 2.3440607 0
5.8310003 1.3940829 2.3437035 0
5.8300004 1.3840231 2.3433464 0
5.8320003 1.4041463 2.3342624 0
5.8310003 1.3940829 2.3339071 0
5.8300004 1.3840231 2.3335516 0
5.8320003 1.4041463 2.3244641 0
5.8310003 1.3940829 2.3241105 0
5.8300004 1.3840231 2.3237569 0
5.8320003 1.4041463 2.3146658 0
5.8310003 1.3940829 2.3143141 0
5.8300004 1.3840231 2.3139625 0
5.8320003 1.4041463 2.3048675 0
5.8310003 1.3940829 2.3045175 0
5.8300004 1.3840231 2.3041677 0
5.8320003 1.4041463 2.2950692 0
5.8310003 1.3940829 2.2947211 0
5.8300004 1.3840231 2.294373 0
5.8320003 1.4041463 2.2852709 0
5.8310003 1.3940829 2.2849247 0
5.8300004 1.3840231 2.2845783 0
5.8320003 1.4041463 2.2754726 0
5.8310003 1.3940829 2.2751281 0
5.8300004 1.3840231 2.2747836 0
5.8320003 1.4041463 2.2656744 0
5.8310003 1.3940829 2.2653315 0
5.8300004 1.3840231 2.2649889 0
5.8320003 1.4041463 2.2558761 0
5.8310003 1.3940829 2.2555351 0
5.8300004 1.3840231 2.2551942 0
5.8320003 1.4041463 2.2460778 0
5.8310003 1.3940829 2.2457387 0
5.8300004 1.3840231 2.2453997 0
5.8320003 1.4041463 2.2362795 0
5.8310003 1.3940829 2.2359421 0
5.8300004 1.3840231 2.2356048 0
5.8320003 1.4041463 2.2264812 0
5.8310003 1.3940829 2.2261457 0
5.8300004 1.3840231 2.2258103 0
5.8320003 1.4041463 2.2166829 0
5.8310003 1.3940829 2.2163494 0
5.8300004 1.3840231 2.2160156 0
5.8320003 1.4041463 2.2068846 0
5.8310003 1.3940829 2.2065527 0
5.8300004 1.3840231 2.2062209 0
5.8320003 1.4041463 2.1970863 0
5.8310003 1.3940829 2.1967564 0
5.8300004 1.3840231 2.1964262 0
5.8320003 1.4041463 2.187288 0
5.8310003 1.3940829 2.1869597 0
5.8300004 1.3840231 2.1866314 0
5.8320003 1.4041463 2.1774898 0
5.8310003 1.3940829 2.1771634 0
5.8300004 1.3840231 2.176837 0
5.8320003 1.4041463 2.1676915 0
5.8310003 1.3940829 2.1673667 0
5.8300004 1.3840231 2.167042 0
5.8320003 1.4041463 2.1578932 0
5.8310003 1.3940829 2.1575704 0
5.8300004 1.3840231 2.1572475 0
5.8320003 1.4041463 2.1480949 0
5.8310003 1.3940829 2.1477737 0
5.8300004 1.3840231 2.1474528 0
5.8320003 1.4041463 2.1382966 0
5.8310003 1.3940829 2.1379774 0
5.8300004 1.3840231 2.1376581 0
5.8320003 1.4041463 2.1284983 0
5.8310003 1.3940829 2.1281807 0
5.8300004 1.3840231 2.1278634 0
5.8320003 1.4041463 2.1187 0
5.8310003 1.3940829 2.1183844 0
5.8300004 1.3840231 2.1180687 0
5.8320003 1.4041463 2.1089017 0
5.8310003 1.3940829 2.108588 0
5.8300004 1.3840231 2.1082742 0
5.8320003 1.4041463 2.0991035 0
5.8310003 1.3940829 2.0987914 0
5.8300004 1.3840231 2.0984795 0
5.8320003 1.4041463 2.0893052 0
5.8310003 1.3940829 2.088995 0
5.8300004 1.3840231 2.0886848 0
5.8320003 1.4041463 2.0795069 0
5.8310003 1.3940829 2.0791986 0
5.8300004 1.3840231 2.0788901 0
5.8320003 1.4041463 2.0697086 0
5.8310003 1.3940829 2.069402 0
5.8300004 1.3840231 2.0690954 0
5.8320003 1.4041463 2.0599103 0
5.8310003 1.3940829 2.0596056 0
5.8300004 1.3840231 2.0593007 0
5.8320003 1.4041463 2.050112 0
5.8310003 1.3940829 2.049809 0
5.8300004 1.3840231 2.0495059 0
5.8320003 1.4041463 2.0403137 0
5.8310003 1.3940829 2.0400126 0
5.8300004 1.3840231 2.0397112 0
5.8320003 1.4041463 2.0305154 0
5.8310003 1.3940829 2.030216 0
5.8300004 1.3840231 2.0299168 0
5.8320003 1.4041463 2.0207171 0
5.8310003 1.3940829 2.0204196 0
5.8300004 1.3840231 2.0201221 0
5.8320003 1.4041463 2.0109189 0
5.8310003 1.3940829 2.010623 0
5.8300004 1.3840231 2.0103273 0
5.8320003 1.4041463 2.0011206 0
5.8310003 1.3940829 2.0008266 0
5.8300004 1.3840231 2.0005326 0
5.8320003 1.4041463 1.9913224 0
5.8310003 1.3940829 1.9910302 0
5.8300004 1.3840231 1.990738 0
5.8320003 1.4041463 1.9815241 0
5.8310003 1.3940829 1.9812337 0
5.8300004 1.3840231 1.9809433 0
5.8320003 1.4041463 1.9717258 0
5.8310003 1.3940829 1.9714372 0
5.8300004 1.3840231 1.9711486 0
5.8320003 1.4041463 1.9619275 0
5.8310003 1.3940829 1.9616408 0
5.8300004 1.3840231 1.961354 0
5.8320003 1.4041463 1.9521292 0
5.8310003 1.3940829 1.9518442 0
5.8300004 1.3840231 1.9515593 0
5.8320003 1.4041463 1.942331 0
5.8310003 1.3940829 1.9420478 0
5.8300004 1.3840231 1.9417647 0
5.8320003 1.4041463 1.9325327 0
5.8310003 1.3940829 1.9322513 0
5.8300004 1.3840231 1.93197 0
5.8320003 1.4041463 1.9227344 0
5.8310003 1.3940829 1.9224548 0
5.8300004 1.3840231 1.9221752 0
5.8320003 1.4041463 1.9129361 0
5.8310003 1.3940829 1.9126583 0
5.8300004 1.3840231 1.9123806 0
5.8320003 1.4041463 1.9031378 0
5.8310003 1.3940829 1.902862 0
5.8300004 1.3840231 1.9025859 0
5.8320003 1.4041463 1.8933395 0
5.8310003 1.3940829 1.8930653 0
5.8300004 1.3840231 1.8927913 0
5.8320003 1.4041463 1.8835412 0
5.8310003 1.3940829 1.883269 0
5.8300004 1.3840231 1.8829966 0
5.8320003 1.4041463 1.8737431 0
5.8310003 1.3940829 1.8734725 0
5.8300004 1.3840231 1.8732018 0
5.8320003 1.4041463 1.8639448 0
5.8310003 1.3940829 1.863676 0
5.8300004 1.3840231 1.8634073 0
5.8320003 1.4041463 1.8541464 0
5.8310003 1.3940829 1.8538795 0
5.8300004 1.3840231 1.8536124 0
5.8320003 1.4041463 1.8443481 0
5.8310003 1.3940829 1.844083 0
5.8300004 1.3840231 1.8438178 0
5.8320003 1.4041463 1.8345498 0
5.8310003 1.3940829 1.8342865 0
5.8300004 1.3840231 1.8340231 0
5.8320003 1.4041463 1.8247515 0
5.8310003 1.3940829 1.8244901 0
5.8300004 1.3840231 1.8242284 0
5.8320003 1.4041463 1.8149532 0
5.8310003 1.3940829 1.8146935 0
5.8300004 1.3840231 1.8144338 0
5.8320003 1.4041463 1.8051549 0
5.8310003 1.3940829 1.8048971 0
5.8300004 1.3840231 1.8046391 0
5.8320003 1.4041463 1.7953566 0
5.8310003 1.3940829 1.7951006 0
5.8300004 1.3840231 1.7948445 0
5.8320003 1.4041463 1.7855585 0
5.8310003 1.3940829 1.7853041 0
5.8300004 1.3840231 1.7850498 0
5.8320003 1.4041463 1.7757602 0
5.8310003 1.3940829 1.7755076 0
5.8300004 1.3840231 1.7752551 0
5.8320003 1.4041463 1.7659619 0
5.8310003 1.3940829 1.7657112 0
5.8320003 1.4041463 1.7561636 0
5.8310003 1.3940829 1.7559146 0
5.8320003 1.4041463 1.7463652 0
5.8310003 1.3940829 1.7461182 0
5.8320003 1.4041463 1.7365669 0
5.8310003 1.3940829 1.7363217 0
5.8320003 1.4041463 1.7267686 0
5.8310003 1.3940829 1.7265252 0
5.8320003 1.4041463 1.7169703 0
5.8310003 1.3940829 1.7167287 0
5.8320003 1.4041463 1.707172 0
5.8310003 1.3940829 1.7069323 0
5.8320003 1.4041463 1.6973739 0
5.8310003 1.3940829 1.6971357 0
5.8320003 1.4041463 1.6875756 0
5.8310003 1.3940829 1.6873393 0
5.8320003 1.4041463 1.6777773 0
5.8310003 1.3940829 1.6775428 0
5.8320003 1.4041463 1.667979 0
5.8310003 1.3940829 1.6677463 0
5.8320003 1.4041463 1.6581807 0
5.8310003 1.3940829 1.6579498 0
5.8320003 1.4041463 1.6483824 0
5.8310003 1.3940829 1.6481533 0
5.8320003 1.4041463 1.638584 0
5.8310003 1.3940829 1.6383568 0
5.8320003 1.4041463 1.6287857 0
5.8310003 1.3940829 1.6285603 0
5.8320003 1.4041463 1.6189874 0
5.8310003 1.3940829 1.6187639 0
5.8320003 1.4041463 1.6091893 0
5.8310003 1.3940829 1.6089673 0
5.8320003 1.4041463 1.599391 0
5.8310003 1.3940829 1.5991709 0
5.8320003 1.4041463 1.5895927 0
5.8310003 1.3940829 1.5893744 0
5.8320003 1.4041463 1.5797944 0
5.8310003 1.3940829 1.5795779 0
5.8320003 1.4041463 1.5699961 0
5.8310003 1.3940829 1.5697814 0
5.8320003 1.4041463 1.5601978 0
5.8310003 1.3940829 1.559985 0
5.8320003 1.4041463 1.5503995 0
5.8310003 1.3940829 1.5501884 0
5.8320003 1.4041463 1.5406013 0
5.8310003 1.3940829 1.540392 0
5.8320003 1.4041463 1.5308028 0
5.8310003 1.3940829 1.5305955 0
5.8320003 1.4041463 1.5210047 0
5.8310003 1.3940829 1.520799 0
5.8320003 1.4041463 1.5112064 0
5.8310003 1.3940829 1.5110025 0
5.8320003 1.4041463 1.5014081 0
5.8310003 1.3940829 1.501206 0
5.8320003 1.4041463 1.4916098 0
5.8310003 1.3940829 1.4914095 0
5.8320003 1.4041463 1.4818115 0
5.8310003 1.3940829 1.4816132 0
5.8320003 1.4041463 1.4720132 0
5.8310003 1.3940829 1.4718165 0
5.8320003 1.4041463 1.4622149 0
5.8310003 1.3940829 1.4620202 0
5.8320003 1.4041463 1.4524167 0
5.8310003 1.3940829 1.4522237 0
5.8320003 1.4041463 1.4426184 0
5.8310003 1.3940829 1.4424272 0
5.8320003 1.4041463 1.4328202 0
5.8310003 1.3940829 1.4326307 0
5.8320003 1.4041463 1.4230218 0
5.8310003 1.3940829 1.4228343 0
5.8320003 1.4041463 1.4132235 0
5.8310003 1.3940829 1.4130377 0
5.8320003 1.4041463 1.4034252 0
5.8310003 1.3940829 1.4032413 0
5.8320003 1.4041463 1.3936269 0
5.8310003 1.3940829 1.3934447 0
5.8300004 1.3840231 1.3932626 0
5.8320003 1.4041463 1.3838286 0
5.8310003 1.3940829 1.3836483 0
5.8300004 1.3840231 1.3834678 0
5.8320003 1.4041463 1.3740304 0
5.8310003 1.3940829 1.3738518 0
5.8300004 1.3840231 1.3736732 0
5.8320003 1.4041463 1.3642321 0
5.8310003 1.3940829 1.3640553 0
5.8300004 1.3840231 1.3638785 0
5.8320003 1.4041463 1.3544338 0
5.8310003 1.3940829 1.3542588 0
5.8300004 1.3840231 1.3540839 0
5.8320003 1.4041463 1.3446355 0
5.8310003 1.3940829 1.3444624 0
5.8300004 1.3840231 1.3442892 0
5.8320003 1.4041463 1.3348372 0
5.8310003 1.3940829 1.3346658 0
5.8300004 1.3840231 1.3344945 0
5.8320003 1.4041463 1.3250389 0
5.8310003 1.3940829 1.3248694 0
5.8300004 1.3840231 1.3246999 0
5.8320003 1.4041463 1.3152406 0
5.8310003 1.3940829 1.3150729 0
5.8300004 1.3840231 1.3149052 0
5.8320003 1.4041463 1.3054423 0
5.8310003 1.3940829 1.3052764 0
5.8300004 1.3840231 1.3051105 0
5.8320003 1.4041463 1.295644 0
5.8310003 1.3940829 1.2954799 0
5.8300004 1.3840231 1.2953157 0
5.8320003 1.4041463 1.2858458 0
5.8310003 1.3940829 1.2856834 0
5.8300004 1.3840231 1.285521 0
5.8320003 1.4041463 1.2760475 0
5.8310003 1.3940829 1.2758869 0
5.8300004 1.3840231 1.2757264 0
5.8320003 1.4041463 1.2662492 0
5.8310003 1.3940829 1.2660904 0
5.8300004 1.3840231 1.2659317 0
5.8320003 1.4041463 1.2564509 0
5.8310003 1.3940829 1.256294 0
5.8320003 1.4041463 1.2466526 0
5.8310003 1.3940829 1.2464975 0
5.8330002 1.4044132 1.2370076 0
5.8310003 1.3940829 1.236701 0
5.8330002 1.4044132 1.2272075 0
5.8310003 1.3940829 1.2269045 0
5.8330002 1.4044132 1.2174075 0
5.8310003 1.3940829 1.217108 0
5.8330002 1.4044132 1.2076074 0
5.8310003 1.3940829 1.2073115 0
5.8330002 1.4044132 1.1978073 0
5.8310003 1.3940829 1.1975151 0
5.8330002 1.4044132 1.1880072 0
5.8310003 1.3940829 1.1877186 0
5.8330002 1.4044132 1.178207 0
5.8310003 1.3940829 1.1779221 0
5.8330002 1.4044132 1.1684071 0
5.8310003 1.3940829 1.1681256 0
5.8330002 1.4044132 1.1586069 0
5.8310003 1.3940829 1.1583291 0
5.8330002 1.4044132 1.1488068 0
5.8310003 1.3940829 1.1485326 0
5.8330002 1.4044132 1.1390067 0
5.8310003 1.3940829 1.1387362 0
5.8330002 1.4044132 1.1292067 0
5.8310003 1.3940829 1.1289397 0
5.8330002 1.4044132 1.1194066 0
5.8310003 1.3940829 1.1191432 0
5.8330002 1.4044132 1.1096065 0
5.8310003 1.3940829 1.1093467 0
5.8330002 1.4044132 1.0998064 0
5.8310003 1.3940829 1.0995502 0
5.8330002 1.4044132 1.0900062 0
5.8310003 1.3940829 1.0897537 0
5.8330002 1.4044132 1.0802063 0
5.8310003 1.3940829 1.0799572 0
5.8330002 1.4044132 1.0704061 0
5.8310003 1.3940829 1.0701609 0
5.8330002 1.4044132 1.060606 0
5.8310003 1.3940829 1.0603644 0
5.8330002 1.4044132 1.0508059 0
5.8310003 1.3940829 1.0505679 0
5.8330002 1.4044132 1.0410058 0
5.8310003 1.3940829 1.0407714 0
5.8330002 1.4044132 1.0312058 0
5.8310003 1.3940829 1.0309749 0
5.8330002 1.4044132 1.0214057 0
5.8310003 1.3940829 1.0211784 0
5.8330002 1.4044132 1.0116056 0
5.8310003 1.3940829 1.011382 0
5.8330002 1.4044132 1.0018054 0
5.8310003 1.3940829 1.0015855 0
5.8330002 1.4044132 0.99200547 0
5.8310003 1.3940829 0.99178898 0
5.8330002 1.4044132 0.98220527 0
5.8310003 1.3940829 0.98199248 0
5.8330002 1.4044132 0.9724052 0
5.8310003 1.3940829 0.97219598 0
5.8330002 1.4044132 0.96260512 0
5.8310003 1.3940829 0.96239948 0
5.8330002 1.4044132 0.95280504 0
5.8310003 1.3940829 0.95260298 0
5.8330002 1.4044132 0.94300497 0
5.8310003 1.3940829 0.9428066 0
5.8330002 1.4044132 0.93320489 0
5.8310003 1.3940829 0.9330101 0
5.8330002 1.4044132 0.92340481 0
5.8310003 1.3940829 0.9232136 0
5.8330002 1.4044132 0.91360462 0
5.8310003 1.3940829 0.9134171 0
5.8330002 1.4044132 0.9038046 0
5.8310003 1.3940829 0.9036206 0
5.8330002 1.4044132 0.89400446 0
5.8310003 1.3940829 0.89382416 0
5.8330002 1.4044132 0.88420439 0
5.8310003 1.3940829 0.88402766 0
5.8330002 1.4044132 0.87440431 0
5.8310003 1.3940829 0.87423122 0
5.8330002 1.4044132 0.86460423 0
5.8310003 1.3940829 0.86443472 0
5.8330002 1.4044132 0.85480416 0
5.8310003 1.3940829 0.85463822 0
5.8330002 1.4044132 0.84500408 0
5.8310003 1.3940829 0.84484172 0
5.8330002 1.4044132 0.83520401 0
5.8310003 1.3940829 0.83504522 0
5.8330002 1.4044132 0.82540387 0
5.8310003 1.3940829 0.82524872 0
5.8330002 1.4044132 0.81560379 0
5.8310003 1.3940829 0.81545228 0
5.8330002 1.4044132 0.80580366 0
5.8310003 1.3940829 0.80565578 0
5.8330002 1.4044132 0.79600358 0
5.8310003 1.3940829 0.79585934 0
5.8330002 1.4044132 0.7862035 0
5.8310003 1.3940829 0.78606284 0
5.8330002 1.4044132 0.77640343 0
5.8310003 1.3940829 0.77626634 0
5.8330002 1.4044132 0.76660335 0
5.8310003 1.3940829 0.76646984 0
5.8330002 1.4044132 0.75680327 0
5.8310003 1.3940829 0.75667334 0
5.8330002 1.4044132 0.74700314 0
5.8310003 1.3940829 0.7468769 0
5.8330002 1.4044132 0.73720306 0
5.8310003 1.3940829 0.73708045 0
5.8330002 1.4044132 0.72740299 0
5.8310003 1.3940829 0.72728395 0
5.8330002 1.4044132 0.71760285 0
5.8310003 1.3940829 0.71748745 0
5.8330002 1.4044132 0.70780277 0
5.8310003 1.3940829 0.70769095 0
5.8330002 1.4044132 0.6980027 0
5.8310003 1.3940829 0.69789445 0
5.8330002 1.4044132 0.68820262 0
5.8310003 1.3940829 0.68809801 0
5.8330002 1.4044132 0.67840254 0
5.8310003 1.3940829 0.67830151 0
5.8330002 1.4044132 0.66860247 0
5.8310003 1.3940829 0.66850507 0
5.8330002 1.4044132 0.65880233 0
5.8310003 1.3940829 0.65870857 0
5.8330002 1.4044132 0.64900225 0
5.8310003 1.3940829 0.64891207 0
5.8330002 1.4044132 0.63920218 0
5.8310003 1.3940829 0.63911557 0
5.8330002 1.4044132 0.62940204 0
5.8310003 1.3940829 0.62931907 0
5.8330002 1.4044132 0.61960196 0
5.8310003 1.3940829 0.61952263 0
5.8330002 1.4044132 0.60980189 0
5.8310003 1.3940829 0.60972613 0
5.8330002 1.4044132 0.60000181 0
5.8310003 1.3940829 0.59992969 0
5.8330002 1.4044132 0.59020174 0
5.8310003 1.3940829 0.59013319 0
5.8330002 1.4044132 0.58040166 0
5.8310003 1.3940829 0.58033669 0
5.8330002 1.4044132 0.57060152 0
5.8310003 1.3940829 0.57054019 0
5.8330002 1.4044132 0.56080145 0
5.8310003 1.3940829 0.56074375 0
5.8330002 1.4044132 0.55100137 0
5.8310003 1.3940829 0.55094725 0
5.8330002 1.4044132 0.54120129 0
5.8310003 1.3940829 0.54115075 0
5.8330002 1.4044132 0.53140116 0
5.8310003 1.3940829 0.53135431 0
5.8330002 1.4044132 0.52160108 0
5.8310003 1.3940829 0.52155781 0
5.8330002 1.4044132 0.511801 0
5.8310003 1.3940829 0.51176131 0
5.8330002 1.4044132 0.50200093 0
5.8310003 1.3940829 0.50196481 0
5.8330002 1.4044132 0.49220082 0
5.8310003 1.3940829 0.49216837 0
5.8330002 1.4044132 0.48240072 0
5.8310003 1.3940829 0.48237187 0
5.8330002 1.4044132 0.47260064 0
5.8310003 1.3940829 0.4725754 0
5.8330002 1.4044132 0.46280056 0
5.8310003 1.3940829 0.46277893 0
5.8330002 1.4044132 0.45300046 0
5.8310003 1.3940829 0.45298243 0
5.8330002 1.4044132 0.44320038 0
5.8310003 1.3940829 0.44318596 0
5.8330002 1.4044132 0.43340027 0
5.8310003 1.3940829 0.43338946 0
5.8330002 1.4044132 0.4236002 0
5.8310003 1.3940829 0.42359298 0
5.8330002 1.4044132 0.41380009 0
5.8310003 1.3940829 0.41379648 0
5.8330002 1.4044132 0.40400001 0
5.8310003 1.3940829 0.40400001 0
5.8330002 1.4044132 0.39419994 0
5.8310003 1.3940829 0.39420354 0
5.8330002 1.4044132 0.38439983 0
5.8310003 1.3940829 0.38440704 0
5.8330002 1.4044132 0.37459975 0
5.8310003 1.3940829 0.37461057 0
5.8330002 1.4044132 0.36479965 0
5.8310003 1.3940829 0.36481407 0
5.8330002 1.4044132 0.35499957 0
5.8310003 1.3940829 0.3550176 0
5.8330002 1.4044132 0.34519947 0
5.8310003 1.3940829 0.3452211 0
5.8330002 1.4044132 0.33539939 0
5.8310003 1.3940829 0.33542463 0
5.8330002 1.4044132 0.32559931 0
5.8310003 1.3940829 0.32562816 0
5.8330002 1.4044132 0.31579921 0
5.8310003 1.3940829 0.31583166 0
5.8330002 1.4044132 0.3059991 0
5.8310003 1.3940829 0.30603519 0
5.8330002 1.4044132 0.29619902 0
5.8310003 1.3940829 0.29623872 0
5.8330002 1.4044132 0.28639895 0
5.8310003 1.3940829 0.28644222 0
5.8330002 1.4044132 0.27659887 0
5.8310003 1.3940829 0.27664572 0
5.8330002 1.4044132 0.26679873 0
5.8310003 1.3940829 0.26684928 0
5.8330002 1.4044132 0.25699866 0
5.8310003 1.3940829 0.25705278 0
5.8330002 1.4044132 0.24719858 0
5.8310003 1.3940829 0.24725629 0
5.8330002 1.4044132 0.23739849 0
5.8310003 1.3940829 0.23745981 0
5.8330002 1.4044132 0.2275984 0
5.8310003 1.3940829 0.22766334 0
5.8330002 1.4044132 0.21779831 0
5.8310003 1.3940829 0.21786685 0
5.8330002 1.4044132 0.20799822 0
5.8310003 1.3940829 0.20807037 0
5.8330002 1.4044132 0.19819812 0
5.8310003 1.3940829 0.19827388 0
5.8330002 1.4044132 0.18839803 0
5.8310003 1.3940829 0.18847741 0
5.8330002 1.4044132 0.17859796 0
5.8310003 1.3940829 0.17868093 0
5.8330002 1.4044132 0.16879787 0
5.8310003 1.3940829 0.16888443 0
5.8330002 1.4044132 0.15899777 0
5.8310003 1.3940829 0.15908794 0
5.8330002 1.4044132 0.1491977 0
5.8310003 1.3940829 0.14929146 0
5.8330002 1.4044132 0.13939756 0
5.8310003 1.3940829 0.13949499 0
5.8330002 1.4044132 0.12959749 0
5.8310003 1.3940829 0.12969851 0
5.8330002 1.4044132 0.11979741 0
5.8310003 1.3940829 0.11990201 0
5.8330002 1.4044132 0.1099973 0
5.8310003 1.3940829 0.11010554 0
5.8330002 1.4044132 0.10019723 0
5.8310003 1.3940829 0.10030904 0
5.8330002 1.4044132 0.090397149 0
5.8310003 1.3940829 0.090512574 0
5.8330002 1.4044132 0.080597043 0
5.8310003 1.3940829 0.080716103 0
5.8330002 1.4044132 0.070796967 0
5.8310003 1.3940829 0.070919603 0
5.8330002 1.4044132 0.06099689 0
5.8310003 1.3940829 0.061123133 0
