# .PCD v0.7 - Point Cloud Data file format
VERSION 0.7
FIELDS x y z intensity
SIZE 4 4 4 4
TYPE F F F F
COUNT 1 1 1 1
WIDTH 1415
HEIGHT 1
VIEWPOINT 0 0 0 1 0 0 0
POINTS 1415
DATA ascii
4.9570003 -2.4133468 0.62593877 0
4.9600005 -2.4231308 0.62608492 0
4.8880005 -2.498934 0.62257826 0
4.8750005 -2.4999008 0.62194514 0
4.8660002 -2.5030212 0.62150681 0
4.8590002 -2.5072131 0.62116587 0
4.8520002 -2.5113802 0.62082499 0
4.8470001 -2.5166328 0.62058145 0
4.8430004 -2.5224249 0.62038666 0
4.8400002 -2.5287616 0.62024057 0
4.8380003 -2.5356486 0.62014312 0
4.8360004 -2.5425284 0.62004572 0
4.8360004 -2.5505302 0.62004572 0
4.8370004 -2.5590982 0.62009442 0
4.8400002 -2.5688059 0.62024057 0
4.8470001 -2.5808048 0.62058145 0
5.0640001 -2.2417829 0.62273699 0
5.0550003 -2.2459426 0.62231493 0
5.0470004 -2.2505443 0.62193972 0
5.0410004 -2.2560692 0.62165833 0
5.0370002 -2.2625287 0.62147075 0
5.0330005 -2.2689736 0.62128317 0
5.0310001 -2.2763674 0.62118936 0
5.0270004 -2.2827873 0.62100178 0
5.0200005 -2.2877369 0.62067348 0
5.0140004 -2.2931483 0.62039208 0
5.0080004 -2.298538 0.62011069 0
5.0030003 -2.3043966 0.61987615 0
4.9980001 -2.3102374 0.61964166 0
4.9940004 -2.3165545 0.61945409 0
4.9900002 -2.3228569 0.61926651 0
4.9860005 -2.329145 0.61907887 0
4.9820004 -2.3354187 0.6188913 0
4.9790001 -2.3421793 0.61875057 0
4.9750004 -2.3484259 0.618563 0
4.9730005 -2.3556683 0.61846924 0
4.9700003 -2.3623965 0.61832851 0
4.9680004 -2.3696227 0.61823469 0
4.9660001 -2.3768411 0.61814094 0
4.9650002 -2.3845651 0.61809403 0
4.9650002 -2.3927996 0.61809403 0
4.9650002 -2.4010339 0.61809403 0
4.9670005 -2.4103038 0.61818784 0
4.9740005 -2.4221783 0.61851609 0
4.8880005 -2.498934 0.61448282 0
4.8750005 -2.4999008 0.61387312 0
4.8660002 -2.5030212 0.613451 0
4.8590002 -2.5072131 0.6131227 0
4.8520002 -2.5113802 0.6127944 0
4.8470001 -2.5166328 0.61255991 0
4.8430004 -2.5224249 0.61237234 0
4.8400002 -2.5287616 0.61223161 0
4.8380003 -2.5356486 0.61213785 0
4.8360004 -2.5425284 0.61204404 0
4.8360004 -2.5505302 0.61204404 0
4.8370004 -2.5590982 0.61209095 0
4.8400002 -2.5688059 0.61223161 0
4.8470001 -2.5808048 0.61255991 0
5.0660005 -2.2343082 0.61441422 0
5.0550003 -2.237546 0.61391819 0
5.0470004 -2.2421618 0.61355746 0
5.0400004 -2.2472234 0.61324179 0
5.0350003 -2.2532117 0.61301631 0
5.0300002 -2.2591825 0.61279082 0
5.0270004 -2.2660947 0.61265552 0
5.0250001 -2.2734776 0.61256534 0
5.0230002 -2.2808533 0.61247516 0
5.0180001 -2.2867663 0.61224967 0
5.0120001 -2.2921741 0.61197913 0
5.0070004 -2.2980492 0.61175364 0
5.0030003 -2.3043966 0.61157322 0
4.9980001 -2.3102374 0.61134779 0
4.9940004 -2.3165545 0.61116737 0
4.9910002 -2.3233528 0.61103213 0
4.9870005 -2.329643 0.61085176 0
4.9840002 -2.3364179 0.61071646 0
4.9810004 -2.3431823 0.61058116 0
4.9780002 -2.3499355 0.61044586 0
4.9760003 -2.3571835 0.61035568 0
4.9750004 -2.3649309 0.61031055 0
4.9730005 -2.3721662 0.61022043 0
4.9730005 -2.380415 0.61022043 0
4.9730005 -2.3886638 0.61022043 0
4.9750004 -2.3979406 0.61031055 0
4.9810004 -2.4092884 0.61058116 0
4.8880005 -2.498934 0.60638732 0
4.8750005 -2.4999008 0.60580105 0
4.8660002 -2.5030212 0.6053952 0
4.8590002 -2.5072131 0.60507953 0
4.8520002 -2.5113802 0.60476387 0
4.8470001 -2.5166328 0.60453838 0
4.8430004 -2.5224249 0.60435802 0
4.8400002 -2.5287616 0.60422271 0
4.8380003 -2.5356486 0.60413253 0
4.8360004 -2.5425284 0.60404235 0
4.8360004 -2.5505302 0.60404235 0
4.8370004 -2.5590982 0.60408747 0
4.8400002 -2.5688059 0.60422271 0
4.8470001 -2.5808048 0.60453838 0
5.0720005 -2.2286947 0.60625744 0
5.0590005 -2.2310252 0.60569465 0
5.0490003 -2.2347209 0.60526168 0
5.0420003 -2.2397988 0.60495865 0
5.0360003 -2.2453256 0.60469896 0
5.0300002 -2.2508309 0.6044392 0
5.0260005 -2.2572706 0.60426605 0
5.0230002 -2.2641754 0.60413611 0
5.0200005 -2.2710695 0.60400629 0
5.0190005 -2.2789199 0.60396302 0
5.0170002 -2.2862811 0.60387635 0
5.0120001 -2.2921741 0.60365993 0
5.0070004 -2.2980492 0.6034435 0
5.0030003 -2.3043966 0.60327029 0
4.9990005 -2.31073 0.60309714 0
4.9960003 -2.317543 0.60296726 0
4.9920001 -2.323849 0.60279411 0
4.9900002 -2.3311365 0.60270751 0
4.9870005 -2.3379171 0.60257769 0
4.9850001 -2.3451879 0.60249108 0
4.9830003 -2.352452 0.60240448 0
4.9820004 -2.3602138 0.6023612 0
4.9810004 -2.3679721 0.60231793 0
4.9810004 -2.3762352 0.60231793 0
4.9820004 -2.3850091 0.6023612 0
4.9870005 -2.3958356 0.60257769 0
4.8880005 -2.498934 0.59829181 0
4.8750005 -2.4999008 0.59772903 0
4.8660002 -2.5030212 0.59733939 0
4.8590002 -2.5072131 0.59703636 0
4.8520002 -2.5113802 0.59673333 0
4.8470001 -2.5166328 0.59651685 0
4.8430004 -2.5224249 0.5963437 0
4.8400002 -2.5287616 0.59621382 0
4.8380003 -2.5356486 0.59612727 0
4.8360004 -2.5425284 0.59604067 0
4.8360004 -2.5505302 0.59604067 0
4.8370004 -2.5590982 0.59608394 0
4.8400002 -2.5688059 0.59621382 0
4.8470001 -2.5808048 0.59651685 0
5.0660005 -2.2258916 0.59758115 0
5.0550003 -2.2291491 0.59712476 0
5.0460005 -2.2333088 0.59675133 0
5.0380001 -2.2379084 0.59641945 0
5.0320005 -2.243428 0.59617054 0
5.0270004 -2.2494023 0.59596312 0
5.0230002 -2.2558365 0.59579712 0
5.0200005 -2.2627361 0.59567267 0
5.0180001 -2.2701063 0.5955897 0
5.0160003 -2.2774694 0.59550673 0
5.0150003 -2.2853107 0.59546524 0
5.0120001 -2.2921741 0.59534073 0
5.0080004 -2.298538 0.59517485 0
5.0050001 -2.305378 0.59505033 0
5.0010004 -2.3117149 0.5948844 0
4.9980001 -2.3185315 0.59475994 0
4.9960003 -2.3258331 0.59467697 0
4.9930005 -2.3326299 0.59455252 0
4.9910002 -2.3399155 0.59446955 0
4.9900002 -2.3476954 0.59442806 0
4.9890003 -2.3554716 0.59438658 0
4.9890003 -2.3637493 0.59438658 0
4.9900002 -2.3725338 0.59442806 0
4.9940004 -2.382848 0.594594 0
4.8880005 -2.498934 0.59019631 0
4.8750005 -2.4999008 0.58965701 0
4.8660002 -2.5030212 0.58928359 0
4.8590002 -2.5072131 0.58899319 0
4.8520002 -2.5113802 0.58870274 0
4.8470001 -2.5166328 0.58849531 0
4.8430004 -2.5224249 0.58832937 0
4.8400002 -2.5287616 0.58820492 0
4.8380003 -2.5356486 0.58812195 0
4.8360004 -2.5425284 0.58803898 0
4.8360004 -2.5505302 0.58803898 0
4.8370004 -2.5590982 0.58808047 0
4.8400002 -2.5688059 0.58820492 0
4.8470001 -2.5808048 0.58849531 0
5.0770001 -2.222594 0.58960104 0
5.0620003 -2.2240226 0.58900583 0
5.0520005 -2.2277422 0.58860898 0
5.0430002 -2.2318962 0.58825183 0
5.0360003 -2.2369633 0.58797401 0
5.0310001 -2.2429535 0.58777559 0
5.0260005 -2.2489262 0.58757722 0
5.0220003 -2.2553585 0.58741844 0
5.0180001 -2.2617764 0.58725971 0
5.0160003 -2.2691431 0.58718038 0
5.0140004 -2.2765028 0.58710098 0
5.0140004 -2.2848256 0.58710098 0
5.0130005 -2.2926614 0.58706129 0
5.0100002 -2.2995157 0.58694226 0
5.0070004 -2.3063595 0.58682323 0
5.0040002 -2.3131919 0.58670413 0
5.0020003 -2.3205085 0.58662474 0
5.0000005 -2.3278174 0.58654541 0
4.9980001 -2.335119 0.58646601 0
4.9970002 -2.3429134 0.58642638 0
4.9970002 -2.3512056 0.58642638 0
4.9980001 -2.3600008 0.58646601 0
5.0010004 -2.3698101 0.5865851 0
4.8880005 -2.498934 0.58210081 0
4.8750005 -2.4999008 0.58158493 0
4.8660002 -2.5030212 0.58122778 0
4.8590002 -2.5072131 0.58095002 0
4.8520002 -2.5113802 0.5806722 0
4.8470001 -2.5166328 0.58047378 0
4.8430004 -2.5224249 0.58031505 0
4.8400002 -2.5287616 0.58019602 0
4.8380003 -2.5356486 0.58011663 0
4.8360004 -2.5425284 0.5800373 0
4.8360004 -2.5505302 0.5800373 0
4.8370004 -2.5590982 0.58007693 0
4.8400002 -2.5688059 0.58019602 0
4.8470001 -2.5808048 0.58047378 0
5.0750003 -2.2216632 0.5810889 0
5.0610003 -2.2235556 0.58055854 0
5.0510001 -2.227273 0.58017975 0
5.0430002 -2.2318962 0.57987672 0
5.0360003 -2.2369633 0.57961154 0
5.0300002 -2.2424793 0.57938427 0
5.0250001 -2.2484498 0.5791949 0
5.0210004 -2.2548804 0.57904339 0
5.0180001 -2.2617764 0.57892972 0
5.0150003 -2.2686615 0.57881612 0
5.0140004 -2.2765028 0.57877821 0
5.0130005 -2.2843404 0.57874036 0
5.0130005 -2.2926614 0.57874036 0
5.0130005 -2.3009822 0.57874036 0
5.0100002 -2.3078313 0.57862669 0
5.0080004 -2.3151619 0.57855093 0
5.0070004 -2.3229797 0.57851303 0
5.0060005 -2.3307939 0.57847518 0
5.0050001 -2.338604 0.57843727 0
5.0060005 -2.3474104 0.57847518 0
5.0090003 -2.357223 0.57858878 0
4.8880005 -2.498934 0.57400537 0
4.8750005 -2.4999008 0.57351291 0
4.8660002 -2.5030212 0.57317197 0
4.8590002 -2.5072131 0.57290679 0
4.8520002 -2.5113802 0.57264167 0
4.8470001 -2.5166328 0.57245225 0
4.8430004 -2.5224249 0.57230073 0
4.8400002 -2.5287616 0.57218707 0
4.8380003 -2.5356486 0.57211137 0
4.8360004 -2.5425284 0.57203555 0
4.8360004 -2.5505302 0.57203555 0
4.8370004 -2.5590982 0.57207346 0
4.8400002 -2.5688059 0.57218707 0
4.8470001 -2.5808048 0.57245225 0
5.0750003 -2.2216632 0.5726561 0
5.0610003 -2.2235556 0.57215101 0
5.0510001 -2.227273 0.57179028 0
5.0430002 -2.2318962 0.57150161 0
5.0360003 -2.2369633 0.57124913 0
5.0300002 -2.2424793 0.57103264 0
5.0250001 -2.2484498 0.57085228 0
5.0210004 -2.2548804 0.57070798 0
5.0180001 -2.2617764 0.57059973 0
5.0160003 -2.2691431 0.57052761 0
5.0140004 -2.2765028 0.57045543 0
5.0130005 -2.2843404 0.57041937 0
5.0140004 -2.2931483 0.57045543 0
5.0150003 -2.3019598 0.57049149 0
5.0150003 -2.3102844 0.57049149 0
5.0140004 -2.3181167 0.57045543 0
5.0130005 -2.3259451 0.57041937 0
5.0140004 -2.3347621 0.57045543 0
5.0160003 -2.3440804 0.57052761 0
5.0240002 -2.3564041 0.57081622 0
4.8880005 -2.498934 0.56590986 0
4.8750005 -2.4999008 0.56544089 0
4.8660002 -2.5030212 0.56511617 0
4.8590002 -2.5072131 0.56486362 0
4.8520002 -2.5113802 0.56461108 0
4.8470001 -2.5166328 0.56443071 0
4.8430004 -2.5224249 0.56428641 0
4.8400002 -2.5287616 0.56417817 0
4.8380003 -2.5356486 0.56410605 0
4.8360004 -2.5425284 0.56403387 0
4.8360004 -2.5505302 0.56403387 0
4.8370004 -2.5590982 0.56406999 0
4.8400002 -2.5688059 0.56417817 0
4.8470001 -2.5808048 0.56443071 0
5.0770001 -2.222594 0.56429183 0
5.0630002 -2.2244899 0.56381202 0
5.0530005 -2.2282114 0.56346929 0
5.0440001 -2.232367 0.56316084 0
5.0370002 -2.2374358 0.56292093 0
5.0310001 -2.2429535 0.56271529 0
5.0270004 -2.2494023 0.5625782 0
5.0220003 -2.2553585 0.56240684 0
5.0190005 -2.2622564 0.56230402 0
5.0170002 -2.2696247 0.56223547 0
5.0150003 -2.2769861 0.56216693 0
5.0150003 -2.2853107 0.56216693 0
5.0150003 -2.2936351 0.56216693 0
5.0170002 -2.3029375 0.56223547 0
5.0200005 -2.3127377 0.56233829 0
5.0220003 -2.3220561 0.56240684 0
5.0240002 -2.3313818 0.56247538 0
5.0300002 -2.3426988 0.56268102 0
4.8880005 -2.498934 0.55781436 0
4.8750005 -2.4999008 0.55736881 0
4.8660002 -2.5030212 0.55706036 0
4.8590002 -2.5072131 0.55682045 0
4.8520002 -2.5113802 0.55658054 0
4.8470001 -2.5166328 0.55640918 0
4.8430004 -2.5224249 0.55627209 0
4.8400002 -2.5287616 0.55616927 0
4.8380003 -2.5356486 0.55610073 0
4.8360004 -2.5425284 0.55603218 0
4.8360004 -2.5505302 0.55603218 0
4.8370004 -2.5590982 0.55606645 0
4.8400002 -2.5688059 0.55616927 0
4.8470001 -2.5808048 0.55640918 0
5.0830002 -2.2253861 0.55605018 0
5.0670004 -2.2263587 0.55553073 0
5.0560002 -2.2296181 0.55517358 0
5.0470004 -2.2337794 0.55488133 0
5.0400004 -2.2388537 0.55465406 0
5.0340004 -2.2443769 0.55445927 0
5.0290003 -2.2503545 0.55429691 0
5.0250001 -2.2567923 0.55416703 0
5.0220003 -2.2636955 0.55406964 0
5.0190005 -2.2705879 0.55397224 0
5.0180001 -2.2784362 0.55393976 0
5.0170002 -2.2862811 0.55390728 0
5.0180001 -2.2950962 0.55393976 0
5.0200005 -2.304404 0.55400467 0
5.0250001 -2.3151906 0.55416703 0
5.0340004 -2.3279653 0.55445927 0
4.8880005 -2.498934 0.54971886 0
4.8750005 -2.4999008 0.54929674 0
4.8660002 -2.5030212 0.54900455 0
4.8590002 -2.5072131 0.54877728 0
4.8520002 -2.5113802 0.54855001 0
4.8470001 -2.5166328 0.54838765 0
4.8430004 -2.5224249 0.54825777 0
4.8400002 -2.5287616 0.54816037 0
4.8380003 -2.5356486 0.54809546 0
4.8360004 -2.5425284 0.5480305 0
4.8360004 -2.5505302 0.5480305 0
4.8370004 -2.5590982 0.54806298 0
4.8400002 -2.5688059 0.54816037 0
4.8470001 -2.5808048 0.54838765 0
5.0730004 -2.229162 0.54729635 0
5.0600004 -2.2314942 0.54689771 0
5.0510001 -2.2356625 0.54662168 0
5.0440001 -2.2407439 0.54640704 0
5.0370002 -2.2458 0.54619241 0
5.0320005 -2.2517834 0.5460391 0
5.0280004 -2.2582264 0.54591644 0
5.0250001 -2.265135 0.54582441 0
5.0230002 -2.2725146 0.54576313 0
5.0210004 -2.2798867 0.5457018 0
5.0210004 -2.2882221 0.5457018 0
5.0220003 -2.2970445 0.54573244 0
5.0250001 -2.306848 0.54582441 0
5.0310001 -2.3181343 0.54600841 0
4.8880005 -2.498934 0.54162335 0
4.8750005 -2.4999008 0.54122472 0
4.8660002 -2.5030212 0.54094875 0
4.8590002 -2.5072131 0.54073405 0
4.8520002 -2.5113802 0.54051948 0
4.8470001 -2.5166328 0.54036611 0
4.8430004 -2.5224249 0.54024345 0
4.8400002 -2.5287616 0.54015148 0
4.8380003 -2.5356486 0.54009014 0
4.8360004 -2.5425284 0.54002881 0
4.8360004 -2.5505302 0.54002881 0
4.8370004 -2.5590982 0.54005945 0
4.8400002 -2.5688059 0.54015148 0
4.8470001 -2.5808048 0.54036611 0
5.0840001 -2.2343006 0.53918463 0
5.0680003 -2.2352459 0.53872287 0
5.0570002 -2.2384875 0.53840536 0
5.0490003 -2.2431071 0.53817451 0
5.0430002 -2.2486465 0.5380013 0
5.0370002 -2.2541642 0.53782815 0
5.0330005 -2.2606165 0.53771269 0
5.0300002 -2.2675343 0.53762615 0
5.0280004 -2.2749224 0.53756839 0
5.0270004 -2.2827873 0.53753954 0
5.0270004 -2.2911334 0.53753954 0
5.0290003 -2.3004537 0.5375973 0
5.0330005 -2.3107588 0.53771269 0
5.0420003 -2.3235314 0.53797245 0
4.8880005 -2.498934 0.53352785 0
4.8750005 -2.4999008 0.5331527 0
4.8660002 -2.5030212 0.53289294 0
4.8590002 -2.5072131 0.53269088 0
4.8520002 -2.5113802 0.53248888 0
4.8470001 -2.5166328 0.53234458 0
4.8430004 -2.5224249 0.53222913 0
4.8400002 -2.5287616 0.53214252 0
4.8380003 -2.5356486 0.53208482 0
4.8360004 -2.5425284 0.53202713 0
4.8360004 -2.5505302 0.53202713 0
4.8370004 -2.5590982 0.53205597 0
4.8400002 -2.5688059 0.53214252 0
4.8470001 -2.5808048 0.53234458 0
5.0810003 -2.2413428 0.53065443 0
5.0670004 -2.2431953 0.53027558 0
5.0570002 -2.2468877 0.53000504 0
5.0500002 -2.2519672 0.52981561 0
5.0440001 -2.2574975 0.52965331 0
5.0400004 -2.2639627 0.52954507 0
5.0370002 -2.2708929 0.52946389 0
5.0350003 -2.2782938 0.52940977 0
5.0340004 -2.2861712 0.52938271 0
5.0350003 -2.2950151 0.52940977 0
5.0380001 -2.3048368 0.52949095 0
5.0350003 -2.3117366 0.52940977 0
5.0300002 -2.3176439 0.52927446 0
5.0260005 -2.3240259 0.52916628 0
5.0210004 -2.3298991 0.52903098 0
5.0160003 -2.3357542 0.52889568 0
5.0120001 -2.3420889 0.52878749 0
5.0070004 -2.3479099 0.52865219 0
5.0020003 -2.353713 0.52851689 0
4.9980001 -2.3600008 0.52840865 0
4.9930005 -2.3657696 0.5282734 0
4.9880004 -2.37152 0.5281381 0
4.9840002 -2.3777611 0.52802986 0
4.9790001 -2.3834774 0.52789456 0
4.9740005 -2.3891759 0.52775931 0
4.9700003 -2.39537 0.52765107 0
4.9650002 -2.4010339 0.52751577 0
4.9610004 -2.4071977 0.52740759 0
4.9560003 -2.4128273 0.52727228 0
4.9520001 -2.4189601 0.52716404 0
4.9470005 -2.4245558 0.5270288 0
4.9430003 -2.4306579 0.52692056 0
4.9380002 -2.436219 0.52678525 0
4.9340005 -2.4422908 0.52667701 0
4.9290004 -2.4478176 0.52654171 0
4.9250002 -2.4538584 0.52643347 0
4.9200001 -2.4593511 0.52629822 0
4.9160004 -2.4653614 0.52618998 0
4.9110003 -2.4708197 0.52605468 0
4.8880005 -2.498934 0.52543241 0
4.8750005 -2.4999008 0.52508068 0
4.8660002 -2.5030212 0.52483714 0
4.8590002 -2.5072131 0.52464771 0
4.8520002 -2.5113802 0.52445829 0
4.8470001 -2.5166328 0.52432305 0
4.8430004 -2.5224249 0.5242148 0
4.8400002 -2.5287616 0.52413362 0
4.8380003 -2.5356486 0.5240795 0
4.8360004 -2.5425284 0.52402544 0
4.8360004 -2.5505302 0.52402544 0
4.8370004 -2.5590982 0.5240525 0
4.8400002 -2.5688059 0.52413362 0
4.8470001 -2.5808048 0.52432305 0
5.0710001 -2.253504 0.52195823 0
5.0610003 -2.2571857 0.52170575 0
5.0550003 -2.2627361 0.52155423 0
5.0500002 -2.2687426 0.52142793 0
5.0460005 -2.2752111 0.5213269 0
5.0410004 -2.2811837 0.52120066 0
5.0370002 -2.2876213 0.52109963 0
5.0320005 -2.2935598 0.52097338 0
5.0270004 -2.2994795 0.52084708 0
5.0230002 -2.3058703 0.52074611 0
5.0180001 -2.3117561 0.52061981 0
5.0130005 -2.3176241 0.52049357 0
5.0090003 -2.3239682 0.52039254 0
5.0040002 -2.3298016 0.52026629 0
5.0000005 -2.3361151 0.52016526 0
4.9950004 -2.3419142 0.52003896 0
4.9910002 -2.3481967 0.51993799 0
4.9860005 -2.3539619 0.51981175 0
4.9820004 -2.3602138 0.51971072 0
4.9770002 -2.3659446 0.51958442 0
4.9720001 -2.3716569 0.51945817 0
4.9680004 -2.3778625 0.51935714 0
4.9630003 -2.3835406 0.5192309 0
4.9590001 -2.3897152 0.51912987 0
4.9540005 -2.3953593 0.51900363 0
4.9500003 -2.4015031 0.5189026 0
4.9460001 -2.4076324 0.51880157 0
4.9410005 -2.4132261 0.51867533 0
4.9370003 -2.4193246 0.5185743 0
4.9320002 -2.4248838 0.51844805 0
4.9280005 -2.4309521 0.51834702 0
4.9230003 -2.4364769 0.51822078 0
4.9190001 -2.4425144 0.51811975 0
4.9150004 -2.4485373 0.51801872 0
4.9100003 -2.4540119 0.51789248 0
4.9060001 -2.4600039 0.51779145 0
4.9020004 -2.465982 0.51769042 0
4.8880005 -2.498934 0.51733691 0
4.8750005 -2.4999008 0.5170086 0
4.8660002 -2.5030212 0.51678133 0
4.8590002 -2.5072131 0.51660454 0
4.8520002 -2.5113802 0.51642776 0
4.8470001 -2.5166328 0.51630151 0
4.8430004 -2.5224249 0.51620048 0
4.8400002 -2.5287616 0.51612473 0
4.8380003 -2.5356486 0.51607424 0
4.8360004 -2.5425284 0.51602376 0
4.8360004 -2.5505302 0.51602376 0
4.8370004 -2.5590982 0.51604897 0
4.8400002 -2.5688059 0.51612473 0
4.8470001 -2.5808048 0.51630151 0
5.0750003 -2.2469616 0.51362646 0
5.0630002 -2.2497234 0.51334506 0
5.0540004 -2.253865 0.513134 0
5.0480003 -2.2594025 0.51299334 0
5.0430002 -2.2653966 0.51287609 0
5.0390005 -2.2718525 0.51278228 0
5.0340004 -2.2778122 0.51266503 0
5.0290003 -2.2837539 0.51254779 0
5.0250001 -2.2901628 0.51245397 0
5.0200005 -2.2960706 0.51233673 0
5.0160003 -2.3024485 0.51224291 0
5.0110002 -2.3083217 0.51212567 0
5.0070004 -2.3146694 0.51203191 0
5.0020003 -2.3205085 0.51191467 0
4.9970002 -2.3263292 0.51179743 0
4.9930005 -2.3326299 0.51170361 0
4.9880004 -2.3384166 0.51158637 0
4.9840002 -2.3446865 0.51149255 0
4.9790001 -2.3504388 0.51137531 0
4.9750004 -2.3566785 0.51128149 0
4.9700003 -2.3623965 0.51116425 0
4.9660001 -2.3686049 0.51107049 0
4.9620004 -2.3747993 0.51097667 0
4.9570003 -2.3804669 0.51085943 0
4.9530005 -2.3866308 0.51076561 0
4.9480004 -2.3922641 0.51064837 0
4.9440002 -2.3983967 0.51055455 0
4.9390001 -2.4039958 0.51043731 0
4.9350004 -2.4100983 0.51034355 0
4.9310002 -2.4161859 0.51024973 0
4.9260001 -2.4217346 0.51013249 0
4.9220004 -2.4277916 0.51003867 0
4.9180002 -2.4338343 0.50994492 0
4.9130001 -2.4393325 0.50982761 0
4.9090004 -2.4453444 0.50973386 0
4.9050002 -2.4513421 0.50964004 0
4.9000001 -2.4567895 0.5095228 0
4.8960004 -2.4627569 0.50942898 0
4.8880005 -2.498934 0.5092414 0
4.8750005 -2.4999008 0.50893658 0
4.8660002 -2.5030212 0.50872552 0
4.8590002 -2.5072131 0.50856137 0
4.8520002 -2.5113802 0.50839722 0
4.8470001 -2.5166328 0.50827998 0
4.8430004 -2.5224249 0.50818616 0
4.8400002 -2.5287616 0.50811583 0
4.8380003 -2.5356486 0.50806892 0
4.8360004 -2.5425284 0.50802201 0
4.8360004 -2.5505302 0.50802201 0
4.8370004 -2.5590982 0.50804549 0
4.8400002 -2.5688059 0.50811583 0
4.8470001 -2.5808048 0.50827998 0
5.0830002 -2.242281 0.5053668 0
5.0660005 -2.2427247 0.50499886 0
5.0560002 -2.2464151 0.50478238 0
5.0490003 -2.2514927 0.50463086 0
5.0430002 -2.2570217 0.50450099 0
5.0390005 -2.2634847 0.50441444 0
5.0340004 -2.2694533 0.5043062 0
5.0290003 -2.275404 0.50419796 0
5.0250001 -2.2818203 0.50411135 0
5.0200005 -2.2877369 0.50400317 0
5.0160003 -2.2941222 0.50391656 0
5.0110002 -2.3000045 0.50380832 0
5.0070004 -2.3063595 0.50372177 0
5.0020003 -2.3122072 0.50361353 0
4.9980001 -2.3185315 0.50352693 0
4.9930005 -2.3243451 0.50341868 0
4.9890003 -2.3306386 0.50333214 0
4.9840002 -2.3364179 0.5032239 0
4.9800005 -2.3426809 0.50313735 0
4.9750004 -2.3484259 0.50302911 0
4.9710002 -2.3546579 0.5029425 0
4.9660001 -2.360369 0.50283426 0
4.9620004 -2.3665705 0.50274771 0
4.9580002 -2.3727574 0.50266111 0
4.9530005 -2.378418 0.50255287 0
4.9490004 -2.3845742 0.50246632 0
4.9440002 -2.3902001 0.50235808 0
4.9400005 -2.3963261 0.50227147 0
4.9360003 -2.4024372 0.50218493 0
4.9310002 -2.4080129 0.50207669 0
4.9270005 -2.4140935 0.50199008 0
4.9230003 -2.4201598 0.50190353 0
4.9180002 -2.4256847 0.50179529 0
4.9140005 -2.4317205 0.50170869 0
4.9100003 -2.4377415 0.50162214 0
4.9050002 -2.4432158 0.5015139 0
4.9010005 -2.4492066 0.50142729 0
4.8970003 -2.4551823 0.50134075 0
4.8920002 -2.4606066 0.5012325 0
4.8880005 -2.498934 0.5011459 0
4.8750005 -2.4999008 0.50086451 0
4.8660002 -2.5030212 0.50066972 0
4.8590002 -2.5072131 0.5005182 0
4.8520002 -2.5113802 0.50036669 0
4.8470001 -2.5166328 0.50025845 0
4.8430004 -2.5224249 0.50017184 0
4.8400002 -2.5287616 0.50010693 0
4.8380003 -2.5356486 0.50006366 0
4.8360004 -2.5425284 0.50002033 0
4.8360004 -2.5505302 0.50002033 0
4.8370004 -2.5590982 0.50004196 0
4.8400002 -2.5688059 0.50010693 0
4.8470001 -2.5808048 0.50025845 0
5.0750003 -2.2385287 0.49676085 0
5.0620003 -2.2408414 0.49650291 0
5.0530005 -2.2449973 0.49632433 0
5.0460005 -2.2500696 0.49618542 0
5.0400004 -2.2555931 0.49606639 0
5.0360003 -2.2620506 0.49598703 0
5.0310001 -2.268014 0.49588782 0
5.0270004 -2.274441 0.49580845 0
5.0220003 -2.28037 0.49570924 0
5.0180001 -2.2867663 0.49562985 0
5.0130005 -2.2926614 0.49553066 0
5.0090003 -2.2990267 0.49545127 0
5.0040002 -2.3048875 0.49535209 0
5.0000005 -2.3112223 0.49527273 0
4.9950004 -2.3170485 0.49517351 0
4.9910002 -2.3233528 0.49509412 0
4.9860005 -2.329145 0.49499494 0
4.9820004 -2.3354187 0.49491554 0
4.9770002 -2.3411763 0.49481633 0
4.9730005 -2.3474195 0.49473697 0
4.9680004 -2.3531427 0.49463779 0
4.9640002 -2.3593552 0.49455839 0
4.9600005 -2.3655534 0.49447903 0
4.9550004 -2.3712261 0.49437982 0
4.9510002 -2.3773932 0.49430045 0
4.9460001 -2.3830318 0.49420124 0
4.9420004 -2.3891685 0.49412188 0
4.9380002 -2.3952906 0.49404252 0
4.9330001 -2.4008789 0.4939433 0
4.9290004 -2.4069705 0.49386394 0
4.9250002 -2.4130473 0.49378458 0
4.9200001 -2.4185848 0.49368536 0
4.9160004 -2.4246316 0.493606 0
4.9120002 -2.4306631 0.49352664 0
4.9070005 -2.4361506 0.49342743 0
4.9030004 -2.442152 0.49334806 0
4.8990002 -2.4481385 0.49326867 0
4.8940005 -2.4535754 0.49316949 0
4.8920002 -2.4606066 0.49312979 0
4.8880005 -2.498934 0.49305043 0
4.8750005 -2.4999008 0.49279249 0
4.8660002 -2.5030212 0.49261388 0
4.8590002 -2.5072131 0.492475 0
4.8520002 -2.5113802 0.49233609 0
4.8470001 -2.5166328 0.49223691 0
4.8430004 -2.5224249 0.49215755 0
4.8400002 -2.5287616 0.492098 0
4.8380003 -2.5356486 0.49205834 0
4.8360004 -2.5425284 0.49201864 0
4.8360004 -2.5505302 0.49201864 0
4.8370004 -2.5590982 0.49203849 0
4.8400002 -2.5688059 0.492098 0
4.8470001 -2.5808048 0.49223691 0
5.0720005 -2.2371221 0.48827395 0
5.0600004 -2.2398999 0.48805749 0
5.0510001 -2.2440522 0.48789513 0
5.0440001 -2.249121 0.48776886 0
5.0390005 -2.2551169 0.48767868 0
5.0350003 -2.2615726 0.48760653 0
5.0300002 -2.2675343 0.48751634 0
5.0250001 -2.2734776 0.48742613 0
5.0210004 -2.2798867 0.48735398 0
5.0160003 -2.2857959 0.4872638 0
5.0120001 -2.2921741 0.48719165 0
5.0070004 -2.2980492 0.48710147 0
5.0030003 -2.3043966 0.48702931 0
4.9980001 -2.3102374 0.4869391 0
4.9940004 -2.3165545 0.48686695 0
4.9900002 -2.3228569 0.48679483 0
4.9850001 -2.3286469 0.48670462 0
4.9810004 -2.3349192 0.48663247 0
4.9760003 -2.3406749 0.48654228 0
4.9720001 -2.346916 0.48647013 0
4.9670005 -2.352638 0.48637995 0
4.9630003 -2.3588483 0.4863078 0
4.9590001 -2.3650444 0.48623562 0
4.9540005 -2.3707156 0.48614544 0
4.9500003 -2.3768811 0.48607329 0
4.9460001 -2.3830318 0.48600113 0
4.9410005 -2.3886526 0.48591095 0
4.9370003 -2.394773 0.4858388 0
4.9320002 -2.4003594 0.48574859 0
4.9280005 -2.4064493 0.48567647 0
4.9240003 -2.4125242 0.48560429 0
4.9190001 -2.4180601 0.4855141 0
4.9150004 -2.4241049 0.48544195 0
4.9110003 -2.4301348 0.4853698 0
4.9070005 -2.4361506 0.48529765 0
4.9020004 -2.4416196 0.48520747 0
4.8980002 -2.4476047 0.48513532 0
4.8940005 -2.4535754 0.48506317 0
4.8920002 -2.4606066 0.48502707 0
4.8880005 -2.498934 0.48495492 0
4.8750005 -2.4999008 0.48472044 0
4.8660002 -2.5030212 0.48455808 0
4.8590002 -2.5072131 0.4844318 0
4.8520002 -2.5113802 0.48430556 0
4.8470001 -2.5166328 0.48421538 0
4.8430004 -2.5224249 0.48414323 0
4.8400002 -2.5287616 0.48408911 0
4.8380003 -2.5356486 0.48405302 0
4.8360004 -2.5425284 0.48401695 0
4.8360004 -2.5505302 0.48401695 0
4.8370004 -2.5590982 0.48403499 0
4.8400002 -2.5688059 0.48408911 0
4.8470001 -2.5808048 0.48421538 0
5.0720005 -2.2371221 0.47984654 0
5.0600004 -2.2398999 0.47965175 0
5.0510001 -2.2440522 0.47950563 0
5.0440001 -2.249121 0.47939199 0
5.0390005 -2.2551169 0.47931081 0
5.0340004 -2.2610946 0.47922963 0
5.0300002 -2.2675343 0.47916472 0
5.0250001 -2.2734776 0.47908354 0
5.0210004 -2.2798867 0.4790186 0
5.0160003 -2.2857959 0.47893742 0
5.0120001 -2.2921741 0.47887248 0
5.0080004 -2.298538 0.47880757 0
5.0030003 -2.3043966 0.47872639 0
4.9990005 -2.31073 0.47866145 0
4.9940004 -2.3165545 0.47858027 0
4.9900002 -2.3228569 0.47851533 0
4.9850001 -2.3286469 0.47843415 0
4.9810004 -2.3349192 0.47836924 0
4.9760003 -2.3406749 0.47828805 0
4.9720001 -2.346916 0.47822312 0
4.9680004 -2.3531427 0.47815818 0
4.9630003 -2.3588483 0.47807699 0
4.9590001 -2.3650444 0.47801206 0
4.9540005 -2.3707156 0.4779309 0
4.9500003 -2.3768811 0.47786596 0
4.9460001 -2.3830318 0.47780102 0
4.9410005 -2.3886526 0.47771984 0
4.9370003 -2.394773 0.4776549 0
4.9330001 -2.4008789 0.47758996 0
4.9280005 -2.4064493 0.47750881 0
4.9240003 -2.4125242 0.47744387 0
4.9200001 -2.4185848 0.47737893 0
4.9150004 -2.4241049 0.47729775 0
4.9110003 -2.4301348 0.47723281 0
4.9070005 -2.4361506 0.4771679 0
4.9030004 -2.442152 0.47710294 0
4.8980002 -2.4476047 0.47702178 0
4.8940005 -2.4535754 0.47695684 0
4.8920002 -2.4606066 0.47692436 0
4.8880005 -2.498934 0.47685945 0
4.8750005 -2.4999008 0.47664839 0
4.8660002 -2.5030212 0.47650227 0
4.8590002 -2.5072131 0.47638863 0
4.8520002 -2.5113802 0.476275 0
4.8470001 -2.5166328 0.47619382 0
4.8430004 -2.5224249 0.47612891 0
4.8400002 -2.5287616 0.47608018 0
4.8380003 -2.5356486 0.47604772 0
4.8360004 -2.5425284 0.47601527 0
4.8360004 -2.5505302 0.47601527 0
4.8370004 -2.5590982 0.47603148 0
4.8400002 -2.5688059 0.47608018 0
4.8470001 -2.5808048 0.47619382 0
5.0720005 -2.2371221 0.47141916 0
5.0600004 -2.2398999 0.471246 0
5.0510001 -2.2440522 0.47111613 0
5.0440001 -2.249121 0.4710151 0
5.0390005 -2.2551169 0.47094294 0
5.0350003 -2.2615726 0.47088522 0
5.0310001 -2.268014 0.47082749 0
5.0270004 -2.274441 0.47076976 0
5.0220003 -2.28037 0.47069764 0
5.0180001 -2.2867663 0.47063988 0
5.0130005 -2.2926614 0.47056776 0
5.0090003 -2.2990267 0.47051004 0
5.0040002 -2.3048875 0.47043788 0
5.0000005 -2.3112223 0.47038016 0
4.9950004 -2.3170485 0.47030801 0
4.9910002 -2.3233528 0.47025028 0
4.9870005 -2.329643 0.47019255 0
4.9820004 -2.3354187 0.4701204 0
4.9780002 -2.3416777 0.47006267 0
4.9730005 -2.3474195 0.46999055 0
4.9690003 -2.3536479 0.46993279 0
4.9650002 -2.3598621 0.4698751 0
4.9600005 -2.3655534 0.46980295 0
4.9560003 -2.3717365 0.46974522 0
4.9520001 -2.3779056 0.46968749 0
4.9470005 -2.3835461 0.46961534 0
4.9430003 -2.3896844 0.46955761 0
4.9390001 -2.3958082 0.46949989 0
4.9340005 -2.4013984 0.46942776 0
4.9300003 -2.4074917 0.46937001 0
4.9260001 -2.4135704 0.46931231 0
4.9210005 -2.4191101 0.46924016 0
4.9170003 -2.4251583 0.46918243 0
4.9130001 -2.4311917 0.4691247 0
4.9080005 -2.4366808 0.46905255 0
4.9040003 -2.4426839 0.46899483 0
4.9000001 -2.4486725 0.4689371 0
4.8960004 -2.4546468 0.4688794 0
4.8920002 -2.4606066 0.46882167 0
4.8880005 -2.498934 0.46876395 0
4.8750005 -2.4999008 0.46857634 0
4.8660002 -2.5030212 0.46844646 0
4.8590002 -2.5072131 0.46834546 0
4.8520002 -2.5113802 0.46824443 0
4.8470001 -2.5166328 0.46817228 0
4.8430004 -2.5224249 0.46811458 0
4.8400002 -2.5287616 0.46807128 0
4.8380003 -2.5356486 0.46804243 0
4.8360004 -2.5425284 0.46801355 0
4.8360004 -2.5505302 0.46801355 0
4.8370004 -2.5590982 0.46802801 0
4.8400002 -2.5688059 0.46807128 0
4.8470001 -2.5808048 0.46817228 0
5.0720005 -2.2371221 0.46299177 0
5.0600004 -2.2398999 0.46284023 0
5.0510001 -2.2440522 0.46272659 0
5.0440001 -2.249121 0.4626382 0
5.0390005 -2.2551169 0.46257508 0
5.0350003 -2.2615726 0.46252456 0
5.0310001 -2.268014 0.46247405 0
5.0290003 -2.275404 0.46244881 0
5.0250001 -2.2818203 0.46239829 0
5.0200005 -2.2877369 0.46233517 0
5.0160003 -2.2941222 0.46228465 0
5.0120001 -2.3004932 0.46223417 0
5.0070004 -2.3063595 0.46217102 0
5.0030003 -2.3126996 0.46212053 0
4.9980001 -2.3185315 0.46205738 0
4.9940004 -2.3248413 0.46200687 0
4.9890003 -2.3306386 0.46194375 0
4.9850001 -2.3369176 0.46189323 0
4.9810004 -2.3431823 0.46184272 0
4.9760003 -2.3489292 0.46177959 0
4.9720001 -2.3551631 0.46172911 0
4.9670005 -2.3608761 0.46166596 0
4.9630003 -2.3670793 0.46161544 0
4.9590001 -2.3732679 0.46156496 0
4.9540005 -2.3789301 0.46150181 0
4.9500003 -2.3850882 0.46145129 0
4.9460001 -2.391232 0.46140081 0
4.9410005 -2.3968439 0.46133766 0
4.9370003 -2.4029567 0.46128717 0
4.9330001 -2.4090555 0.46123666 0
4.9280005 -2.4146168 0.46117353 0
4.9240003 -2.4206846 0.46112302 0
4.9200001 -2.426738 0.4610725 0
4.9160004 -2.4327774 0.46102199 0
4.9110003 -2.4382718 0.46095887 0
4.9070005 -2.4442806 0.46090835 0
4.9030004 -2.4502745 0.46085787 0
4.8990002 -2.4562538 0.46080735 0
4.8940005 -2.4616818 0.4607442 0
4.8880005 -2.498934 0.46066844 0
4.8750005 -2.4999008 0.46050429 0
4.8660002 -2.5030212 0.46039066 0
4.8590002 -2.5072131 0.46030229 0
4.8520002 -2.5113802 0.4602139 0
4.8470001 -2.5166328 0.46015075 0
4.8430004 -2.5224249 0.46010026 0
4.8400002 -2.5287616 0.46006238 0
4.8380003 -2.5356486 0.46003711 0
4.8360004 -2.5425284 0.46001187 0
4.8360004 -2.5505302 0.46001187 0
4.8370004 -2.5590982 0.46002451 0
4.8400002 -2.5688059 0.46006238 0
4.8470001 -2.5808048 0.46015075 0
5.0720005 -2.2371221 0.45456436 0
5.0600004 -2.2398999 0.45443448 0
5.0510001 -2.2440522 0.45433709 0
5.0440001 -2.249121 0.45426133 0
5.0390005 -2.2551169 0.45420721 0
5.0350003 -2.2615726 0.45416391 0
5.0310001 -2.268014 0.45412064 0
5.0290003 -2.275404 0.454099 0
5.0280004 -2.2832706 0.45408815 0
5.0250001 -2.2901628 0.4540557 0
5.0200005 -2.2960706 0.45400158 0
5.0160003 -2.3024485 0.45395827 0
5.0120001 -2.3088124 0.453915 0
5.0070004 -2.3146694 0.45386088 0
5.0030003 -2.3210027 0.45381758 0
4.9980001 -2.3268254 0.45376348 0
4.9940004 -2.333128 0.45372018 0
4.9890003 -2.3389163 0.45366606 0
4.9850001 -2.3451879 0.45362279 0
4.9810004 -2.3514457 0.45357949 0
4.9760003 -2.3571835 0.45352536 0
4.9720001 -2.3634102 0.45348209 0
4.9680004 -2.3696227 0.45343879 0
4.9630003 -2.3753099 0.45338467 0
4.9590001 -2.3814914 0.45334139 0
4.9550004 -2.3876588 0.45329809 0
4.9500003 -2.3932955 0.45324397 0
4.9460001 -2.3994322 0.4532007 0
4.9420004 -2.4055543 0.4531574 0
4.9370003 -2.4111407 0.45310327 0
4.9330001 -2.417232 0.45305997 0
4.9290004 -2.4233093 0.4530167 0
4.9240003 -2.4288452 0.45296258 0
4.9200001 -2.4348912 0.4529193 0
4.9160004 -2.4409235 0.452876 0
4.9120002 -2.4469409 0.4528327 0
4.9070005 -2.4524102 0.45277861 0
4.9030004 -2.4583969 0.4527353 0
4.8990002 -2.4643693 0.452692 0
4.8880005 -2.498934 0.45257297 0
4.8750005 -2.4999008 0.45243227 0
4.8660002 -2.5030212 0.45233485 0
4.8590002 -2.5072131 0.45225909 0
4.8520002 -2.5113802 0.45218334 0
4.8470001 -2.5166328 0.45212922 0
4.8430004 -2.5224249 0.45208594 0
4.8400002 -2.5287616 0.45205346 0
4.8380003 -2.5356486 0.45203182 0
4.8360004 -2.5425284 0.45201018 0
4.8360004 -2.5505302 0.45201018 0
4.8370004 -2.5590982 0.452021 0
4.8400002 -2.5688059 0.45205346 0
4.8470001 -2.5808048 0.45212922 0
5.0720005 -2.2371221 0.44613698 0
5.0600004 -2.2398999 0.44602874 0
5.0510001 -2.2440522 0.44594759 0
5.0440001 -2.249121 0.44588444 0
5.0390005 -2.2551169 0.44583935 0
5.0350003 -2.2615726 0.44580328 0
5.0310001 -2.268014 0.44576719 0
5.0290003 -2.275404 0.44574916 0
5.0280004 -2.2832706 0.44574013 0
5.0280004 -2.2916188 0.44574013 0
5.0280004 -2.2999666 0.44574013 0
5.0230002 -2.3058703 0.44569504 0
5.0190005 -2.312247 0.44565898 0
5.0140004 -2.3181167 0.44561386 0
5.0100002 -2.3244622 0.4455778 0
5.0050001 -2.3302975 0.44553268 0
5.0010004 -2.3366129 0.44549662 0
4.9960003 -2.3424139 0.44545153 0
4.9920001 -2.3486984 0.44541544 0
4.9880004 -2.3549685 0.44537938 0
4.9830003 -2.3607187 0.44533429 0
4.9790001 -2.3669581 0.44529819 0
4.9750004 -2.373183 0.44526213 0
4.9700003 -2.3788831 0.44521704 0
4.9660001 -2.3850775 0.44518095 0
4.9620004 -2.3912573 0.44514489 0
4.9570003 -2.3969069 0.44509977 0
4.9530005 -2.4030564 0.44506371 0
4.9490004 -2.4091909 0.44502762 0
4.9440002 -2.4147899 0.44498253 0
4.9400005 -2.4208939 0.44494647 0
4.9360003 -2.4269836 0.44491038 0
4.9310002 -2.4325321 0.44486529 0
4.9270005 -2.4385912 0.44482923 0
4.9230003 -2.4446356 0.44479313 0
4.9190001 -2.4506657 0.44475707 0
4.9140005 -2.4561477 0.44471198 0
4.9100003 -2.462147 0.44467589 0
4.9060001 -2.4681318 0.4446398 0
4.8880005 -2.498934 0.44447747 0
4.8750005 -2.4999008 0.44436023 0
4.8660002 -2.5030212 0.44427904 0
4.8590002 -2.5072131 0.44421592 0
4.8520002 -2.5113802 0.44415277 0
4.8470001 -2.5166328 0.44410768 0
4.8430004 -2.5224249 0.44407162 0
4.8400002 -2.5287616 0.44404456 0
4.8380003 -2.5356486 0.44402653 0
4.8360004 -2.5425284 0.44400847 0
4.8360004 -2.5505302 0.44400847 0
4.8370004 -2.5590982 0.4440175 0
4.8400002 -2.5688059 0.44404456 0
4.8470001 -2.5808048 0.44410768 0
5.0720005 -2.2371221 0.43770957 0
5.0600004 -2.2398999 0.43762299 0
5.0510001 -2.2440522 0.43755805 0
5.0440001 -2.249121 0.43750757 0
5.0390005 -2.2551169 0.43747148 0
5.0350003 -2.2615726 0.43744263 0
5.0310001 -2.268014 0.43741375 0
5.0290003 -2.275404 0.43739933 0
5.0280004 -2.2832706 0.43739212 0
5.0280004 -2.2916188 0.43739212 0
5.0300002 -2.3009405 0.43740654 0
5.0340004 -2.3112476 0.43743539 0
5.0300002 -2.3176439 0.43740654 0
5.0260005 -2.3240259 0.43737769 0
5.0220003 -2.3303933 0.43734881 0
5.0170002 -2.3362503 0.43731275 0
5.0130005 -2.342587 0.43728387 0
5.0080004 -2.3484099 0.43724781 0
5.0040002 -2.3547156 0.43721893 0
4.9990005 -2.3605044 0.43718287 0
4.9950004 -2.3667798 0.437154 0
4.9910002 -2.3730407 0.43712515 0
4.9860005 -2.3787787 0.43708909 0
4.9820004 -2.3850091 0.43706021 0
4.9780002 -2.3912246 0.43703136 0
4.9730005 -2.3969126 0.43699527 0
4.9690003 -2.4030976 0.43696642 0
4.9650002 -2.4092684 0.43693754 0
4.9610004 -2.4154248 0.43690869 0
4.9560003 -2.4210455 0.4368726 0
4.9520001 -2.427171 0.43684375 0
4.9480004 -2.4332826 0.4368149 0
4.9440002 -2.4393792 0.43678603 0
4.9390001 -2.4449332 0.43674996 0
4.9350004 -2.4509995 0.43672109 0
4.9310002 -2.4570513 0.43669224 0
4.9270005 -2.4630888 0.43666339 0
4.9220004 -2.4685757 0.4366273 0
4.9180002 -2.4745824 0.43659842 0
4.8880005 -2.498934 0.436382 0
4.8750005 -2.4999008 0.43628818 0
4.8660002 -2.5030212 0.43622324 0
4.8590002 -2.5072131 0.43617272 0
4.8520002 -2.5113802 0.43612224 0
4.8470001 -2.5166328 0.43608615 0
4.8430004 -2.5224249 0.4360573 0
4.8400002 -2.5287616 0.43603563 0
4.8380003 -2.5356486 0.43602121 0
4.8360004 -2.5425284 0.43600678 0
4.8360004 -2.5505302 0.43600678 0
4.8370004 -2.5590982 0.436014 0
4.8400002 -2.5688059 0.43603563 0
5.0720005 -2.2371221 0.42928219 0
5.0600004 -2.2398999 0.42921725 0
5.0510001 -2.2440522 0.42916855 0
5.0440001 -2.249121 0.42913067 0
5.0390005 -2.2551169 0.42910361 0
5.0350003 -2.2615726 0.42908198 0
5.0310001 -2.268014 0.42906031 0
5.0290003 -2.275404 0.42904949 0
5.0280004 -2.2832706 0.4290441 0
5.0280004 -2.2916188 0.4290441 0
5.0300002 -2.3009405 0.42905492 0
5.0340004 -2.3112476 0.42907655 0
5.0470004 -2.325985 0.42914692 0
4.8760004 -2.4358585 0.42822155 0
4.8710003 -2.4412537 0.42819449 0
4.8670001 -2.4471681 0.42817286 0
4.8630004 -2.4530685 0.42815119 0
4.8590002 -2.4589543 0.42812955 0
4.8540001 -2.4642828 0.42810249 0
4.8500004 -2.4701381 0.42808086 0
4.8460002 -2.4759786 0.42805922 0
4.8420005 -2.4818051 0.42803755 0
4.8380003 -2.4876168 0.42801592 0
4.8340001 -2.4934139 0.42799428 0
4.8290005 -2.4986436 0.42796722 0
4.8250003 -2.5044103 0.42794555 0
4.8210001 -2.5101624 0.42792392 0
4.8170004 -2.5159006 0.42790228 0
4.8130002 -2.5216238 0.42788064 0
4.8090005 -2.5273333 0.42785898 0
4.8050003 -2.5330276 0.42783734 0
4.8000002 -2.5381413 0.42781028 0
4.7960005 -2.5438056 0.42778865 0
4.7920003 -2.5494549 0.42776698 0
4.7880001 -2.55509 0.42774534 0
4.7840004 -2.5607107 0.42772371 0
5.0720005 -2.2371221 0.42085481 0
5.0600004 -2.2398999 0.4208115 0
5.0510001 -2.2440522 0.42077905 0
5.0440001 -2.249121 0.42075378 0
5.0390005 -2.2551169 0.42073575 0
5.0350003 -2.2615726 0.42072132 0
5.0310001 -2.268014 0.4207069 0
5.0290003 -2.275404 0.42069966 0
5.0280004 -2.2832706 0.42069605 0
5.0280004 -2.2916188 0.42069605 0
5.0300002 -2.3009405 0.42070329 0
5.0340004 -2.3112476 0.42071772 0
5.0470004 -2.325985 0.4207646 0
4.9400005 -2.3471904 0.4203786 0
4.9360003 -2.3533449 0.42036417 0
4.9310002 -2.3589747 0.42034611 0
4.9270005 -2.3650985 0.42033169 0
4.9230003 -2.371208 0.42031726 0
4.9180002 -2.3767872 0.42029923 0
4.9140005 -2.3828661 0.42028481 0
4.9100003 -2.3889306 0.42027035 0
4.9050002 -2.394459 0.42025232 0
4.9010005 -2.4004931 0.4202379 0
4.8970003 -2.4065123 0.42022347 0
4.8930001 -2.4125171 0.42020902 0
4.8880005 -2.417979 0.42019099 0
4.8840003 -2.4239531 0.42017657 0
4.8800001 -2.4299128 0.42016214 0
4.8760004 -2.4358585 0.42014772 0
4.8710003 -2.4412537 0.42012966 0
4.8670001 -2.4471681 0.42011523 0
4.8630004 -2.4530685 0.42010081 0
4.8590002 -2.4589543 0.42008638 0
4.8540001 -2.4642828 0.42006832 0
4.8500004 -2.4701381 0.4200539 0
4.8460002 -2.4759786 0.42003947 0
4.8420005 -2.4818051 0.42002505 0
4.8380003 -2.4876168 0.42001063 0
4.8340001 -2.4934139 0.41999617 0
4.8290005 -2.4986436 0.41997814 0
4.8250003 -2.5044103 0.41996372 0
4.8210001 -2.5101624 0.41994929 0
4.8170004 -2.5159006 0.41993487 0
4.8130002 -2.5216238 0.41992041 0
4.8090005 -2.5273333 0.41990599 0
4.8050003 -2.5330276 0.41989157 0
4.8000002 -2.5381413 0.41987354 0
4.7960005 -2.5438056 0.41985911 0
4.7920003 -2.5494549 0.41984466 0
4.7880001 -2.55509 0.41983023 0
4.7840004 -2.5607107 0.41981581 0
5.0720005 -2.2371221 0.4124274 0
5.0600004 -2.2398999 0.41240576 0
5.0510001 -2.2440522 0.41238952 0
5.0440001 -2.249121 0.41237691 0
5.0390005 -2.2551169 0.41236788 0
5.0350003 -2.2615726 0.41236067 0
5.0310001 -2.268014 0.41235346 0
5.0290003 -2.275404 0.41234985 0
5.0280004 -2.2832706 0.41234803 0
5.0280004 -2.2916188 0.41234803 0
5.0300002 -2.3009405 0.41235164 0
5.0340004 -2.3112476 0.41235885 0
5.0470004 -2.325985 0.4123823 0
4.9400005 -2.3471904 0.4121893 0
4.9360003 -2.3533449 0.41218209 0
4.9310002 -2.3589747 0.41217306 0
4.9270005 -2.3650985 0.41216585 0
4.9230003 -2.371208 0.41215864 0
4.9180002 -2.3767872 0.41214961 0
4.9140005 -2.3828661 0.4121424 0
4.9100003 -2.3889306 0.41213518 0
4.9050002 -2.394459 0.41212618 0
4.9010005 -2.4004931 0.41211894 0
4.8970003 -2.4065123 0.41211173 0
4.8930001 -2.4125171 0.41210452 0
4.8880005 -2.417979 0.41209552 0
4.8840003 -2.4239531 0.41208827 0
4.8800001 -2.4299128 0.41208106 0
4.8760004 -2.4358585 0.41207385 0
4.8710003 -2.4412537 0.41206485 0
4.8670001 -2.4471681 0.41205764 0
4.8630004 -2.4530685 0.4120504 0
4.8590002 -2.4589543 0.41204318 0
4.8540001 -2.4642828 0.41203418 0
4.8500004 -2.4701381 0.41202697 0
4.8460002 -2.4759786 0.41201976 0
4.8420005 -2.4818051 0.41201252 0
4.8380003 -2.4876168 0.41200531 0
4.8340001 -2.4934139 0.41199809 0
4.8290005 -2.4986436 0.41198909 0
4.8250003 -2.5044103 0.41198188 0
4.8210001 -2.5101624 0.41197464 0
4.8170004 -2.5159006 0.41196743 0
4.8130002 -2.5216238 0.41196021 0
4.8090005 -2.5273333 0.411953 0
4.8050003 -2.5330276 0.41194579 0
4.8000002 -2.5381413 0.41193676 0
4.7960005 -2.5438056 0.41192955 0
4.7920003 -2.5494549 0.41192234 0
4.7880001 -2.55509 0.41191512 0
4.7840004 -2.5607107 0.41190791 0
5.0720005 -2.2371221 0.40400001 0
5.0600004 -2.2398999 0.40400001 0
5.0510001 -2.2440522 0.40400001 0
5.0440001 -2.249121 0.40400001 0
5.0390005 -2.2551169 0.40400001 0
5.0350003 -2.2615726 0.40400001 0
5.0310001 -2.268014 0.40400001 0
5.0290003 -2.275404 0.40400001 0
5.0280004 -2.2832706 0.40400001 0
5.0280004 -2.2916188 0.40400001 0
5.0300002 -2.3009405 0.40400001 0
5.0340004 -2.3112476 0.40400001 0
5.0470004 -2.325985 0.40400001 0
4.9400005 -2.3471904 0.40400001 0
4.9360003 -2.3533449 0.40400001 0
4.9310002 -2.3589747 0.40400001 0
4.9270005 -2.3650985 0.40400001 0
4.9230003 -2.371208 0.40400001 0
4.9180002 -2.3767872 0.40400001 0
4.9140005 -2.3828661 0.40400001 0
4.9100003 -2.3889306 0.40400001 0
4.9050002 -2.394459 0.40400001 0
4.9010005 -2.4004931 0.40400001 0
4.8970003 -2.4065123 0.40400001 0
4.8930001 -2.4125171 0.40400001 0
4.8880005 -2.417979 0.40400001 0
4.8840003 -2.4239531 0.40400001 0
4.8800001 -2.4299128 0.40400001 0
4.8760004 -2.4358585 0.40400001 0
4.8710003 -2.4412537 0.40400001 0
4.8670001 -2.4471681 0.40400001 0
4.8630004 -2.4530685 0.40400001 0
4.8590002 -2.4589543 0.40400001 0
4.8540001 -2.4642828 0.40400001 0
4.8500004 -2.4701381 0.40400001 0
4.8460002 -2.4759786 0.40400001 0
4.8420005 -2.4818051 0.40400001 0
4.8380003 -2.4876168 0.40400001 0
4.8340001 -2.4934139 0.40400001 0
4.8290005 -2.4986436 0.40400001 0
4.8250003 -2.5044103 0.40400001 0
4.8210001 -2.5101624 0.40400001 0
4.8170004 -2.5159006 0.40400001 0
4.8130002 -2.5216238 0.40400001 0
4.8090005 -2.5273333 0.40400001 0
4.8050003 -2.5330276 0.40400001 0
4.8000002 -2.5381413 0.40400001 0
4.7960005 -2.5438056 0.40400001 0
4.7920003 -2.5494549 0.40400001 0
4.7880001 -2.55509 0.40400001 0
4.7840004 -2.5607107 0.40400001 0
5.0720005 -2.2371221 0.39557263 0
5.0600004 -2.2398999 0.39559427 0
5.0510001 -2.2440522 0.39561051 0
5.0440001 -2.249121 0.39562312 0
5.0390005 -2.2551169 0.39563215 0
5.0350003 -2.2615726 0.39563936 0
5.0310001 -2.268014 0.39564657 0
5.0290003 -2.275404 0.39565018 0
5.0280004 -2.2832706 0.395652 0
5.0280004 -2.2916188 0.395652 0
5.0300002 -2.3009405 0.39564839 0
5.0340004 -2.3112476 0.39564118 0
5.0470004 -2.325985 0.39561772 0
4.9360003 -2.3533449 0.39581794 0
4.9310002 -2.3589747 0.39582697 0
4.9270005 -2.3650985 0.39583418 0
4.9230003 -2.371208 0.39584139 0
4.9180002 -2.3767872 0.39585042 0
4.9140005 -2.3828661 0.39585763 0
4.9100003 -2.3889306 0.39586484 0
4.9050002 -2.394459 0.39587384 0
4.9010005 -2.4004931 0.39588109 0
4.8970003 -2.4065123 0.3958883 0
4.8930001 -2.4125171 0.39589551 0
4.8880005 -2.417979 0.39590451 0
4.8840003 -2.4239531 0.39591175 0
4.8800001 -2.4299128 0.39591897 0
4.8760004 -2.4358585 0.39592618 0
4.8710003 -2.4412537 0.39593518 0
4.8670001 -2.4471681 0.39594239 0
4.8630004 -2.4530685 0.39594963 0
4.8590002 -2.4589543 0.39595684 0
4.8540001 -2.4642828 0.39596584 0
4.8500004 -2.4701381 0.39597306 0
4.8460002 -2.4759786 0.39598027 0
4.8420005 -2.4818051 0.39598751 0
4.8380003 -2.4876168 0.39599472 0
4.8340001 -2.4934139 0.39600194 0
4.8290005 -2.4986436 0.39601094 0
4.8250003 -2.5044103 0.39601815 0
4.8210001 -2.5101624 0.39602539 0
4.8170004 -2.5159006 0.3960326 0
4.8130002 -2.5216238 0.39603981 0
4.8090005 -2.5273333 0.39604703 0
4.8050003 -2.5330276 0.39605424 0
4.8000002 -2.5381413 0.39606327 0
4.7960005 -2.5438056 0.39607048 0
4.7920003 -2.5494549 0.39607769 0
4.7880001 -2.55509 0.3960849 0
5.0720005 -2.2371221 0.38714522 0
5.0600004 -2.2398999 0.38718852 0
5.0510001 -2.2440522 0.38722098 0
5.0440001 -2.249121 0.38724625 0
5.0390005 -2.2551169 0.38726428 0
5.0350003 -2.2615726 0.38727871 0
5.0310001 -2.268014 0.38729313 0
5.0290003 -2.275404 0.38730037 0
5.0280004 -2.2832706 0.38730398 0
5.0280004 -2.2916188 0.38730398 0
5.0300002 -2.3009405 0.38729674 0
5.0340004 -2.3112476 0.38728231 0
5.0470004 -2.325985 0.38723543 0
4.9470005 -2.3835461 0.38759619 0
4.9390001 -2.3876209 0.38762504 0
4.9320002 -2.3921843 0.38765031 0
4.9280005 -2.3982813 0.38766474 0
4.9250002 -2.4048851 0.38767555 0
4.9240003 -2.4125242 0.38767916 0
4.9250002 -2.4212096 0.38767555 0
4.9320002 -2.4330587 0.38765031 0
5.0720005 -2.2371221 0.37871784 0
5.0600004 -2.2398999 0.37878278 0
5.0510001 -2.2440522 0.37883148 0
5.0440001 -2.249121 0.37886935 0
5.0390005 -2.2551169 0.37889642 0
5.0350003 -2.2615726 0.37891805 0
5.0310001 -2.268014 0.37893972 0
5.0290003 -2.275404 0.37895054 0
5.0280004 -2.2832706 0.37895593 0
5.0280004 -2.2916188 0.37895593 0
5.0300002 -2.3009405 0.37894511 0
5.0340004 -2.3112476 0.37892348 0
5.0470004 -2.325985 0.37885311 0
4.9470005 -2.3835461 0.37939426 0
4.9390001 -2.3876209 0.37943757 0
4.9320002 -2.3921843 0.37947544 0
4.9280005 -2.3982813 0.37949708 0
4.9250002 -2.4048851 0.37951332 0
4.9240003 -2.4125242 0.37951872 0
4.9250002 -2.4212096 0.37951332 0
4.9320002 -2.4330587 0.37947544 0
5.0720005 -2.2371221 0.37029046 0
5.0600004 -2.2398999 0.37037703 0
5.0510001 -2.2440522 0.37044197 0
5.0440001 -2.249121 0.37049246 0
5.0390005 -2.2551169 0.37052855 0
5.0350003 -2.2615726 0.3705574 0
5.0310001 -2.268014 0.37058628 0
5.0290003 -2.275404 0.3706007 0
5.0280004 -2.2832706 0.37060791 0
5.0280004 -2.2916188 0.37060791 0
5.0300002 -2.3009405 0.37059349 0
5.0340004 -2.3112476 0.37056464 0
5.0470004 -2.325985 0.37047082 0
5.2290001 -2.4327016 0.36915767 0
5.2300005 -2.4419084 0.36915043 0
5.2330003 -2.4521143 0.36912879 0
4.9470005 -2.3835461 0.37119234 0
4.9390001 -2.3876209 0.37125006 0
4.9320002 -2.3921843 0.37130058 0
4.9280005 -2.3982813 0.37132943 0
4.9250002 -2.4048851 0.37135109 0
4.9240003 -2.4125242 0.37135831 0
4.9250002 -2.4212096 0.37135109 0
4.9320002 -2.4330587 0.37130058 0
5.0720005 -2.2371221 0.36186305 0
5.0600004 -2.2398999 0.36197129 0
5.0510001 -2.2440522 0.36205244 0
5.0440001 -2.249121 0.36211559 0
5.0390005 -2.2551169 0.36216068 0
5.0350003 -2.2615726 0.36219674 0
5.0310001 -2.268014 0.36223283 0
5.0290003 -2.275404 0.36225086 0
5.0280004 -2.2832706 0.36225989 0
5.0280004 -2.2916188 0.36225989 0
5.0300002 -2.3009405 0.36224186 0
5.0340004 -2.3112476 0.36220577 0
5.0470004 -2.325985 0.36208853 0
5.2300005 -2.4244835 0.36043805 0
5.2290001 -2.4327016 0.36044705 0
5.2300005 -2.4419084 0.36043805 0
5.2330003 -2.4521143 0.36041099 0
4.9470005 -2.3835461 0.36299044 0
4.9390001 -2.3876209 0.36306259 0
4.9320002 -2.3921843 0.36312571 0
4.9280005 -2.3982813 0.3631618 0
4.9250002 -2.4048851 0.36318886 0
4.9240003 -2.4125242 0.36319786 0
4.9250002 -2.4212096 0.36318886 0
4.9320002 -2.4330587 0.36312571 0
5.0720005 -2.2371221 0.35343567 0
5.0600004 -2.2398999 0.35356554 0
5.0510001 -2.2440522 0.35366294 0
5.0440001 -2.249121 0.3537387 0
5.0390005 -2.2551169 0.35379282 0
5.0350003 -2.2615726 0.35383612 0
5.0310001 -2.268014 0.35387939 0
5.0290003 -2.275404 0.35390103 0
5.0280004 -2.2832706 0.35391188 0
5.0280004 -2.2916188 0.35391188 0
5.0300002 -2.3009405 0.35389021 0
5.0340004 -2.3112476 0.35384694 0
5.0470004 -2.325985 0.35370624 0
5.2300005 -2.4244835 0.35172564 0
5.2290001 -2.4327016 0.35173649 0
5.2300005 -2.4419084 0.35172564 0
5.2330003 -2.4521143 0.35169318 0
4.9470005 -2.3835461 0.35478851 0
4.9390001 -2.3876209 0.35487509 0
4.9320002 -2.3921843 0.35495085 0
4.9280005 -2.3982813 0.35499415 0
4.9250002 -2.4048851 0.35502663 0
4.9240003 -2.4125242 0.35503745 0
4.9250002 -2.4212096 0.35502663 0
4.9320002 -2.4330587 0.35495085 0
5.0720005 -2.2371221 0.34500825 0
5.0600004 -2.2398999 0.3451598 0
5.0510001 -2.2440522 0.34527344 0
5.0440001 -2.249121 0.34536183 0
5.0390005 -2.2551169 0.34542495 0
5.0350003 -2.2615726 0.34547547 0
5.0310001 -2.268014 0.34552598 0
5.0290003 -2.275404 0.34555122 0
5.0280004 -2.2832706 0.34556383 0
5.0280004 -2.2916188 0.34556383 0
5.0300002 -2.3009405 0.34553859 0
5.0340004 -2.3112476 0.34548807 0
5.0470004 -2.325985 0.34532392 0
5.2300005 -2.4244835 0.34301326 0
5.2290001 -2.4327016 0.34302589 0
5.2300005 -2.4419084 0.34301326 0
5.2330003 -2.4521143 0.34297538 0
4.9480004 -2.3840601 0.34657398 0
4.9390001 -2.3876209 0.34668761 0
4.9320002 -2.3921843 0.34677601 0
4.9280005 -2.3982813 0.34682649 0
4.9250002 -2.4048851 0.3468644 0
4.9240003 -2.4125242 0.34687701 0
4.9250002 -2.4212096 0.3468644 0
4.9320002 -2.4330587 0.34677601 0
5.0720005 -2.2371221 0.33658087 0
5.0600004 -2.2398999 0.33675402 0
5.0510001 -2.2440522 0.3368839 0
