# .PCD v0.7 - Point Cloud Data file format
VERSION 0.7
FIELDS x y z intensity
SIZE 4 4 4 4
TYPE F F F F
COUNT 1 1 1 1
WIDTH 1507
HEIGHT 1
VIEWPOINT 0 0 0 1 0 0 0
POINTS 1507
DATA ascii
2.9090002 1.3298295 1.2231616 0
2.9130001 1.32749 1.2244675 0
2.9180002 1.3256807 1.2261001 0
2.9220002 1.3233105 1.227406 0
2.9260001 1.3209258 1.228712 0
2.9310002 1.3190662 1.2303444 0
2.9350002 1.3166509 1.2316504 0
2.9400003 1.3147569 1.2332828 0
2.9440002 1.3123109 1.2345887 0
2.9480002 1.3098505 1.2358947 0
2.9530003 1.307906 1.2375273 0
2.9570003 1.3054149 1.2388331 0
2.9620001 1.303436 1.2404655 0
2.9660003 1.3009144 1.2417716 0
2.9710002 1.2989013 1.2434039 0
2.9750001 1.2963489 1.24471 0
2.9800003 1.2943016 1.2463424 0
2.9850001 1.2922363 1.2479748 0
2.9890003 1.289637 1.2492808 0
2.9940002 1.2875373 1.2509133 0
2.9980001 1.2849075 1.2522192 0
3.0030003 1.2827735 1.2538517 0
3.0080001 1.2806215 1.2554841 0
3.0120003 1.2779448 1.25679 0
3.0170002 1.2757585 1.2584225 0
3.0220003 1.2735543 1.2600549 0
3.0260003 1.2708306 1.2613609 0
3.0310001 1.2685919 1.2629933 0
3.0360003 1.2663355 1.2646258 0
3.0400002 1.2635647 1.2659317 0
3.0450003 1.261274 1.2675642 0
3.0500002 1.258965 1.2691966 0
3.0550003 1.2566382 1.2708291 0
3.0600002 1.2542932 1.2724615 0
3.0650003 1.2519302 1.274094 0
3.0690002 1.249064 1.2753999 0
3.0740001 1.2466667 1.2770324 0
3.0790002 1.2442514 1.2786648 0
3.0840001 1.2418181 1.2802973 0
3.0890002 1.2393667 1.2819297 0
2.8500001 1.359347 1.1994795 0
2.8540003 1.3572149 1.2007782 0
2.8590002 1.3556383 1.2024016 0
2.8630002 1.3534756 1.2037003 0
2.8670001 1.3512983 1.2049991 0
2.8710003 1.3491068 1.2062979 0
2.8750002 1.3469008 1.2075965 0
2.8790002 1.3446803 1.2088953 0
2.8840003 1.3430045 1.2105187 0
2.8880002 1.3407533 1.2118175 0
2.8920002 1.3384877 1.2131163 0
2.8960001 1.3362077 1.214415 0
2.9010003 1.3344653 1.2160385 0
2.9050002 1.3321545 1.2173371 0
2.9090002 1.3298295 1.2186359 0
2.9130001 1.32749 1.2199346 0
2.9180002 1.3256807 1.2215581 0
2.9220002 1.3233105 1.2228568 0
2.9260001 1.3209258 1.2241555 0
2.9310002 1.3190662 1.2257789 0
2.9350002 1.3166509 1.2270777 0
2.9400003 1.3147569 1.2287012 0
2.9440002 1.3123109 1.2299999 0
2.9480002 1.3098505 1.2312986 0
2.9530003 1.307906 1.2329221 0
2.9570003 1.3054149 1.2342209 0
2.9620001 1.303436 1.2358441 0
2.9660003 1.3009144 1.237143 0
2.9710002 1.2989013 1.2387664 0
2.9750001 1.2963489 1.2400651 0
2.9800003 1.2943016 1.2416886 0
2.9850001 1.2922363 1.243312 0
2.9890003 1.289637 1.2446108 0
2.9940002 1.2875373 1.2462342 0
2.9980001 1.2849075 1.2475328 0
3.0030003 1.2827735 1.2491564 0
3.0080001 1.2806215 1.2507797 0
3.0120003 1.2779448 1.2520785 0
3.0170002 1.2757585 1.2537019 0
3.0220003 1.2735543 1.2553254 0
3.0260003 1.2708306 1.2566241 0
3.0310001 1.2685919 1.2582475 0
3.0360003 1.2663355 1.259871 0
3.0400002 1.2635647 1.2611697 0
3.0450003 1.261274 1.2627932 0
3.0500002 1.258965 1.2644166 0
3.0550003 1.2566382 1.26604 0
3.0600002 1.2542932 1.2676634 0
3.0650003 1.2519302 1.2692869 0
3.0690002 1.249064 1.2705855 0
3.0740001 1.2466667 1.2722089 0
3.0790002 1.2442514 1.2738324 0
3.0840001 1.2418181 1.2754558 0
3.0890002 1.2393667 1.2770792 0
2.8500001 1.359347 1.1950601 0
2.8540003 1.3572149 1.1963516 0
2.8590002 1.3556383 1.197966 0
2.8630002 1.3534756 1.1992576 0
2.8670001 1.3512983 1.200549 0
2.8710003 1.3491068 1.2018406 0
2.8750002 1.3469008 1.2031322 0
2.8790002 1.3446803 1.2044237 0
2.8840003 1.3430045 1.2060381 0
2.8880002 1.3407533 1.2073296 0
2.8920002 1.3384877 1.2086211 0
2.8960001 1.3362077 1.2099127 0
2.9010003 1.3344653 1.2115271 0
2.9050002 1.3321545 1.2128186 0
2.9090002 1.3298295 1.2141101 0
2.9130001 1.32749 1.2154016 0
2.9180002 1.3256807 1.2170161 0
2.9220002 1.3233105 1.2183076 0
2.9260001 1.3209258 1.219599 0
2.9310002 1.3190662 1.2212135 0
2.9350002 1.3166509 1.2225051 0
2.9400003 1.3147569 1.2241195 0
2.9440002 1.3123109 1.2254111 0
2.9480002 1.3098505 1.2267025 0
2.9530003 1.307906 1.2283169 0
2.9570003 1.3054149 1.2296084 0
2.9620001 1.303436 1.2312227 0
2.9660003 1.3009144 1.2325144 0
2.9710002 1.2989013 1.2341288 0
2.9750001 1.2963489 1.2354203 0
2.9800003 1.2943016 1.2370348 0
2.9850001 1.2922363 1.2386491 0
2.9890003 1.289637 1.2399406 0
2.9940002 1.2875373 1.2415551 0
2.9980001 1.2849075 1.2428466 0
3.0030003 1.2827735 1.2444611 0
3.0080001 1.2806215 1.2460754 0
3.0120003 1.2779448 1.247367 0
3.0170002 1.2757585 1.2489814 0
3.0220003 1.2735543 1.2505958 0
3.0260003 1.2708306 1.2518873 0
3.0310001 1.2685919 1.2535017 0
3.0360003 1.2663355 1.2551161 0
3.0400002 1.2635647 1.2564076 0
3.0450003 1.261274 1.2580221 0
3.0500002 1.258965 1.2596364 0
3.0550003 1.2566382 1.2612509 0
3.0600002 1.2542932 1.2628653 0
3.0650003 1.2519302 1.2644796 0
3.0690002 1.249064 1.2657713 0
3.0740001 1.2466667 1.2673856 0
3.0790002 1.2442514 1.2690001 0
3.0840001 1.2418181 1.2706144 0
3.0890002 1.2393667 1.2722288 0
2.8500001 1.359347 1.1906408 0
2.8540003 1.3572149 1.1919252 0
2.8590002 1.3556383 1.1935304 0
2.8630002 1.3534756 1.1948148 0
2.8670001 1.3512983 1.196099 0
2.8710003 1.3491068 1.1973834 0
2.8750002 1.3469008 1.1986678 0
2.8790002 1.3446803 1.199952 0
2.8840003 1.3430045 1.2015575 0
2.8880002 1.3407533 1.2028418 0
2.8920002 1.3384877 1.204126 0
2.8960001 1.3362077 1.2054104 0
2.9010003 1.3344653 1.2070158 0
2.9050002 1.3321545 1.2083001 0
2.9090002 1.3298295 1.2095844 0
2.9130001 1.32749 1.2108686 0
2.9180002 1.3256807 1.2124741 0
2.9220002 1.3233105 1.2137583 0
2.9260001 1.3209258 1.2150426 0
2.9310002 1.3190662 1.2166481 0
2.9350002 1.3166509 1.2179323 0
2.9400003 1.3147569 1.2195379 0
2.9440002 1.3123109 1.2208221 0
2.9480002 1.3098505 1.2221063 0
2.9530003 1.307906 1.2237118 0
2.9570003 1.3054149 1.2249961 0
2.9620001 1.303436 1.2266015 0
2.9660003 1.3009144 1.2278858 0
2.9710002 1.2989013 1.2294912 0
2.9750001 1.2963489 1.2307755 0
2.9800003 1.2943016 1.2323809 0
2.9850001 1.2922363 1.2339863 0
2.9890003 1.289637 1.2352706 0
2.9940002 1.2875373 1.236876 0
2.9980001 1.2849075 1.2381603 0
3.0030003 1.2827735 1.2397656 0
3.0080001 1.2806215 1.241371 0
3.0120003 1.2779448 1.2426554 0
3.0170002 1.2757585 1.2442608 0
3.0220003 1.2735543 1.2458662 0
3.0260003 1.2708306 1.2471505 0
3.0310001 1.2685919 1.2487558 0
3.0360003 1.2663355 1.2503613 0
3.0400002 1.2635647 1.2516456 0
3.0450003 1.261274 1.253251 0
3.0500002 1.258965 1.2548563 0
3.0550003 1.2566382 1.2564617 0
3.0600002 1.2542932 1.2580671 0
3.0650003 1.2519302 1.2596725 0
3.0690002 1.249064 1.2609569 0
3.0740001 1.2466667 1.2625622 0
3.0790002 1.2442514 1.2641677 0
3.0840001 1.2418181 1.2657729 0
3.0890002 1.2393667 1.2673784 0
2.8500001 1.359347 1.1862214 0
2.8540003 1.3572149 1.1874986 0
2.8590002 1.3556383 1.1890949 0
2.8630002 1.3534756 1.190372 0
2.8670001 1.3512983 1.1916491 0
2.8710003 1.3491068 1.1929263 0
2.8750002 1.3469008 1.1942033 0
2.8790002 1.3446803 1.1954803 0
2.8840003 1.3430045 1.1970768 0
2.8880002 1.3407533 1.1983539 0
2.8920002 1.3384877 1.199631 0
2.8960001 1.3362077 1.2009081 0
2.9010003 1.3344653 1.2025044 0
2.9050002 1.3321545 1.2037815 0
2.9090002 1.3298295 1.2050586 0
2.9130001 1.32749 1.2063357 0
2.9180002 1.3256807 1.2079321 0
2.9220002 1.3233105 1.2092092 0
2.9260001 1.3209258 1.2104862 0
2.9310002 1.3190662 1.2120826 0
2.9350002 1.3166509 1.2133597 0
2.9400003 1.3147569 1.2149562 0
2.9440002 1.3123109 1.2162333 0
2.9480002 1.3098505 1.2175102 0
2.9530003 1.307906 1.2191067 0
2.9570003 1.3054149 1.2203838 0
2.9620001 1.303436 1.2219801 0
2.9660003 1.3009144 1.2232573 0
2.9710002 1.2989013 1.2248536 0
2.9750001 1.2963489 1.2261306 0
2.9800003 1.2943016 1.2277271 0
2.9850001 1.2922363 1.2293234 0
2.9890003 1.289637 1.2306006 0
2.9940002 1.2875373 1.2321969 0
2.9980001 1.2849075 1.233474 0
3.0030003 1.2827735 1.2350703 0
3.0080001 1.2806215 1.2366667 0
3.0120003 1.2779448 1.2379439 0
3.0170002 1.2757585 1.2395402 0
3.0220003 1.2735543 1.2411366 0
3.0260003 1.2708306 1.2424138 0
3.0310001 1.2685919 1.2440101 0
3.0360003 1.2663355 1.2456064 0
3.0400002 1.2635647 1.2468835 0
3.0450003 1.261274 1.24848 0
3.0500002 1.258965 1.2500763 0
3.0550003 1.2566382 1.2516726 0
3.0600002 1.2542932 1.253269 0
3.0650003 1.2519302 1.2548654 0
3.0690002 1.249064 1.2561425 0
3.0740001 1.2466667 1.2577388 0
3.0790002 1.2442514 1.2593352 0
3.0840001 1.2418181 1.2609315 0
3.0890002 1.2393667 1.2625279 0
2.8500001 1.359347 1.1818022 0
2.8540003 1.3572149 1.1830721 0
2.8590002 1.3556383 1.1846594 0
2.8630002 1.3534756 1.1859292 0
2.8670001 1.3512983 1.1871991 0
2.8710003 1.3491068 1.1884691 0
2.8750002 1.3469008 1.1897389 0
2.8790002 1.3446803 1.1910088 0
2.8840003 1.3430045 1.1925961 0
2.8880002 1.3407533 1.193866 0
2.8920002 1.3384877 1.1951358 0
2.8960001 1.3362077 1.1964058 0
2.9010003 1.3344653 1.1979932 0
2.9050002 1.3321545 1.199263 0
2.9090002 1.3298295 1.2005329 0
2.9130001 1.32749 1.2018027 0
2.9180002 1.3256807 1.2033901 0
2.9220002 1.3233105 1.2046599 0
2.9260001 1.3209258 1.2059298 0
2.9310002 1.3190662 1.2075173 0
2.9350002 1.3166509 1.2087871 0
2.9400003 1.3147569 1.2103745 0
2.9440002 1.3123109 1.2116443 0
2.9480002 1.3098505 1.2129142 0
2.9530003 1.307906 1.2145016 0
2.9570003 1.3054149 1.2157714 0
2.9620001 1.303436 1.2173588 0
2.9660003 1.3009144 1.2186286 0
2.9710002 1.2989013 1.220216 0
2.9750001 1.2963489 1.2214859 0
2.9800003 1.2943016 1.2230732 0
2.9850001 1.2922363 1.2246606 0
2.9890003 1.289637 1.2259305 0
2.9940002 1.2875373 1.2275178 0
2.9980001 1.2849075 1.2287877 0
3.0030003 1.2827735 1.2303751 0
3.0080001 1.2806215 1.2319623 0
3.0120003 1.2779448 1.2332324 0
3.0170002 1.2757585 1.2348197 0
3.0220003 1.2735543 1.236407 0
3.0260003 1.2708306 1.2376769 0
3.0310001 1.2685919 1.2392642 0
3.0360003 1.2663355 1.2408516 0
3.0400002 1.2635647 1.2421215 0
3.0450003 1.261274 1.2437088 0
3.0500002 1.258965 1.2452961 0
3.0550003 1.2566382 1.2468835 0
3.0600002 1.2542932 1.2484708 0
3.0650003 1.2519302 1.2500583 0
3.0690002 1.249064 1.2513281 0
3.0740001 1.2466667 1.2529154 0
3.0790002 1.2442514 1.2545028 0
3.0840001 1.2418181 1.2560902 0
3.0890002 1.2393667 1.2576776 0
2.8500001 1.359347 1.1773827 0
2.8540003 1.3572149 1.1786455 0
2.8590002 1.3556383 1.1802238 0
2.8630002 1.3534756 1.1814865 0
2.8670001 1.3512983 1.1827492 0
2.8710003 1.3491068 1.1840118 0
2.8750002 1.3469008 1.1852745 0
2.8790002 1.3446803 1.1865371 0
2.8840003 1.3430045 1.1881155 0
2.8880002 1.3407533 1.1893781 0
2.8920002 1.3384877 1.1906408 0
2.8960001 1.3362077 1.1919035 0
2.9010003 1.3344653 1.1934818 0
2.9050002 1.3321545 1.1947445 0
2.9090002 1.3298295 1.1960071 0
2.9130001 1.32749 1.1972697 0
2.9180002 1.3256807 1.1988481 0
2.9220002 1.3233105 1.2001108 0
2.9260001 1.3209258 1.2013735 0
2.9310002 1.3190662 1.2029518 0
2.9350002 1.3166509 1.2042145 0
2.9400003 1.3147569 1.2057928 0
2.9440002 1.3123109 1.2070554 0
2.9480002 1.3098505 1.2083181 0
2.9530003 1.307906 1.2098964 0
2.9570003 1.3054149 1.2111591 0
2.9620001 1.303436 1.2127374 0
2.9660003 1.3009144 1.2140001 0
2.9710002 1.2989013 1.2155784 0
2.9750001 1.2963489 1.2168411 0
2.9800003 1.2943016 1.2184194 0
2.9850001 1.2922363 1.2199978 0
2.9890003 1.289637 1.2212604 0
2.9940002 1.2875373 1.2228388 0
2.9980001 1.2849075 1.2241014 0
3.0030003 1.2827735 1.2256798 0
3.0080001 1.2806215 1.2272581 0
3.0120003 1.2779448 1.2285208 0
3.0170002 1.2757585 1.2300991 0
3.0220003 1.2735543 1.2316774 0
3.0260003 1.2708306 1.2329401 0
3.0310001 1.2685919 1.2345184 0
3.0360003 1.2663355 1.2360967 0
3.0400002 1.2635647 1.2373594 0
3.0450003 1.261274 1.2389377 0
3.0500002 1.258965 1.2405161 0
3.0550003 1.2566382 1.2420944 0
3.0600002 1.2542932 1.2436727 0
3.0650003 1.2519302 1.2452511 0
3.0690002 1.249064 1.2465137 0
3.0740001 1.2466667 1.2480921 0
3.0790002 1.2442514 1.2496704 0
3.0840001 1.2418181 1.2512487 0
3.0890002 1.2393667 1.252827 0
2.8500001 1.359347 1.1729635 0
2.8540003 1.3572149 1.1742189 0
2.8590002 1.3556383 1.1757883 0
2.8630002 1.3534756 1.1770437 0
2.8670001 1.3512983 1.1782991 0
2.8710003 1.3491068 1.1795546 0
2.8750002 1.3469008 1.1808101 0
2.8790002 1.3446803 1.1820655 0
2.8840003 1.3430045 1.1836348 0
2.8880002 1.3407533 1.1848903 0
2.8920002 1.3384877 1.1861457 0
2.8960001 1.3362077 1.1874012 0
2.9010003 1.3344653 1.1889704 0
2.9050002 1.3321545 1.190226 0
2.9090002 1.3298295 1.1914814 0
2.9130001 1.32749 1.1927367 0
2.9180002 1.3256807 1.1943061 0
2.9220002 1.3233105 1.1955615 0
2.9260001 1.3209258 1.196817 0
2.9310002 1.3190662 1.1983863 0
2.9350002 1.3166509 1.1996418 0
2.9400003 1.3147569 1.2012111 0
2.9440002 1.3123109 1.2024666 0
2.9480002 1.3098505 1.203722 0
2.9530003 1.307906 1.2052914 0
2.9570003 1.3054149 1.2065468 0
2.9620001 1.303436 1.2081161 0
2.9660003 1.3009144 1.2093716 0
2.9710002 1.2989013 1.2109408 0
2.9750001 1.2963489 1.2121962 0
2.9800003 1.2943016 1.2137656 0
2.9850001 1.2922363 1.2153349 0
2.9890003 1.289637 1.2165904 0
2.9940002 1.2875373 1.2181597 0
2.9980001 1.2849075 1.2194151 0
3.0030003 1.2827735 1.2209845 0
3.0080001 1.2806215 1.2225537 0
3.0120003 1.2779448 1.2238092 0
3.0170002 1.2757585 1.2253785 0
3.0220003 1.2735543 1.2269479 0
3.0260003 1.2708306 1.2282033 0
3.0310001 1.2685919 1.2297726 0
3.0360003 1.2663355 1.231342 0
3.0400002 1.2635647 1.2325974 0
3.0450003 1.261274 1.2341667 0
3.0500002 1.258965 1.235736 0
3.0550003 1.2566382 1.2373053 0
3.0600002 1.2542932 1.2388747 0
3.0650003 1.2519302 1.2404439 0
3.0690002 1.249064 1.2416995 0
3.0740001 1.2466667 1.2432686 0
3.0790002 1.2442514 1.244838 0
3.0840001 1.2418181 1.2464073 0
3.0890002 1.2393667 1.2479767 0
2.8500001 1.359347 1.1685441 0
2.8540003 1.3572149 1.1697924 0
2.8590002 1.3556383 1.1713526 0
2.8630002 1.3534756 1.1726009 0
2.8670001 1.3512983 1.1738491 0
2.8710003 1.3491068 1.1750973 0
2.8750002 1.3469008 1.1763456 0
2.8790002 1.3446803 1.1775938 0
2.8840003 1.3430045 1.1791542 0
2.8880002 1.3407533 1.1804024 0
2.8920002 1.3384877 1.1816506 0
2.8960001 1.3362077 1.1828989 0
2.9010003 1.3344653 1.1844592 0
2.9050002 1.3321545 1.1857073 0
2.9090002 1.3298295 1.1869556 0
2.9130001 1.32749 1.1882038 0
2.9180002 1.3256807 1.1897641 0
2.9220002 1.3233105 1.1910124 0
2.9260001 1.3209258 1.1922606 0
2.9310002 1.3190662 1.193821 0
2.9350002 1.3166509 1.1950692 0
2.9400003 1.3147569 1.1966295 0
2.9440002 1.3123109 1.1978776 0
2.9480002 1.3098505 1.1991259 0
2.9530003 1.307906 1.2006862 0
2.9570003 1.3054149 1.2019345 0
2.9620001 1.303436 1.2034947 0
2.9660003 1.3009144 1.204743 0
2.9710002 1.2989013 1.2063032 0
2.9750001 1.2963489 1.2075515 0
2.9800003 1.2943016 1.2091118 0
2.9850001 1.2922363 1.210672 0
2.9890003 1.289637 1.2119204 0
2.9940002 1.2875373 1.2134806 0
2.9980001 1.2849075 1.2147288 0
3.0030003 1.2827735 1.2162892 0
3.0080001 1.2806215 1.2178494 0
3.0120003 1.2779448 1.2190977 0
3.0170002 1.2757585 1.2206579 0
3.0220003 1.2735543 1.2222183 0
3.0260003 1.2708306 1.2234665 0
3.0310001 1.2685919 1.2250267 0
3.0360003 1.2663355 1.2265871 0
3.0400002 1.2635647 1.2278353 0
3.0450003 1.261274 1.2293956 0
3.0500002 1.258965 1.2309558 0
3.0550003 1.2566382 1.2325162 0
3.0600002 1.2542932 1.2340765 0
3.0650003 1.2519302 1.2356368 0
3.0690002 1.249064 1.2368851 0
3.0740001 1.2466667 1.2384453 0
3.0790002 1.2442514 1.2400056 0
3.0840001 1.2418181 1.2415658 0
3.0890002 1.2393667 1.2431262 0
2.8500001 1.359347 1.1641247 0
2.8540003 1.3572149 1.1653658 0
2.8590002 1.3556383 1.1669171 0
2.8630002 1.3534756 1.1681581 0
2.8670001 1.3512983 1.1693991 0
2.8710003 1.3491068 1.1706401 0
2.8750002 1.3469008 1.1718812 0
2.8790002 1.3446803 1.1731222 0
2.8840003 1.3430045 1.1746736 0
2.8880002 1.3407533 1.1759145 0
2.8920002 1.3384877 1.1771555 0
2.8960001 1.3362077 1.1783965 0
2.9010003 1.3344653 1.1799479 0
2.9050002 1.3321545 1.1811888 0
2.9090002 1.3298295 1.1824298 0
2.9130001 1.32749 1.1836708 0
2.9180002 1.3256807 1.1852221 0
2.9220002 1.3233105 1.1864631 0
2.9260001 1.3209258 1.1877042 0
2.9310002 1.3190662 1.1892555 0
2.9350002 1.3166509 1.1904964 0
2.9400003 1.3147569 1.1920478 0
2.9440002 1.3123109 1.1932888 0
2.9480002 1.3098505 1.1945298 0
2.9530003 1.307906 1.196081 0
2.9570003 1.3054149 1.1973221 0
2.9620001 1.303436 1.1988733 0
2.9660003 1.3009144 1.2001145 0
2.9710002 1.2989013 1.2016656 0
2.9750001 1.2963489 1.2029066 0
2.9800003 1.2943016 1.204458 0
2.9850001 1.2922363 1.2060091 0
2.9890003 1.289637 1.2072502 0
2.9940002 1.2875373 1.2088015 0
2.9980001 1.2849075 1.2100426 0
3.0030003 1.2827735 1.2115939 0
3.0080001 1.2806215 1.2131451 0
3.0120003 1.2779448 1.2143861 0
3.0170002 1.2757585 1.2159374 0
3.0220003 1.2735543 1.2174886 0
3.0260003 1.2708306 1.2187297 0
3.0310001 1.2685919 1.220281 0
3.0360003 1.2663355 1.2218323 0
3.0400002 1.2635647 1.2230732 0
3.0450003 1.261274 1.2246245 0
3.0500002 1.258965 1.2261758 0
3.0550003 1.2566382 1.2277271 0
3.0600002 1.2542932 1.2292783 0
3.0650003 1.2519302 1.2308297 0
3.0690002 1.249064 1.2320707 0
3.0740001 1.2466667 1.233622 0
3.0790002 1.2442514 1.2351732 0
3.0840001 1.2418181 1.2367245 0
3.0890002 1.2393667 1.2382758 0
2.8500001 1.359347 1.1597054 0
2.8540003 1.3572149 1.1609393 0
2.8590002 1.3556383 1.1624815 0
2.8630002 1.3534756 1.1637154 0
2.8670001 1.3512983 1.1649491 0
2.8710003 1.3491068 1.166183 0
2.8750002 1.3469008 1.1674168 0
2.8790002 1.3446803 1.1686506 0
2.8840003 1.3430045 1.1701928 0
2.8880002 1.3407533 1.1714267 0
2.8920002 1.3384877 1.1726605 0
2.8960001 1.3362077 1.1738942 0
2.9010003 1.3344653 1.1754365 0
2.9050002 1.3321545 1.1766703 0
2.9090002 1.3298295 1.177904 0
2.9130001 1.32749 1.1791378 0
2.9180002 1.3256807 1.1806802 0
2.9220002 1.3233105 1.181914 0
2.9260001 1.3209258 1.1831478 0
2.9310002 1.3190662 1.18469 0
2.9350002 1.3166509 1.1859238 0
2.9400003 1.3147569 1.1874661 0
2.9440002 1.3123109 1.1886998 0
2.9480002 1.3098505 1.1899337 0
2.9530003 1.307906 1.191476 0
2.9570003 1.3054149 1.1927098 0
2.9620001 1.303436 1.194252 0
2.9660003 1.3009144 1.1954858 0
2.9710002 1.2989013 1.197028 0
2.9750001 1.2963489 1.1982619 0
2.9800003 1.2943016 1.1998042 0
2.9850001 1.2922363 1.2013464 0
2.9890003 1.289637 1.2025802 0
2.9940002 1.2875373 1.2041224 0
2.9980001 1.2849075 1.2053562 0
3.0030003 1.2827735 1.2068986 0
3.0080001 1.2806215 1.2084408 0
3.0120003 1.2779448 1.2096746 0
3.0170002 1.2757585 1.2112168 0
3.0220003 1.2735543 1.2127591 0
3.0260003 1.2708306 1.2139928 0
3.0310001 1.2685919 1.2155352 0
3.0360003 1.2663355 1.2170774 0
3.0400002 1.2635647 1.2183112 0
3.0450003 1.261274 1.2198535 0
3.0500002 1.258965 1.2213957 0
3.0550003 1.2566382 1.2229379 0
3.0600002 1.2542932 1.2244803 0
3.0650003 1.2519302 1.2260225 0
3.0690002 1.249064 1.2272563 0
3.0740001 1.2466667 1.2287985 0
3.0790002 1.2442514 1.2303407 0
3.0840001 1.2418181 1.231883 0
3.0890002 1.2393667 1.2334254 0
2.8500001 1.359347 1.1552861 0
2.8540003 1.3572149 1.1565127 0
2.8590002 1.3556383 1.158046 0
2.8630002 1.3534756 1.1592726 0
2.8670001 1.3512983 1.1604991 0
2.8710003 1.3491068 1.1617258 0
2.8750002 1.3469008 1.1629523 0
2.8790002 1.3446803 1.164179 0
2.8840003 1.3430045 1.1657121 0
2.8880002 1.3407533 1.1669388 0
2.8920002 1.3384877 1.1681653 0
2.8960001 1.3362077 1.1693919 0
2.9010003 1.3344653 1.1709251 0
2.9050002 1.3321545 1.1721517 0
2.9090002 1.3298295 1.1733783 0
2.9130001 1.32749 1.1746049 0
2.9180002 1.3256807 1.1761382 0
2.9220002 1.3233105 1.1773647 0
2.9260001 1.3209258 1.1785914 0
2.9310002 1.3190662 1.1801245 0
2.9350002 1.3166509 1.1813512 0
2.9400003 1.3147569 1.1828845 0
2.9440002 1.3123109 1.184111 0
2.9480002 1.3098505 1.1853375 0
2.9530003 1.307906 1.1868708 0
2.9570003 1.3054149 1.1880975 0
2.9620001 1.303436 1.1896306 0
2.9660003 1.3009144 1.1908573 0
2.9710002 1.2989013 1.1923904 0
2.9750001 1.2963489 1.193617 0
2.9800003 1.2943016 1.1951504 0
2.9850001 1.2922363 1.1966835 0
2.9890003 1.289637 1.1979102 0
2.9940002 1.2875373 1.1994433 0
2.9980001 1.2849075 1.2006699 0
3.0030003 1.2827735 1.2022033 0
3.0080001 1.2806215 1.2037364 0
3.0120003 1.2779448 1.2049631 0
3.0170002 1.2757585 1.2064962 0
3.0220003 1.2735543 1.2080295 0
3.0260003 1.2708306 1.2092561 0
3.0310001 1.2685919 1.2107893 0
3.0360003 1.2663355 1.2123226 0
3.0400002 1.2635647 1.2135491 0
3.0450003 1.261274 1.2150824 0
3.0500002 1.258965 1.2166157 0
3.0550003 1.2566382 1.2181489 0
3.0600002 1.2542932 1.2196821 0
3.0650003 1.2519302 1.2212154 0
3.0690002 1.249064 1.2224419 0
3.0740001 1.2466667 1.2239752 0
3.0790002 1.2442514 1.2255085 0
3.0840001 1.2418181 1.2270416 0
3.0890002 1.2393667 1.2285749 0
2.8500001 1.359347 1.1508669 0
2.8540003 1.3572149 1.1520863 0
2.8590002 1.3556383 1.1536103 0
2.8630002 1.3534756 1.1548297 0
2.8670001 1.3512983 1.1560491 0
2.8710003 1.3491068 1.1572685 0
2.8750002 1.3469008 1.1584879 0
2.8790002 1.3446803 1.1597073 0
2.8840003 1.3430045 1.1612315 0
2.8880002 1.3407533 1.1624509 0
2.8920002 1.3384877 1.1636702 0
2.8960001 1.3362077 1.1648896 0
2.9010003 1.3344653 1.1664139 0
2.9050002 1.3321545 1.1676332 0
2.9090002 1.3298295 1.1688526 0
2.9130001 1.32749 1.170072 0
2.9180002 1.3256807 1.1715962 0
2.9220002 1.3233105 1.1728156 0
2.9260001 1.3209258 1.174035 0
2.9310002 1.3190662 1.1755592 0
2.9350002 1.3166509 1.1767786 0
2.9400003 1.3147569 1.1783028 0
2.9440002 1.3123109 1.1795222 0
2.9480002 1.3098505 1.1807415 0
2.9530003 1.307906 1.1822658 0
2.9570003 1.3054149 1.183485 0
2.9620001 1.303436 1.1850092 0
2.9660003 1.3009144 1.1862288 0
2.9710002 1.2989013 1.1877528 0
2.9750001 1.2963489 1.1889722 0
2.9800003 1.2943016 1.1904964 0
2.9850001 1.2922363 1.1920207 0
2.9890003 1.289637 1.1932402 0
2.9940002 1.2875373 1.1947643 0
2.9980001 1.2849075 1.1959836 0
3.0030003 1.2827735 1.1975079 0
3.0080001 1.2806215 1.1990321 0
3.0120003 1.2779448 1.2002515 0
3.0170002 1.2757585 1.2017757 0
3.0220003 1.2735543 1.2033 0
3.0260003 1.2708306 1.2045193 0
3.0310001 1.2685919 1.2060435 0
3.0360003 1.2663355 1.2075678 0
3.0400002 1.2635647 1.2087871 0
3.0450003 1.261274 1.2103113 0
3.0500002 1.258965 1.2118355 0
3.0550003 1.2566382 1.2133598 0
3.0600002 1.2542932 1.2148839 0
3.0650003 1.2519302 1.2164083 0
3.0690002 1.249064 1.2176275 0
3.0740001 1.2466667 1.2191517 0
3.0790002 1.2442514 1.2206761 0
3.0840001 1.2418181 1.2222002 0
3.0890002 1.2393667 1.2237244 0
2.8500001 1.359347 1.1464474 0
2.8540003 1.3572149 1.1476597 0
2.8590002 1.3556383 1.1491748 0
2.8630002 1.3534756 1.1503869 0
2.8670001 1.3512983 1.1515992 0
2.8710003 1.3491068 1.1528113 0
2.8750002 1.3469008 1.1540235 0
2.8790002 1.3446803 1.1552356 0
2.8840003 1.3430045 1.1567509 0
2.8880002 1.3407533 1.157963 0
2.8920002 1.3384877 1.1591752 0
2.8960001 1.3362077 1.1603873 0
2.9010003 1.3344653 1.1619025 0
2.9050002 1.3321545 1.1631147 0
2.9090002 1.3298295 1.1643268 0
2.9130001 1.32749 1.1655389 0
2.9180002 1.3256807 1.1670542 0
2.9220002 1.3233105 1.1682663 0
2.9260001 1.3209258 1.1694785 0
2.9310002 1.3190662 1.1709937 0
2.9350002 1.3166509 1.1722058 0
2.9400003 1.3147569 1.1737211 0
2.9440002 1.3123109 1.1749332 0
2.9480002 1.3098505 1.1761454 0
2.9530003 1.307906 1.1776606 0
2.9570003 1.3054149 1.1788727 0
2.9620001 1.303436 1.180388 0
2.9660003 1.3009144 1.1816001 0
2.9710002 1.2989013 1.1831152 0
2.9750001 1.2963489 1.1843275 0
2.9800003 1.2943016 1.1858426 0
2.9850001 1.2922363 1.1873578 0
2.9890003 1.289637 1.18857 0
2.9940002 1.2875373 1.1900852 0
2.9980001 1.2849075 1.1912974 0
3.0030003 1.2827735 1.1928126 0
3.0080001 1.2806215 1.1943277 0
3.0120003 1.2779448 1.19554 0
3.0170002 1.2757585 1.1970551 0
3.0220003 1.2735543 1.1985704 0
3.0260003 1.2708306 1.1997825 0
3.0310001 1.2685919 1.2012976 0
3.0360003 1.2663355 1.2028129 0
3.0400002 1.2635647 1.204025 0
3.0450003 1.261274 1.2055403 0
3.0500002 1.258965 1.2070554 0
3.0550003 1.2566382 1.2085707 0
3.0600002 1.2542932 1.2100857 0
3.0650003 1.2519302 1.211601 0
3.0690002 1.249064 1.2128133 0
3.0740001 1.2466667 1.2143283 0
3.0790002 1.2442514 1.2158436 0
3.0840001 1.2418181 1.2173587 0
3.0890002 1.2393667 1.218874 0
2.8500001 1.359347 1.1420281 0
2.8540003 1.3572149 1.1432332 0
2.8590002 1.3556383 1.1447393 0
2.8630002 1.3534756 1.1459442 0
2.8670001 1.3512983 1.1471492 0
2.8710003 1.3491068 1.1483542 0
2.8750002 1.3469008 1.149559 0
2.8790002 1.3446803 1.150764 0
2.8840003 1.3430045 1.1522702 0
2.8880002 1.3407533 1.1534752 0
2.8920002 1.3384877 1.1546801 0
2.8960001 1.3362077 1.155885 0
2.9010003 1.3344653 1.1573912 0
2.9050002 1.3321545 1.1585962 0
2.9090002 1.3298295 1.1598011 0
2.9130001 1.32749 1.161006 0
2.9180002 1.3256807 1.1625122 0
2.9220002 1.3233105 1.1637172 0
2.9260001 1.3209258 1.1649221 0
2.9310002 1.3190662 1.1664283 0
2.9350002 1.3166509 1.1676332 0
2.9400003 1.3147569 1.1691394 0
2.9440002 1.3123109 1.1703444 0
2.9480002 1.3098505 1.1715493 0
2.9530003 1.307906 1.1730555 0
2.9570003 1.3054149 1.1742604 0
2.9620001 1.303436 1.1757666 0
2.9660003 1.3009144 1.1769716 0
2.9710002 1.2989013 1.1784778 0
2.9750001 1.2963489 1.1796826 0
2.9800003 1.2943016 1.1811888 0
2.9850001 1.2922363 1.182695 0
2.9890003 1.289637 1.1839 0
2.9940002 1.2875373 1.1854061 0
2.9980001 1.2849075 1.1866111 0
3.0030003 1.2827735 1.1881173 0
3.0080001 1.2806215 1.1896235 0
3.0120003 1.2779448 1.1908284 0
3.0170002 1.2757585 1.1923345 0
3.0220003 1.2735543 1.1938407 0
3.0260003 1.2708306 1.1950457 0
3.0310001 1.2685919 1.1965518 0
3.0360003 1.2663355 1.1980581 0
3.0400002 1.2635647 1.199263 0
3.0450003 1.261274 1.2007692 0
3.0500002 1.258965 1.2022754 0
3.0550003 1.2566382 1.2037816 0
3.0600002 1.2542932 1.2052877 0
3.0650003 1.2519302 1.2067939 0
3.0690002 1.249064 1.2079989 0
3.0740001 1.2466667 1.209505 0
3.0790002 1.2442514 1.2110112 0
3.0840001 1.2418181 1.2125174 0
3.0890002 1.2393667 1.2140236 0
2.8500001 1.359347 1.1376088 0
2.8540003 1.3572149 1.1388066 0
2.8590002 1.3556383 1.1403037 0
2.8630002 1.3534756 1.1415014 0
2.8670001 1.3512983 1.1426991 0
2.8710003 1.3491068 1.1438969 0
2.8750002 1.3469008 1.1450946 0
2.8790002 1.3446803 1.1462923 0
2.8840003 1.3430045 1.1477895 0
2.8880002 1.3407533 1.1489873 0
2.8920002 1.3384877 1.150185 0
2.8960001 1.3362077 1.1513827 0
2.9010003 1.3344653 1.1528798 0
2.9050002 1.3321545 1.1540775 0
2.9090002 1.3298295 1.1552753 0
2.9130001 1.32749 1.156473 0
2.9180002 1.3256807 1.1579702 0
2.9220002 1.3233105 1.1591679 0
2.9260001 1.3209258 1.1603657 0
2.9310002 1.3190662 1.1618629 0
2.9350002 1.3166509 1.1630605 0
2.9400003 1.3147569 1.1645578 0
2.9440002 1.3123109 1.1657554 0
2.9480002 1.3098505 1.1669532 0
2.9530003 1.307906 1.1684504 0
2.9570003 1.3054149 1.1696481 0
2.9620001 1.303436 1.1711452 0
2.9660003 1.3009144 1.172343 0
2.9710002 1.2989013 1.17384 0
2.9750001 1.2963489 1.1750379 0
2.9800003 1.2943016 1.176535 0
2.9850001 1.2922363 1.1780322 0
2.9890003 1.289637 1.17923 0
2.9940002 1.2875373 1.180727 0
2.9980001 1.2849075 1.1819247 0
3.0030003 1.2827735 1.183422 0
3.0080001 1.2806215 1.1849191 0
3.0120003 1.2779448 1.1861168 0
3.0170002 1.2757585 1.187614 0
3.0220003 1.2735543 1.1891112 0
3.0260003 1.2708306 1.1903089 0
3.0310001 1.2685919 1.191806 0
3.0360003 1.2663355 1.1933032 0
3.0400002 1.2635647 1.1945009 0
3.0450003 1.261274 1.1959981 0
3.0500002 1.258965 1.1974952 0
3.0550003 1.2566382 1.1989925 0
3.0600002 1.2542932 1.2004896 0
3.0650003 1.2519302 1.2019868 0
3.0690002 1.249064 1.2031845 0
3.0740001 1.2466667 1.2046816 0
3.0790002 1.2442514 1.2061788 0
3.0840001 1.2418181 1.2076759 0
3.0890002 1.2393667 1.2091731 0
2.8500001 1.359347 1.1331894 0
2.8540003 1.3572149 1.13438 0
2.8590002 1.3556383 1.1358682 0
2.8630002 1.3534756 1.1370586 0
2.8670001 1.3512983 1.1382492 0
2.8710003 1.3491068 1.1394397 0
2.8750002 1.3469008 1.1406302 0
2.8790002 1.3446803 1.1418207 0
2.8840003 1.3430045 1.1433089 0
2.8880002 1.3407533 1.1444994 0
2.8920002 1.3384877 1.1456898 0
2.8960001 1.3362077 1.1468804 0
2.9010003 1.3344653 1.1483686 0
2.9050002 1.3321545 1.149559 0
2.9090002 1.3298295 1.1507496 0
2.9130001 1.32749 1.15194 0
2.9180002 1.3256807 1.1534282 0
2.9220002 1.3233105 1.1546187 0
2.9260001 1.3209258 1.1558093 0
2.9310002 1.3190662 1.1572974 0
2.9350002 1.3166509 1.1584879 0
2.9400003 1.3147569 1.1599761 0
2.9440002 1.3123109 1.1611665 0
2.9480002 1.3098505 1.1623571 0
2.9530003 1.307906 1.1638452 0
2.9570003 1.3054149 1.1650357 0
2.9620001 1.303436 1.1665238 0
2.9660003 1.3009144 1.1677145 0
2.9710002 1.2989013 1.1692026 0
2.9750001 1.2963489 1.170393 0
2.9800003 1.2943016 1.1718812 0
2.9850001 1.2922363 1.1733693 0
2.9890003 1.289637 1.1745598 0
2.9940002 1.2875373 1.1760479 0
2.9980001 1.2849075 1.1772385 0
3.0030003 1.2827735 1.1787267 0
3.0080001 1.2806215 1.1802148 0
3.0120003 1.2779448 1.1814053 0
3.0170002 1.2757585 1.1828934 0
3.0220003 1.2735543 1.1843816 0
3.0260003 1.2708306 1.1855721 0
3.0310001 1.2685919 1.1870602 0
3.0360003 1.2663355 1.1885484 0
3.0400002 1.2635647 1.1897389 0
3.0450003 1.261274 1.1912271 0
3.0500002 1.258965 1.1927152 0
3.0550003 1.2566382 1.1942034 0
3.0600002 1.2542932 1.1956915 0
3.0650003 1.2519302 1.1971797 0
3.0690002 1.249064 1.1983701 0
3.0740001 1.2466667 1.1998582 0
3.0790002 1.2442514 1.2013464 0
3.0840001 1.2418181 1.2028345 0
3.0890002 1.2393667 1.2043227 0
2.8500001 1.359347 1.1287701 0
2.8540003 1.3572149 1.1299535 0
2.8590002 1.3556383 1.1314327 0
2.8630002 1.3534756 1.1326158 0
2.8670001 1.3512983 1.1337992 0
2.8710003 1.3491068 1.1349825 0
2.8750002 1.3469008 1.1361657 0
2.8790002 1.3446803 1.1373491 0
2.8840003 1.3430045 1.1388283 0
2.8880002 1.3407533 1.1400114 0
2.8920002 1.3384877 1.1411948 0
2.8960001 1.3362077 1.1423781 0
2.9010003 1.3344653 1.1438572 0
2.9050002 1.3321545 1.1450405 0
2.9090002 1.3298295 1.1462238 0
2.9130001 1.32749 1.1474071 0
2.9180002 1.3256807 1.1488862 0
2.9220002 1.3233105 1.1500695 0
2.9260001 1.3209258 1.1512527 0
2.9310002 1.3190662 1.1527319 0
2.9350002 1.3166509 1.1539153 0
2.9400003 1.3147569 1.1553944 0
2.9440002 1.3123109 1.1565777 0
2.9480002 1.3098505 1.157761 0
2.9530003 1.307906 1.1592401 0
2.9570003 1.3054149 1.1604234 0
2.9620001 1.303436 1.1619024 0
2.9660003 1.3009144 1.1630858 0
2.9710002 1.2989013 1.164565 0
2.9750001 1.2963489 1.1657482 0
2.9800003 1.2943016 1.1672274 0
2.9850001 1.2922363 1.1687064 0
2.9890003 1.289637 1.1698898 0
2.9940002 1.2875373 1.1713688 0
2.9980001 1.2849075 1.1725522 0
3.0030003 1.2827735 1.1740314 0
3.0080001 1.2806215 1.1755104 0
3.0120003 1.2779448 1.1766938 0
3.0170002 1.2757585 1.1781728 0
3.0220003 1.2735543 1.179652 0
3.0260003 1.2708306 1.1808352 0
3.0310001 1.2685919 1.1823144 0
3.0360003 1.2663355 1.1837935 0
3.0400002 1.2635647 1.1849768 0
3.0450003 1.261274 1.186456 0
3.0500002 1.258965 1.187935 0
3.0550003 1.2566382 1.1894143 0
3.0600002 1.2542932 1.1908933 0
3.0650003 1.2519302 1.1923724 0
3.0690002 1.249064 1.1935557 0
3.0740001 1.2466667 1.1950349 0
3.0790002 1.2442514 1.196514 0
3.0840001 1.2418181 1.197993 0
3.0890002 1.2393667 1.1994723 0
2.8500001 1.359347 1.1243508 0
2.8540003 1.3572149 1.1255269 0
2.8590002 1.3556383 1.126997 0
2.8630002 1.3534756 1.1281731 0
2.8670001 1.3512983 1.1293491 0
2.8710003 1.3491068 1.1305254 0
2.8750002 1.3469008 1.1317014 0
2.8790002 1.3446803 1.1328775 0
2.8840003 1.3430045 1.1343476 0
2.8880002 1.3407533 1.1355237 0
2.8920002 1.3384877 1.1366997 0
2.8960001 1.3362077 1.1378758 0
2.9010003 1.3344653 1.1393459 0
2.9050002 1.3321545 1.140522 0
2.9090002 1.3298295 1.141698 0
2.9130001 1.32749 1.1428741 0
2.9180002 1.3256807 1.1443442 0
2.9220002 1.3233105 1.1455203 0
2.9260001 1.3209258 1.1466963 0
2.9310002 1.3190662 1.1481665 0
2.9350002 1.3166509 1.1493425 0
2.9400003 1.3147569 1.1508127 0
2.9440002 1.3123109 1.1519887 0
2.9480002 1.3098505 1.1531649 0
2.9530003 1.307906 1.154635 0
2.9570003 1.3054149 1.1558111 0
2.9620001 1.303436 1.1572812 0
2.9660003 1.3009144 1.1584573 0
2.9710002 1.2989013 1.1599274 0
2.9750001 1.2963489 1.1611034 0
2.9800003 1.2943016 1.1625736 0
2.9850001 1.2922363 1.1640437 0
2.9890003 1.289637 1.1652198 0
2.9940002 1.2875373 1.1666899 0
2.9980001 1.2849075 1.1678659 0
3.0030003 1.2827735 1.1693361 0
3.0080001 1.2806215 1.1708061 0
3.0120003 1.2779448 1.1719823 0
3.0170002 1.2757585 1.1734523 0
3.0220003 1.2735543 1.1749225 0
3.0260003 1.2708306 1.1760985 0
3.0310001 1.2685919 1.1775686 0
3.0360003 1.2663355 1.1790388 0
3.0400002 1.2635647 1.1802148 0
3.0450003 1.261274 1.181685 0
3.0500002 1.258965 1.1831549 0
3.0550003 1.2566382 1.1846251 0
3.0600002 1.2542932 1.1860952 0
3.0650003 1.2519302 1.1875653 0
3.0690002 1.249064 1.1887414 0
3.0740001 1.2466667 1.1902114 0
3.0790002 1.2442514 1.1916816 0
3.0840001 1.2418181 1.1931517 0
3.0890002 1.2393667 1.1946218 0
2.8500001 1.359347 1.1199315 0
2.8540003 1.3572149 1.1211004 0
2.8590002 1.3556383 1.1225615 0
2.8630002 1.3534756 1.1237303 0
2.8670001 1.3512983 1.1248991 0
2.8710003 1.3491068 1.1260681 0
2.8750002 1.3469008 1.127237 0
2.8790002 1.3446803 1.1284058 0
2.8840003 1.3430045 1.1298668 0
2.8880002 1.3407533 1.1310358 0
2.8920002 1.3384877 1.1322047 0
2.8960001 1.3362077 1.1333735 0
2.9010003 1.3344653 1.1348345 0
2.9050002 1.3321545 1.1360035 0
2.9090002 1.3298295 1.1371722 0
2.9130001 1.32749 1.1383411 0
2.9180002 1.3256807 1.1398022 0
2.9220002 1.3233105 1.1409712 0
2.9260001 1.3209258 1.1421399 0
2.9310002 1.3190662 1.1436011 0
2.9350002 1.3166509 1.1447699 0
2.9400003 1.3147569 1.1462311 0
2.9440002 1.3123109 1.1473999 0
2.9480002 1.3098505 1.1485687 0
2.9530003 1.307906 1.1500299 0
2.9570003 1.3054149 1.1511987 0
2.9620001 1.303436 1.1526598 0
2.9660003 1.3009144 1.1538287 0
2.9710002 1.2989013 1.1552898 0
2.9750001 1.2963489 1.1564586 0
2.9800003 1.2943016 1.1579198 0
2.9850001 1.2922363 1.1593808 0
2.9890003 1.289637 1.1605496 0
2.9940002 1.2875373 1.1620108 0
2.9980001 1.2849075 1.1631796 0
3.0030003 1.2827735 1.1646407 0
3.0080001 1.2806215 1.1661017 0
3.0120003 1.2779448 1.1672707 0
3.0170002 1.2757585 1.1687317 0
3.0220003 1.2735543 1.1701928 0
3.0260003 1.2708306 1.1713617 0
3.0310001 1.2685919 1.1728227 0
3.0360003 1.2663355 1.1742839 0
3.0400002 1.2635647 1.1754527 0
3.0450003 1.261274 1.1769139 0
3.0500002 1.258965 1.1783749 0
3.0550003 1.2566382 1.179836 0
3.0600002 1.2542932 1.1812971 0
3.0650003 1.2519302 1.1827582 0
3.0690002 1.249064 1.1839271 0
3.0740001 1.2466667 1.1853881 0
3.0790002 1.2442514 1.1868491 0
3.0840001 1.2418181 1.1883103 0
3.0890002 1.2393667 1.1897713 0
2.8500001 1.359347 1.1155121 0
2.8540003 1.3572149 1.1166738 0
2.8590002 1.3556383 1.1181259 0
2.8630002 1.3534756 1.1192875 0
2.8670001 1.3512983 1.1204492 0
2.8710003 1.3491068 1.1216109 0
2.8750002 1.3469008 1.1227726 0
2.8790002 1.3446803 1.1239341 0
2.8840003 1.3430045 1.1253862 0
2.8880002 1.3407533 1.1265479 0
2.8920002 1.3384877 1.1277095 0
2.8960001 1.3362077 1.1288712 0
2.9010003 1.3344653 1.1303233 0
2.9050002 1.3321545 1.1314849 0
2.9090002 1.3298295 1.1326466 0
2.9130001 1.32749 1.1338081 0
2.9180002 1.3256807 1.1352602 0
2.9220002 1.3233105 1.1364219 0
2.9260001 1.3209258 1.1375835 0
2.9310002 1.3190662 1.1390357 0
2.9350002 1.3166509 1.1401973 0
2.9400003 1.3147569 1.1416494 0
2.9440002 1.3123109 1.1428109 0
2.9480002 1.3098505 1.1439726 0
2.9530003 1.307906 1.1454247 0
2.9570003 1.3054149 1.1465864 0
2.9620001 1.303436 1.1480384 0
2.9660003 1.3009144 1.1492001 0
2.9710002 1.2989013 1.1506522 0
2.9750001 1.2963489 1.1518137 0
2.9800003 1.2943016 1.153266 0
2.9850001 1.2922363 1.1547179 0
2.9890003 1.289637 1.1558796 0
2.9940002 1.2875373 1.1573316 0
2.9980001 1.2849075 1.1584933 0
3.0030003 1.2827735 1.1599454 0
3.0080001 1.2806215 1.1613975 0
3.0120003 1.2779448 1.1625592 0
3.0170002 1.2757585 1.1640111 0
3.0220003 1.2735543 1.1654632 0
3.0260003 1.2708306 1.1666249 0
3.0310001 1.2685919 1.1680769 0
3.0360003 1.2663355 1.1695291 0
3.0400002 1.2635647 1.1706907 0
3.0450003 1.261274 1.1721427 0
3.0500002 1.258965 1.1735948 0
3.0550003 1.2566382 1.1750469 0
3.0600002 1.2542932 1.1764989 0
3.0650003 1.2519302 1.177951 0
3.0690002 1.249064 1.1791127 0
3.0740001 1.2466667 1.1805646 0
3.0790002 1.2442514 1.1820168 0
3.0840001 1.2418181 1.1834688 0
3.0890002 1.2393667 1.1849209 0
2.8500001 1.359347 1.1110928 0
2.8540003 1.3572149 1.1122473 0
2.8590002 1.3556383 1.1136903 0
2.8630002 1.3534756 1.1148448 0
2.8670001 1.3512983 1.1159992 0
2.8710003 1.3491068 1.1171536 0
2.8750002 1.3469008 1.1183081 0
2.8790002 1.3446803 1.1194625 0
2.8840003 1.3430045 1.1209056 0
2.8880002 1.3407533 1.1220599 0
2.8920002 1.3384877 1.1232145 0
2.8960001 1.3362077 1.1243689 0
2.9010003 1.3344653 1.1258119 0
2.9050002 1.3321545 1.1269664 0
2.9090002 1.3298295 1.1281208 0
2.9130001 1.32749 1.1292752 0
2.9180002 1.3256807 1.1307182 0
2.9220002 1.3233105 1.1318727 0
2.9260001 1.3209258 1.1330271 0
2.9310002 1.3190662 1.1344702 0
2.9350002 1.3166509 1.1356246 0
2.9400003 1.3147569 1.1370677 0
2.9440002 1.3123109 1.1382221 0
2.9480002 1.3098505 1.1393765 0
2.9530003 1.307906 1.1408197 0
2.9570003 1.3054149 1.1419741 0
2.9620001 1.303436 1.1434171 0
2.9660003 1.3009144 1.1445715 0
2.9710002 1.2989013 1.1460146 0
2.9750001 1.2963489 1.147169 0
2.9800003 1.2943016 1.148612 0
2.9850001 1.2922363 1.1500551 0
2.9890003 1.289637 1.1512096 0
2.9940002 1.2875373 1.1526526 0
2.9980001 1.2849075 1.1538069 0
3.0030003 1.2827735 1.1552501 0
3.0080001 1.2806215 1.1566931 0
3.0120003 1.2779448 1.1578476 0
3.0170002 1.2757585 1.1592907 0
3.0220003 1.2735543 1.1607337 0
3.0260003 1.2708306 1.1618881 0
3.0310001 1.2685919 1.1633312 0
3.0360003 1.2663355 1.1647742 0
3.0400002 1.2635647 1.1659286 0
3.0450003 1.261274 1.1673717 0
3.0500002 1.258965 1.1688147 0
3.0550003 1.2566382 1.1702578 0
3.0600002 1.2542932 1.1717007 0
3.0650003 1.2519302 1.1731439 0
3.0690002 1.249064 1.1742983 0
3.0740001 1.2466667 1.1757413 0
3.0790002 1.2442514 1.1771843 0
3.0840001 1.2418181 1.1786274 0
3.0890002 1.2393667 1.1800705 0
2.8500001 1.359347 1.1066735 0
2.8540003 1.3572149 1.1078207 0
2.8590002 1.3556383 1.1092547 0
2.8630002 1.3534756 1.110402 0
2.8670001 1.3512983 1.1115491 0
2.8710003 1.3491068 1.1126964 0
2.8750002 1.3469008 1.1138437 0
2.8790002 1.3446803 1.1149908 0
2.8840003 1.3430045 1.1164249 0
2.8880002 1.3407533 1.1175721 0
2.8920002 1.3384877 1.1187193 0
2.8960001 1.3362077 1.1198666 0
2.9010003 1.3344653 1.1213006 0
2.9050002 1.3321545 1.1224478 0
2.9090002 1.3298295 1.123595 0
2.9130001 1.32749 1.1247423 0
2.9180002 1.3256807 1.1261764 0
2.9220002 1.3233105 1.1273235 0
2.9260001 1.3209258 1.1284707 0
2.9310002 1.3190662 1.1299047 0
2.9350002 1.3166509 1.1310519 0
2.9400003 1.3147569 1.1324861 0
2.9440002 1.3123109 1.1336333 0
2.9480002 1.3098505 1.1347804 0
2.9530003 1.307906 1.1362145 0
2.9570003 1.3054149 1.1373616 0
2.9620001 1.303436 1.1387957 0
2.9660003 1.3009144 1.139943 0
2.9710002 1.2989013 1.141377 0
2.9750001 1.2963489 1.1425242 0
2.9800003 1.2943016 1.1439582 0
2.9850001 1.2922363 1.1453923 0
2.9890003 1.289637 1.1465394 0
2.9940002 1.2875373 1.1479735 0
2.9980001 1.2849075 1.1491207 0
3.0030003 1.2827735 1.1505548 0
3.0080001 1.2806215 1.1519887 0
3.0120003 1.2779448 1.153136 0
3.0170002 1.2757585 1.1545701 0
3.0220003 1.2735543 1.1560041 0
3.0260003 1.2708306 1.1571513 0
3.0310001 1.2685919 1.1585853 0
3.0360003 1.2663355 1.1600194 0
3.0400002 1.2635647 1.1611665 0
3.0450003 1.261274 1.1626006 0
3.0500002 1.258965 1.1640346 0
3.0550003 1.2566382 1.1654687 0
3.0600002 1.2542932 1.1669027 0
3.0650003 1.2519302 1.1683367 0
3.0690002 1.249064 1.1694839 0
3.0740001 1.2466667 1.170918 0
3.0790002 1.2442514 1.172352 0
3.0840001 1.2418181 1.173786 0
3.0890002 1.2393667 1.17522 0
2.8500001 1.359347 1.1022542 0
2.8540003 1.3572149 1.1033942 0
2.8590002 1.3556383 1.1048192 0
2.8630002 1.3534756 1.1059592 0
2.8670001 1.3512983 1.1070992 0
2.8710003 1.3491068 1.1082393 0
2.8750002 1.3469008 1.1093792 0
2.8790002 1.3446803 1.1105192 0
2.8840003 1.3430045 1.1119443 0
2.8880002 1.3407533 1.1130843 0
2.8920002 1.3384877 1.1142243 0
2.8960001 1.3362077 1.1153642 0
2.9010003 1.3344653 1.1167892 0
2.9050002 1.3321545 1.1179292 0
2.9090002 1.3298295 1.1190692 0
2.9130001 1.32749 1.1202093 0
2.9180002 1.3256807 1.1216344 0
2.9220002 1.3233105 1.1227742 0
2.9260001 1.3209258 1.1239142 0
2.9310002 1.3190662 1.1253393 0
2.9350002 1.3166509 1.1264793 0
2.9400003 1.3147569 1.1279044 0
2.9440002 1.3123109 1.1290444 0
2.9480002 1.3098505 1.1301843 0
2.9530003 1.307906 1.1316093 0
2.9570003 1.3054149 1.1327493 0
2.9620001 1.303436 1.1341743 0
2.9660003 1.3009144 1.1353145 0
2.9710002 1.2989013 1.1367394 0
2.9750001 1.2963489 1.1378794 0
2.9800003 1.2943016 1.1393044 0
2.9850001 1.2922363 1.1407293 0
2.9890003 1.289637 1.1418694 0
2.9940002 1.2875373 1.1432945 0
2.9980001 1.2849075 1.1444345 0
3.0030003 1.2827735 1.1458595 0
3.0080001 1.2806215 1.1472844 0
3.0120003 1.2779448 1.1484245 0
3.0170002 1.2757585 1.1498494 0
3.0220003 1.2735543 1.1512744 0
3.0260003 1.2708306 1.1524144 0
3.0310001 1.2685919 1.1538395 0
3.0360003 1.2663355 1.1552645 0
3.0400002 1.2635647 1.1564045 0
3.0450003 1.261274 1.1578295 0
3.0500002 1.258965 1.1592546 0
3.0550003 1.2566382 1.1606796 0
3.0600002 1.2542932 1.1621045 0
3.0650003 1.2519302 1.1635296 0
3.0690002 1.249064 1.1646695 0
3.0740001 1.2466667 1.1660945 0
3.0790002 1.2442514 1.1675196 0
3.0840001 1.2418181 1.1689445 0
3.0890002 1.2393667 1.1703696 0
2.8500001 1.359347 1.0978348 0
2.8540003 1.3572149 1.0989677 0
2.8590002 1.3556383 1.1003836 0
2.8630002 1.3534756 1.1015164 0
2.8670001 1.3512983 1.1026492 0
2.8710003 1.3491068 1.1037821 0
2.8750002 1.3469008 1.1049148 0
2.8790002 1.3446803 1.1060475 0
2.8840003 1.3430045 1.1074636 0
2.8880002 1.3407533 1.1085964 0
2.8920002 1.3384877 1.1097292 0
2.8960001 1.3362077 1.1108619 0
2.9010003 1.3344653 1.112278 0
2.9050002 1.3321545 1.1134107 0
2.9090002 1.3298295 1.1145436 0
2.9130001 1.32749 1.1156763 0
2.9180002 1.3256807 1.1170923 0
2.9220002 1.3233105 1.1182251 0
2.9260001 1.3209258 1.1193578 0
2.9310002 1.3190662 1.1207739 0
2.9350002 1.3166509 1.1219066 0
2.9400003 1.3147569 1.1233227 0
2.9440002 1.3123109 1.1244555 0
2.9480002 1.3098505 1.1255882 0
2.9530003 1.307906 1.1270043 0
2.9570003 1.3054149 1.1281371 0
2.9620001 1.303436 1.129553 0
2.9660003 1.3009144 1.1306858 0
2.9710002 1.2989013 1.1321018 0
2.9750001 1.2963489 1.1332345 0
2.9800003 1.2943016 1.1346506 0
2.9850001 1.2922363 1.1360666 0
2.9890003 1.289637 1.1371994 0
2.9940002 1.2875373 1.1386154 0
2.9980001 1.2849075 1.1397481 0
3.0030003 1.2827735 1.1411642 0
3.0080001 1.2806215 1.14258 0
3.0120003 1.2779448 1.143713 0
3.0170002 1.2757585 1.1451288 0
3.0220003 1.2735543 1.1465449 0
3.0260003 1.2708306 1.1476777 0
3.0310001 1.2685919 1.1490936 0
3.0360003 1.2663355 1.1505097 0
3.0400002 1.2635647 1.1516424 0
3.0450003 1.261274 1.1530585 0
3.0500002 1.258965 1.1544744 0
3.0550003 1.2566382 1.1558905 0
3.0600002 1.2542932 1.1573064 0
3.0650003 1.2519302 1.1587224 0
3.0690002 1.249064 1.1598552 0
3.0740001 1.2466667 1.1612711 0
3.0790002 1.2442514 1.1626872 0
3.0840001 1.2418181 1.1641032 0
3.0890002 1.2393667 1.1655191 0
2.8500001 1.359347 1.0934155 0
2.8540003 1.3572149 1.0945411 0
2.8590002 1.3556383 1.0959481 0
2.8630002 1.3534756 1.0970736 0
2.8670001 1.3512983 1.0981991 0
2.8710003 1.3491068 1.0993248 0
2.8750002 1.3469008 1.1004504 0
2.8790002 1.3446803 1.101576 0
2.8840003 1.3430045 1.1029829 0
2.8880002 1.3407533 1.1041085 0
2.8920002 1.3384877 1.105234 0
2.8960001 1.3362077 1.1063596 0
2.9010003 1.3344653 1.1077666 0
2.9050002 1.3321545 1.1088922 0
2.9090002 1.3298295 1.1100178 0
2.9130001 1.32749 1.1111434 0
2.9180002 1.3256807 1.1125503 0
2.9220002 1.3233105 1.1136758 0
2.9260001 1.3209258 1.1148014 0
2.9310002 1.3190662 1.1162084 0
2.9350002 1.3166509 1.117334 0
2.9400003 1.3147569 1.118741 0
2.9440002 1.3123109 1.1198666 0
2.9480002 1.3098505 1.1209921 0
2.9530003 1.307906 1.1223991 0
2.9570003 1.3054149 1.1235247 0
2.9620001 1.303436 1.1249316 0
2.9660003 1.3009144 1.1260573 0
2.9710002 1.2989013 1.1274642 0
2.9750001 1.2963489 1.1285897 0
2.9800003 1.2943016 1.1299968 0
2.9850001 1.2922363 1.1314037 0
2.9890003 1.289637 1.1325294 0
2.9940002 1.2875373 1.1339363 0
2.9980001 1.2849075 1.1350617 0
3.0030003 1.2827735 1.1364688 0
3.0080001 1.2806215 1.1378758 0
3.0120003 1.2779448 1.1390014 0
3.0170002 1.2757585 1.1404083 0
3.0220003 1.2735543 1.1418153 0
3.0260003 1.2708306 1.1429409 0
3.0310001 1.2685919 1.1443478 0
3.0360003 1.2663355 1.1457548 0
3.0400002 1.2635647 1.1468804 0
3.0450003 1.261274 1.1482874 0
3.0500002 1.258965 1.1496943 0
3.0550003 1.2566382 1.1511014 0
3.0600002 1.2542932 1.1525083 0
3.0650003 1.2519302 1.1539153 0
3.0690002 1.249064 1.1550409 0
3.0740001 1.2466667 1.1564478 0
3.0790002 1.2442514 1.1578548 0
3.0840001 1.2418181 1.1592617 0
3.0890002 1.2393667 1.1606687 0
2.8500001 1.359347 1.0889962 0
2.8540003 1.3572149 1.0901146 0
2.8590002 1.3556383 1.0915126 0
2.8630002 1.3534756 1.0926309 0
2.8670001 1.3512983 1.0937492 0
2.8710003 1.3491068 1.0948676 0
2.8750002 1.3469008 1.095986 0
2.8790002 1.3446803 1.0971043 0
2.8840003 1.3430045 1.0985023 0
2.8880002 1.3407533 1.0996206 0
2.8920002 1.3384877 1.100739 0
2.8960001 1.3362077 1.1018573 0
2.9010003 1.3344653 1.1032553 0
2.9050002 1.3321545 1.1043737 0
2.9090002 1.3298295 1.105492 0
2.9130001 1.32749 1.1066104 0
2.9180002 1.3256807 1.1080083 0
2.9220002 1.3233105 1.1091267 0
2.9260001 1.3209258 1.110245 0
2.9310002 1.3190662 1.111643 0
2.9350002 1.3166509 1.1127614 0
2.9400003 1.3147569 1.1141593 0
2.9440002 1.3123109 1.1152778 0
2.9480002 1.3098505 1.116396 0
2.9530003 1.307906 1.117794 0
2.9570003 1.3054149 1.1189123 0
2.9620001 1.303436 1.1203103 0
2.9660003 1.3009144 1.1214287 0
2.9710002 1.2989013 1.1228266 0
2.9750001 1.2963489 1.123945 0
2.9800003 1.2943016 1.125343 0
2.9850001 1.2922363 1.1267409 0
2.9890003 1.289637 1.1278592 0
2.9940002 1.2875373 1.1292572 0
2.9980001 1.2849075 1.1303755 0
3.0030003 1.2827735 1.1317735 0
3.0080001 1.2806215 1.1331714 0
3.0120003 1.2779448 1.1342899 0
3.0170002 1.2757585 1.1356877 0
3.0220003 1.2735543 1.1370858 0
3.0260003 1.2708306 1.1382041 0
3.0310001 1.2685919 1.1396019 0
3.0360003 1.2663355 1.141 0
3.0400002 1.2635647 1.1421183 0
3.0450003 1.261274 1.1435163 0
3.0500002 1.258965 1.1449143 0
3.0550003 1.2566382 1.1463122 0
3.0600002 1.2542932 1.1477102 0
3.0650003 1.2519302 1.1491082 0
3.0690002 1.249064 1.1502265 0
3.0740001 1.2466667 1.1516243 0
3.0790002 1.2442514 1.1530224 0
3.0840001 1.2418181 1.1544203 0
3.0890002 1.2393667 1.1558182 0
2.8500001 1.359347 1.0845768 0
2.8540003 1.3572149 1.0856881 0
2.8590002 1.3556383 1.0870769 0
2.8630002 1.3534756 1.0881881 0
2.8670001 1.3512983 1.0892992 0
2.8710003 1.3491068 1.0904104 0
2.8750002 1.3469008 1.0915215 0
2.8790002 1.3446803 1.0926327 0
2.8840003 1.3430045 1.0940217 0
2.8880002 1.3407533 1.0951328 0
2.8920002 1.3384877 1.0962439 0
2.8960001 1.3362077 1.097355 0
2.9010003 1.3344653 1.098744 0
2.9050002 1.3321545 1.0998551 0
2.9090002 1.3298295 1.1009662 0
2.9130001 1.32749 1.1020774 0
2.9180002 1.3256807 1.1034664 0
2.9220002 1.3233105 1.1045774 0
2.9260001 1.3209258 1.1056886 0
2.9310002 1.3190662 1.1070776 0
2.9350002 1.3166509 1.1081887 0
2.9400003 1.3147569 1.1095777 0
2.9440002 1.3123109 1.1106888 0
2.9480002 1.3098505 1.1118 0
2.9530003 1.307906 1.1131889 0
2.9570003 1.3054149 1.1143 0
2.9620001 1.303436 1.1156889 0
2.9660003 1.3009144 1.1168001 0
2.9710002 1.2989013 1.118189 0
2.9750001 1.2963489 1.1193001 0
2.9800003 1.2943016 1.1206892 0
2.9850001 1.2922363 1.1220779 0
2.9890003 1.289637 1.1231892 0
2.9940002 1.2875373 1.1245781 0
2.9980001 1.2849075 1.1256893 0
3.0030003 1.2827735 1.1270782 0
3.0080001 1.2806215 1.1284671 0
3.0120003 1.2779448 1.1295784 0
3.0170002 1.2757585 1.1309671 0
3.0220003 1.2735543 1.1323562 0
3.0260003 1.2708306 1.1334673 0
3.0310001 1.2685919 1.1348562 0
3.0360003 1.2663355 1.1362451 0
3.0400002 1.2635647 1.1373563 0
3.0450003 1.261274 1.1387453 0
3.0500002 1.258965 1.1401341 0
3.0550003 1.2566382 1.1415231 0
3.0600002 1.2542932 1.142912 0
3.0650003 1.2519302 1.1443009 0
3.0690002 1.249064 1.1454121 0
3.0740001 1.2466667 1.146801 0
3.0790002 1.2442514 1.1481899 0
3.0840001 1.2418181 1.1495788 0
3.0890002 1.2393667 1.1509678 0
2.8500001 1.359347 1.0801575 0
2.8540003 1.3572149 1.0812615 0
2.8590002 1.3556383 1.0826414 0
2.8630002 1.3534756 1.0837454 0
2.8670001 1.3512983 1.0848492 0
2.8710003 1.3491068 1.0859531 0
2.8750002 1.3469008 1.0870571 0
2.8790002 1.3446803 1.088161 0
2.8840003 1.3430045 1.089541 0
