# .PCD v0.7 - Point Cloud Data file format
VERSION 0.7
FIELDS x y z intensity
SIZE 4 4 4 4
TYPE F F F F
COUNT 1 1 1 1
WIDTH 1501
HEIGHT 1
VIEWPOINT 0 0 0 1 0 0 0
POINTS 1501
DATA ascii
4.6330004 2.1453943 1.9692818 0
4.6390004 2.1408544 1.9715004 0
4.6440005 2.1357784 1.9733493 0
4.6490002 2.1306844 1.9751981 0
4.6550002 2.1260827 1.9774169 0
4.6600003 2.1209509 1.9792658 0
4.6650004 2.1158011 1.9811147 0
4.6710005 2.1111383 1.9833333 0
4.6760001 2.1059504 1.9851822 0
4.6810002 2.1007447 1.9870312 0
4.6870003 2.0960205 1.9892498 0
4.6920004 2.0907767 1.9910988 0
4.6980004 2.0860112 1.9933175 0
4.7030001 2.0807295 1.9951663 0
4.7090001 2.0759225 1.997385 0
4.7140002 2.0706031 1.999234 0
4.7200003 2.0657544 2.0014524 0
4.7250004 2.0603971 2.0033014 0
4.7310004 2.0555069 2.0055201 0
4.7360005 2.0501118 2.007369 0
4.7420001 2.0451801 2.0095875 0
4.7470002 2.039747 2.0114365 0
4.7530003 2.0347738 2.0136554 0
4.7590003 2.0297792 2.0158739 0
4.7640004 2.0242884 2.0177228 0
4.7700005 2.0192523 2.0199418 0
4.7750001 2.0137234 2.0217905 0
4.7810001 2.0086458 2.024009 0
4.7870002 2.0035465 2.0262277 0
4.7920003 1.9979601 2.0280769 0
4.7980003 1.9928191 2.0302954 0
4.8040004 1.9876568 2.0325141 0
4.8100004 1.9824724 2.0347328 0
4.8150005 1.9768088 2.0365818 0
4.8210001 1.9715829 2.0388002 0
4.8270001 1.9663355 2.041019 0
4.8330002 1.9610667 2.0432377 0
4.8380003 1.9553251 2.0450866 0
4.8440003 1.9500148 2.0473053 0
4.8500004 1.9446828 2.0495241 0
4.8560004 1.9393291 2.0517428 0
4.8620005 1.9339538 2.0539615 0
4.8680005 1.9285569 2.0561802 0
4.8740001 1.923138 2.0583987 0
4.8800001 1.9176977 2.0606174 0
4.8850002 1.9117992 2.0624664 0
4.8910003 1.9063176 2.0646851 0
4.8970003 1.9008141 2.0669038 0
4.9030004 1.8952891 2.0691226 0
4.9090004 1.8897425 2.071341 0
4.9150004 1.884174 2.0735598 0
4.9210005 1.878584 2.0757785 0
4.9270005 1.8729725 2.0779972 0
4.9330001 1.867339 2.0802157 0
4.9400005 1.8621044 2.0828044 0
4.9460001 1.8564259 2.0850229 0
4.9520001 1.8507259 2.0872416 0
4.9580002 1.8450042 2.0894604 0
4.9640002 1.8392609 2.0916791 0
4.9700003 1.8334961 2.0938978 0
4.9760003 1.8277094 2.0961163 0
4.9820004 1.8219012 2.098335 0
4.9890003 1.8164771 2.1009235 0
4.9950004 1.8106236 2.1031423 0
5.0010004 1.8047488 2.105361 0
5.0070004 1.7988522 2.1075797 0
5.0140004 1.7933325 2.110168 0
5.0200005 1.7873907 2.1123869 0
5.0260005 1.7814274 2.1146054 0
5.0330005 1.7758355 2.1171939 0
5.0390005 1.7698271 2.1194127 0
5.0450006 1.7637969 2.1216314 0
5.0520005 1.7581331 2.1242199 0
5.0580001 1.7520577 2.1264384 0
5.0640001 1.7459607 2.1286571 0
5.0710001 1.7402246 2.1312454 0
5.0770001 1.7340826 2.1334643 0
5.0840001 1.7282978 2.1360526 0
5.0900002 1.7221109 2.1382713 0
5.0970001 1.7162772 2.1408598 0
5.1030002 1.7100451 2.1430786 0
5.1100001 1.704163 2.1456668 0
5.1160002 1.6978856 2.1478856 0
5.1230001 1.6919547 2.1504741 0
5.1300001 1.6859986 2.1530626 0
4.4710002 2.2965138 1.9020338 0
4.4760003 2.2920384 1.9038738 0
4.4800005 2.2869735 1.9053458 0
4.4850001 2.2824638 1.9071856 0
4.4900002 2.2779365 1.9090255 0
4.4950004 2.2733908 1.9108654 0
4.5000005 2.2688272 1.9127053 0
4.5050001 2.2642453 1.9145451 0
4.5100002 2.2596457 1.9163849 0
4.5150003 2.255028 1.9182248 0
4.5200005 2.2503922 1.9200649 0
4.5250001 2.2457383 1.9219046 0
4.5300002 2.2410665 1.9237446 0
4.5350003 2.2363765 1.9255844 0
4.5400004 2.2316687 1.9274243 0
4.5450001 2.2269425 1.9292642 0
4.5500002 2.2221987 1.9311041 0
4.5560002 2.2179813 1.9333119 0
4.5610003 2.2131994 1.9351518 0
4.5660005 2.2083995 1.9369918 0
4.5710001 2.2035816 1.9388314 0
4.5760002 2.1987455 1.9406716 0
4.5810003 2.1938915 1.9425114 0
4.5860004 2.1890197 1.9443513 0
4.5910001 2.1841292 1.9461911 0
4.5970001 2.1797514 1.9483989 0
4.6020002 2.1748233 1.9502388 0
4.6070004 2.1698775 1.9520787 0
4.6120005 2.1649134 1.9539187 0
4.6180005 2.1604543 1.9561267 0
4.6230001 2.1554523 1.9579663 0
4.6280003 2.1504323 1.9598062 0
4.6330004 2.1453943 1.9616462 0
4.6390004 2.1408544 1.9638541 0
4.6440005 2.1357784 1.965694 0
4.6490002 2.1306844 1.9675338 0
4.6550002 2.1260827 1.9697416 0
4.6600003 2.1209509 1.9715816 0
4.6650004 2.1158011 1.9734215 0
4.6710005 2.1111383 1.9756293 0
4.6760001 2.1059504 1.9774691 0
4.6810002 2.1007447 1.9793091 0
4.6870003 2.0960205 1.981517 0
4.6920004 2.0907767 1.9833568 0
4.6980004 2.0860112 1.9855647 0
4.7030001 2.0807295 1.9874045 0
4.7090001 2.0759225 1.9896123 0
4.7140002 2.0706031 1.9914523 0
4.7200003 2.0657544 1.9936601 0
4.7250004 2.0603971 1.9955001 0
4.7310004 2.0555069 1.997708 0
4.7360005 2.0501118 1.9995478 0
4.7420001 2.0451801 2.0017555 0
4.7470002 2.039747 2.0035954 0
4.7530003 2.0347738 2.0058033 0
4.7590003 2.0297792 2.0080111 0
4.7640004 2.0242884 2.009851 0
4.7700005 2.0192523 2.012059 0
4.7750001 2.0137234 2.0138988 0
4.7810001 2.0086458 2.0161066 0
4.7870002 2.0035465 2.0183144 0
4.7920003 1.9979601 2.0201545 0
4.7980003 1.9928191 2.0223625 0
4.8040004 1.9876568 2.0245702 0
4.8100004 1.9824724 2.026778 0
4.8150005 1.9768088 2.0286181 0
4.8210001 1.9715829 2.0308256 0
4.8270001 1.9663355 2.0330336 0
4.8330002 1.9610667 2.0352414 0
4.8380003 1.9553251 2.0370815 0
4.8440003 1.9500148 2.0392892 0
4.8500004 1.9446828 2.041497 0
4.8560004 1.9393291 2.043705 0
4.8620005 1.9339538 2.0459127 0
4.8680005 1.9285569 2.0481207 0
4.8740001 1.923138 2.0503285 0
4.8800001 1.9176977 2.0525362 0
4.8850002 1.9117992 2.0543761 0
4.8910003 1.9063176 2.0565841 0
4.8970003 1.9008141 2.0587921 0
4.9030004 1.8952891 2.0609999 0
4.9090004 1.8897425 2.0632079 0
4.9150004 1.884174 2.0654156 0
4.9210005 1.878584 2.0676234 0
4.9270005 1.8729725 2.0698314 0
4.9330001 1.867339 2.0720391 0
4.9400005 1.8621044 2.074615 0
4.9460001 1.8564259 2.0768228 0
4.9520001 1.8507259 2.0790308 0
4.9580002 1.8450042 2.0812385 0
4.9640002 1.8392609 2.0834465 0
4.9700003 1.8334961 2.0856543 0
4.9760003 1.8277094 2.0878623 0
4.9820004 1.8219012 2.09007 0
4.9890003 1.8164771 2.0926459 0
4.9950004 1.8106236 2.0948539 0
5.0010004 1.8047488 2.0970616 0
5.0070004 1.7988522 2.0992694 0
5.0140004 1.7933325 2.1018453 0
5.0200005 1.7873907 2.1040533 0
5.0260005 1.7814274 2.106261 0
5.0330005 1.7758355 2.1088369 0
5.0390005 1.7698271 2.1110449 0
5.0450006 1.7637969 2.1132526 0
5.0520005 1.7581331 2.1158285 0
5.0580001 1.7520577 2.1180363 0
5.0640001 1.7459607 2.120244 0
5.0710001 1.7402246 2.1228199 0
5.0770001 1.7340826 2.1250279 0
5.0840001 1.7282978 2.1276035 0
5.0900002 1.7221109 2.1298115 0
5.0970001 1.7162772 2.1323874 0
5.1030002 1.7100451 2.1345952 0
5.1100001 1.704163 2.137171 0
5.1160002 1.6978856 2.139379 0
5.1230001 1.6919547 2.1419547 0
5.1300001 1.6859986 2.1445305 0
4.4710002 2.2965138 1.8946906 0
4.4760003 2.2920384 1.8965214 0
4.4800005 2.2869735 1.8979862 0
4.4850001 2.2824638 1.899817 0
4.4900002 2.2779365 1.9016479 0
4.4950004 2.2733908 1.9034787 0
4.5000005 2.2688272 1.9053097 0
4.5050001 2.2642453 1.9071405 0
4.5100002 2.2596457 1.9089713 0
4.5150003 2.255028 1.9108022 0
4.5200005 2.2503922 1.9126331 0
4.5250001 2.2457383 1.9144639 0
4.5300002 2.2410665 1.9162948 0
4.5350003 2.2363765 1.9181256 0
4.5400004 2.2316687 1.9199566 0
4.5450001 2.2269425 1.9217874 0
4.5500002 2.2221987 1.9236182 0
4.5560002 2.2179813 1.9258153 0
4.5610003 2.2131994 1.9276462 0
4.5660005 2.2083995 1.9294771 0
4.5710001 2.2035816 1.9313079 0
4.5760002 2.1987455 1.9331387 0
4.5810003 2.1938915 1.9349697 0
4.5860004 2.1890197 1.9368006 0
4.5910001 2.1841292 1.9386313 0
4.5970001 2.1797514 1.9408284 0
4.6020002 2.1748233 1.9426593 0
4.6070004 2.1698775 1.9444902 0
4.6120005 2.1649134 1.9463211 0
4.6180005 2.1604543 1.9485182 0
4.6230001 2.1554523 1.9503489 0
4.6280003 2.1504323 1.9521798 0
4.6330004 2.1453943 1.9540107 0
4.6390004 2.1408544 1.9562078 0
4.6440005 2.1357784 1.9580387 0
4.6490002 2.1306844 1.9598694 0
4.6550002 2.1260827 1.9620664 0
4.6600003 2.1209509 1.9638973 0
4.6650004 2.1158011 1.9657282 0
4.6710005 2.1111383 1.9679253 0
4.6760001 2.1059504 1.969756 0
4.6810002 2.1007447 1.9715869 0
4.6870003 2.0960205 1.973784 0
4.6920004 2.0907767 1.9756149 0
4.6980004 2.0860112 1.9778119 0
4.7030001 2.0807295 1.9796426 0
4.7090001 2.0759225 1.9818397 0
4.7140002 2.0706031 1.9836706 0
4.7200003 2.0657544 1.9858676 0
4.7250004 2.0603971 1.9876986 0
4.7310004 2.0555069 1.9898956 0
4.7360005 2.0501118 1.9917265 0
4.7420001 2.0451801 1.9939235 0
4.7470002 2.039747 1.9957544 0
4.7530003 2.0347738 1.9979515 0
4.7590003 2.0297792 2.0001483 0
4.7640004 2.0242884 2.0019794 0
4.7700005 2.0192523 2.0041764 0
4.7750001 2.0137234 2.0060072 0
4.7810001 2.0086458 2.0082042 0
4.7870002 2.0035465 2.0104012 0
4.7920003 1.9979601 2.0122321 0
4.7980003 1.9928191 2.0144291 0
4.8040004 1.9876568 2.0166264 0
4.8100004 1.9824724 2.0188231 0
4.8150005 1.9768088 2.0206542 0
4.8210001 1.9715829 2.022851 0
4.8270001 1.9663355 2.0250483 0
4.8330002 1.9610667 2.0272453 0
4.8380003 1.9553251 2.0290761 0
4.8440003 1.9500148 2.0312731 0
4.8500004 1.9446828 2.0334702 0
4.8560004 1.9393291 2.0356672 0
4.8620005 1.9339538 2.0378642 0
4.8680005 1.9285569 2.0400612 0
4.8740001 1.923138 2.0422583 0
4.8800001 1.9176977 2.0444553 0
4.8850002 1.9117992 2.0462861 0
4.8910003 1.9063176 2.0484831 0
4.8970003 1.9008141 2.0506804 0
4.9030004 1.8952891 2.0528774 0
4.9090004 1.8897425 2.0550745 0
4.9150004 1.884174 2.0572715 0
4.9210005 1.878584 2.0594685 0
4.9270005 1.8729725 2.0616655 0
4.9330001 1.867339 2.0638623 0
4.9400005 1.8621044 2.0664258 0
4.9460001 1.8564259 2.0686228 0
4.9520001 1.8507259 2.0708199 0
4.9580002 1.8450042 2.0730169 0
4.9640002 1.8392609 2.0752139 0
4.9700003 1.8334961 2.0774109 0
4.9760003 1.8277094 2.079608 0
4.9820004 1.8219012 2.081805 0
4.9890003 1.8164771 2.0843682 0
4.9950004 1.8106236 2.0865653 0
5.0010004 1.8047488 2.0887623 0
5.0070004 1.7988522 2.0909593 0
5.0140004 1.7933325 2.0935225 0
5.0200005 1.7873907 2.0957196 0
5.0260005 1.7814274 2.0979166 0
5.0330005 1.7758355 2.1004798 0
5.0390005 1.7698271 2.1026769 0
5.0450006 1.7637969 2.1048741 0
5.0520005 1.7581331 2.1074371 0
5.0580001 1.7520577 2.1096339 0
5.0640001 1.7459607 2.1118312 0
5.0710001 1.7402246 2.1143944 0
5.0770001 1.7340826 2.1165915 0
5.0840001 1.7282978 2.1191545 0
5.0900002 1.7221109 2.1213517 0
5.0970001 1.7162772 2.123915 0
5.1030002 1.7100451 2.1261117 0
5.1100001 1.704163 2.128675 0
5.1160002 1.6978856 2.1308722 0
5.1230001 1.6919547 2.1334352 0
5.1300001 1.6859986 2.1359985 0
4.4710002 2.2965138 1.8873473 0
4.4760003 2.2920384 1.8891692 0
4.4800005 2.2869735 1.8906268 0
4.4850001 2.2824638 1.8924484 0
4.4900002 2.2779365 1.8942703 0
4.4950004 2.2733908 1.8960922 0
4.5000005 2.2688272 1.8979141 0
4.5050001 2.2642453 1.8997358 0
4.5100002 2.2596457 1.9015577 0
4.5150003 2.255028 1.9033796 0
4.5200005 2.2503922 1.9052014 0
4.5250001 2.2457383 1.9070232 0
4.5300002 2.2410665 1.9088451 0
4.5350003 2.2363765 1.9106669 0
4.5400004 2.2316687 1.9124889 0
4.5450001 2.2269425 1.9143106 0
4.5500002 2.2221987 1.9161325 0
4.5560002 2.2179813 1.9183186 0
4.5610003 2.2131994 1.9201405 0
4.5660005 2.2083995 1.9219625 0
4.5710001 2.2035816 1.9237841 0
4.5760002 2.1987455 1.925606 0
4.5810003 2.1938915 1.927428 0
4.5860004 2.1890197 1.9292499 0
4.5910001 2.1841292 1.9310715 0
4.5970001 2.1797514 1.9332578 0
4.6020002 2.1748233 1.9350797 0
4.6070004 2.1698775 1.9369015 0
4.6120005 2.1649134 1.9387234 0
4.6180005 2.1604543 1.9409096 0
4.6230001 2.1554523 1.9427314 0
4.6280003 2.1504323 1.9445533 0
4.6330004 2.1453943 1.9463751 0
4.6390004 2.1408544 1.9485614 0
4.6440005 2.1357784 1.9503833 0
4.6490002 2.1306844 1.9522051 0
4.6550002 2.1260827 1.9543912 0
4.6600003 2.1209509 1.9562131 0
4.6650004 2.1158011 1.958035 0
4.6710005 2.1111383 1.9602212 0
4.6760001 2.1059504 1.9620429 0
4.6810002 2.1007447 1.9638648 0
4.6870003 2.0960205 1.9660511 0
4.6920004 2.0907767 1.967873 0
4.6980004 2.0860112 1.9700592 0
4.7030001 2.0807295 1.9718809 0
4.7090001 2.0759225 1.9740672 0
4.7140002 2.0706031 1.9758891 0
4.7200003 2.0657544 1.9780753 0
4.7250004 2.0603971 1.9798971 0
4.7310004 2.0555069 1.9820833 0
4.7360005 2.0501118 1.9839052 0
4.7420001 2.0451801 1.9860913 0
4.7470002 2.039747 1.9879131 0
4.7530003 2.0347738 1.9900994 0
4.7590003 2.0297792 1.9922857 0
4.7640004 2.0242884 1.9941076 0
4.7700005 2.0192523 1.9962938 0
4.7750001 2.0137234 1.9981155 0
4.7810001 2.0086458 2.0003016 0
4.7870002 2.0035465 2.0024879 0
4.7920003 1.9979601 2.0043097 0
4.7980003 1.9928191 2.006496 0
4.8040004 1.9876568 2.0086823 0
4.8100004 1.9824724 2.0108685 0
4.8150005 1.9768088 2.0126903 0
4.8210001 1.9715829 2.0148764 0
4.8270001 1.9663355 2.0170627 0
4.8330002 1.9610667 2.019249 0
4.8380003 1.9553251 2.0210707 0
4.8440003 1.9500148 2.023257 0
4.8500004 1.9446828 2.0254433 0
4.8560004 1.9393291 2.0276294 0
4.8620005 1.9339538 2.0298157 0
4.8680005 1.9285569 2.032002 0
4.8740001 1.923138 2.034188 0
4.8800001 1.9176977 2.0363743 0
4.8850002 1.9117992 2.0381961 0
4.8910003 1.9063176 2.0403824 0
4.8970003 1.9008141 2.0425684 0
4.9030004 1.8952891 2.0447547 0
4.9090004 1.8897425 2.046941 0
4.9150004 1.884174 2.0491273 0
4.9210005 1.878584 2.0513134 0
4.9270005 1.8729725 2.0534997 0
4.9330001 1.867339 2.0556858 0
4.9400005 1.8621044 2.0582366 0
4.9460001 1.8564259 2.0604227 0
4.9520001 1.8507259 2.062609 0
4.9580002 1.8450042 2.064795 0
4.9640002 1.8392609 2.0669813 0
4.9700003 1.8334961 2.0691674 0
4.9760003 1.8277094 2.0713537 0
4.9820004 1.8219012 2.07354 0
4.9890003 1.8164771 2.0760906 0
4.9950004 1.8106236 2.0782769 0
5.0010004 1.8047488 2.0804629 0
5.0070004 1.7988522 2.0826492 0
5.0140004 1.7933325 2.0851998 0
5.0200005 1.7873907 2.0873859 0
5.0260005 1.7814274 2.0895722 0
5.0330005 1.7758355 2.0921228 0
5.0390005 1.7698271 2.0943091 0
5.0450006 1.7637969 2.0964954 0
5.0520005 1.7581331 2.099046 0
5.0580001 1.7520577 2.1012321 0
5.0640001 1.7459607 2.1034181 0
5.0710001 1.7402246 2.1059687 0
5.0770001 1.7340826 2.108155 0
5.0840001 1.7282978 2.1107056 0
5.0900002 1.7221109 2.1128917 0
5.0970001 1.7162772 2.1154423 0
5.1030002 1.7100451 2.1176286 0
5.1100001 1.704163 2.1201792 0
5.1160002 1.6978856 2.1223655 0
5.1230001 1.6919547 2.1249161 0
5.1300001 1.6859986 2.1274664 0
4.4710002 2.2965138 1.8800039 0
4.4760003 2.2920384 1.8818169 0
4.4800005 2.2869735 1.8832672 0
4.4850001 2.2824638 1.8850799 0
4.4900002 2.2779365 1.8868927 0
4.4950004 2.2733908 1.8887056 0
4.5000005 2.2688272 1.8905185 0
4.5050001 2.2642453 1.8923311 0
4.5100002 2.2596457 1.8941441 0
4.5150003 2.255028 1.8959569 0
4.5200005 2.2503922 1.8977697 0
4.5250001 2.2457383 1.8995825 0
4.5300002 2.2410665 1.9013953 0
4.5350003 2.2363765 1.9032083 0
4.5400004 2.2316687 1.9050211 0
4.5450001 2.2269425 1.9068338 0
4.5500002 2.2221987 1.9086467 0
4.5560002 2.2179813 1.910822 0
4.5610003 2.2131994 1.9126348 0
4.5660005 2.2083995 1.9144478 0
4.5710001 2.2035816 1.9162605 0
4.5760002 2.1987455 1.9180734 0
4.5810003 2.1938915 1.9198862 0
4.5860004 2.1890197 1.921699 0
4.5910001 2.1841292 1.9235117 0
4.5970001 2.1797514 1.9256872 0
4.6020002 2.1748233 1.9275001 0
4.6070004 2.1698775 1.9293129 0
4.6120005 2.1649134 1.9311258 0
4.6180005 2.1604543 1.9333012 0
4.6230001 2.1554523 1.9351139 0
4.6280003 2.1504323 1.9369267 0
4.6330004 2.1453943 1.9387397 0
4.6390004 2.1408544 1.940915 0
4.6440005 2.1357784 1.9427279 0
4.6490002 2.1306844 1.9445406 0
4.6550002 2.1260827 1.946716 0
4.6600003 2.1209509 1.9485289 0
4.6650004 2.1158011 1.9503418 0
4.6710005 2.1111383 1.9525172 0
4.6760001 2.1059504 1.9543298 0
4.6810002 2.1007447 1.9561427 0
4.6870003 2.0960205 1.9583181 0
4.6920004 2.0907767 1.960131 0
4.6980004 2.0860112 1.9623064 0
4.7030001 2.0807295 1.9641192 0
4.7090001 2.0759225 1.9662945 0
4.7140002 2.0706031 1.9681073 0
4.7200003 2.0657544 1.9702828 0
4.7250004 2.0603971 1.9720957 0
4.7310004 2.0555069 1.9742711 0
4.7360005 2.0501118 1.9760839 0
4.7420001 2.0451801 1.9782592 0
4.7470002 2.039747 1.980072 0
4.7530003 2.0347738 1.9822474 0
4.7590003 2.0297792 1.9844229 0
4.7640004 2.0242884 1.9862357 0
4.7700005 2.0192523 1.9884111 0
4.7750001 2.0137234 1.9902239 0
4.7810001 2.0086458 1.9923992 0
4.7870002 2.0035465 1.9945745 0
4.7920003 1.9979601 1.9963876 0
4.7980003 1.9928191 1.9985629 0
4.8040004 1.9876568 2.0007381 0
4.8100004 1.9824724 2.0029137 0
4.8150005 1.9768088 2.0047266 0
4.8210001 1.9715829 2.0069017 0
4.8270001 1.9663355 2.0090773 0
4.8330002 1.9610667 2.0112526 0
4.8380003 1.9553251 2.0130653 0
4.8440003 1.9500148 2.0152409 0
4.8500004 1.9446828 2.0174162 0
4.8560004 1.9393291 2.0195918 0
4.8620005 1.9339538 2.0217671 0
4.8680005 1.9285569 2.0239425 0
4.8740001 1.923138 2.0261178 0
4.8800001 1.9176977 2.0282931 0
4.8850002 1.9117992 2.0301061 0
4.8910003 1.9063176 2.0322814 0
4.8970003 1.9008141 2.0344567 0
4.9030004 1.8952891 2.0366323 0
4.9090004 1.8897425 2.0388076 0
4.9150004 1.884174 2.040983 0
4.9210005 1.878584 2.0431585 0
4.9270005 1.8729725 2.0453339 0
4.9330001 1.867339 2.0475092 0
4.9400005 1.8621044 2.0500472 0
4.9460001 1.8564259 2.0522225 0
4.9520001 1.8507259 2.0543978 0
4.9580002 1.8450042 2.0565734 0
4.9640002 1.8392609 2.0587487 0
4.9700003 1.8334961 2.0609241 0
4.9760003 1.8277094 2.0630996 0
4.9820004 1.8219012 2.065275 0
4.9890003 1.8164771 2.0678129 0
4.9950004 1.8106236 2.0699883 0
5.0010004 1.8047488 2.0721638 0
5.0070004 1.7988522 2.0743392 0
5.0140004 1.7933325 2.0768771 0
5.0200005 1.7873907 2.0790524 0
5.0260005 1.7814274 2.0812278 0
5.0330005 1.7758355 2.0837657 0
5.0390005 1.7698271 2.0859413 0
5.0450006 1.7637969 2.0881166 0
5.0520005 1.7581331 2.0906546 0
5.0580001 1.7520577 2.0928297 0
5.0640001 1.7459607 2.0950053 0
5.0710001 1.7402246 2.097543 0
5.0770001 1.7340826 2.0997186 0
5.0840001 1.7282978 2.1022565 0
5.0900002 1.7221109 2.1044319 0
5.0970001 1.7162772 2.1069698 0
5.1030002 1.7100451 2.1091454 0
5.1100001 1.704163 2.1116831 0
5.1160002 1.6978856 2.1138587 0
5.1230001 1.6919547 2.1163964 0
5.1300001 1.6859986 2.1189344 0
4.4710002 2.2965138 1.8726606 0
4.4760003 2.2920384 1.8744646 0
4.4800005 2.2869735 1.8759077 0
4.4850001 2.2824638 1.8777113 0
4.4900002 2.2779365 1.8795151 0
4.4950004 2.2733908 1.881319 0
4.5000005 2.2688272 1.8831228 0
4.5050001 2.2642453 1.8849266 0
4.5100002 2.2596457 1.8867303 0
4.5150003 2.255028 1.8885343 0
4.5200005 2.2503922 1.8903381 0
4.5250001 2.2457383 1.8921418 0
4.5300002 2.2410665 1.8939456 0
4.5350003 2.2363765 1.8957494 0
4.5400004 2.2316687 1.8975533 0
4.5450001 2.2269425 1.899357 0
4.5500002 2.2221987 1.9011608 0
4.5560002 2.2179813 1.9033254 0
4.5610003 2.2131994 1.9051293 0
4.5660005 2.2083995 1.9069331 0
4.5710001 2.2035816 1.9087368 0
4.5760002 2.1987455 1.9105406 0
4.5810003 2.1938915 1.9123446 0
4.5860004 2.1890197 1.9141483 0
4.5910001 2.1841292 1.9159521 0
4.5970001 2.1797514 1.9181167 0
4.6020002 2.1748233 1.9199204 0
4.6070004 2.1698775 1.9217243 0
4.6120005 2.1649134 1.9235282 0
4.6180005 2.1604543 1.9256928 0
4.6230001 2.1554523 1.9274964 0
4.6280003 2.1504323 1.9293003 0
4.6330004 2.1453943 1.9311041 0
4.6390004 2.1408544 1.9332687 0
4.6440005 2.1357784 1.9350725 0
4.6490002 2.1306844 1.9368762 0
4.6550002 2.1260827 1.9390408 0
4.6600003 2.1209509 1.9408447 0
4.6650004 2.1158011 1.9426485 0
4.6710005 2.1111383 1.9448131 0
4.6760001 2.1059504 1.9466168 0
4.6810002 2.1007447 1.9484206 0
4.6870003 2.0960205 1.9505852 0
4.6920004 2.0907767 1.9523891 0
4.6980004 2.0860112 1.9545537 0
4.7030001 2.0807295 1.9563572 0
4.7090001 2.0759225 1.9585218 0
4.7140002 2.0706031 1.9603258 0
4.7200003 2.0657544 1.9624904 0
4.7250004 2.0603971 1.9642942 0
4.7310004 2.0555069 1.9664588 0
4.7360005 2.0501118 1.9682626 0
4.7420001 2.0451801 1.970427 0
4.7470002 2.039747 1.9722309 0
4.7530003 2.0347738 1.9743955 0
4.7590003 2.0297792 1.9765601 0
4.7640004 2.0242884 1.9783639 0
4.7700005 2.0192523 1.9805285 0
4.7750001 2.0137234 1.9823322 0
4.7810001 2.0086458 1.9844967 0
4.7870002 2.0035465 1.9866613 0
4.7920003 1.9979601 1.9884652 0
4.7980003 1.9928191 1.9906298 0
4.8040004 1.9876568 1.9927944 0
4.8100004 1.9824724 1.994959 0
4.8150005 1.9768088 1.9967628 0
4.8210001 1.9715829 1.9989272 0
4.8270001 1.9663355 2.0010917 0
4.8330002 1.9610667 2.0032563 0
4.8380003 1.9553251 2.0050602 0
4.8440003 1.9500148 2.0072248 0
4.8500004 1.9446828 2.0093894 0
4.8560004 1.9393291 2.011554 0
4.8620005 1.9339538 2.0137186 0
4.8680005 1.9285569 2.0158832 0
4.8740001 1.923138 2.0180476 0
4.8800001 1.9176977 2.0202122 0
4.8850002 1.9117992 2.0220158 0
4.8910003 1.9063176 2.0241804 0
4.8970003 1.9008141 2.026345 0
4.9030004 1.8952891 2.0285096 0
4.9090004 1.8897425 2.0306742 0
4.9150004 1.884174 2.0328388 0
4.9210005 1.878584 2.0350034 0
4.9270005 1.8729725 2.037168 0
4.9330001 1.867339 2.0393324 0
4.9400005 1.8621044 2.041858 0
4.9460001 1.8564259 2.0440223 0
4.9520001 1.8507259 2.0461869 0
4.9580002 1.8450042 2.0483515 0
4.9640002 1.8392609 2.0505161 0
4.9700003 1.8334961 2.0526807 0
4.9760003 1.8277094 2.0548453 0
4.9820004 1.8219012 2.0570097 0
4.9890003 1.8164771 2.0595353 0
4.9950004 1.8106236 2.0616999 0
5.0010004 1.8047488 2.0638645 0
5.0070004 1.7988522 2.0660291 0
5.0140004 1.7933325 2.0685542 0
5.0200005 1.7873907 2.0707188 0
5.0260005 1.7814274 2.0728834 0
5.0330005 1.7758355 2.0754087 0
5.0390005 1.7698271 2.0775733 0
5.0450006 1.7637969 2.0797379 0
5.0520005 1.7581331 2.0822632 0
5.0580001 1.7520577 2.0844276 0
5.0640001 1.7459607 2.0865922 0
5.0710001 1.7402246 2.0891175 0
5.0770001 1.7340826 2.0912821 0
5.0840001 1.7282978 2.0938075 0
5.0900002 1.7221109 2.0959721 0
5.0970001 1.7162772 2.0984974 0
5.1030002 1.7100451 2.100662 0
5.1100001 1.704163 2.1031873 0
5.1160002 1.6978856 2.1053519 0
5.1230001 1.6919547 2.1078773 0
5.1300001 1.6859986 2.1104026 0
4.4710002 2.2965138 1.8653173 0
4.4760003 2.2920384 1.8671122 0
4.4800005 2.2869735 1.8685482 0
4.4850001 2.2824638 1.8703427 0
4.4900002 2.2779365 1.8721375 0
4.4950004 2.2733908 1.8739324 0
4.5000005 2.2688272 1.8757273 0
4.5050001 2.2642453 1.877522 0
4.5100002 2.2596457 1.8793167 0
4.5150003 2.255028 1.8811116 0
4.5200005 2.2503922 1.8829064 0
4.5250001 2.2457383 1.884701 0
4.5300002 2.2410665 1.8864958 0
4.5350003 2.2363765 1.8882908 0
4.5400004 2.2316687 1.8900855 0
4.5450001 2.2269425 1.8918802 0
4.5500002 2.2221987 1.8936751 0
4.5560002 2.2179813 1.8958287 0
4.5610003 2.2131994 1.8976237 0
4.5660005 2.2083995 1.8994185 0
4.5710001 2.2035816 1.901213 0
4.5760002 2.1987455 1.903008 0
4.5810003 2.1938915 1.9048028 0
4.5860004 2.1890197 1.9065976 0
4.5910001 2.1841292 1.9083922 0
4.5970001 2.1797514 1.9105461 0
4.6020002 2.1748233 1.9123408 0
4.6070004 2.1698775 1.9141357 0
4.6120005 2.1649134 1.9159305 0
4.6180005 2.1604543 1.9180843 0
4.6230001 2.1554523 1.919879 0
4.6280003 2.1504323 1.9216738 0
4.6330004 2.1453943 1.9234686 0
4.6390004 2.1408544 1.9256223 0
4.6440005 2.1357784 1.9274172 0
4.6490002 2.1306844 1.9292119 0
4.6550002 2.1260827 1.9313656 0
4.6600003 2.1209509 1.9331604 0
4.6650004 2.1158011 1.9349552 0
4.6710005 2.1111383 1.937109 0
4.6760001 2.1059504 1.9389037 0
4.6810002 2.1007447 1.9406985 0
4.6870003 2.0960205 1.9428523 0
4.6920004 2.0907767 1.9446471 0
4.6980004 2.0860112 1.9468008 0
4.7030001 2.0807295 1.9485955 0
4.7090001 2.0759225 1.9507494 0
4.7140002 2.0706031 1.9525441 0
4.7200003 2.0657544 1.954698 0
4.7250004 2.0603971 1.9564927 0
4.7310004 2.0555069 1.9586465 0
4.7360005 2.0501118 1.9604414 0
4.7420001 2.0451801 1.9625949 0
4.7470002 2.039747 1.9643898 0
4.7530003 2.0347738 1.9665434 0
4.7590003 2.0297792 1.9686973 0
4.7640004 2.0242884 1.970492 0
4.7700005 2.0192523 1.9726459 0
4.7750001 2.0137234 1.9744405 0
4.7810001 2.0086458 1.9765943 0
4.7870002 2.0035465 1.978748 0
4.7920003 1.9979601 1.9805429 0
4.7980003 1.9928191 1.9826965 0
4.8040004 1.9876568 1.9848504 0
4.8100004 1.9824724 1.9870042 0
4.8150005 1.9768088 1.988799 0
4.8210001 1.9715829 1.9909526 0
4.8270001 1.9663355 1.9931064 0
4.8330002 1.9610667 1.99526 0
4.8380003 1.9553251 1.9970549 0
4.8440003 1.9500148 1.9992087 0
4.8500004 1.9446828 2.0013623 0
4.8560004 1.9393291 2.0035162 0
4.8620005 1.9339538 2.0056698 0
4.8680005 1.9285569 2.0078237 0
4.8740001 1.923138 2.0099773 0
4.8800001 1.9176977 2.012131 0
4.8850002 1.9117992 2.0139258 0
4.8910003 1.9063176 2.0160797 0
4.8970003 1.9008141 2.0182333 0
4.9030004 1.8952891 2.0203872 0
4.9090004 1.8897425 2.022541 0
4.9150004 1.884174 2.0246947 0
4.9210005 1.878584 2.0268483 0
4.9270005 1.8729725 2.0290022 0
4.9330001 1.867339 2.0311558 0
4.9400005 1.8621044 2.0336688 0
4.9460001 1.8564259 2.0358222 0
4.9520001 1.8507259 2.037976 0
4.9580002 1.8450042 2.0401297 0
4.9640002 1.8392609 2.0422835 0
4.9700003 1.8334961 2.0444374 0
4.9760003 1.8277094 2.046591 0
4.9820004 1.8219012 2.0487449 0
4.9890003 1.8164771 2.0512576 0
4.9950004 1.8106236 2.0534112 0
5.0010004 1.8047488 2.0555651 0
5.0070004 1.7988522 2.0577188 0
5.0140004 1.7933325 2.0602314 0
5.0200005 1.7873907 2.0623853 0
5.0260005 1.7814274 2.064539 0
5.0330005 1.7758355 2.0670516 0
5.0390005 1.7698271 2.0692055 0
5.0450006 1.7637969 2.0713592 0
5.0520005 1.7581331 2.0738719 0
5.0580001 1.7520577 2.0760255 0
5.0640001 1.7459607 2.0781791 0
5.0710001 1.7402246 2.0806921 0
5.0770001 1.7340826 2.0828457 0
5.0840001 1.7282978 2.0853584 0
5.0900002 1.7221109 2.0875123 0
5.0970001 1.7162772 2.0900249 0
5.1030002 1.7100451 2.0921786 0
5.1100001 1.704163 2.0946913 0
5.1160002 1.6978856 2.0968451 0
5.1230001 1.6919547 2.0993578 0
5.1300001 1.6859986 2.1018705 0
4.4710002 2.2965138 1.8579741 0
4.4760003 2.2920384 1.8597598 0
4.4800005 2.2869735 1.8611885 0
4.4850001 2.2824638 1.8629742 0
4.4900002 2.2779365 1.8647599 0
4.4950004 2.2733908 1.8665458 0
4.5000005 2.2688272 1.8683316 0
4.5050001 2.2642453 1.8701172 0
4.5100002 2.2596457 1.8719031 0
4.5150003 2.255028 1.8736888 0
4.5200005 2.2503922 1.8754747 0
4.5250001 2.2457383 1.8772603 0
4.5300002 2.2410665 1.8790462 0
4.5350003 2.2363765 1.880832 0
4.5400004 2.2316687 1.8826178 0
4.5450001 2.2269425 1.8844035 0
4.5500002 2.2221987 1.8861892 0
4.5560002 2.2179813 1.8883321 0
4.5610003 2.2131994 1.890118 0
4.5660005 2.2083995 1.8919038 0
4.5710001 2.2035816 1.8936894 0
4.5760002 2.1987455 1.8954753 0
4.5810003 2.1938915 1.8972611 0
4.5860004 2.1890197 1.8990469 0
4.5910001 2.1841292 1.9008325 0
4.5970001 2.1797514 1.9029754 0
4.6020002 2.1748233 1.9047613 0
4.6070004 2.1698775 1.9065471 0
4.6120005 2.1649134 1.9083328 0
4.6180005 2.1604543 1.9104757 0
4.6230001 2.1554523 1.9122614 0
4.6280003 2.1504323 1.9140472 0
4.6330004 2.1453943 1.915833 0
4.6390004 2.1408544 1.917976 0
4.6440005 2.1357784 1.9197618 0
4.6490002 2.1306844 1.9215474 0
4.6550002 2.1260827 1.9236904 0
4.6600003 2.1209509 1.9254762 0
4.6650004 2.1158011 1.9272621 0
4.6710005 2.1111383 1.929405 0
4.6760001 2.1059504 1.9311906 0
4.6810002 2.1007447 1.9329764 0
4.6870003 2.0960205 1.9351194 0
4.6920004 2.0907767 1.9369051 0
4.6980004 2.0860112 1.9390482 0
4.7030001 2.0807295 1.9408338 0
4.7090001 2.0759225 1.9429767 0
4.7140002 2.0706031 1.9447625 0
4.7200003 2.0657544 1.9469055 0
4.7250004 2.0603971 1.9486912 0
4.7310004 2.0555069 1.9508343 0
4.7360005 2.0501118 1.95262 0
4.7420001 2.0451801 1.9547628 0
4.7470002 2.039747 1.9565487 0
4.7530003 2.0347738 1.9586916 0
4.7590003 2.0297792 1.9608344 0
4.7640004 2.0242884 1.9626203 0
4.7700005 2.0192523 1.9647632 0
4.7750001 2.0137234 1.9665488 0
4.7810001 2.0086458 1.9686917 0
4.7870002 2.0035465 1.9708347 0
4.7920003 1.9979601 1.9726205 0
4.7980003 1.9928191 1.9747635 0
4.8040004 1.9876568 1.9769064 0
4.8100004 1.9824724 1.9790493 0
4.8150005 1.9768088 1.9808352 0
4.8210001 1.9715829 1.9829779 0
4.8270001 1.9663355 1.9851209 0
4.8330002 1.9610667 1.9872638 0
4.8380003 1.9553251 1.9890497 0
4.8440003 1.9500148 1.9911926 0
4.8500004 1.9446828 1.9933355 0
4.8560004 1.9393291 1.9954785 0
4.8620005 1.9339538 1.9976214 0
4.8680005 1.9285569 1.9997643 0
4.8740001 1.923138 2.0019071 0
4.8800001 1.9176977 2.00405 0
4.8850002 1.9117992 2.0058358 0
4.8910003 1.9063176 2.0079787 0
4.8970003 1.9008141 2.0101216 0
4.9030004 1.8952891 2.0122645 0
4.9090004 1.8897425 2.0144074 0
4.9150004 1.884174 2.0165505 0
4.9210005 1.878584 2.0186934 0
4.9270005 1.8729725 2.0208364 0
4.9330001 1.867339 2.022979 0
4.9400005 1.8621044 2.0254793 0
4.9460001 1.8564259 2.027622 0
4.9520001 1.8507259 2.0297651 0
4.9580002 1.8450042 2.031908 0
4.9640002 1.8392609 2.0340509 0
4.9700003 1.8334961 2.0361938 0
4.9760003 1.8277094 2.0383368 0
4.9820004 1.8219012 2.0404797 0
4.9890003 1.8164771 2.04298 0
4.9950004 1.8106236 2.0451229 0
5.0010004 1.8047488 2.0472658 0
5.0070004 1.7988522 2.0494087 0
5.0140004 1.7933325 2.0519087 0
5.0200005 1.7873907 2.0540516 0
5.0260005 1.7814274 2.0561945 0
5.0330005 1.7758355 2.0586946 0
5.0390005 1.7698271 2.0608375 0
5.0450006 1.7637969 2.0629804 0
5.0520005 1.7581331 2.0654805 0
5.0580001 1.7520577 2.0676234 0
5.0640001 1.7459607 2.0697663 0
5.0710001 1.7402246 2.0722663 0
5.0770001 1.7340826 2.0744092 0
5.0840001 1.7282978 2.0769093 0
5.0900002 1.7221109 2.0790522 0
5.0970001 1.7162772 2.0815523 0
5.1030002 1.7100451 2.0836954 0
5.1100001 1.704163 2.0861955 0
5.1160002 1.6978856 2.0883384 0
5.1230001 1.6919547 2.0908384 0
5.1300001 1.6859986 2.0933385 0
4.4710002 2.2965138 1.8506308 0
4.4760003 2.2920384 1.8524076 0
4.4800005 2.2869735 1.853829 0
4.4850001 2.2824638 1.8556056 0
4.4900002 2.2779365 1.8573824 0
4.4950004 2.2733908 1.8591592 0
4.5000005 2.2688272 1.860936 0
4.5050001 2.2642453 1.8627126 0
4.5100002 2.2596457 1.8644894 0
4.5150003 2.255028 1.8662661 0
4.5200005 2.2503922 1.8680431 0
4.5250001 2.2457383 1.8698196 0
4.5300002 2.2410665 1.8715965 0
4.5350003 2.2363765 1.8733732 0
4.5400004 2.2316687 1.8751501 0
4.5450001 2.2269425 1.8769267 0
4.5500002 2.2221987 1.8787035 0
4.5560002 2.2179813 1.8808357 0
4.5610003 2.2131994 1.8826123 0
4.5660005 2.2083995 1.8843892 0
4.5710001 2.2035816 1.8861657 0
4.5760002 2.1987455 1.8879426 0
4.5810003 2.1938915 1.8897194 0
4.5860004 2.1890197 1.8914962 0
4.5910001 2.1841292 1.8932728 0
4.5970001 2.1797514 1.8954049 0
4.6020002 2.1748233 1.8971816 0
4.6070004 2.1698775 1.8989584 0
4.6120005 2.1649134 1.9007353 0
4.6180005 2.1604543 1.9028674 0
4.6230001 2.1554523 1.904644 0
4.6280003 2.1504323 1.9064207 0
4.6330004 2.1453943 1.9081975 0
4.6390004 2.1408544 1.9103297 0
4.6440005 2.1357784 1.9121065 0
4.6490002 2.1306844 1.9138831 0
4.6550002 2.1260827 1.9160153 0
4.6600003 2.1209509 1.917792 0
4.6650004 2.1158011 1.9195688 0
4.6710005 2.1111383 1.921701 0
4.6760001 2.1059504 1.9234775 0
4.6810002 2.1007447 1.9252543 0
4.6870003 2.0960205 1.9273865 0
4.6920004 2.0907767 1.9291632 0
4.6980004 2.0860112 1.9312953 0
4.7030001 2.0807295 1.933072 0
4.7090001 2.0759225 1.935204 0
4.7140002 2.0706031 1.9369808 0
4.7200003 2.0657544 1.939113 0
4.7250004 2.0603971 1.9408898 0
4.7310004 2.0555069 1.9430219 0
4.7360005 2.0501118 1.9447987 0
4.7420001 2.0451801 1.9469306 0
4.7470002 2.039747 1.9487073 0
4.7530003 2.0347738 1.9508395 0
4.7590003 2.0297792 1.9529716 0
4.7640004 2.0242884 1.9547485 0
4.7700005 2.0192523 1.9568806 0
4.7750001 2.0137234 1.9586571 0
4.7810001 2.0086458 1.9607893 0
4.7870002 2.0035465 1.9629214 0
4.7920003 1.9979601 1.9646982 0
4.7980003 1.9928191 1.9668304 0
4.8040004 1.9876568 1.9689624 0
4.8100004 1.9824724 1.9710946 0
4.8150005 1.9768088 1.9728713 0
4.8210001 1.9715829 1.9750034 0
4.8270001 1.9663355 1.9771354 0
4.8330002 1.9610667 1.9792676 0
4.8380003 1.9553251 1.9810443 0
4.8440003 1.9500148 1.9831764 0
4.8500004 1.9446828 1.9853086 0
4.8560004 1.9393291 1.9874407 0
4.8620005 1.9339538 1.9895729 0
4.8680005 1.9285569 1.9917049 0
4.8740001 1.923138 1.9938369 0
4.8800001 1.9176977 1.9959689 0
4.8850002 1.9117992 1.9977458 0
4.8910003 1.9063176 1.9998779 0
4.8970003 1.9008141 2.0020099 0
4.9030004 1.8952891 2.004142 0
4.9090004 1.8897425 2.0062742 0
4.9150004 1.884174 2.0084064 0
4.9210005 1.878584 2.0105383 0
4.9270005 1.8729725 2.0126705 0
4.9330001 1.867339 2.0148025 0
4.9400005 1.8621044 2.0172901 0
4.9460001 1.8564259 2.0194221 0
4.9520001 1.8507259 2.0215542 0
4.9580002 1.8450042 2.0236862 0
4.9640002 1.8392609 2.0258183 0
4.9700003 1.8334961 2.0279505 0
4.9760003 1.8277094 2.0300827 0
4.9820004 1.8219012 2.0322146 0
4.9890003 1.8164771 2.0347021 0
4.9950004 1.8106236 2.0368342 0
5.0010004 1.8047488 2.0389664 0
5.0070004 1.7988522 2.0410984 0
5.0140004 1.7933325 2.043586 0
5.0200005 1.7873907 2.045718 0
5.0260005 1.7814274 2.0478501 0
5.0330005 1.7758355 2.0503376 0
5.0390005 1.7698271 2.0524697 0
5.0450006 1.7637969 2.0546019 0
5.0520005 1.7581331 2.0570893 0
5.0580001 1.7520577 2.0592213 0
5.0640001 1.7459607 2.0613532 0
5.0710001 1.7402246 2.0638409 0
5.0770001 1.7340826 2.065973 0
5.0840001 1.7282978 2.0684602 0
5.0900002 1.7221109 2.0705924 0
5.0970001 1.7162772 2.0730798 0
5.1030002 1.7100451 2.075212 0
5.1100001 1.704163 2.0776994 0
5.1160002 1.6978856 2.0798316 0
5.1230001 1.6919547 2.082319 0
5.1300001 1.6859986 2.0848064 0
4.4710002 2.2965138 1.8432875 0
4.4760003 2.2920384 1.8450552 0
4.4800005 2.2869735 1.8464694 0
4.4850001 2.2824638 1.8482372 0
4.4900002 2.2779365 1.8500048 0
4.4950004 2.2733908 1.8517727 0
4.5000005 2.2688272 1.8535404 0
4.5050001 2.2642453 1.8553081 0
4.5100002 2.2596457 1.8570757 0
4.5150003 2.255028 1.8588436 0
4.5200005 2.2503922 1.8606113 0
4.5250001 2.2457383 1.862379 0
4.5300002 2.2410665 1.8641467 0
4.5350003 2.2363765 1.8659145 0
4.5400004 2.2316687 1.8676822 0
4.5450001 2.2269425 1.8694499 0
4.5500002 2.2221987 1.8712176 0
4.5560002 2.2179813 1.8733389 0
4.5610003 2.2131994 1.8751067 0
4.5660005 2.2083995 1.8768744 0
4.5710001 2.2035816 1.8786421 0
4.5760002 2.1987455 1.8804098 0
4.5810003 2.1938915 1.8821777 0
4.5860004 2.1890197 1.8839453 0
4.5910001 2.1841292 1.885713 0
4.5970001 2.1797514 1.8878343 0
4.6020002 2.1748233 1.8896021 0
4.6070004 2.1698775 1.8913698 0
4.6120005 2.1649134 1.8931376 0
4.6180005 2.1604543 1.8952589 0
4.6230001 2.1554523 1.8970265 0
4.6280003 2.1504323 1.8987943 0
4.6330004 2.1453943 1.900562 0
4.6390004 2.1408544 1.9026834 0
4.6440005 2.1357784 1.9044511 0
4.6490002 2.1306844 1.9062188 0
4.6550002 2.1260827 1.9083401 0
4.6600003 2.1209509 1.9101077 0
4.6650004 2.1158011 1.9118755 0
4.6710005 2.1111383 1.9139968 0
4.6760001 2.1059504 1.9157645 0
4.6810002 2.1007447 1.9175322 0
4.6870003 2.0960205 1.9196534 0
4.6920004 2.0907767 1.9214213 0
4.6980004 2.0860112 1.9235426 0
4.7030001 2.0807295 1.9253101 0
4.7090001 2.0759225 1.9274315 0
4.7140002 2.0706031 1.9291992 0
4.7200003 2.0657544 1.9313205 0
4.7250004 2.0603971 1.9330883 0
4.7310004 2.0555069 1.9352095 0
4.7360005 2.0501118 1.9369774 0
4.7420001 2.0451801 1.9390985 0
4.7470002 2.039747 1.9408662 0
4.7530003 2.0347738 1.9429876 0
4.7590003 2.0297792 1.9451088 0
4.7640004 2.0242884 1.9468766 0
4.7700005 2.0192523 1.948998 0
4.7750001 2.0137234 1.9507655 0
4.7810001 2.0086458 1.9528868 0
4.7870002 2.0035465 1.955008 0
4.7920003 1.9979601 1.9567759 0
4.7980003 1.9928191 1.9588972 0
4.8040004 1.9876568 1.9610186 0
4.8100004 1.9824724 1.9631398 0
4.8150005 1.9768088 1.9649075 0
4.8210001 1.9715829 1.9670286 0
4.8270001 1.9663355 1.9691499 0
4.8330002 1.9610667 1.9712713 0
4.8380003 1.9553251 1.973039 0
4.8440003 1.9500148 1.9751604 0
4.8500004 1.9446828 1.9772817 0
4.8560004 1.9393291 1.9794029 0
4.8620005 1.9339538 1.9815242 0
4.8680005 1.9285569 1.9836456 0
4.8740001 1.923138 1.9857666 0
4.8800001 1.9176977 1.987888 0
4.8850002 1.9117992 1.9896556 0
4.8910003 1.9063176 1.9917769 0
4.8970003 1.9008141 1.9938983 0
4.9030004 1.8952891 1.9960196 0
4.9090004 1.8897425 1.9981408 0
4.9150004 1.884174 2.000262 0
4.9210005 1.878584 2.0023835 0
4.9270005 1.8729725 2.0045047 0
4.9330001 1.867339 2.0066259 0
4.9400005 1.8621044 2.0091007 0
4.9460001 1.8564259 2.0112219 0
4.9520001 1.8507259 2.0133431 0
4.9580002 1.8450042 2.0154645 0
4.9640002 1.8392609 2.0175858 0
4.9700003 1.8334961 2.019707 0
4.9760003 1.8277094 2.0218284 0
4.9820004 1.8219012 2.0239496 0
4.9890003 1.8164771 2.0264244 0
4.9950004 1.8106236 2.0285459 0
5.0010004 1.8047488 2.0306671 0
5.0070004 1.7988522 2.0327883 0
5.0140004 1.7933325 2.0352631 0
5.0200005 1.7873907 2.0373845 0
5.0260005 1.7814274 2.0395057 0
5.0330005 1.7758355 2.0419805 0
5.0390005 1.7698271 2.044102 0
5.0450006 1.7637969 2.0462232 0
5.0520005 1.7581331 2.0486979 0
5.0580001 1.7520577 2.0508192 0
5.0640001 1.7459607 2.0529404 0
5.0710001 1.7402246 2.0554152 0
5.0770001 1.7340826 2.0575366 0
5.0840001 1.7282978 2.0600114 0
5.0900002 1.7221109 2.0621326 0
5.0970001 1.7162772 2.0646074 0
5.1030002 1.7100451 2.0667288 0
5.1100001 1.704163 2.0692036 0
5.1160002 1.6978856 2.0713248 0
5.1230001 1.6919547 2.0737996 0
5.1300001 1.6859986 2.0762744 0
4.4710002 2.2965138 1.8359442 0
4.4760003 2.2920384 1.837703 0
4.4800005 2.2869735 1.83911 0
4.4850001 2.2824638 1.8408686 0
4.4900002 2.2779365 1.8426273 0
4.4950004 2.2733908 1.844386 0
4.5000005 2.2688272 1.8461448 0
4.5050001 2.2642453 1.8479034 0
4.5100002 2.2596457 1.8496621 0
4.5150003 2.255028 1.8514209 0
4.5200005 2.2503922 1.8531797 0
4.5250001 2.2457383 1.8549383 0
4.5300002 2.2410665 1.856697 0
4.5350003 2.2363765 1.8584558 0
4.5400004 2.2316687 1.8602145 0
4.5450001 2.2269425 1.8619732 0
4.5500002 2.2221987 1.8637317 0
4.5560002 2.2179813 1.8658423 0
4.5610003 2.2131994 1.867601 0
4.5660005 2.2083995 1.8693597 0
4.5710001 2.2035816 1.8711183 0
4.5760002 2.1987455 1.8728771 0
4.5810003 2.1938915 1.8746359 0
4.5860004 2.1890197 1.8763946 0
4.5910001 2.1841292 1.8781532 0
4.5970001 2.1797514 1.8802637 0
4.6020002 2.1748233 1.8820224 0
4.6070004 2.1698775 1.8837812 0
4.6120005 2.1649134 1.88554 0
4.6180005 2.1604543 1.8876504 0
4.6230001 2.1554523 1.8894089 0
4.6280003 2.1504323 1.8911678 0
4.6330004 2.1453943 1.8929266 0
4.6390004 2.1408544 1.8950369 0
4.6440005 2.1357784 1.8967957 0
4.6490002 2.1306844 1.8985543 0
4.6550002 2.1260827 1.9006648 0
4.6600003 2.1209509 1.9024236 0
4.6650004 2.1158011 1.9041823 0
4.6710005 2.1111383 1.9062928 0
4.6760001 2.1059504 1.9080514 0
4.6810002 2.1007447 1.9098102 0
4.6870003 2.0960205 1.9119205 0
4.6920004 2.0907767 1.9136794 0
4.6980004 2.0860112 1.9157897 0
4.7030001 2.0807295 1.9175484 0
4.7090001 2.0759225 1.9196589 0
4.7140002 2.0706031 1.9214176 0
4.7200003 2.0657544 1.9235281 0
4.7250004 2.0603971 1.9252869 0
4.7310004 2.0555069 1.9273973 0
4.7360005 2.0501118 1.9291561 0
4.7420001 2.0451801 1.9312664 0
4.7470002 2.039747 1.9330251 0
4.7530003 2.0347738 1.9351356 0
4.7590003 2.0297792 1.9372461 0
4.7640004 2.0242884 1.9390048 0
4.7700005 2.0192523 1.9411153 0
4.7750001 2.0137234 1.9428738 0
4.7810001 2.0086458 1.9449843 0
4.7870002 2.0035465 1.9470948 0
4.7920003 1.9979601 1.9488536 0
4.7980003 1.9928191 1.950964 0
4.8040004 1.9876568 1.9530745 0
4.8100004 1.9824724 1.9551849 0
4.8150005 1.9768088 1.9569438 0
4.8210001 1.9715829 1.959054 0
4.8270001 1.9663355 1.9611645 0
4.8330002 1.9610667 1.963275 0
4.8380003 1.9553251 1.9650338 0
4.8440003 1.9500148 1.9671443 0
4.8500004 1.9446828 1.9692547 0
4.8560004 1.9393291 1.9713651 0
4.8620005 1.9339538 1.9734756 0
4.8680005 1.9285569 1.9755861 0
4.8740001 1.923138 1.9776964 0
4.8800001 1.9176977 1.9798068 0
4.8850002 1.9117992 1.9815656 0
4.8910003 1.9063176 1.9836761 0
4.8970003 1.9008141 1.9857866 0
4.9030004 1.8952891 1.9878969 0
4.9090004 1.8897425 1.9900075 0
4.9150004 1.884174 1.9921179 0
4.9210005 1.878584 1.9942285 0
4.9270005 1.8729725 1.9963388 0
4.9330001 1.867339 1.9984492 0
4.9400005 1.8621044 2.0009115 0
4.9460001 1.8564259 2.0030217 0
4.9520001 1.8507259 2.0051322 0
4.9580002 1.8450042 2.0072427 0
4.9640002 1.8392609 2.0093532 0
4.9700003 1.8334961 2.0114636 0
4.9760003 1.8277094 2.0135741 0
4.9820004 1.8219012 2.0156846 0
4.9890003 1.8164771 2.0181468 0
4.9950004 1.8106236 2.0202572 0
5.0010004 1.8047488 2.0223677 0
5.0070004 1.7988522 2.0244782 0
5.0140004 1.7933325 2.0269403 0
5.0200005 1.7873907 2.0290508 0
5.0260005 1.7814274 2.0311613 0
5.0330005 1.7758355 2.0336235 0
5.0390005 1.7698271 2.0357339 0
5.0450006 1.7637969 2.0378444 0
5.0520005 1.7581331 2.0403066 0
5.0580001 1.7520577 2.042417 0
5.0640001 1.7459607 2.0445273 0
5.0710001 1.7402246 2.0469897 0
5.0770001 1.7340826 2.0491002 0
5.0840001 1.7282978 2.0515623 0
5.0900002 1.7221109 2.0536728 0
5.0970001 1.7162772 2.0561349 0
5.1030002 1.7100451 2.0582454 0
5.1100001 1.704163 2.0607076 0
5.1160002 1.6978856 2.0628181 0
5.1230001 1.6919547 2.0652802 0
5.1300001 1.6859986 2.0677423 0
4.4710002 2.2965138 1.8286009 0
4.4760003 2.2920384 1.8303505 0
4.4800005 2.2869735 1.8317504 0
4.4850001 2.2824638 1.8334999 0
4.4900002 2.2779365 1.8352497 0
4.4950004 2.2733908 1.8369994 0
4.5000005 2.2688272 1.8387492 0
4.5050001 2.2642453 1.8404987 0
4.5100002 2.2596457 1.8422484 0
4.5150003 2.255028 1.8439982 0
4.5200005 2.2503922 1.8457479 0
4.5250001 2.2457383 1.8474975 0
4.5300002 2.2410665 1.8492472 0
4.5350003 2.2363765 1.850997 0
4.5400004 2.2316687 1.8527467 0
4.5450001 2.2269425 1.8544962 0
4.5500002 2.2221987 1.856246 0
4.5560002 2.2179813 1.8583456 0
4.5610003 2.2131994 1.8600954 0
4.5660005 2.2083995 1.8618451 0
4.5710001 2.2035816 1.8635948 0
4.5760002 2.1987455 1.8653445 0
4.5810003 2.1938915 1.8670943 0
4.5860004 2.1890197 1.8688439 0
4.5910001 2.1841292 1.8705935 0
4.5970001 2.1797514 1.8726932 0
4.6020002 2.1748233 1.8744429 0
4.6070004 2.1698775 1.8761926 0
4.6120005 2.1649134 1.8779423 0
4.6180005 2.1604543 1.880042 0
4.6230001 2.1554523 1.8817916 0
4.6280003 2.1504323 1.8835413 0
4.6330004 2.1453943 1.885291 0
4.6390004 2.1408544 1.8873907 0
4.6440005 2.1357784 1.8891404 0
4.6490002 2.1306844 1.89089 0
4.6550002 2.1260827 1.8929896 0
4.6600003 2.1209509 1.8947394 0
4.6650004 2.1158011 1.8964891 0
4.6710005 2.1111383 1.8985888 0
4.6760001 2.1059504 1.9003383 0
4.6810002 2.1007447 1.902088 0
4.6870003 2.0960205 1.9041877 0
4.6920004 2.0907767 1.9059374 0
4.6980004 2.0860112 1.9080371 0
4.7030001 2.0807295 1.9097866 0
4.7090001 2.0759225 1.9118862 0
4.7140002 2.0706031 1.913636 0
4.7200003 2.0657544 1.9157356 0
4.7250004 2.0603971 1.9174854 0
4.7310004 2.0555069 1.919585 0
4.7360005 2.0501118 1.9213347 0
4.7420001 2.0451801 1.9234343 0
4.7470002 2.039747 1.9251839 0
4.7530003 2.0347738 1.9272836 0
4.7590003 2.0297792 1.9293833 0
4.7640004 2.0242884 1.931133 0
4.7700005 2.0192523 1.9332327 0
4.7750001 2.0137234 1.9349822 0
4.7810001 2.0086458 1.9370818 0
4.7870002 2.0035465 1.9391814 0
4.7920003 1.9979601 1.9409312 0
4.7980003 1.9928191 1.9430308 0
4.8040004 1.9876568 1.9451305 0
4.8100004 1.9824724 1.9472301 0
4.8150005 1.9768088 1.9489799 0
4.8210001 1.9715829 1.9510794 0
4.8270001 1.9663355 1.953179 0
4.8330002 1.9610667 1.9552786 0
4.8380003 1.9553251 1.9570284 0
4.8440003 1.9500148 1.959128 0
4.8500004 1.9446828 1.9612277 0
4.8560004 1.9393291 1.9633273 0
4.8620005 1.9339538 1.9654269 0
4.8680005 1.9285569 1.9675266 0
4.8740001 1.923138 1.9696262 0
4.8800001 1.9176977 1.9717258 0
4.8850002 1.9117992 1.9734756 0
4.8910003 1.9063176 1.9755752 0
4.8970003 1.9008141 1.9776748 0
4.9030004 1.8952891 1.9797745 0
4.9090004 1.8897425 1.9818741 0
4.9150004 1.884174 1.9839739 0
4.9210005 1.878584 1.9860735 0
4.9270005 1.8729725 1.9881731 0
4.9330001 1.867339 1.9902725 0
4.9400005 1.8621044 1.9927223 0
4.9460001 1.8564259 1.9948218 0
4.9520001 1.8507259 1.9969214 0
4.9580002 1.8450042 1.9990211 0
4.9640002 1.8392609 2.0011206 0
4.9700003 1.8334961 2.0032203 0
4.9760003 1.8277094 2.0053198 0
4.9820004 1.8219012 2.0074196 0
4.9890003 1.8164771 2.0098691 0
4.9950004 1.8106236 2.0119689 0
5.0010004 1.8047488 2.0140684 0
5.0070004 1.7988522 2.0161681 0
5.0140004 1.7933325 2.0186176 0
5.0200005 1.7873907 2.0207174 0
5.0260005 1.7814274 2.0228169 0
5.0330005 1.7758355 2.0252664 0
5.0390005 1.7698271 2.0273662 0
5.0450006 1.7637969 2.0294657 0
5.0520005 1.7581331 2.0319154 0
5.0580001 1.7520577 2.0340147 0
5.0640001 1.7459607 2.0361145 0
5.0710001 1.7402246 2.038564 0
5.0770001 1.7340826 2.0406637 0
5.0840001 1.7282978 2.0431132 0
5.0900002 1.7221109 2.0452127 0
5.0970001 1.7162772 2.0476625 0
5.1030002 1.7100451 2.049762 0
5.1100001 1.704163 2.0522115 0
5.1160002 1.6978856 2.0543113 0
5.1230001 1.6919547 2.0567608 0
5.1300001 1.6859986 2.0592103 0
4.4710002 2.2965138 1.8212575 0
4.4760003 2.2920384 1.8229983 0
4.4800005 2.2869735 1.8243909 0
4.4850001 2.2824638 1.8261315 0
4.4900002 2.2779365 1.8278722 0
4.4950004 2.2733908 1.8296129 0
4.5000005 2.2688272 1.8313535 0
4.5050001 2.2642453 1.8330941 0
4.5100002 2.2596457 1.8348348 0
4.5150003 2.255028 1.8365756 0
4.5200005 2.2503922 1.8383163 0
4.5250001 2.2457383 1.8400568 0
4.5300002 2.2410665 1.8417975 0
4.5350003 2.2363765 1.8435383 0
4.5400004 2.2316687 1.845279 0
4.5450001 2.2269425 1.8470194 0
4.5500002 2.2221987 1.8487602 0
4.5560002 2.2179813 1.850849 0
4.5610003 2.2131994 1.8525897 0
4.5660005 2.2083995 1.8543305 0
4.5710001 2.2035816 1.856071 0
4.5760002 2.1987455 1.8578117 0
4.5810003 2.1938915 1.8595525 0
4.5860004 2.1890197 1.8612932 0
4.5910001 2.1841292 1.8630337 0
4.5970001 2.1797514 1.8651226 0
4.6020002 2.1748233 1.8668633 0
4.6070004 2.1698775 1.8686039 0
4.6120005 2.1649134 1.8703446 0
4.6180005 2.1604543 1.8724335 0
4.6230001 2.1554523 1.874174 0
4.6280003 2.1504323 1.8759148 0
4.6330004 2.1453943 1.8776555 0
4.6390004 2.1408544 1.8797443 0
4.6440005 2.1357784 1.8814851 0
4.6490002 2.1306844 1.8832256 0
4.6550002 2.1260827 1.8853143 0
4.6600003 2.1209509 1.8870552 0
4.6650004 2.1158011 1.8887959 0
4.6710005 2.1111383 1.8908846 0
4.6760001 2.1059504 1.8926252 0
4.6810002 2.1007447 1.8943659 0
4.6870003 2.0960205 1.8964548 0
4.6920004 2.0907767 1.8981955 0
4.6980004 2.0860112 1.9002842 0
4.7030001 2.0807295 1.9020249 0
4.7090001 2.0759225 1.9041137 0
4.7140002 2.0706031 1.9058545 0
4.7200003 2.0657544 1.9079431 0
4.7250004 2.0603971 1.9096838 0
4.7310004 2.0555069 1.9117727 0
4.7360005 2.0501118 1.9135134 0
4.7420001 2.0451801 1.9156021 0
4.7470002 2.039747 1.9173428 0
4.7530003 2.0347738 1.9194317 0
4.7590003 2.0297792 1.9215205 0
4.7640004 2.0242884 1.9232612 0
4.7700005 2.0192523 1.9253501 0
4.7750001 2.0137234 1.9270905 0
4.7810001 2.0086458 1.9291794 0
4.7870002 2.0035465 1.9312682 0
4.7920003 1.9979601 1.9330089 0
4.7980003 1.9928191 1.9350977 0
4.8040004 1.9876568 1.9371866 0
4.8100004 1.9824724 1.9392754 0
4.8150005 1.9768088 1.9410161 0
4.8210001 1.9715829 1.9431047 0
4.8270001 1.9663355 1.9451935 0
4.8330002 1.9610667 1.9472824 0
4.8380003 1.9553251 1.9490231 0
4.8440003 1.9500148 1.9511119 0
4.8500004 1.9446828 1.9532007 0
4.8560004 1.9393291 1.9552896 0
4.8620005 1.9339538 1.9573784 0
4.8680005 1.9285569 1.9594673 0
4.8740001 1.923138 1.961556 0
4.8800001 1.9176977 1.9636447 0
4.8850002 1.9117992 1.9653854 0
4.8910003 1.9063176 1.9674743 0
4.8970003 1.9008141 1.969563 0
4.9030004 1.8952891 1.9716519 0
4.9090004 1.8897425 1.9737407 0
4.9150004 1.884174 1.9758296 0
4.9210005 1.878584 1.9779184 0
4.9270005 1.8729725 1.9800072 0
4.9330001 1.867339 1.982096 0
4.9400005 1.8621044 1.984533 0
4.9460001 1.8564259 1.9866216 0
4.9520001 1.8507259 1.9887104 0
4.9580002 1.8450042 1.9907993 0
4.9640002 1.8392609 1.9928881 0
4.9700003 1.8334961 1.9949769 0
4.9760003 1.8277094 1.9970658 0
4.9820004 1.8219012 1.9991546 0
4.9890003 1.8164771 2.0015914 0
4.9950004 1.8106236 2.0036802 0
5.0010004 1.8047488 2.005769 0
5.0070004 1.7988522 2.0078578 0
5.0140004 1.7933325 2.0102949 0
5.0200005 1.7873907 2.0123837 0
5.0260005 1.7814274 2.0144725 0
5.0330005 1.7758355 2.0169094 0
5.0390005 1.7698271 2.0189984 0
5.0450006 1.7637969 2.0210872 0
5.0520005 1.7581331 2.023524 0
5.0580001 1.7520577 2.0256128 0
5.0640001 1.7459607 2.0277014 0
5.0710001 1.7402246 2.0301385 0
5.0770001 1.7340826 2.0322273 0
5.0840001 1.7282978 2.0346642 0
5.0900002 1.7221109 2.0367529 0
5.0970001 1.7162772 2.0391901 0
5.1030002 1.7100451 2.0412788 0
5.1100001 1.704163 2.0437157 0
5.1160002 1.6978856 2.0458045 0
5.1230001 1.6919547 2.0482414 0
5.1300001 1.6859986 2.0506785 0
4.4710002 2.2965138 1.8139143 0
4.4760003 2.2920384 1.8156459 0
4.4800005 2.2869735 1.8170314 0
4.4850001 2.2824638 1.8187629 0
4.4900002 2.2779365 1.8204945 0
4.4950004 2.2733908 1.8222263 0
4.5000005 2.2688272 1.8239579 0
4.5050001 2.2642453 1.8256896 0
4.5100002 2.2596457 1.8274211 0
4.5150003 2.255028 1.8291529 0
4.5200005 2.2503922 1.8308845 0
4.5250001 2.2457383 1.8326161 0
