# .PCD v0.7 - Point Cloud Data file format
VERSION 0.7
FIELDS x y z intensity
SIZE 4 4 4 4
TYPE F F F F
COUNT 1 1 1 1
WIDTH 1416
HEIGHT 1
VIEWPOINT 0 0 0 1 0 0 0
POINTS 1416
DATA ascii
4.4960003 -0.79961663 1.7634654 0
4.4980001 -0.80737656 1.764129 0
4.4990001 -0.81495619 1.764461 0
4.4940004 -0.82140309 1.7628016 0
4.4880004 -0.82764065 1.7608103 0
4.4830003 -0.83404952 1.7591506 0
4.4840002 -0.8416093 1.7594825 0
4.4950004 -0.85113889 1.7631335 0
4.5220003 -0.87875336 1.7720948 0
4.5250001 -0.88680005 1.7730905 0
4.5280004 -0.89485776 1.7740862 0
4.4930005 -0.7695328 1.7550868 0
4.4880004 -0.77602285 1.7534362 0
4.4900002 -0.78375751 1.7540964 0
4.4930005 -0.79168171 1.7550868 0
4.4960003 -0.79961663 1.7560771 0
4.4980001 -0.80737656 1.7567371 0
4.4990001 -0.81495619 1.7570672 0
4.4940004 -0.82140309 1.7554169 0
4.4880004 -0.82764065 1.7534362 0
4.4830003 -0.83404952 1.7517858 0
4.4840002 -0.8416093 1.7521157 0
4.4950004 -0.85113889 1.755747 0
4.5220003 -0.87875336 1.7646595 0
4.5250001 -0.88680005 1.7656497 0
4.5280004 -0.89485776 1.7666402 0
4.4930005 -0.7695328 1.7477038 0
4.4880004 -0.77602285 1.7460623 0
4.4900002 -0.78375751 1.7467188 0
4.4930005 -0.79168171 1.7477038 0
4.4960003 -0.79961663 1.7486886 0
4.4980001 -0.80737656 1.7493451 0
4.4990001 -0.81495619 1.7496734 0
4.4940004 -0.82140309 1.748032 0
4.4880004 -0.82764065 1.7460623 0
4.4830003 -0.83404952 1.7444208 0
4.4840002 -0.8416093 1.7447491 0
4.4950004 -0.85113889 1.7483603 0
4.5220003 -0.87875336 1.7572242 0
4.5250001 -0.88680005 1.758209 0
4.5280004 -0.89485776 1.7591939 0
4.4930005 -0.7695328 1.7403208 0
4.4880004 -0.77602285 1.7386882 0
4.4900002 -0.78375751 1.7393413 0
4.4930005 -0.79168171 1.7403208 0
4.4960003 -0.79961663 1.7413002 0
4.4980001 -0.80737656 1.7419531 0
4.4990001 -0.81495619 1.7422796 0
4.4940004 -0.82140309 1.7406472 0
4.4880004 -0.82764065 1.7386882 0
4.4830003 -0.83404952 1.7370558 0
4.4840002 -0.8416093 1.7373823 0
4.4950004 -0.85113889 1.7409737 0
4.5220003 -0.87875336 1.7497889 0
4.5250001 -0.88680005 1.7507683 0
4.5280004 -0.89485776 1.7517478 0
4.4930005 -0.7695328 1.7329377 0
4.4880004 -0.77602285 1.7313143 0
4.4900002 -0.78375751 1.7319636 0
4.4930005 -0.79168171 1.7329377 0
4.4960003 -0.79961663 1.7339118 0
4.4980001 -0.80737656 1.7345611 0
4.4990001 -0.81495619 1.7348858 0
4.4940004 -0.82140309 1.7332624 0
4.4880004 -0.82764065 1.7313143 0
4.4830003 -0.83404952 1.7296909 0
4.4840002 -0.8416093 1.7300155 0
4.4950004 -0.85113889 1.7335871 0
4.5220003 -0.87875336 1.7423536 0
4.5250001 -0.88680005 1.7433276 0
4.5280004 -0.89485776 1.7443017 0
4.4930005 -0.7695328 1.7255548 0
4.4880004 -0.77602285 1.7239404 0
4.4900002 -0.78375751 1.7245861 0
4.4930005 -0.79168171 1.7255548 0
4.4960003 -0.79961663 1.7265234 0
4.4980001 -0.80737656 1.727169 0
4.4990001 -0.81495619 1.727492 0
4.4940004 -0.82140309 1.7258776 0
4.4880004 -0.82764065 1.7239404 0
4.4830003 -0.83404952 1.7223259 0
4.4840002 -0.8416093 1.7226487 0
4.4950004 -0.85113889 1.7262006 0
4.5220003 -0.87875336 1.7349182 0
4.5250001 -0.88680005 1.7358869 0
4.5280004 -0.89485776 1.7368556 0
4.4930005 -0.7695328 1.7181718 0
4.4880004 -0.77602285 1.7165664 0
4.4900002 -0.78375751 1.7172085 0
4.4930005 -0.79168171 1.7181718 0
4.4960003 -0.79961663 1.7191349 0
4.4980001 -0.80737656 1.7197771 0
4.4990001 -0.81495619 1.7200981 0
4.4940004 -0.82140309 1.7184929 0
4.4880004 -0.82764065 1.7165664 0
4.4830003 -0.83404952 1.7149611 0
4.4840002 -0.8416093 1.7152821 0
4.4950004 -0.85113889 1.7188139 0
4.5220003 -0.87875336 1.727483 0
4.5250001 -0.88680005 1.7284461 0
4.5280004 -0.89485776 1.7294095 0
4.4930005 -0.7695328 1.7107888 0
4.4880004 -0.77602285 1.7091924 0
4.4900002 -0.78375751 1.709831 0
4.4930005 -0.79168171 1.7107888 0
4.4960003 -0.79961663 1.7117466 0
4.4980001 -0.80737656 1.7123851 0
4.4990001 -0.81495619 1.7127044 0
4.4940004 -0.82140309 1.7111081 0
4.4880004 -0.82764065 1.7091924 0
4.4830003 -0.83404952 1.7075961 0
4.4840002 -0.8416093 1.7079153 0
4.4950004 -0.85113889 1.7114273 0
4.5220003 -0.87875336 1.7200477 0
4.5250001 -0.88680005 1.7210054 0
4.5280004 -0.89485776 1.7219634 0
4.4930005 -0.7695328 1.7034057 0
4.4880004 -0.77602285 1.7018185 0
4.4900002 -0.78375751 1.7024534 0
4.4930005 -0.79168171 1.7034057 0
4.4960003 -0.79961663 1.7043582 0
4.4980001 -0.80737656 1.704993 0
4.4990001 -0.81495619 1.7053106 0
4.4940004 -0.82140309 1.7037233 0
4.4880004 -0.82764065 1.7018185 0
4.4830003 -0.83404952 1.7002311 0
4.4840002 -0.8416093 1.7005485 0
4.4950004 -0.85113889 1.7040408 0
4.5220003 -0.87875336 1.7126124 0
4.5250001 -0.88680005 1.7135648 0
4.5280004 -0.89485776 1.7145174 0
4.4930005 -0.7695328 1.6960229 0
4.4880004 -0.77602285 1.6944444 0
4.4900002 -0.78375751 1.6950758 0
4.4930005 -0.79168171 1.6960229 0
4.4960003 -0.79961663 1.6969699 0
4.4980001 -0.80737656 1.6976011 0
4.4990001 -0.81495619 1.6979167 0
4.4940004 -0.82140309 1.6963385 0
4.4880004 -0.82764065 1.6944444 0
4.4830003 -0.83404952 1.6928661 0
4.4840002 -0.8416093 1.6931818 0
4.4950004 -0.85113889 1.6966542 0
4.5220003 -0.87875336 1.7051771 0
4.5250001 -0.88680005 1.7061241 0
4.5280004 -0.89485776 1.7070711 0
4.4930005 -0.7695328 1.6886399 0
4.4880004 -0.77602285 1.6870706 0
4.4900002 -0.78375751 1.6876982 0
4.4930005 -0.79168171 1.6886399 0
4.4960003 -0.79961663 1.6895814 0
4.4980001 -0.80737656 1.690209 0
4.4990001 -0.81495619 1.6905229 0
4.4940004 -0.82140309 1.6889538 0
4.4880004 -0.82764065 1.6870706 0
4.4830003 -0.83404952 1.6855011 0
4.4840002 -0.8416093 1.685815 0
4.4950004 -0.85113889 1.6892675 0
4.5220003 -0.87875336 1.6977417 0
4.5250001 -0.88680005 1.6986834 0
4.5280004 -0.89485776 1.699625 0
4.4930005 -0.7695328 1.6812569 0
4.4880004 -0.77602285 1.6796966 0
4.4900002 -0.78375751 1.6803206 0
4.4930005 -0.79168171 1.6812569 0
4.4960003 -0.79961663 1.682193 0
4.4980001 -0.80737656 1.682817 0
4.4990001 -0.81495619 1.6831291 0
4.4940004 -0.82140309 1.681569 0
4.4880004 -0.82764065 1.6796966 0
4.4830003 -0.83404952 1.6781362 0
4.4840002 -0.8416093 1.6784483 0
4.4950004 -0.85113889 1.681881 0
4.5220003 -0.87875336 1.6903065 0
4.5250001 -0.88680005 1.6912426 0
4.5280004 -0.89485776 1.6921788 0
4.4930005 -0.7695328 1.6738739 0
4.4880004 -0.77602285 1.6723226 0
4.4900002 -0.78375751 1.6729431 0
4.4930005 -0.79168171 1.6738739 0
4.4960003 -0.79961663 1.6748046 0
4.4980001 -0.80737656 1.6754251 0
4.4990001 -0.81495619 1.6757354 0
4.4940004 -0.82140309 1.6741841 0
4.4880004 -0.82764065 1.6723226 0
4.4830003 -0.83404952 1.6707712 0
4.4840002 -0.8416093 1.6710814 0
4.4950004 -0.85113889 1.6744943 0
4.5220003 -0.87875336 1.6828712 0
4.5250001 -0.88680005 1.6838019 0
4.5280004 -0.89485776 1.6847328 0
4.4930005 -0.7695328 1.6664909 0
4.4880004 -0.77602285 1.6649486 0
4.4900002 -0.78375751 1.6655655 0
4.4930005 -0.79168171 1.6664909 0
4.4960003 -0.79961663 1.6674162 0
4.4980001 -0.80737656 1.668033 0
4.4990001 -0.81495619 1.6683415 0
4.4940004 -0.82140309 1.6667993 0
4.4880004 -0.82764065 1.6649486 0
4.4830003 -0.83404952 1.6634064 0
4.4840002 -0.8416093 1.6637148 0
4.4950004 -0.85113889 1.6671078 0
4.5220003 -0.87875336 1.675436 0
4.5250001 -0.88680005 1.6763612 0
4.5280004 -0.89485776 1.6772866 0
4.4930005 -0.7695328 1.6591079 0
4.4880004 -0.77602285 1.6575745 0
4.4900002 -0.78375751 1.658188 0
4.4930005 -0.79168171 1.6591079 0
4.4960003 -0.79961663 1.6600277 0
4.4980001 -0.80737656 1.6606411 0
4.4990001 -0.81495619 1.6609477 0
4.4940004 -0.82140309 1.6594145 0
4.4880004 -0.82764065 1.6575745 0
4.4830003 -0.83404952 1.6560414 0
4.4840002 -0.8416093 1.656348 0
4.4950004 -0.85113889 1.6597211 0
4.5220003 -0.87875336 1.6680007 0
4.5250001 -0.88680005 1.6689205 0
4.5280004 -0.89485776 1.6698406 0
4.4930005 -0.7695328 1.6517249 0
4.4880004 -0.77602285 1.6502007 0
4.4900002 -0.78375751 1.6508104 0
4.4930005 -0.79168171 1.6517249 0
4.4960003 -0.79961663 1.6526394 0
4.4980001 -0.80737656 1.653249 0
4.4990001 -0.81495619 1.6535538 0
4.4940004 -0.82140309 1.6520298 0
4.4880004 -0.82764065 1.6502007 0
4.4830003 -0.83404952 1.6486764 0
4.4840002 -0.8416093 1.6489813 0
4.4950004 -0.85113889 1.6523346 0
4.5220003 -0.87875336 1.6605654 0
4.5250001 -0.88680005 1.6614798 0
4.5280004 -0.89485776 1.6623944 0
4.4930005 -0.7695328 1.6443419 0
4.4880004 -0.77602285 1.6428267 0
4.4900002 -0.78375751 1.6434327 0
4.4930005 -0.79168171 1.6443419 0
4.4960003 -0.79961663 1.645251 0
4.4980001 -0.80737656 1.645857 0
4.4990001 -0.81495619 1.6461601 0
4.4940004 -0.82140309 1.644645 0
4.4880004 -0.82764065 1.6428267 0
4.4830003 -0.83404952 1.6413115 0
4.4840002 -0.8416093 1.6416144 0
4.4950004 -0.85113889 1.6449479 0
4.5220003 -0.87875336 1.6531301 0
4.5250001 -0.88680005 1.6540391 0
4.5280004 -0.89485776 1.6549482 0
4.4930005 -0.7695328 1.636959 0
4.4880004 -0.77602285 1.6354527 0
4.4900002 -0.78375751 1.6360552 0
4.4930005 -0.79168171 1.636959 0
4.4960003 -0.79961663 1.6378626 0
4.4980001 -0.80737656 1.638465 0
4.4990001 -0.81495619 1.6387663 0
4.4940004 -0.82140309 1.6372602 0
4.4880004 -0.82764065 1.6354527 0
4.4830003 -0.83404952 1.6339465 0
4.4840002 -0.8416093 1.6342478 0
4.4950004 -0.85113889 1.6375614 0
4.5220003 -0.87875336 1.6456947 0
4.5250001 -0.88680005 1.6465983 0
4.5280004 -0.89485776 1.6475022 0
4.4930005 -0.7695328 1.629576 0
4.4880004 -0.77602285 1.6280787 0
4.4900002 -0.78375751 1.6286776 0
4.4930005 -0.79168171 1.629576 0
4.4960003 -0.79961663 1.6304742 0
4.4980001 -0.80737656 1.631073 0
4.4990001 -0.81495619 1.6313725 0
4.4940004 -0.82140309 1.6298754 0
4.4880004 -0.82764065 1.6280787 0
4.4830003 -0.83404952 1.6265815 0
4.4840002 -0.8416093 1.626881 0
4.4950004 -0.85113889 1.6301748 0
4.5220003 -0.87875336 1.6382594 0
4.5250001 -0.88680005 1.6391577 0
4.5280004 -0.89485776 1.640056 0
4.4930005 -0.7695328 1.622193 0
4.4880004 -0.77602285 1.6207048 0
4.4900002 -0.78375751 1.6213 0
4.4930005 -0.79168171 1.622193 0
4.4960003 -0.79961663 1.6230857 0
4.4980001 -0.80737656 1.6236809 0
4.4990001 -0.81495619 1.6239786 0
4.4940004 -0.82140309 1.6224906 0
4.4880004 -0.82764065 1.6207048 0
4.4830003 -0.83404952 1.6192166 0
4.4840002 -0.8416093 1.6195142 0
4.4950004 -0.85113889 1.6227882 0
4.5220003 -0.87875336 1.6308242 0
4.5250001 -0.88680005 1.631717 0
4.5280004 -0.89485776 1.63261 0
4.4930005 -0.7695328 1.61481 0
4.4880004 -0.77602285 1.6133308 0
4.4900002 -0.78375751 1.6139224 0
4.4930005 -0.79168171 1.61481 0
4.4960003 -0.79961663 1.6156974 0
4.4980001 -0.80737656 1.616289 0
4.4990001 -0.81495619 1.6165849 0
4.4940004 -0.82140309 1.6151059 0
4.4880004 -0.82764065 1.6133308 0
4.4830003 -0.83404952 1.6118517 0
4.4840002 -0.8416093 1.6121475 0
4.4950004 -0.85113889 1.6154015 0
4.5220003 -0.87875336 1.6233889 0
4.5250001 -0.88680005 1.6242763 0
4.5280004 -0.89485776 1.6251638 0
4.4930005 -0.7695328 1.607427 0
4.4880004 -0.77602285 1.6059569 0
4.4900002 -0.78375751 1.6065449 0
4.4930005 -0.79168171 1.607427 0
4.4960003 -0.79961663 1.6083089 0
4.4980001 -0.80737656 1.608897 0
4.4990001 -0.81495619 1.6091911 0
4.4940004 -0.82140309 1.6077211 0
4.4880004 -0.82764065 1.6059569 0
4.4830003 -0.83404952 1.6044868 0
4.4840002 -0.8416093 1.6047807 0
4.4950004 -0.85113889 1.6080151 0
4.5220003 -0.87875336 1.6159536 0
4.5250001 -0.88680005 1.6168356 0
4.5280004 -0.89485776 1.6177176 0
4.4930005 -0.7695328 1.600044 0
4.4880004 -0.77602285 1.5985829 0
4.4900002 -0.78375751 1.5991672 0
4.4930005 -0.79168171 1.600044 0
4.4960003 -0.79961663 1.6009206 0
4.4980001 -0.80737656 1.601505 0
4.4990001 -0.81495619 1.6017972 0
4.4940004 -0.82140309 1.6003362 0
4.4880004 -0.82764065 1.5985829 0
4.4830003 -0.83404952 1.5971218 0
4.4840002 -0.8416093 1.597414 0
4.4950004 -0.85113889 1.6006284 0
4.5220003 -0.87875336 1.6085182 0
4.5250001 -0.88680005 1.6093948 0
4.5280004 -0.89485776 1.6102716 0
4.4930005 -0.7695328 1.592661 0
4.4880004 -0.77602285 1.5912089 0
4.4900002 -0.78375751 1.5917897 0
4.4930005 -0.79168171 1.592661 0
4.4960003 -0.79961663 1.5935322 0
4.4980001 -0.80737656 1.594113 0
4.4990001 -0.81495619 1.5944034 0
4.4940004 -0.82140309 1.5929514 0
4.4880004 -0.82764065 1.5912089 0
4.4830003 -0.83404952 1.5897568 0
4.4840002 -0.8416093 1.5900472 0
4.4950004 -0.85113889 1.5932418 0
4.5220003 -0.87875336 1.6010829 0
4.5250001 -0.88680005 1.6019541 0
4.5280004 -0.89485776 1.6028254 0
4.4930005 -0.7695328 1.585278 0
4.4880004 -0.77602285 1.583835 0
4.4900002 -0.78375751 1.5844121 0
4.4930005 -0.79168171 1.585278 0
4.4960003 -0.79961663 1.5861439 0
4.4980001 -0.80737656 1.5867209 0
4.4990001 -0.81495619 1.5870095 0
4.4940004 -0.82140309 1.5855666 0
4.4880004 -0.82764065 1.583835 0
4.4830003 -0.83404952 1.5823919 0
4.4840002 -0.8416093 1.5826805 0
4.4950004 -0.85113889 1.5858552 0
4.5220003 -0.87875336 1.5936476 0
4.5250001 -0.88680005 1.5945134 0
4.5280004 -0.89485776 1.5953794 0
4.4930005 -0.7695328 1.577895 0
4.4880004 -0.77602285 1.5764611 0
4.4900002 -0.78375751 1.5770345 0
4.4930005 -0.79168171 1.577895 0
4.4960003 -0.79961663 1.5787554 0
4.4980001 -0.80737656 1.579329 0
4.4990001 -0.81495619 1.5796157 0
4.4940004 -0.82140309 1.5781819 0
4.4880004 -0.82764065 1.5764611 0
4.4830003 -0.83404952 1.5750269 0
4.4840002 -0.8416093 1.5753137 0
4.4950004 -0.85113889 1.5784687 0
4.5220003 -0.87875336 1.5862123 0
4.5250001 -0.88680005 1.5870727 0
4.5280004 -0.89485776 1.5879332 0
4.4930005 -0.7695328 1.5705121 0
4.4880004 -0.77602285 1.569087 0
4.4900002 -0.78375751 1.569657 0
4.4930005 -0.79168171 1.5705121 0
4.4960003 -0.79961663 1.571367 0
4.4980001 -0.80737656 1.571937 0
4.4990001 -0.81495619 1.5722219 0
4.4940004 -0.82140309 1.5707971 0
4.4880004 -0.82764065 1.569087 0
4.4830003 -0.83404952 1.567662 0
4.4840002 -0.8416093 1.567947 0
4.4950004 -0.85113889 1.5710821 0
4.5220003 -0.87875336 1.5787771 0
4.5250001 -0.88680005 1.579632 0
4.5280004 -0.89485776 1.5804871 0
4.4930005 -0.7695328 1.5631291 0
4.4880004 -0.77602285 1.5617131 0
4.4900002 -0.78375751 1.5622793 0
4.4930005 -0.79168171 1.5631291 0
4.4960003 -0.79961663 1.5639786 0
4.4980001 -0.80737656 1.5645449 0
4.4990001 -0.81495619 1.564828 0
4.4940004 -0.82140309 1.5634123 0
4.4880004 -0.82764065 1.5617131 0
4.4830003 -0.83404952 1.560297 0
4.4840002 -0.8416093 1.5605801 0
4.4950004 -0.85113889 1.5636954 0
4.5220003 -0.87875336 1.5713418 0
4.5250001 -0.88680005 1.5721912 0
4.5280004 -0.89485776 1.573041 0
4.4930005 -0.7695328 1.5557461 0
4.4880004 -0.77602285 1.5543391 0
4.4900002 -0.78375751 1.5549018 0
4.4930005 -0.79168171 1.5557461 0
4.4960003 -0.79961663 1.5565902 0
4.4980001 -0.80737656 1.557153 0
4.4990001 -0.81495619 1.5574343 0
4.4940004 -0.82140309 1.5560275 0
4.4880004 -0.82764065 1.5543391 0
4.4830003 -0.83404952 1.552932 0
4.4840002 -0.8416093 1.5532135 0
4.4950004 -0.85113889 1.5563089 0
4.5220003 -0.87875336 1.5639064 0
4.5250001 -0.88680005 1.5647506 0
4.5280004 -0.89485776 1.5655948 0
4.4930005 -0.7695328 1.5483631 0
4.4880004 -0.77602285 1.5469651 0
4.4900002 -0.78375751 1.5475242 0
4.4930005 -0.79168171 1.5483631 0
4.4960003 -0.79961663 1.5492017 0
4.4980001 -0.80737656 1.5497609 0
4.4990001 -0.81495619 1.5500405 0
4.4940004 -0.82140309 1.5486428 0
4.4880004 -0.82764065 1.5469651 0
4.4830003 -0.83404952 1.5455672 0
4.4840002 -0.8416093 1.5458467 0
4.4950004 -0.85113889 1.5489222 0
4.5220003 -0.87875336 1.5564711 0
4.5250001 -0.88680005 1.5573099 0
4.5280004 -0.89485776 1.5581487 0
4.4930005 -0.7695328 1.5409801 0
4.4880004 -0.77602285 1.5395912 0
4.4900002 -0.78375751 1.5401467 0
4.4930005 -0.79168171 1.5409801 0
4.4960003 -0.79961663 1.5418135 0
4.4980001 -0.80737656 1.5423689 0
4.4990001 -0.81495619 1.5426466 0
4.4940004 -0.82140309 1.541258 0
4.4880004 -0.82764065 1.5395912 0
4.4830003 -0.83404952 1.5382022 0
4.4840002 -0.8416093 1.53848 0
4.4950004 -0.85113889 1.5415357 0
4.5220003 -0.87875336 1.5490359 0
4.5250001 -0.88680005 1.5498692 0
4.5280004 -0.89485776 1.5507026 0
4.4930005 -0.7695328 1.5335971 0
4.4880004 -0.77602285 1.5322171 0
4.4900002 -0.78375751 1.5327691 0
4.4930005 -0.79168171 1.5335971 0
4.4960003 -0.79961663 1.534425 0
4.4980001 -0.80737656 1.534977 0
4.4990001 -0.81495619 1.5352528 0
4.4940004 -0.82140309 1.5338732 0
4.4880004 -0.82764065 1.5322171 0
4.4830003 -0.83404952 1.5308373 0
4.4840002 -0.8416093 1.5311131 0
4.4950004 -0.85113889 1.5341491 0
4.5220003 -0.87875336 1.5416006 0
4.5250001 -0.88680005 1.5424285 0
4.5280004 -0.89485776 1.5432565 0
4.4930005 -0.7695328 1.5262141 0
4.4880004 -0.77602285 1.5248432 0
4.4900002 -0.78375751 1.5253916 0
4.4930005 -0.79168171 1.5262141 0
4.4960003 -0.79961663 1.5270367 0
4.4980001 -0.80737656 1.5275849 0
4.4990001 -0.81495619 1.5278591 0
4.4940004 -0.82140309 1.5264883 0
4.4880004 -0.82764065 1.5248432 0
4.4830003 -0.83404952 1.5234723 0
4.4840002 -0.8416093 1.5237464 0
4.4950004 -0.85113889 1.5267625 0
4.5220003 -0.87875336 1.5341653 0
4.5250001 -0.88680005 1.5349878 0
4.5280004 -0.89485776 1.5358104 0
4.4930005 -0.7695328 1.5188313 0
4.4880004 -0.77602285 1.5174692 0
4.4900002 -0.78375751 1.518014 0
4.4930005 -0.79168171 1.5188313 0
4.4960003 -0.79961663 1.5196482 0
4.4980001 -0.80737656 1.520193 0
4.4990001 -0.81495619 1.5204653 0
4.4940004 -0.82140309 1.5191035 0
4.4880004 -0.82764065 1.5174692 0
4.4830003 -0.83404952 1.5161073 0
4.4840002 -0.8416093 1.5163797 0
4.4950004 -0.85113889 1.5193758 0
4.5220003 -0.87875336 1.5267301 0
4.5250001 -0.88680005 1.527547 0
4.5280004 -0.89485776 1.5283643 0
4.4930005 -0.7695328 1.5114481 0
4.4880004 -0.77602285 1.5100954 0
4.4900002 -0.78375751 1.5106363 0
4.4930005 -0.79168171 1.5114481 0
4.4960003 -0.79961663 1.5122598 0
4.4980001 -0.80737656 1.5128009 0
4.4990001 -0.81495619 1.5130714 0
4.4940004 -0.82140309 1.5117188 0
4.4880004 -0.82764065 1.5100954 0
4.4830003 -0.83404952 1.5087423 0
4.4840002 -0.8416093 1.5090129 0
4.4950004 -0.85113889 1.5119894 0
4.5220003 -0.87875336 1.5192947 0
4.5250001 -0.88680005 1.5201063 0
4.5280004 -0.89485776 1.520918 0
4.4930005 -0.7695328 1.5040652 0
4.4880004 -0.77602285 1.5027213 0
4.4900002 -0.78375751 1.5032588 0
4.4930005 -0.79168171 1.5040652 0
4.4960003 -0.79961663 1.5048714 0
4.4980001 -0.80737656 1.5054089 0
4.4990001 -0.81495619 1.5056776 0
4.4940004 -0.82140309 1.5043339 0
4.4880004 -0.82764065 1.5027213 0
4.4830003 -0.83404952 1.5013773 0
4.4840002 -0.8416093 1.5016462 0
4.4950004 -0.85113889 1.5046027 0
4.5220003 -0.87875336 1.5118594 0
4.5250001 -0.88680005 1.5126656 0
4.5280004 -0.89485776 1.513472 0
4.4930005 -0.7695328 1.4966822 0
4.4880004 -0.77602285 1.4953474 0
4.4900002 -0.78375751 1.4958812 0
4.4930005 -0.79168171 1.4966822 0
4.4960003 -0.79961663 1.497483 0
4.4980001 -0.80737656 1.498017 0
4.4990001 -0.81495619 1.4982839 0
4.4940004 -0.82140309 1.4969491 0
4.4880004 -0.82764065 1.4953474 0
4.4830003 -0.83404952 1.4940126 0
4.4840002 -0.8416093 1.4942794 0
4.4950004 -0.85113889 1.4972161 0
4.5220003 -0.87875336 1.5044241 0
4.5250001 -0.88680005 1.5052249 0
4.5280004 -0.89485776 1.5060259 0
4.4930005 -0.7695328 1.4892993 0
4.4880004 -0.77602285 1.4879733 0
4.4900002 -0.78375751 1.4885037 0
4.4930005 -0.79168171 1.4892993 0
4.4960003 -0.79961663 1.4900945 0
4.4980001 -0.80737656 1.4906249 0
4.4990001 -0.81495619 1.49089 0
4.4940004 -0.82140309 1.4895643 0
4.4880004 -0.82764065 1.4879733 0
4.4830003 -0.83404952 1.4866476 0
4.4840002 -0.8416093 1.4869127 0
4.4950004 -0.85113889 1.4898294 0
4.5220003 -0.87875336 1.4969888 0
4.5250001 -0.88680005 1.4977843 0
4.5280004 -0.89485776 1.4985797 0
4.4930005 -0.7695328 1.4819162 0
4.4880004 -0.77602285 1.4805994 0
4.4900002 -0.78375751 1.4811261 0
4.4930005 -0.79168171 1.4819162 0
4.4960003 -0.79961663 1.4827063 0
4.4980001 -0.80737656 1.4832329 0
4.4990001 -0.81495619 1.4834962 0
4.4940004 -0.82140309 1.4821795 0
4.4880004 -0.82764065 1.4805994 0
4.4830003 -0.83404952 1.4792826 0
4.4840002 -0.8416093 1.479546 0
4.4950004 -0.85113889 1.482443 0
4.5220003 -0.87875336 1.4895535 0
4.5250001 -0.88680005 1.4903435 0
4.5280004 -0.89485776 1.4911337 0
4.4930005 -0.7695328 1.4745332 0
4.4880004 -0.77602285 1.4732255 0
4.4900002 -0.78375751 1.4737486 0
4.4930005 -0.79168171 1.4745332 0
4.4960003 -0.79961663 1.4753178 0
4.4980001 -0.80737656 1.4758409 0
4.4990001 -0.81495619 1.4761024 0
4.4940004 -0.82140309 1.4747947 0
4.4880004 -0.82764065 1.4732255 0
4.4830003 -0.83404952 1.4719176 0
4.4840002 -0.8416093 1.4721792 0
4.4950004 -0.85113889 1.4750563 0
4.5220003 -0.87875336 1.4821181 0
4.5250001 -0.88680005 1.4829028 0
4.5280004 -0.89485776 1.4836875 0
4.4930005 -0.7695328 1.4671503 0
4.4880004 -0.77602285 1.4658515 0
4.4900002 -0.78375751 1.4663709 0
4.4930005 -0.79168171 1.4671503 0
4.4960003 -0.79961663 1.4679295 0
4.4980001 -0.80737656 1.4684489 0
4.4990001 -0.81495619 1.4687086 0
4.4940004 -0.82140309 1.46741 0
4.4880004 -0.82764065 1.4658515 0
4.4830003 -0.83404952 1.4645526 0
4.4840002 -0.8416093 1.4648124 0
4.4950004 -0.85113889 1.4676697 0
4.5220003 -0.87875336 1.4746829 0
4.5250001 -0.88680005 1.4754621 0
4.5280004 -0.89485776 1.4762414 0
4.4930005 -0.7695328 1.4597672 0
4.4880004 -0.77602285 1.4584775 0
4.4900002 -0.78375751 1.4589933 0
4.4930005 -0.79168171 1.4597672 0
4.4960003 -0.79961663 1.460541 0
4.4980001 -0.80737656 1.4610568 0
4.4990001 -0.81495619 1.4613148 0
4.4940004 -0.82140309 1.4600252 0
4.4880004 -0.82764065 1.4584775 0
4.4830003 -0.83404952 1.4571878 0
4.4840002 -0.8416093 1.4574457 0
4.4950004 -0.85113889 1.460283 0
4.5220003 -0.87875336 1.4672476 0
4.5250001 -0.88680005 1.4680214 0
4.5280004 -0.89485776 1.4687952 0
4.4930005 -0.7695328 1.4523842 0
4.4880004 -0.77602285 1.4511036 0
4.4900002 -0.78375751 1.4516158 0
4.4930005 -0.79168171 1.4523842 0
4.4960003 -0.79961663 1.4531527 0
4.4980001 -0.80737656 1.4536649 0
4.4990001 -0.81495619 1.453921 0
4.4940004 -0.82140309 1.4526403 0
4.4880004 -0.82764065 1.4511036 0
4.4830003 -0.83404952 1.4498228 0
4.4840002 -0.8416093 1.450079 0
4.4950004 -0.85113889 1.4528966 0
4.5220003 -0.87875336 1.4598123 0
4.5250001 -0.88680005 1.4605807 0
4.5280004 -0.89485776 1.4613491 0
4.4930005 -0.7695328 1.4450012 0
4.4880004 -0.77602285 1.4437295 0
4.4900002 -0.78375751 1.4442382 0
4.4930005 -0.79168171 1.4450012 0
4.4960003 -0.79961663 1.4457642 0
4.4980001 -0.80737656 1.4462729 0
4.4990001 -0.81495619 1.4465271 0
4.4940004 -0.82140309 1.4452555 0
4.4880004 -0.82764065 1.4437295 0
4.4830003 -0.83404952 1.4424578 0
4.4840002 -0.8416093 1.4427122 0
4.4950004 -0.85113889 1.4455099 0
4.5220003 -0.87875336 1.452377 0
4.5250001 -0.88680005 1.4531399 0
4.5280004 -0.89485776 1.4539031 0
4.4930005 -0.7695328 1.4376184 0
4.4880004 -0.77602285 1.4363556 0
4.4900002 -0.78375751 1.4368607 0
4.4930005 -0.79168171 1.4376184 0
4.4960003 -0.79961663 1.4383758 0
4.4980001 -0.80737656 1.4388809 0
4.4990001 -0.81495619 1.4391334 0
4.4940004 -0.82140309 1.4378707 0
4.4880004 -0.82764065 1.4363556 0
4.4830003 -0.83404952 1.4350928 0
4.4840002 -0.8416093 1.4353454 0
4.4950004 -0.85113889 1.4381233 0
4.5220003 -0.87875336 1.4449416 0
4.5250001 -0.88680005 1.4456992 0
4.5280004 -0.89485776 1.4464569 0
4.4930005 -0.7695328 1.4302353 0
4.4880004 -0.77602285 1.4289817 0
4.4900002 -0.78375751 1.4294831 0
4.4930005 -0.79168171 1.4302353 0
4.4960003 -0.79961663 1.4309875 0
4.4980001 -0.80737656 1.4314889 0
4.4990001 -0.81495619 1.4317396 0
4.4940004 -0.82140309 1.430486 0
4.4880004 -0.82764065 1.4289817 0
4.4830003 -0.83404952 1.4277279 0
4.4840002 -0.8416093 1.4279786 0
4.4950004 -0.85113889 1.4307367 0
4.5220003 -0.87875336 1.4375063 0
4.5250001 -0.88680005 1.4382585 0
4.5280004 -0.89485776 1.4390109 0
4.4930005 -0.7695328 1.4228523 0
4.4880004 -0.77602285 1.4216076 0
4.4900002 -0.78375751 1.4221056 0
4.4930005 -0.79168171 1.4228523 0
4.4960003 -0.79961663 1.4235991 0
4.4980001 -0.80737656 1.4240968 0
4.4990001 -0.81495619 1.4243457 0
4.4940004 -0.82140309 1.4231012 0
4.4880004 -0.82764065 1.4216076 0
4.4830003 -0.83404952 1.4203631 0
4.4840002 -0.8416093 1.420612 0
4.4950004 -0.85113889 1.4233501 0
4.5220003 -0.87875336 1.4300711 0
4.5250001 -0.88680005 1.4308178 0
4.5280004 -0.89485776 1.4315647 0
4.4930005 -0.7695328 1.4154693 0
4.4880004 -0.77602285 1.4142337 0
4.4900002 -0.78375751 1.4147279 0
4.4930005 -0.79168171 1.4154693 0
4.4960003 -0.79961663 1.4162107 0
4.4980001 -0.80737656 1.4167049 0
4.4990001 -0.81495619 1.4169519 0
4.4940004 -0.82140309 1.4157164 0
4.4880004 -0.82764065 1.4142337 0
4.4830003 -0.83404952 1.4129981 0
4.4840002 -0.8416093 1.4132451 0
4.4950004 -0.85113889 1.4159635 0
4.5220003 -0.87875336 1.4226358 0
4.5250001 -0.88680005 1.4233772 0
4.5280004 -0.89485776 1.4241185 0
4.4930005 -0.7695328 1.4080864 0
4.4880004 -0.77602285 1.4068596 0
4.4900002 -0.78375751 1.4073503 0
4.4930005 -0.79168171 1.4080864 0
4.4960003 -0.79961663 1.4088223 0
4.4980001 -0.80737656 1.4093128 0
4.4990001 -0.81495619 1.4095582 0
4.4940004 -0.82140309 1.4083316 0
4.4880004 -0.82764065 1.4068596 0
4.4830003 -0.83404952 1.4056331 0
4.4840002 -0.8416093 1.4058784 0
4.4950004 -0.85113889 1.408577 0
4.5220003 -0.87875336 1.4152006 0
4.5250001 -0.88680005 1.4159365 0
4.5280004 -0.89485776 1.4166723 0
4.4930005 -0.7695328 1.4007033 0
4.4880004 -0.77602285 1.3994858 0
4.4900002 -0.78375751 1.3999727 0
4.4930005 -0.79168171 1.4007033 0
4.4960003 -0.79961663 1.4014338 0
4.4980001 -0.80737656 1.4019208 0
4.4990001 -0.81495619 1.4021643 0
4.4940004 -0.82140309 1.4009469 0
4.4880004 -0.82764065 1.3994858 0
4.4830003 -0.83404952 1.3982681 0
4.4840002 -0.8416093 1.3985116 0
4.4950004 -0.85113889 1.4011903 0
4.5220003 -0.87875336 1.4077653 0
4.5250001 -0.88680005 1.4084957 0
4.5280004 -0.89485776 1.4092263 0
4.4930005 -0.7695328 1.3933203 0
4.4880004 -0.77602285 1.3921118 0
4.4900002 -0.78375751 1.3925951 0
4.4930005 -0.79168171 1.3933203 0
4.4960003 -0.79961663 1.3940454 0
4.4980001 -0.80737656 1.3945289 0
4.4990001 -0.81495619 1.3947705 0
4.4940004 -0.82140309 1.3935621 0
4.4880004 -0.82764065 1.3921118 0
4.4830003 -0.83404952 1.3909031 0
4.4840002 -0.8416093 1.3911449 0
4.4950004 -0.85113889 1.3938037 0
4.5220003 -0.87875336 1.4003298 0
4.5250001 -0.88680005 1.401055 0
4.5280004 -0.89485776 1.4017801 0
4.4930005 -0.7695328 1.3859375 0
4.4880004 -0.77602285 1.3847378 0
4.4900002 -0.78375751 1.3852175 0
4.4930005 -0.79168171 1.3859375 0
4.4960003 -0.79961663 1.386657 0
4.4980001 -0.80737656 1.3871368 0
4.4990001 -0.81495619 1.3873767 0
4.4940004 -0.82140309 1.3861773 0
4.4880004 -0.82764065 1.3847378 0
4.4830003 -0.83404952 1.3835382 0
4.4840002 -0.8416093 1.3837781 0
4.4950004 -0.85113889 1.386417 0
4.5220003 -0.87875336 1.3928945 0
4.5250001 -0.88680005 1.3936143 0
4.5280004 -0.89485776 1.3943341 0
4.4930005 -0.7695328 1.3785543 0
4.4880004 -0.77602285 1.3773638 0
4.4900002 -0.78375751 1.3778399 0
4.4930005 -0.79168171 1.3785543 0
4.4960003 -0.79961663 1.3792685 0
4.4980001 -0.80737656 1.3797449 0
4.4990001 -0.81495619 1.3799828 0
4.4940004 -0.82140309 1.3787924 0
4.4880004 -0.82764065 1.3773638 0
4.4830003 -0.83404952 1.3761734 0
4.4840002 -0.8416093 1.3764113 0
4.4950004 -0.85113889 1.3790306 0
4.5220003 -0.87875336 1.3854593 0
4.5250001 -0.88680005 1.3861736 0
4.5280004 -0.89485776 1.3868879 0
4.4930005 -0.7695328 1.3711714 0
4.4880004 -0.77602285 1.3699898 0
4.4910002 -0.78393793 1.3706987 0
4.4930005 -0.79168171 1.3711714 0
4.4960003 -0.79961663 1.3718803 0
4.4980001 -0.80737656 1.3723528 0
4.4990001 -0.81495619 1.3725891 0
4.4940004 -0.82140309 1.3714076 0
4.4880004 -0.82764065 1.3699898 0
4.4830003 -0.83404952 1.3688084 0
4.4840002 -0.8416093 1.3690447 0
4.4950004 -0.85113889 1.3716439 0
4.5220003 -0.87875336 1.3780241 0
4.5250001 -0.88680005 1.3787328 0
4.5280004 -0.89485776 1.3794417 0
4.4930005 -0.7695328 1.3637884 0
4.4880004 -0.77602285 1.3626159 0
4.4910002 -0.78393793 1.3633193 0
4.4930005 -0.79168171 1.3637884 0
4.4960003 -0.79961663 1.3644918 0
4.4980001 -0.80737656 1.3649608 0
4.4990001 -0.81495619 1.3651953 0
4.4940004 -0.82140309 1.3640229 0
4.4880004 -0.82764065 1.3626159 0
4.4830003 -0.83404952 1.3614434 0
4.4840002 -0.8416093 1.3616779 0
4.4950004 -0.85113889 1.3642573 0
4.5220003 -0.87875336 1.3705888 0
4.5250001 -0.88680005 1.3712921 0
4.5280004 -0.89485776 1.3719957 0
4.4930005 -0.7695328 1.3564054 0
4.4880004 -0.77602285 1.3552419 0
4.4910002 -0.78393793 1.35594 0
4.4930005 -0.79168171 1.3564054 0
4.4960003 -0.79961663 1.3571035 0
4.4980001 -0.80737656 1.3575689 0
4.4990001 -0.81495619 1.3578014 0
4.4940004 -0.82140309 1.3566381 0
4.4880004 -0.82764065 1.3552419 0
4.4830003 -0.83404952 1.3540784 0
4.4840002 -0.8416093 1.3543111 0
4.4950004 -0.85113889 1.3568707 0
4.5220003 -0.87875336 1.3631535 0
4.5250001 -0.88680005 1.3638514 0
4.5280004 -0.89485776 1.3645495 0
4.4930005 -0.7695328 1.3490224 0
4.4880004 -0.77602285 1.347868 0
4.4910002 -0.78393793 1.3485606 0
4.4930005 -0.79168171 1.3490224 0
4.4960003 -0.79961663 1.349715 0
4.4980001 -0.80737656 1.3501768 0
4.4990001 -0.81495619 1.3504076 0
4.4940004 -0.82140309 1.3492533 0
4.4880004 -0.82764065 1.347868 0
4.4830003 -0.83404952 1.3467135 0
4.4840002 -0.8416093 1.3469443 0
4.4950004 -0.85113889 1.3494842 0
4.5220003 -0.87875336 1.3557181 0
4.5250001 -0.88680005 1.3564107 0
4.5280004 -0.89485776 1.3571035 0
4.4930005 -0.7695328 1.3416394 0
4.4880004 -0.77602285 1.3404939 0
4.4910002 -0.78393793 1.3411812 0
4.4930005 -0.79168171 1.3416394 0
4.4960003 -0.79961663 1.3423266 0
4.4980001 -0.80737656 1.3427848 0
4.4990001 -0.81495619 1.3430139 0
4.4940004 -0.82140309 1.3418685 0
4.4880004 -0.82764065 1.3404939 0
4.4830003 -0.83404952 1.3393486 0
4.4840002 -0.8416093 1.3395777 0
4.4950004 -0.85113889 1.3420976 0
4.5220003 -0.87875336 1.3482828 0
4.5250001 -0.88680005 1.3489701 0
4.5280004 -0.89485776 1.3496573 0
4.4930005 -0.7695328 1.3342565 0
4.4880004 -0.77602285 1.33312 0
4.4910002 -0.78393793 1.3338017 0
4.4930005 -0.79168171 1.3342565 0
4.4960003 -0.79961663 1.3349382 0
4.4980001 -0.80737656 1.3353928 0
4.4990001 -0.81495619 1.33562 0
4.4940004 -0.82140309 1.3344837 0
4.4880004 -0.82764065 1.33312 0
4.4830003 -0.83404952 1.3319836 0
4.4840002 -0.8416093 1.3322108 0
4.4950004 -0.85113889 1.334711 0
4.5220003 -0.87875336 1.3408475 0
4.5250001 -0.88680005 1.3415293 0
4.5280004 -0.89485776 1.3422112 0
4.4930005 -0.7695328 1.3268734 0
4.4880004 -0.77602285 1.3257461 0
4.4910002 -0.78393793 1.3264225 0
4.4930005 -0.79168171 1.3268734 0
4.4960003 -0.79961663 1.3275498 0
4.4980001 -0.80737656 1.3280008 0
4.4990001 -0.81495619 1.3282262 0
4.4940004 -0.82140309 1.3270988 0
4.4880004 -0.82764065 1.3257461 0
4.4830003 -0.83404952 1.3246187 0
4.4840002 -0.8416093 1.3248441 0
4.4950004 -0.85113889 1.3273244 0
4.5220003 -0.87875336 1.3334122 0
4.5250001 -0.88680005 1.3340886 0
4.5280004 -0.89485776 1.3347651 0
4.4930005 -0.7695328 1.3194904 0
4.4880004 -0.77602285 1.3183721 0
4.4910002 -0.78393793 1.319043 0
4.4930005 -0.79168171 1.3194904 0
4.4960003 -0.79961663 1.3201615 0
4.4980001 -0.80737656 1.3206087 0
4.4990001 -0.81495619 1.3208324 0
4.4940004 -0.82140309 1.3197141 0
4.4880004 -0.82764065 1.3183721 0
4.4830003 -0.83404952 1.3172537 0
4.4840002 -0.8416093 1.3174773 0
4.4950004 -0.85113889 1.3199378 0
4.5220003 -0.87875336 1.3259768 0
4.5250001 -0.88680005 1.3266479 0
4.5280004 -0.89485776 1.327319 0
4.4930005 -0.7695328 1.3121074 0
4.4880004 -0.77602285 1.3109981 0
4.4910002 -0.78393793 1.3116637 0
4.4930005 -0.79168171 1.3121074 0
4.4960003 -0.79961663 1.312773 0
4.4980001 -0.80737656 1.3132168 0
4.4990001 -0.81495619 1.3134387 0
4.4940004 -0.82140309 1.3123293 0
4.4880004 -0.82764065 1.3109981 0
4.4830003 -0.83404952 1.3098887 0
4.4840002 -0.8416093 1.3101106 0
4.4950004 -0.85113889 1.3125511 0
4.5220003 -0.87875336 1.3185416 0
4.5250001 -0.88680005 1.3192072 0
4.5280004 -0.89485776 1.3198729 0
4.4930005 -0.7695328 1.3047245 0
4.4880004 -0.77602285 1.3036242 0
4.4910002 -0.78393793 1.3042843 0
4.4930005 -0.79168171 1.3047245 0
4.4960003 -0.79961663 1.3053846 0
4.4980001 -0.80737656 1.3058248 0
4.4990001 -0.81495619 1.3060448 0
4.4940004 -0.82140309 1.3049445 0
4.4880004 -0.82764065 1.3036242 0
4.4830003 -0.83404952 1.3025239 0
4.4840002 -0.8416093 1.3027438 0
4.4950004 -0.85113889 1.3051646 0
4.5220003 -0.87875336 1.3111063 0
4.5250001 -0.88680005 1.3117665 0
4.5280004 -0.89485776 1.3124267 0
4.4930005 -0.7695328 1.2973415 0
4.4880004 -0.77602285 1.2962502 0
4.4910002 -0.78393793 1.2969049 0
4.4930005 -0.79168171 1.2973415 0
4.4960003 -0.79961663 1.2979963 0
4.4980001 -0.80737656 1.2984327 0
4.4990001 -0.81495619 1.298651 0
4.4940004 -0.82140309 1.2975597 0
4.4880004 -0.82764065 1.2962502 0
4.4830003 -0.83404952 1.2951589 0
4.4840002 -0.8416093 1.295377 0
4.4950004 -0.85113889 1.297778 0
4.5220003 -0.87875336 1.303671 0
4.5250001 -0.88680005 1.3043257 0
4.5280004 -0.89485776 1.3049806 0
4.4930005 -0.7695328 1.2899585 0
4.4880004 -0.77602285 1.2888762 0
4.4910002 -0.78393793 1.2895255 0
4.4930005 -0.79168171 1.2899585 0
4.4960003 -0.79961663 1.2906078 0
4.4980001 -0.80737656 1.2910408 0
4.4990001 -0.81495619 1.2912571 0
4.4940004 -0.82140309 1.290175 0
4.4880004 -0.82764065 1.2888762 0
4.4830003 -0.83404952 1.2877939 0
4.4840002 -0.8416093 1.2880104 0
4.4950004 -0.85113889 1.2903913 0
4.5220003 -0.87875336 1.2962357 0
4.5250001 -0.88680005 1.296885 0
4.5280004 -0.89485776 1.2975345 0
4.4930005 -0.7695328 1.2825755 0
4.4880004 -0.77602285 1.2815022 0
4.4910002 -0.78393793 1.2821461 0
4.4930005 -0.79168171 1.2825755 0
4.4960003 -0.79961663 1.2832195 0
4.4980001 -0.80737656 1.2836487 0
4.4990001 -0.81495619 1.2838634 0
4.4940004 -0.82140309 1.2827902 0
4.4880004 -0.82764065 1.2815022 0
4.4830003 -0.83404952 1.2804289 0
4.4840002 -0.8416093 1.2806436 0
4.4950004 -0.85113889 1.2830048 0
4.5220003 -0.87875336 1.2888005 0
4.5250001 -0.88680005 1.2894443 0
4.5280004 -0.89485776 1.2900883 0
4.4930005 -0.7695328 1.2751925 0
4.4880004 -0.77602285 1.2741283 0
4.4910002 -0.78393793 1.2747668 0
4.4930005 -0.79168171 1.2751925 0
4.4960003 -0.79961663 1.2758311 0
4.4980001 -0.80737656 1.2762567 0
4.4990001 -0.81495619 1.2764696 0
4.4940004 -0.82140309 1.2754054 0
4.4880004 -0.82764065 1.2741283 0
4.4830003 -0.83404952 1.273064 0
4.4840002 -0.8416093 1.2732768 0
4.4950004 -0.85113889 1.2756182 0
4.5220003 -0.87875336 1.2813652 0
4.5250001 -0.88680005 1.2820036 0
4.5280004 -0.89485776 1.2826422 0
4.4930005 -0.7695328 1.2678095 0
4.4880004 -0.77602285 1.2667543 0
4.4910002 -0.78393793 1.2673874 0
4.4930005 -0.79168171 1.2678095 0
4.4960003 -0.79961663 1.2684426 0
4.4980001 -0.80737656 1.2688648 0
4.4990001 -0.81495619 1.2690758 0
4.4940004 -0.82140309 1.2680206 0
4.4880004 -0.82764065 1.2667543 0
4.4830003 -0.83404952 1.265699 0
4.4840002 -0.8416093 1.26591 0
4.4950004 -0.85113889 1.2682316 0
4.5220003 -0.87875336 1.2739298 0
4.5250001 -0.88680005 1.274563 0
4.5280004 -0.89485776 1.2751962 0
4.4930005 -0.7695328 1.2604265 0
4.4880004 -0.77602285 1.2593803 0
4.4910002 -0.78393793 1.260008 0
4.4930005 -0.79168171 1.2604265 0
4.4960003 -0.79961663 1.2610543 0
4.4980001 -0.80737656 1.2614727 0
4.4990001 -0.81495619 1.2616819 0
4.4940004 -0.82140309 1.2606359 0
4.4880004 -0.82764065 1.2593803 0
4.4830003 -0.83404952 1.258334 0
4.4840002 -0.8416093 1.2585434 0
4.4950004 -0.85113889 1.2608449 0
4.5220003 -0.87875336 1.2664945 0
4.5250001 -0.88680005 1.2671223 0
4.5280004 -0.89485776 1.26775 0
4.4930005 -0.7695328 1.2530435 0
4.4880004 -0.77602285 1.2520063 0
4.4910002 -0.78393793 1.2526286 0
4.4930005 -0.79168171 1.2530435 0
4.4960003 -0.79961663 1.2536658 0
4.4980001 -0.80737656 1.2540808 0
4.4990001 -0.81495619 1.2542881 0
4.4940004 -0.82140309 1.253251 0
4.4880004 -0.82764065 1.2520063 0
4.4830003 -0.83404952 1.2509692 0
4.4840002 -0.8416093 1.2511766 0
4.4950004 -0.85113889 1.2534584 0
4.5220003 -0.87875336 1.2590592 0
4.5250001 -0.88680005 1.2596815 0
4.5280004 -0.89485776 1.2603039 0
4.4930005 -0.7695328 1.2456605 0
4.4880004 -0.77602285 1.2446324 0
4.4910002 -0.78393793 1.2452493 0
4.4930005 -0.79168171 1.2456605 0
4.4960003 -0.79961663 1.2462775 0
4.4980001 -0.80737656 1.2466887 0
4.4990001 -0.81495619 1.2468944 0
4.4940004 -0.82140309 1.2458662 0
4.4880004 -0.82764065 1.2446324 0
4.4830003 -0.83404952 1.2436042 0
4.4840002 -0.8416093 1.2438098 0
4.4950004 -0.85113889 1.2460718 0
4.5220003 -0.87875336 1.251624 0
4.5250001 -0.88680005 1.2522408 0
4.5280004 -0.89485776 1.2528578 0
4.4930005 -0.7695328 1.2382776 0
4.4880004 -0.77602285 1.2372584 0
4.4910002 -0.78393793 1.2378699 0
4.4930005 -0.79168171 1.2382776 0
4.4960003 -0.79961663 1.2388891 0
4.4980001 -0.80737656 1.2392967 0
4.4990001 -0.81495619 1.2395005 0
4.4940004 -0.82140309 1.2384814 0
4.4880004 -0.82764065 1.2372584 0
4.4830003 -0.83404952 1.2362393 0
4.4840002 -0.8416093 1.236443 0
4.4950004 -0.85113889 1.2386853 0
4.5220003 -0.87875336 1.2441887 0
4.5250001 -0.88680005 1.2448001 0
4.5280004 -0.89485776 1.2454116 0
4.4930005 -0.7695328 1.2308946 0
4.4880004 -0.77602285 1.2298844 0
4.4910002 -0.78393793 1.2304906 0
4.4930005 -0.79168171 1.2308946 0
4.4960003 -0.79961663 1.2315006 0
4.4980001 -0.80737656 1.2319047 0
4.4990001 -0.81495619 1.2321067 0
4.4940004 -0.82140309 1.2310966 0
4.4880004 -0.82764065 1.2298844 0
4.4830003 -0.83404952 1.2288743 0
4.4840002 -0.8416093 1.2290764 0
4.4950004 -0.85113889 1.2312986 0
4.5220003 -0.87875336 1.2367533 0
4.5250001 -0.88680005 1.2373594 0
4.5280004 -0.89485776 1.2379655 0
4.4930005 -0.7695328 1.2235117 0
4.4880004 -0.77602285 1.2225105 0
4.4910002 -0.78393793 1.2231112 0
4.4930005 -0.79168171 1.2235117 0
4.4960003 -0.79961663 1.2241123 0
4.4980001 -0.80737656 1.2245127 0
4.4990001 -0.81495619 1.2247128 0
4.4940004 -0.82140309 1.2237118 0
4.4880004 -0.82764065 1.2225105 0
4.4830003 -0.83404952 1.2215093 0
4.4840002 -0.8416093 1.2217095 0
4.4950004 -0.85113889 1.2239121 0
4.5220003 -0.87875336 1.229318 0
4.5250001 -0.88680005 1.2299187 0
4.5280004 -0.89485776 1.2305194 0
4.4930005 -0.7695328 1.2161286 0
4.4880004 -0.77602285 1.2151365 0
4.4910002 -0.78393793 1.2157317 0
4.4930005 -0.79168171 1.2161286 0
4.4960003 -0.79961663 1.2167239 0
4.4980001 -0.80737656 1.2171206 0
4.4990001 -0.81495619 1.217319 0
4.4940004 -0.82140309 1.2163271 0
4.4880004 -0.82764065 1.2151365 0
4.4830003 -0.83404952 1.2141443 0
4.4840002 -0.8416093 1.2143428 0
4.4950004 -0.85113889 1.2165254 0
4.5220003 -0.87875336 1.2218827 0
4.5250001 -0.88680005 1.2224779 0
4.5280004 -0.89485776 1.2230732 0
4.4930005 -0.7695328 1.2087457 0
4.4880004 -0.77602285 1.2077626 0
4.4910002 -0.78393793 1.2083523 0
4.4930005 -0.79168171 1.2087457 0
4.4960003 -0.79961663 1.2093354 0
4.4980001 -0.80737656 1.2097286 0
4.4990001 -0.81495619 1.2099252 0
4.4940004 -0.82140309 1.2089423 0
4.4880004 -0.82764065 1.2077626 0
4.4830003 -0.83404952 1.2067795 0
4.4840002 -0.8416093 1.2069761 0
4.4950004 -0.85113889 1.2091389 0
4.5220003 -0.87875336 1.2144475 0
4.5250001 -0.88680005 1.2150372 0
4.5280004 -0.89485776 1.2156272 0
4.4930005 -0.7695328 1.2013626 0
4.4880004 -0.77602285 1.2003886 0
4.4910002 -0.78393793 1.2009729 0
4.4930005 -0.79168171 1.2013626 0
4.4960003 -0.79961663 1.2019471 0
4.4980001 -0.80737656 1.2023367 0
4.4990001 -0.81495619 1.2025315 0
4.4940004 -0.82140309 1.2015575 0
4.4880004 -0.82764065 1.2003886 0
4.4830003 -0.83404952 1.1994145 0
4.4840002 -0.8416093 1.1996093 0
4.4950004 -0.85113889 1.2017523 0
4.5220003 -0.87875336 1.2070122 0
4.5250001 -0.88680005 1.2075965 0
4.5280004 -0.89485776 1.208181 0
4.4930005 -0.7695328 1.1939797 0
4.4880004 -0.77602285 1.1930146 0
4.4910002 -0.78393793 1.1935936 0
4.4930005 -0.79168171 1.1939797 0
4.4960003 -0.79961663 1.1945586 0
4.4980001 -0.80737656 1.1949446 0
4.4990001 -0.81495619 1.1951376 0
4.4940004 -0.82140309 1.1941727 0
4.4880004 -0.82764065 1.1930146 0
4.4830003 -0.83404952 1.1920495 0
4.4840002 -0.8416093 1.1922425 0
4.4950004 -0.85113889 1.1943657 0
4.5220003 -0.87875336 1.1995769 0
4.5250001 -0.88680005 1.2001559 0
4.5280004 -0.89485776 1.2007349 0
4.4930005 -0.7695328 1.1865966 0
4.4880004 -0.77602285 1.1856407 0
4.4910002 -0.78393793 1.1862142 0
4.4930005 -0.79168171 1.1865966 0
4.4960003 -0.79961663 1.1871703 0
4.4980001 -0.80737656 1.1875526 0
4.4990001 -0.81495619 1.1877438 0
4.4940004 -0.82140309 1.186788 0
4.4880004 -0.82764065 1.1856407 0
4.4830003 -0.83404952 1.1846846 0
4.4840002 -0.8416093 1.1848758 0
4.4950004 -0.85113889 1.1869791 0
4.5220003 -0.87875336 1.1921415 0
4.5250001 -0.88680005 1.1927152 0
4.5280004 -0.89485776 1.1932888 0
4.4930005 -0.7695328 1.1792138 0
4.4880004 -0.77602285 1.1782666 0
4.4910002 -0.78393793 1.1788349 0
4.4930005 -0.79168171 1.1792138 0
4.4960003 -0.79961663 1.1797818 0
4.4980001 -0.80737656 1.1801606 0
4.4990001 -0.81495619 1.1803499 0
4.4940004 -0.82140309 1.1794031 0
4.4880004 -0.82764065 1.1782666 0
4.4830003 -0.83404952 1.1773196 0
4.4840002 -0.8416093 1.1775091 0
4.4950004 -0.85113889 1.1795925 0
4.5220003 -0.87875336 1.1847062 0
4.5250001 -0.88680005 1.1852744 0
4.5280004 -0.89485776 1.1858426 0
4.4930005 -0.7695328 1.1718308 0
4.4880004 -0.77602285 1.1708927 0
4.4910002 -0.78393793 1.1714555 0
4.4930005 -0.79168171 1.1718308 0
4.4960003 -0.79961663 1.1723934 0
4.4980001 -0.80737656 1.1727686 0
4.4990001 -0.81495619 1.1729562 0
4.4940004 -0.82140309 1.1720183 0
4.4880004 -0.82764065 1.1708927 0
4.4830003 -0.83404952 1.1699547 0
4.4840002 -0.8416093 1.1701423 0
4.4950004 -0.85113889 1.1722059 0
4.5220003 -0.87875336 1.177271 0
4.5250001 -0.88680005 1.1778337 0
4.5280004 -0.89485776 1.1783965 0
4.4930005 -0.7695328 1.1644477 0
4.4880004 -0.77602285 1.1635188 0
4.4910002 -0.78393793 1.1640761 0
4.4930005 -0.79168171 1.1644477 0
4.4960003 -0.79961663 1.1650051 0
4.4980001 -0.80737656 1.1653765 0
4.4990001 -0.81495619 1.1655624 0
4.4940004 -0.82140309 1.1646335 0
4.4880004 -0.82764065 1.1635188 0
4.4830003 -0.83404952 1.1625898 0
4.4840002 -0.8416093 1.1627755 0
4.4950004 -0.85113889 1.1648192 0
4.5220003 -0.87875336 1.1698357 0
4.5250001 -0.88680005 1.170393 0
4.5280004 -0.89485776 1.1709504 0
4.4930005 -0.7695328 1.1570648 0
4.4880004 -0.77602285 1.1561449 0
4.4910002 -0.78393793 1.1566967 0
4.4930005 -0.79168171 1.1570648 0
4.4960003 -0.79961663 1.1576166 0
4.4980001 -0.80737656 1.1579846 0
4.4990001 -0.81495619 1.1581686 0
4.4940004 -0.82140309 1.1572487 0
4.4880004 -0.82764065 1.1561449 0
4.4830003 -0.83404952 1.1552248 0
4.4840002 -0.8416093 1.1554089 0
4.4950004 -0.85113889 1.1574327 0
4.5220003 -0.87875336 1.1624004 0
4.5250001 -0.88680005 1.1629523 0
4.5280004 -0.89485776 1.1635044 0
4.4930005 -0.7695328 1.1496817 0
4.4880004 -0.77602285 1.1487708 0
4.4910002 -0.78393793 1.1493173 0
4.4930005 -0.79168171 1.1496817 0
4.4960003 -0.79961663 1.1502283 0
4.4980001 -0.80737656 1.1505926 0
4.4990001 -0.81495619 1.1507747 0
4.4940004 -0.82140309 1.149864 0
4.4880004 -0.82764065 1.1487708 0
4.4830003 -0.83404952 1.1478599 0
4.4840002 -0.8416093 1.1480421 0
4.4950004 -0.85113889 1.1500461 0
4.5220003 -0.87875336 1.154965 0
4.5250001 -0.88680005 1.1555116 0
4.5280004 -0.89485776 1.1560582 0
4.4930005 -0.7695328 1.1422988 0
4.4880004 -0.77602285 1.1413968 0
4.4910002 -0.78393793 1.141938 0
4.4930005 -0.79168171 1.1422988 0
4.4960003 -0.79961663 1.1428398 0
4.4980001 -0.80737656 1.1432006 0
4.4990001 -0.81495619 1.143381 0
4.4940004 -0.82140309 1.1424791 0
4.4880004 -0.82764065 1.1413968 0
4.4830003 -0.83404952 1.1404949 0
4.4840002 -0.8416093 1.1406753 0
4.4950004 -0.85113889 1.1426595 0
4.5220003 -0.87875336 1.1475297 0
4.5250001 -0.88680005 1.1480709 0
4.5280004 -0.89485776 1.148612 0
4.4930005 -0.7695328 1.1349157 0
4.4880004 -0.77602285 1.1340228 0
4.4910002 -0.78393793 1.1345586 0
4.4930005 -0.79168171 1.1349157 0
4.4960003 -0.79961663 1.1354514 0
4.4980001 -0.80737656 1.1358086 0
4.4990001 -0.81495619 1.1359872 0
4.4940004 -0.82140309 1.1350943 0
4.4880004 -0.82764065 1.1340228 0
4.4830003 -0.83404952 1.13313 0
4.4840002 -0.8416093 1.1333085 0
4.4950004 -0.85113889 1.1352729 0
4.5220003 -0.87875336 1.1400945 0
4.5250001 -0.88680005 1.1406301 0
4.5280004 -0.89485776 1.141166 0
4.4930005 -0.7695328 1.1275328 0
4.4880004 -0.77602285 1.1266489 0
4.4910002 -0.78393793 1.1271791 0
4.4930005 -0.79168171 1.1275328 0
4.4960003 -0.79961663 1.1280631 0
4.4980001 -0.80737656 1.1284165 0
4.4990001 -0.81495619 1.1285933 0
4.4940004 -0.82140309 1.1277095 0
4.4880004 -0.82764065 1.1266489 0
4.4830003 -0.83404952 1.1257651 0
4.4840002 -0.8416093 1.1259418 0
4.4950004 -0.85113889 1.1278863 0
4.5220003 -0.87875336 1.1326592 0
4.5250001 -0.88680005 1.1331894 0
4.5280004 -0.89485776 1.1337198 0
4.4930005 -0.7695328 1.1201497 0
4.4880004 -0.77602285 1.119275 0
4.4910002 -0.78393793 1.1197997 0
4.4930005 -0.79168171 1.1201497 0
4.4960003 -0.79961663 1.1206746 0
4.4980001 -0.80737656 1.1210246 0
4.4990001 -0.81495619 1.1211995 0
4.4940004 -0.82140309 1.1203247 0
4.4880004 -0.82764065 1.119275 0
4.4830003 -0.83404952 1.1184001 0
4.4840002 -0.8416093 1.118575 0
4.4950004 -0.85113889 1.1204997 0
4.5220003 -0.87875336 1.1252239 0
4.5250001 -0.88680005 1.1257488 0
4.5280004 -0.89485776 1.1262736 0
4.4930005 -0.7695328 1.1127669 0
4.4880004 -0.77602285 1.1119009 0
4.4910002 -0.78393793 1.1124204 0
4.4930005 -0.79168171 1.1127669 0
4.4960003 -0.79961663 1.1132863 0
4.4980001 -0.80737656 1.1136326 0
4.4990001 -0.81495619 1.1138058 0
4.4940004 -0.82140309 1.11294 0
4.4880004 -0.82764065 1.1119009 0
4.4830003 -0.83404952 1.1110351 0
4.4840002 -0.8416093 1.1112083 0
4.4950004 -0.85113889 1.1131132 0
4.5220003 -0.87875336 1.1177886 0
4.5250001 -0.88680005 1.1183081 0
4.5280004 -0.89485776 1.1188276 0
4.4930005 -0.7695328 1.1053839 0
4.4880004 -0.77602285 1.104527 0
4.4910002 -0.78393793 1.105041 0
4.4930005 -0.79168171 1.1053839 0
4.4960003 -0.79961663 1.1058979 0
4.4980001 -0.80737656 1.1062405 0
4.4990001 -0.81495619 1.1064119 0
4.4940004 -0.82140309 1.1055552 0
4.4880004 -0.82764065 1.104527 0
4.4830003 -0.83404952 1.1036701 0
4.4840002 -0.8416093 1.1038415 0
4.4950004 -0.85113889 1.1057265 0
4.5220003 -0.87875336 1.1103534 0
4.5250001 -0.88680005 1.1108674 0
4.5280004 -0.89485776 1.1113815 0
4.4930005 -0.7695328 1.0980009 0
4.4880004 -0.77602285 1.0971531 0
4.4910002 -0.78393793 1.0976617 0
4.4930005 -0.79168171 1.0980009 0
4.4960003 -0.79961663 1.0985094 0
4.4980001 -0.80737656 1.0988486 0
4.4990001 -0.81495619 1.0990181 0
4.4940004 -0.82140309 1.0981704 0
4.4880004 -0.82764065 1.0971531 0
4.4830003 -0.83404952 1.0963053 0
4.4840002 -0.8416093 1.0964748 0
4.4950004 -0.85113889 1.0983399 0
4.5220003 -0.87875336 1.102918 0
4.5250001 -0.88680005 1.1034266 0
4.5280004 -0.89485776 1.1039354 0
4.4930005 -0.7695328 1.0906179 0
4.4880004 -0.77602285 1.089779 0
4.4910002 -0.78393793 1.0902823 0
4.4930005 -0.79168171 1.0906179 0
4.4960003 -0.79961663 1.0911211 0
4.4980001 -0.80737656 1.0914565 0
4.4990001 -0.81495619 1.0916243 0
4.4940004 -0.82140309 1.0907856 0
4.4880004 -0.82764065 1.089779 0
4.4830003 -0.83404952 1.0889403 0
4.4840002 -0.8416093 1.089108 0
4.4950004 -0.85113889 1.0909534 0
4.5220003 -0.87875336 1.0954827 0
4.5250001 -0.88680005 1.0959859 0
4.5280004 -0.89485776 1.0964892 0
4.4930005 -0.7695328 1.0832349 0
4.4880004 -0.77602285 1.0824051 0
4.4910002 -0.78393793 1.0829029 0
4.4930005 -0.79168171 1.0832349 0
4.4960003 -0.79961663 1.0837327 0
4.4980001 -0.80737656 1.0840645 0
4.4990001 -0.81495619 1.0842305 0
4.4940004 -0.82140309 1.0834008 0
4.4880004 -0.82764065 1.0824051 0
4.4830003 -0.83404952 1.0815753 0
4.4840002 -0.8416093 1.0817412 0
4.4950004 -0.85113889 1.0835668 0
4.5220003 -0.87875336 1.0880474 0
4.5250001 -0.88680005 1.0885452 0
4.5280004 -0.89485776 1.0890431 0
4.4930005 -0.7695328 1.0758519 0
4.4880004 -0.77602285 1.0750312 0
4.4910002 -0.78393793 1.0755235 0
4.4930005 -0.79168171 1.0758519 0
4.4960003 -0.79961663 1.0763443 0
4.4980001 -0.80737656 1.0766726 0
4.4990001 -0.81495619 1.0768367 0
4.4940004 -0.82140309 1.0760159 0
4.4880004 -0.82764065 1.0750312 0
4.4830003 -0.83404952 1.0742104 0
4.4840002 -0.8416093 1.0743746 0
4.4950004 -0.85113889 1.0761801 0
4.5220003 -0.87875336 1.0806121 0
4.5250001 -0.88680005 1.0811045 0
4.5280004 -0.89485776 1.081597 0
4.4930005 -0.7695328 1.0684688 0
4.4880004 -0.77602285 1.0676571 0
4.4910002 -0.78393793 1.0681441 0
4.4930005 -0.79168171 1.0684688 0
4.4960003 -0.79961663 1.0689559 0
4.4980001 -0.80737656 1.0692805 0
4.4990001 -0.81495619 1.0694429 0
4.4940004 -0.82140309 1.0686312 0
4.4880004 -0.82764065 1.0676571 0
4.4830003 -0.83404952 1.0668454 0
