# .PCD v0.7 - Point Cloud Data file format
VERSION 0.7
FIELDS x y z intensity
SIZE 4 4 4 4
TYPE F F F F
COUNT 1 1 1 1
WIDTH 589
HEIGHT 1
VIEWPOINT 0 0 0 1 0 0 0
POINTS 589
DATA ascii
4.7550001 -0.7372914 0.30187741 0
4.7540002 -0.74498653 0.30190086 0
4.7530003 -0.75267798 0.30192432 0
4.7520003 -0.76036578 0.30194777 0
4.7500005 -0.76788408 0.30199465 0
4.7490001 -0.77556282 0.30201811 0
4.7480001 -0.78323805 0.30204156 0
4.7470002 -0.79090971 0.30206501 0
4.7460003 -0.79857761 0.30208847 0
4.7450004 -0.80624205 0.30211189 0
4.7440004 -0.81390285 0.30213535 0
4.7430005 -0.82156003 0.3021588 0
4.7420001 -0.8292135 0.30218226 0
4.7410002 -0.83686346 0.30220571 0
4.7400002 -0.84450984 0.30222917 0
4.7560005 -0.72959286 0.29399657 0
4.7550001 -0.7372914 0.29402184 0
4.7540002 -0.74498653 0.29404709 0
4.7530003 -0.75267798 0.29407233 0
4.7520003 -0.76036578 0.2940976 0
4.7500005 -0.76788408 0.29414809 0
4.7490001 -0.77556282 0.29417336 0
4.7480001 -0.78323805 0.2941986 0
4.7470002 -0.79090971 0.29422385 0
4.7460003 -0.79857761 0.29424912 0
4.7450004 -0.80624205 0.29427436 0
4.7440004 -0.81390285 0.2942996 0
4.7430005 -0.82156003 0.29432487 0
4.7420001 -0.8292135 0.29435012 0
4.7410002 -0.83686346 0.29437536 0
4.7400002 -0.84450984 0.29440063 0
4.7570004 -0.72189057 0.28611213 0
4.7560005 -0.72959286 0.28613919 0
4.7550001 -0.7372914 0.28616625 0
4.7540002 -0.74498653 0.28619331 0
4.7530003 -0.75267798 0.28622034 0
4.7520003 -0.76036578 0.2862474 0
4.7500005 -0.76788408 0.28630152 0
4.7490001 -0.77556282 0.28632858 0
4.7480001 -0.78323805 0.28635564 0
4.7470002 -0.79090971 0.2863827 0
4.7460003 -0.79857761 0.28640977 0
4.7450004 -0.80624205 0.2864368 0
4.7440004 -0.81390285 0.28646386 0
4.7430005 -0.82156003 0.28649092 0
4.7420001 -0.8292135 0.28651798 0
4.7410002 -0.83686346 0.28654504 0
4.7400002 -0.84450984 0.2865721 0
4.7390003 -0.85215259 0.28659916 0
4.7570004 -0.72189057 0.27825293 0
4.7560005 -0.72959286 0.27828181 0
4.7550001 -0.7372914 0.27831066 0
4.7540002 -0.74498653 0.27833951 0
4.7530003 -0.75267798 0.27836838 0
4.7520003 -0.76036578 0.27839723 0
4.7500005 -0.76788408 0.27845496 0
4.7490001 -0.77556282 0.27848381 0
4.7480001 -0.78323805 0.27851269 0
4.7470002 -0.79090971 0.27854156 0
4.7460003 -0.79857761 0.27857041 0
4.7450004 -0.80624205 0.27859926 0
4.7440004 -0.81390285 0.27862811 0
4.7430005 -0.82156003 0.27865696 0
4.7420001 -0.8292135 0.27868587 0
4.7410002 -0.83686346 0.27871472 0
4.7400002 -0.84450984 0.27874357 0
4.7390003 -0.85215259 0.27877241 0
4.7570004 -0.72189057 0.27039373 0
4.7560005 -0.72959286 0.2704244 0
4.7550001 -0.7372914 0.27045506 0
4.7540002 -0.74498653 0.27048573 0
4.7530003 -0.75267798 0.2705164 0
4.7520003 -0.76036578 0.27054709 0
4.7500005 -0.76788408 0.2706084 0
4.7490001 -0.77556282 0.27063906 0
4.7480001 -0.78323805 0.27066973 0
4.7470002 -0.79090971 0.2707004 0
4.7460003 -0.79857761 0.27073103 0
4.7450004 -0.80624205 0.27076173 0
4.7440004 -0.81390285 0.27079237 0
4.7430005 -0.82156003 0.27082303 0
4.7420001 -0.8292135 0.2708537 0
4.7410002 -0.83686346 0.27088439 0
4.7400002 -0.84450984 0.27091503 0
4.7390003 -0.85215259 0.27094573 0
4.7570004 -0.72189057 0.26253456 0
4.7560005 -0.72959286 0.26256701 0
4.7550001 -0.7372914 0.2625995 0
4.7540002 -0.74498653 0.26263195 0
4.7530003 -0.75267798 0.26266444 0
4.7520003 -0.76036578 0.26269689 0
4.7500005 -0.76788408 0.26276183 0
4.7490001 -0.77556282 0.26279432 0
4.7480001 -0.78323805 0.26282677 0
4.7470002 -0.79090971 0.26285923 0
4.7460003 -0.79857761 0.26289171 0
4.7450004 -0.80624205 0.26292416 0
4.7440004 -0.81390285 0.26295662 0
4.7430005 -0.82156003 0.2629891 0
4.7420001 -0.8292135 0.26302159 0
4.7410002 -0.83686346 0.26305407 0
4.7400002 -0.84450984 0.2630865 0
4.7390003 -0.85215259 0.26311898 0
4.7570004 -0.72189057 0.25467536 0
4.7560005 -0.72959286 0.2547096 0
4.7550001 -0.7372914 0.2547439 0
4.7540002 -0.74498653 0.25477821 0
4.7530003 -0.75267798 0.25481245 0
4.7520003 -0.76036578 0.25484672 0
4.7500005 -0.76788408 0.25491524 0
4.7490001 -0.77556282 0.25494957 0
4.7480001 -0.78323805 0.25498381 0
4.7470002 -0.79090971 0.25501809 0
4.7460003 -0.79857761 0.25505236 0
4.7450004 -0.80624205 0.2550866 0
4.7440004 -0.81390285 0.2551209 0
4.7430005 -0.82156003 0.25515515 0
4.7420001 -0.8292135 0.25518945 0
4.7410002 -0.83686346 0.25522372 0
4.7400002 -0.84450984 0.25525796 0
4.7390003 -0.85215259 0.25529227 0
4.7570004 -0.72189057 0.24681616 0
4.7560005 -0.72959286 0.24685223 0
4.7550001 -0.7372914 0.24688832 0
4.7540002 -0.74498653 0.2469244 0
4.7530003 -0.75267798 0.24696046 0
4.7520003 -0.76036578 0.24699654 0
4.7500005 -0.76788408 0.24706869 0
4.7490001 -0.77556282 0.24710479 0
4.7480001 -0.78323805 0.24714085 0
4.7470002 -0.79090971 0.24717693 0
4.7460003 -0.79857761 0.24721301 0
4.7450004 -0.80624205 0.24724907 0
4.7440004 -0.81390285 0.24728516 0
4.7430005 -0.82156003 0.24732122 0
4.7420001 -0.8292135 0.24735732 0
4.7410002 -0.83686346 0.24739338 0
4.7400002 -0.84450984 0.24742946 0
4.7390003 -0.85215259 0.24746554 0
4.7570004 -0.72189057 0.23895696 0
4.7560005 -0.72959286 0.23899485 0
4.7550001 -0.7372914 0.23903273 0
4.7540002 -0.74498653 0.23907061 0
4.7530003 -0.75267798 0.2391085 0
4.7520003 -0.76036578 0.23914637 0
4.7500005 -0.76788408 0.23922212 0
4.7490001 -0.77556282 0.23926002 0
4.7480001 -0.78323805 0.2392979 0
4.7470002 -0.79090971 0.23933578 0
4.7460003 -0.79857761 0.23937365 0
4.7450004 -0.80624205 0.23941153 0
4.7440004 -0.81390285 0.23944941 0
4.7430005 -0.82156003 0.23948728 0
4.7420001 -0.8292135 0.23952518 0
4.7410002 -0.83686346 0.23956305 0
4.7400002 -0.84450984 0.23960094 0
4.7390003 -0.85215259 0.23963882 0
4.7570004 -0.72189057 0.23109779 0
4.7560005 -0.72959286 0.23113745 0
4.7550001 -0.7372914 0.23117717 0
4.7540002 -0.74498653 0.23121683 0
4.7530003 -0.75267798 0.23125651 0
4.7520003 -0.76036578 0.2312962 0
4.7500005 -0.76788408 0.23137555 0
4.7490001 -0.77556282 0.23141526 0
4.7480001 -0.78323805 0.23145494 0
4.7470002 -0.79090971 0.23149462 0
4.7460003 -0.79857761 0.2315343 0
4.7450004 -0.80624205 0.23157398 0
4.7440004 -0.81390285 0.23161367 0
4.7430005 -0.82156003 0.23165335 0
4.7420001 -0.8292135 0.23169304 0
4.7410002 -0.83686346 0.23173273 0
4.7400002 -0.84450984 0.23177241 0
4.7390003 -0.85215259 0.23181207 0
4.7570004 -0.72189057 0.22323859 0
4.7560005 -0.72959286 0.22328006 0
4.7550001 -0.7372914 0.22332157 0
4.7540002 -0.74498653 0.22336306 0
4.7530003 -0.75267798 0.22340454 0
4.7520003 -0.76036578 0.22344601 0
4.7500005 -0.76788408 0.223529 0
4.7490001 -0.77556282 0.2235705 0
4.7480001 -0.78323805 0.22361198 0
4.7470002 -0.79090971 0.22365347 0
4.7460003 -0.79857761 0.22369495 0
4.7450004 -0.80624205 0.22373644 0
4.7440004 -0.81390285 0.22377792 0
4.7430005 -0.82156003 0.2238194 0
4.7420001 -0.8292135 0.22386092 0
4.7410002 -0.83686346 0.22390239 0
4.7400002 -0.84450984 0.22394387 0
4.7390003 -0.85215259 0.22398536 0
4.7570004 -0.72189057 0.21537939 0
4.7560005 -0.72959286 0.21542269 0
4.7550001 -0.7372914 0.21546598 0
4.7540002 -0.74498653 0.21550928 0
4.7530003 -0.75267798 0.21555257 0
4.7520003 -0.76036578 0.21559586 0
4.7500005 -0.76788408 0.21568243 0
4.7490001 -0.77556282 0.21572573 0
4.7480001 -0.78323805 0.21576902 0
4.7470002 -0.79090971 0.21581231 0
4.7460003 -0.79857761 0.21585561 0
4.7450004 -0.80624205 0.21589889 0
4.7440004 -0.81390285 0.21594217 0
4.7430005 -0.82156003 0.21598546 0
4.7420001 -0.8292135 0.21602878 0
4.7410002 -0.83686346 0.21607205 0
4.7400002 -0.84450984 0.21611536 0
4.7390003 -0.85215259 0.21615864 0
4.7570004 -0.72189057 0.20752019 0
4.7560005 -0.72959286 0.20756529 0
4.7550001 -0.7372914 0.2076104 0
4.7540002 -0.74498653 0.20765549 0
4.7530003 -0.75267798 0.20770058 0
4.7520003 -0.76036578 0.20774569 0
4.7500005 -0.76788408 0.20783587 0
4.7490001 -0.77556282 0.20788097 0
4.7480001 -0.78323805 0.20792606 0
4.7470002 -0.79090971 0.20797116 0
4.7460003 -0.79857761 0.20801626 0
4.7450004 -0.80624205 0.20806134 0
4.7440004 -0.81390285 0.20810644 0
4.7430005 -0.82156003 0.20815152 0
4.7420001 -0.8292135 0.20819664 0
4.7410002 -0.83686346 0.20824173 0
4.7400002 -0.84450984 0.20828684 0
4.7390003 -0.85215259 0.20833191 0
4.7570004 -0.72189057 0.199661 0
4.7560005 -0.72959286 0.1997079 0
4.7550001 -0.7372914 0.1997548 0
4.7540002 -0.74498653 0.19980171 0
4.7530003 -0.75267798 0.19984861 0
4.7520003 -0.76036578 0.1998955 0
4.7500005 -0.76788408 0.1999893 0
4.7490001 -0.77556282 0.20003621 0
4.7480001 -0.78323805 0.20008311 0
4.7470002 -0.79090971 0.20013 0
4.7460003 -0.79857761 0.20017691 0
4.7450004 -0.80624205 0.20022379 0
4.7440004 -0.81390285 0.2002707 0
4.7430005 -0.82156003 0.20031758 0
4.7420001 -0.8292135 0.20036452 0
4.7410002 -0.83686346 0.20041139 0
4.7400002 -0.84450984 0.20045829 0
4.7390003 -0.85215259 0.2005052 0
4.7570004 -0.72189057 0.19180182 0
4.7560005 -0.72959286 0.1918505 0
4.7550001 -0.7372914 0.19189924 0
4.7540002 -0.74498653 0.19194794 0
4.7530003 -0.75267798 0.19199663 0
4.7520003 -0.76036578 0.19204533 0
4.7500005 -0.76788408 0.19214272 0
4.7490001 -0.77556282 0.19219145 0
4.7480001 -0.78323805 0.19224015 0
4.7470002 -0.79090971 0.19228885 0
4.7460003 -0.79857761 0.19233756 0
4.7450004 -0.80624205 0.19238624 0
4.7440004 -0.81390285 0.19243495 0
4.7430005 -0.82156003 0.19248365 0
4.7420001 -0.8292135 0.19253236 0
4.7410002 -0.83686346 0.19258107 0
4.7400002 -0.84450984 0.19262975 0
4.7390003 -0.85215259 0.19267847 0
4.7570004 -0.72189057 0.18394262 0
4.7560005 -0.72959286 0.18399313 0
4.7550001 -0.7372914 0.18404365 0
4.7540002 -0.74498653 0.18409415 0
4.7530003 -0.75267798 0.18414466 0
4.7520003 -0.76036578 0.18419516 0
4.7500005 -0.76788408 0.18429616 0
4.7490001 -0.77556282 0.18434668 0
4.7480001 -0.78323805 0.18439719 0
4.7470002 -0.79090971 0.18444769 0
4.7460003 -0.79857761 0.18449821 0
4.7450004 -0.80624205 0.18454871 0
4.7440004 -0.81390285 0.18459921 0
4.7430005 -0.82156003 0.18464971 0
4.7420001 -0.8292135 0.18470022 0
4.7410002 -0.83686346 0.18475074 0
4.7400002 -0.84450984 0.18480124 0
4.7390003 -0.85215259 0.18485175 0
4.7570004 -0.72189057 0.17608342 0
4.7560005 -0.72959286 0.17613573 0
4.7550001 -0.7372914 0.17618807 0
4.7540002 -0.74498653 0.17624037 0
4.7530003 -0.75267798 0.17629267 0
4.7520003 -0.76036578 0.17634498 0
4.7500005 -0.76788408 0.1764496 0
4.7490001 -0.77556282 0.17650193 0
4.7480001 -0.78323805 0.17655423 0
4.7470002 -0.79090971 0.17660654 0
4.7460003 -0.79857761 0.17665885 0
4.7450004 -0.80624205 0.17671116 0
4.7440004 -0.81390285 0.17676346 0
4.7430005 -0.82156003 0.17681576 0
4.7420001 -0.8292135 0.1768681 0
4.7410002 -0.83686346 0.17692041 0
4.7400002 -0.84450984 0.17697272 0
4.7390003 -0.85215259 0.17702502 0
4.7570004 -0.72189057 0.16822425 0
4.7560005 -0.72959286 0.16827835 0
4.7550001 -0.7372914 0.16833249 0
4.7540002 -0.74498653 0.16838661 0
4.7530003 -0.75267798 0.16844068 0
4.7520003 -0.76036578 0.16849481 0
4.7500005 -0.76788408 0.16860302 0
4.7490001 -0.77556282 0.16865717 0
4.7480001 -0.78323805 0.16871127 0
4.7470002 -0.79090971 0.16876538 0
4.7460003 -0.79857761 0.1688195 0
4.7450004 -0.80624205 0.16887361 0
4.7440004 -0.81390285 0.16892773 0
4.7430005 -0.82156003 0.16898184 0
4.7420001 -0.8292135 0.16903597 0
4.7410002 -0.83686346 0.16909009 0
4.7400002 -0.84450984 0.16914417 0
4.7390003 -0.85215259 0.16919829 0
4.7570004 -0.72189057 0.16036503 0
4.7560005 -0.72959286 0.16042095 0
4.7550001 -0.7372914 0.16047689 0
4.7540002 -0.74498653 0.16053282 0
4.7530003 -0.75267798 0.16058871 0
4.7520003 -0.76036578 0.16064465 0
4.7500005 -0.76788408 0.16075647 0
4.7490001 -0.77556282 0.16081241 0
4.7480001 -0.78323805 0.16086833 0
4.7470002 -0.79090971 0.16092423 0
4.7460003 -0.79857761 0.16098014 0
4.7450004 -0.80624205 0.16103606 0
4.7440004 -0.81390285 0.16109197 0
4.7430005 -0.82156003 0.16114789 0
4.7420001 -0.8292135 0.16120382 0
4.7410002 -0.83686346 0.16125976 0
4.7400002 -0.84450984 0.16131565 0
4.7390003 -0.85215259 0.16137157 0
4.7570004 -0.72189057 0.15250584 0
4.7560005 -0.72959286 0.15256357 0
4.7550001 -0.7372914 0.1526213 0
4.7540002 -0.74498653 0.15267903 0
4.7530003 -0.75267798 0.15273675 0
4.7520003 -0.76036578 0.15279445 0
4.7500005 -0.76788408 0.1529099 0
4.7490001 -0.77556282 0.15296763 0
4.7480001 -0.78323805 0.15302536 0
4.7470002 -0.79090971 0.15308309 0
4.7460003 -0.79857761 0.15314078 0
4.7450004 -0.80624205 0.15319851 0
4.7440004 -0.81390285 0.15325624 0
4.7430005 -0.82156003 0.15331393 0
4.7420001 -0.8292135 0.15337169 0
4.7410002 -0.83686346 0.15342942 0
4.7400002 -0.84450984 0.15348712 0
4.7390003 -0.85215259 0.15354484 0
4.7570004 -0.72189057 0.14464667 0
4.7560005 -0.72959286 0.14470616 0
4.7550001 -0.7372914 0.14476573 0
4.7540002 -0.74498653 0.14482525 0
4.7530003 -0.75267798 0.14488477 0
4.7520003 -0.76036578 0.14494428 0
4.7500005 -0.76788408 0.14506331 0
4.7490001 -0.77556282 0.14512289 0
4.7480001 -0.78323805 0.1451824 0
4.7470002 -0.79090971 0.14524192 0
4.7460003 -0.79857761 0.14530146 0
4.7450004 -0.80624205 0.14536098 0
4.7440004 -0.81390285 0.14542049 0
4.7430005 -0.82156003 0.14548001 0
4.7420001 -0.8292135 0.14553958 0
4.7410002 -0.83686346 0.14559907 0
4.7400002 -0.84450984 0.14565861 0
4.7390003 -0.85215259 0.14571813 0
4.7570004 -0.72189057 0.13678744 0
4.7560005 -0.72959286 0.13684878 0
4.7550001 -0.7372914 0.13691014 0
4.7540002 -0.74498653 0.13697144 0
4.7530003 -0.75267798 0.13703281 0
4.7520003 -0.76036578 0.13709414 0
4.7500005 -0.76788408 0.13721678 0
4.7490001 -0.77556282 0.13727811 0
4.7480001 -0.78323805 0.13733944 0
4.7470002 -0.79090971 0.13740078 0
4.7460003 -0.79857761 0.13746208 0
4.7450004 -0.80624205 0.13752341 0
4.7440004 -0.81390285 0.13758475 0
4.7430005 -0.82156003 0.13764605 0
4.7420001 -0.8292135 0.13770741 0
4.7410002 -0.83686346 0.13776875 0
4.7400002 -0.84450984 0.13783008 0
4.7390003 -0.85215259 0.13789141 0
4.7570004 -0.72189057 0.12892827 0
4.7560005 -0.72959286 0.1289914 0
4.7550001 -0.7372914 0.12905455 0
4.7540002 -0.74498653 0.1291177 0
4.7530003 -0.75267798 0.12918082 0
4.7520003 -0.76036578 0.12924394 0
4.7500005 -0.76788408 0.12937018 0
4.7490001 -0.77556282 0.12943336 0
4.7480001 -0.78323805 0.12949648 0
4.7470002 -0.79090971 0.12955961 0
4.7460003 -0.79857761 0.12962276 0
4.7450004 -0.80624205 0.12968588 0
4.7440004 -0.81390285 0.129749 0
4.7430005 -0.82156003 0.12981212 0
4.7420001 -0.8292135 0.1298753 0
4.7410002 -0.83686346 0.12993842 0
4.7400002 -0.84450984 0.13000154 0
4.7390003 -0.85215259 0.13006467 0
4.7570004 -0.72189057 0.12106907 0
4.7560005 -0.72959286 0.12113401 0
4.7550001 -0.7372914 0.12119898 0
4.7540002 -0.74498653 0.12126389 0
4.7530003 -0.75267798 0.12132883 0
4.7520003 -0.76036578 0.12139377 0
4.7500005 -0.76788408 0.12152365 0
4.7490001 -0.77556282 0.12158862 0
4.7480001 -0.78323805 0.12165353 0
4.7470002 -0.79090971 0.12171847 0
4.7460003 -0.79857761 0.12178338 0
4.7450004 -0.80624205 0.12184832 0
4.7440004 -0.81390285 0.12191325 0
4.7430005 -0.82156003 0.12197816 0
4.7420001 -0.8292135 0.12204316 0
4.7410002 -0.83686346 0.1221081 0
4.7400002 -0.84450984 0.12217301 0
4.7390003 -0.85215259 0.12223795 0
4.7570004 -0.72189057 0.11320987 0
4.7560005 -0.72959286 0.11327663 0
4.7550001 -0.7372914 0.11334339 0
4.7540002 -0.74498653 0.11341012 0
4.7530003 -0.75267798 0.11347687 0
4.7520003 -0.76036578 0.1135436 0
4.7500005 -0.76788408 0.11367708 0
4.7490001 -0.77556282 0.11374384 0
4.7480001 -0.78323805 0.11381057 0
4.7470002 -0.79090971 0.1138773 0
4.7460003 -0.79857761 0.11394405 0
4.7450004 -0.80624205 0.11401078 0
4.7440004 -0.81390285 0.11407751 0
4.7430005 -0.82156003 0.11414427 0
4.7420001 -0.8292135 0.11421099 0
4.7410002 -0.83686346 0.11427775 0
4.7400002 -0.84450984 0.11434451 0
4.7390003 -0.85215259 0.11441121 0
4.7570004 -0.72189057 0.1053507 0
4.7560005 -0.72959286 0.10541922 0
4.7550001 -0.7372914 0.10548779 0
4.7540002 -0.74498653 0.10555637 0
4.7530003 -0.75267798 0.10562488 0
4.7520003 -0.76036578 0.10569343 0
4.7500005 -0.76788408 0.10583049 0
4.7490001 -0.77556282 0.1058991 0
4.7480001 -0.78323805 0.10596761 0
4.7470002 -0.79090971 0.10603616 0
4.7460003 -0.79857761 0.1061047 0
4.7450004 -0.80624205 0.10617322 0
4.7440004 -0.81390285 0.10624179 0
4.7430005 -0.82156003 0.10631031 0
4.7420001 -0.8292135 0.10637888 0
4.7410002 -0.83686346 0.10644743 0
4.7400002 -0.84450984 0.10651594 0
4.7390003 -0.85215259 0.10658452 0
4.7570004 -0.72189057 0.097491473 0
4.7560005 -0.72959286 0.097561836 0
4.7550001 -0.7372914 0.097632229 0
4.7540002 -0.74498653 0.097702563 0
4.7530003 -0.75267798 0.097772896 0
4.7520003 -0.76036578 0.09784323 0
4.7500005 -0.76788408 0.097983956 0
4.7490001 -0.77556282 0.09805432 0
4.7480001 -0.78323805 0.098124653 0
4.7470002 -0.79090971 0.098194987 0
4.7460003 -0.79857761 0.09826535 0
4.7450004 -0.80624205 0.098335683 0
4.7440004 -0.81390285 0.098406017 0
4.7430005 -0.82156003 0.09847638 0
4.7420001 -0.8292135 0.098546743 0
4.7410002 -0.83686346 0.098617107 0
4.7400002 -0.84450984 0.09868744 0
4.7390003 -0.85215259 0.098757774 0
4.7570004 -0.72189057 0.089632303 0
4.7560005 -0.72959286 0.089704454 0
4.7550001 -0.7372914 0.089776635 0
4.7540002 -0.74498653 0.089848787 0
4.7530003 -0.75267798 0.089920908 0
4.7520003 -0.76036578 0.08999306 0
4.7500005 -0.76788408 0.090137362 0
4.7490001 -0.77556282 0.090209574 0
4.7480001 -0.78323805 0.090281695 0
4.7470002 -0.79090971 0.090353847 0
4.7460003 -0.79857761 0.090425998 0
4.7450004 -0.80624205 0.09049812 0
4.7440004 -0.81390285 0.090570301 0
4.7430005 -0.82156003 0.090642422 0
4.7420001 -0.8292135 0.090714633 0
4.7410002 -0.83686346 0.090786755 0
4.7400002 -0.84450984 0.090858907 0
4.7390003 -0.85215259 0.090931058 0
4.7570004 -0.72189057 0.081773132 0
4.7560005 -0.72959286 0.081847042 0
4.7550001 -0.7372914 0.081921041 0
4.7540002 -0.74498653 0.081994981 0
4.7530003 -0.75267798 0.08206895 0
4.7520003 -0.76036578 0.082142919 0
4.7500005 -0.76788408 0.082290798 0
4.7490001 -0.77556282 0.082364768 0
4.7480001 -0.78323805 0.082438737 0
4.7470002 -0.79090971 0.082512677 0
4.7460003 -0.79857761 0.082586646 0
4.7450004 -0.80624205 0.082660615 0
4.7440004 -0.81390285 0.082734525 0
4.7430005 -0.82156003 0.082808495 0
4.7420001 -0.8292135 0.082882464 0
4.7410002 -0.83686346 0.082956433 0
4.7400002 -0.84450984 0.083030403 0
4.7390003 -0.85215259 0.083104342 0
4.7570004 -0.72189057 0.073913902 0
4.7560005 -0.72959286 0.073989689 0
4.7550001 -0.7372914 0.074065447 0
4.7540002 -0.74498653 0.074141204 0
4.7530003 -0.75267798 0.074216992 0
4.7520003 -0.76036578 0.074292719 0
4.7500005 -0.76788408 0.074444234 0
4.7490001 -0.77556282 0.074520022 0
4.7480001 -0.78323805 0.074595779 0
4.7470002 -0.79090971 0.074671537 0
4.7460003 -0.79857761 0.074747294 0
4.7450004 -0.80624205 0.074823052 0
4.7440004 -0.81390285 0.074898809 0
4.7430005 -0.82156003 0.074974537 0
4.7420001 -0.8292135 0.075050354 0
4.7410002 -0.83686346 0.075126082 0
4.7400002 -0.84450984 0.075201869 0
4.7390003 -0.85215259 0.075277627 0
4.7570004 -0.72189057 0.066054732 0
4.7560005 -0.72959286 0.066132307 0
4.7550001 -0.7372914 0.066209882 0
4.7540002 -0.74498653 0.066287458 0
4.7530003 -0.75267798 0.066365004 0
4.7520003 -0.76036578 0.066442549 0
4.7500005 -0.76788408 0.06659767 0
4.7490001 -0.77556282 0.066675246 0
4.7480001 -0.78323805 0.066752821 0
4.7470002 -0.79090971 0.066830397 0
4.7460003 -0.79857761 0.066907942 0
4.7450004 -0.80624205 0.066985518 0
4.7440004 -0.81390285 0.067063063 0
4.7430005 -0.82156003 0.067140609 0
4.7420001 -0.8292135 0.067218214 0
4.7410002 -0.83686346 0.06729576 0
4.7400002 -0.84450984 0.067373306 0
4.7390003 -0.85215259 0.067450881 0
4.7570004 -0.72189057 0.058195561 0
4.7560005 -0.72959286 0.058274895 0
4.7550001 -0.7372914 0.058354318 0
4.7540002 -0.74498653 0.058433652 0
4.7530003 -0.75267798 0.058513016 0
4.7520003 -0.76036578 0.058592379 0
4.7500005 -0.76788408 0.058751076 0
4.7490001 -0.77556282 0.0588305 0
4.7480001 -0.78323805 0.058909863 0
4.7470002 -0.79090971 0.058989227 0
4.7460003 -0.79857761 0.05906859 0
4.7450004 -0.80624205 0.059147954 0
4.7440004 -0.81390285 0.059227318 0
4.7430005 -0.82156003 0.059306681 0
4.7420001 -0.8292135 0.059386075 0
4.7410002 -0.83686346 0.059465438 0
4.7400002 -0.84450984 0.059544802 0
4.7390003 -0.85215259 0.059624135 0
4.7570004 -0.72189057 0.050336331 0
4.7560005 -0.72959286 0.050417513 0
4.7550001 -0.7372914 0.050498694 0
4.7540002 -0.74498653 0.050579876 0
4.7530003 -0.75267798 0.050661027 0
4.7520003 -0.76036578 0.050742209 0
4.7500005 -0.76788408 0.050904542 0
4.7490001 -0.77556282 0.050985724 0
4.7480001 -0.78323805 0.051066905 0
4.7470002 -0.79090971 0.051148087 0
4.7460003 -0.79857761 0.051229239 0
4.7450004 -0.80624205 0.05131042 0
4.7440004 -0.81390285 0.051391572 0
4.7430005 -0.82156003 0.051472753 0
4.7420001 -0.8292135 0.051553935 0
4.7410002 -0.83686346 0.051635116 0
4.7400002 -0.84450984 0.051716268 0
4.7390003 -0.85215259 0.05179745 0
