# .PCD v0.7 - Point Cloud Data file format
VERSION 0.7
FIELDS x y z intensity
SIZE 4 4 4 4
TYPE F F F F
COUNT 1 1 1 1
WIDTH 1456
HEIGHT 1
VIEWPOINT 0 0 0 1 0 0 0
POINTS 1456
DATA ascii
6.0210004 -3.1891539 1.9046025 0
6.0140004 -3.1953661 1.9027338 0
6.0070004 -3.2015533 1.9008651 0
6.0010004 -3.2082796 1.8992633 0
5.9940004 -3.2144182 1.8973945 0
5.9870005 -3.2205312 1.8955258 0
5.9800005 -3.226619 1.8936571 0
6.3300004 -2.9019876 1.9763976 0
6.3220005 -2.9088168 1.9742764 0
6.3150005 -2.9161024 1.9724203 0
6.3070002 -2.9228756 1.9702989 0
6.3000002 -2.9301088 1.9684428 0
6.2920003 -2.9368262 1.9663216 0
6.2850003 -2.9440074 1.9644655 0
6.2770004 -2.9506688 1.9623443 0
6.2700005 -2.9577975 1.9604882 0
6.2620006 -2.9644032 1.9583669 0
6.2550006 -2.9714794 1.9565108 0
6.2480001 -2.9785304 1.9546546 0
6.2400002 -2.9850528 1.9525334 0
6.2330003 -2.9920516 1.9506773 0
6.2260003 -2.9990253 1.9488212 0
6.2180004 -3.005465 1.9466999 0
6.2110004 -3.0123861 1.9448436 0
6.2040005 -3.0192821 1.9429876 0
6.1960006 -3.0256388 1.9408664 0
6.1890006 -3.0324824 1.9390103 0
6.1820002 -3.0393004 1.9371539 0
6.1750002 -3.0460939 1.9352978 0
6.1680002 -3.0528617 1.9334418 0
6.1600003 -3.0590811 1.9313205 0
6.1530004 -3.0657969 1.9294645 0
6.1460004 -3.0724871 1.9276084 0
6.1390004 -3.0791523 1.9257523 0
6.1320004 -3.0857921 1.9238961 0
6.1250005 -3.0924067 1.92204 0
6.1180005 -3.0989959 1.9201839 0
6.1110005 -3.1055601 1.9183278 0
6.1040006 -3.1120989 1.9164717 0
6.0970006 -3.1186125 1.9146155 0
6.0900002 -3.1251006 1.9127593 0
6.0830002 -3.1315637 1.9109032 0
6.0760002 -3.1380012 1.9090471 0
6.0690002 -3.1444139 1.9071909 0
6.0620003 -3.1508012 1.9053348 0
6.0550003 -3.1571631 1.9034787 0
6.0480003 -3.1635001 1.9016227 0
6.0410004 -3.1698117 1.8997666 0
6.0350003 -3.1766534 1.8981756 0
6.0280004 -3.1829164 1.8963195 0
6.0210004 -3.1891539 1.8944633 0
6.0140004 -3.1953661 1.8926072 0
6.0070004 -3.2015533 1.8907511 0
6.0010004 -3.2082796 1.8891602 0
5.9940004 -3.2144182 1.8873041 0
5.9870005 -3.2205312 1.885448 0
5.9800005 -3.226619 1.8835919 0
6.3300004 -2.9019876 1.9657011 0
6.3220005 -2.9088168 1.9635943 0
6.3150005 -2.9161024 1.9617509 0
6.3070002 -2.9228756 1.9596438 0
6.3000002 -2.9301088 1.9578004 0
6.2920003 -2.9368262 1.9556936 0
6.2850003 -2.9440074 1.95385 0
6.2770004 -2.9506688 1.9517432 0
6.2700005 -2.9577975 1.9498998 0
6.2620006 -2.9644032 1.9477929 0
6.2550006 -2.9714794 1.9459496 0
6.2480001 -2.9785304 1.9441059 0
6.2400002 -2.9850528 1.9419991 0
6.2330003 -2.9920516 1.9401556 0
6.2260003 -2.9990253 1.9383121 0
6.2180004 -3.005465 1.9362053 0
6.2110004 -3.0123861 1.9343618 0
6.2040005 -3.0192821 1.9325182 0
6.1960006 -3.0256388 1.9304115 0
6.1890006 -3.0324824 1.928568 0
6.1820002 -3.0393004 1.9267243 0
6.1750002 -3.0460939 1.924881 0
6.1680002 -3.0528617 1.9230374 0
6.1600003 -3.0590811 1.9209306 0
6.1530004 -3.0657969 1.9190872 0
6.1460004 -3.0724871 1.9172436 0
6.1390004 -3.0791523 1.9154001 0
6.1320004 -3.0857921 1.9135567 0
6.1250005 -3.0924067 1.9117131 0
6.1180005 -3.0989959 1.9098697 0
6.1110005 -3.1055601 1.9080262 0
6.1040006 -3.1120989 1.9061828 0
6.0970006 -3.1186125 1.9043393 0
6.0900002 -3.1251006 1.9024956 0
6.0830002 -3.1315637 1.9006522 0
6.0760002 -3.1380012 1.8988087 0
6.0690002 -3.1444139 1.8969651 0
6.0620003 -3.1508012 1.8951217 0
6.0550003 -3.1571631 1.8932781 0
6.0480003 -3.1635001 1.8914348 0
6.0410004 -3.1698117 1.8895913 0
6.0350003 -3.1766534 1.8880111 0
6.0280004 -3.1829164 1.8861676 0
6.0210004 -3.1891539 1.8843241 0
6.0140004 -3.1953661 1.8824806 0
6.0070004 -3.2015533 1.8806372 0
6.0010004 -3.2082796 1.879057 0
5.9940004 -3.2144182 1.8772136 0
5.9870005 -3.2205312 1.87537 0
5.9800005 -3.226619 1.8735266 0
6.3300004 -2.9019876 1.9550046 0
6.3220005 -2.9088168 1.9529122 0
6.3150005 -2.9161024 1.9510813 0
6.3070002 -2.9228756 1.9489888 0
6.3000002 -2.9301088 1.9471579 0
6.2920003 -2.9368262 1.9450655 0
6.2850003 -2.9440074 1.9432347 0
6.2770004 -2.9506688 1.9411423 0
6.2700005 -2.9577975 1.9393114 0
6.2620006 -2.9644032 1.937219 0
6.2550006 -2.9714794 1.9353882 0
6.2480001 -2.9785304 1.9335573 0
6.2400002 -2.9850528 1.9314649 0
6.2330003 -2.9920516 1.929634 0
6.2260003 -2.9990253 1.927803 0
6.2180004 -3.005465 1.9257107 0
6.2110004 -3.0123861 1.9238799 0
6.2040005 -3.0192821 1.922049 0
6.1960006 -3.0256388 1.9199566 0
6.1890006 -3.0324824 1.9181257 0
6.1820002 -3.0393004 1.9162948 0
6.1750002 -3.0460939 1.9144639 0
6.1680002 -3.0528617 1.9126331 0
6.1600003 -3.0590811 1.9105406 0
6.1530004 -3.0657969 1.9087099 0
6.1460004 -3.0724871 1.9068789 0
6.1390004 -3.0791523 1.905048 0
6.1320004 -3.0857921 1.9032173 0
6.1250005 -3.0924067 1.9013864 0
6.1180005 -3.0989959 1.8995554 0
6.1110005 -3.1055601 1.8977247 0
6.1040006 -3.1120989 1.8958938 0
6.0970006 -3.1186125 1.8940629 0
6.0900002 -3.1251006 1.8922319 0
6.0830002 -3.1315637 1.8904011 0
6.0760002 -3.1380012 1.8885703 0
6.0690002 -3.1444139 1.8867394 0
6.0620003 -3.1508012 1.8849086 0
6.0550003 -3.1571631 1.8830777 0
6.0480003 -3.1635001 1.8812468 0
6.0410004 -3.1698117 1.879416 0
6.0350003 -3.1766534 1.8778466 0
6.0280004 -3.1829164 1.8760158 0
6.0210004 -3.1891539 1.874185 0
6.0140004 -3.1953661 1.872354 0
6.0070004 -3.2015533 1.8705232 0
6.0010004 -3.2082796 1.8689538 0
5.9940004 -3.2144182 1.867123 0
5.9870005 -3.2205312 1.8652922 0
5.9800005 -3.226619 1.8634613 0
6.3220005 -2.9088168 1.94223 0
6.3150005 -2.9161024 1.9404118 0
6.3070002 -2.9228756 1.9383337 0
6.3000002 -2.9301088 1.9365156 0
6.2920003 -2.9368262 1.9344375 0
6.2850003 -2.9440074 1.9326193 0
6.2770004 -2.9506688 1.9305413 0
6.2700005 -2.9577975 1.9287231 0
6.2620006 -2.9644032 1.9266452 0
6.2550006 -2.9714794 1.9248269 0
6.2480001 -2.9785304 1.9230086 0
6.2400002 -2.9850528 1.9209306 0
6.2330003 -2.9920516 1.9191123 0
6.2260003 -2.9990253 1.9172941 0
6.2180004 -3.005465 1.9152162 0
6.2110004 -3.0123861 1.9133979 0
6.2040005 -3.0192821 1.9115797 0
6.1960006 -3.0256388 1.9095018 0
6.1890006 -3.0324824 1.9076835 0
6.1820002 -3.0393004 1.9058652 0
6.1750002 -3.0460939 1.904047 0
6.1680002 -3.0528617 1.9022287 0
6.1600003 -3.0590811 1.9001508 0
6.1530004 -3.0657969 1.8983325 0
6.1460004 -3.0724871 1.8965143 0
6.1390004 -3.0791523 1.894696 0
6.1320004 -3.0857921 1.8928778 0
6.1250005 -3.0924067 1.8910595 0
6.1180005 -3.0989959 1.8892415 0
6.1110005 -3.1055601 1.887423 0
6.1040006 -3.1120989 1.885605 0
6.0970006 -3.1186125 1.8837866 0
6.0900002 -3.1251006 1.8819683 0
6.0830002 -3.1315637 1.8801501 0
6.0760002 -3.1380012 1.8783318 0
6.0690002 -3.1444139 1.8765136 0
6.0620003 -3.1508012 1.8746953 0
6.0550003 -3.1571631 1.8728771 0
6.0480003 -3.1635001 1.8710588 0
6.0410004 -3.1698117 1.8692406 0
6.0350003 -3.1766534 1.8676822 0
6.0280004 -3.1829164 1.8658639 0
6.0210004 -3.1891539 1.8640457 0
6.0140004 -3.1953661 1.8622274 0
6.0070004 -3.2015533 1.8604093 0
6.0010004 -3.2082796 1.8588508 0
5.9940004 -3.2144182 1.8570325 0
5.9870005 -3.2205312 1.8552144 0
5.9800005 -3.226619 1.8533961 0
6.3220005 -2.9088168 1.9315479 0
6.3150005 -2.9161024 1.9297423 0
6.3070002 -2.9228756 1.9276786 0
6.3000002 -2.9301088 1.925873 0
6.2920003 -2.9368262 1.9238095 0
6.2850003 -2.9440074 1.9220039 0
6.2770004 -2.9506688 1.9199404 0
6.2700005 -2.9577975 1.9181347 0
6.2620006 -2.9644032 1.9160712 0
6.2550006 -2.9714794 1.9142656 0
6.2480001 -2.9785304 1.9124599 0
6.2400002 -2.9850528 1.9103963 0
6.2330003 -2.9920516 1.9085907 0
6.2260003 -2.9990253 1.9067851 0
6.2180004 -3.005465 1.9047216 0
6.2110004 -3.0123861 1.902916 0
6.2040005 -3.0192821 1.9011104 0
6.1960006 -3.0256388 1.8990469 0
6.1890006 -3.0324824 1.8972412 0
6.1820002 -3.0393004 1.8954355 0
6.1750002 -3.0460939 1.8936299 0
6.1680002 -3.0528617 1.8918244 0
6.1600003 -3.0590811 1.8897609 0
6.1530004 -3.0657969 1.8879552 0
6.1460004 -3.0724871 1.8861496 0
6.1390004 -3.0791523 1.884344 0
6.1320004 -3.0857921 1.8825383 0
6.1250005 -3.0924067 1.8807328 0
6.1180005 -3.0989959 1.8789272 0
6.1110005 -3.1055601 1.8771216 0
6.1040006 -3.1120989 1.8753159 0
6.0970006 -3.1186125 1.8735104 0
6.0900002 -3.1251006 1.8717046 0
6.0830002 -3.1315637 1.869899 0
6.0760002 -3.1380012 1.8680935 0
6.0690002 -3.1444139 1.8662878 0
6.0620003 -3.1508012 1.8644822 0
6.0550003 -3.1571631 1.8626766 0
6.0480003 -3.1635001 1.8608711 0
6.0410004 -3.1698117 1.8590654 0
6.0350003 -3.1766534 1.8575177 0
6.0280004 -3.1829164 1.8557121 0
6.0210004 -3.1891539 1.8539065 0
6.0140004 -3.1953661 1.852101 0
6.0070004 -3.2015533 1.8502953 0
6.0010004 -3.2082796 1.8487476 0
5.9940004 -3.2144182 1.8469421 0
5.9870005 -3.2205312 1.8451364 0
5.9800005 -3.226619 1.8433309 0
6.3220005 -2.9088168 1.9208658 0
6.3150005 -2.9161024 1.9190727 0
6.3070002 -2.9228756 1.9170235 0
6.3000002 -2.9301088 1.9152305 0
6.2920003 -2.9368262 1.9131814 0
6.2850003 -2.9440074 1.9113885 0
6.2770004 -2.9506688 1.9093394 0
6.2700005 -2.9577975 1.9075464 0
6.2620006 -2.9644032 1.9054973 0
6.2550006 -2.9714794 1.9037044 0
6.2480001 -2.9785304 1.9019113 0
6.2400002 -2.9850528 1.8998622 0
6.2330003 -2.9920516 1.8980691 0
6.2260003 -2.9990253 1.8962762 0
6.2180004 -3.005465 1.8942271 0
6.2110004 -3.0123861 1.8924341 0
6.2040005 -3.0192821 1.8906411 0
6.1960006 -3.0256388 1.888592 0
6.1890006 -3.0324824 1.8867991 0
6.1820002 -3.0393004 1.885006 0
6.1750002 -3.0460939 1.8832129 0
6.1680002 -3.0528617 1.88142 0
6.1600003 -3.0590811 1.8793709 0
6.1530004 -3.0657969 1.8775779 0
6.1460004 -3.0724871 1.875785 0
6.1390004 -3.0791523 1.873992 0
6.1320004 -3.0857921 1.8721989 0
6.1250005 -3.0924067 1.870406 0
6.1180005 -3.0989959 1.868613 0
6.1110005 -3.1055601 1.86682 0
6.1040006 -3.1120989 1.8650271 0
6.0970006 -3.1186125 1.863234 0
6.0900002 -3.1251006 1.8614409 0
6.0830002 -3.1315637 1.859648 0
6.0760002 -3.1380012 1.857855 0
6.0690002 -3.1444139 1.8560621 0
6.0620003 -3.1508012 1.854269 0
6.0550003 -3.1571631 1.852476 0
6.0480003 -3.1635001 1.8506831 0
6.0410004 -3.1698117 1.8488901 0
6.0350003 -3.1766534 1.8473533 0
6.0280004 -3.1829164 1.8455603 0
6.0210004 -3.1891539 1.8437674 0
6.0140004 -3.1953661 1.8419744 0
6.0070004 -3.2015533 1.8401814 0
6.0010004 -3.2082796 1.8386445 0
5.9940004 -3.2144182 1.8368515 0
5.9870005 -3.2205312 1.8350586 0
5.9800005 -3.226619 1.8332655 0
6.3220005 -2.9088168 1.9101835 0
6.3150005 -2.9161024 1.9084033 0
6.3070002 -2.9228756 1.9063685 0
6.3000002 -2.9301088 1.9045881 0
6.2920003 -2.9368262 1.9025534 0
6.2850003 -2.9440074 1.900773 0
6.2770004 -2.9506688 1.8987384 0
6.2700005 -2.9577975 1.896958 0
6.2620006 -2.9644032 1.8949233 0
6.2550006 -2.9714794 1.8931429 0
6.2480001 -2.9785304 1.8913625 0
6.2400002 -2.9850528 1.8893279 0
6.2330003 -2.9920516 1.8875475 0
6.2260003 -2.9990253 1.8857671 0
6.2180004 -3.005465 1.8837326 0
6.2110004 -3.0123861 1.8819522 0
6.2040005 -3.0192821 1.8801718 0
6.1960006 -3.0256388 1.8781371 0
6.1890006 -3.0324824 1.8763568 0
6.1820002 -3.0393004 1.8745763 0
6.1750002 -3.0460939 1.8727959 0
6.1680002 -3.0528617 1.8710157 0
6.1610003 -3.0596044 1.8692353 0
6.1530004 -3.0657969 1.8672006 0
6.1460004 -3.0724871 1.8654202 0
6.1390004 -3.0791523 1.8636398 0
6.1320004 -3.0857921 1.8618594 0
6.1250005 -3.0924067 1.8600792 0
6.1180005 -3.0989959 1.8582988 0
6.1110005 -3.1055601 1.8565184 0
6.1040006 -3.1120989 1.8547381 0
6.0970006 -3.1186125 1.8529578 0
6.0900002 -3.1251006 1.8511772 0
6.0830002 -3.1315637 1.8493969 0
6.0760002 -3.1380012 1.8476167 0
6.0690002 -3.1444139 1.8458363 0
6.0620003 -3.1508012 1.8440559 0
6.0550003 -3.1571631 1.8422756 0
6.0480003 -3.1635001 1.8404952 0
6.0410004 -3.1698117 1.8387148 0
6.0350003 -3.1766534 1.8371888 0
6.0280004 -3.1829164 1.8354084 0
6.0210004 -3.1891539 1.8336281 0
6.0140004 -3.1953661 1.8318478 0
6.0070004 -3.2015533 1.8300674 0
6.0010004 -3.2082796 1.8285414 0
5.9940004 -3.2144182 1.826761 0
5.9870005 -3.2205312 1.8249806 0
5.9800005 -3.226619 1.8232002 0
6.3300004 -2.9019876 1.9015217 0
6.3220005 -2.9088168 1.8995014 0
6.3150005 -2.9161024 1.8977337 0
6.3070002 -2.9228756 1.8957133 0
6.3000002 -2.9301088 1.8939456 0
6.2920003 -2.9368262 1.8919253 0
6.2850003 -2.9440074 1.8901576 0
6.2770004 -2.9506688 1.8881373 0
6.2700005 -2.9577975 1.8863697 0
6.2620006 -2.9644032 1.8843495 0
6.2550006 -2.9714794 1.8825817 0
6.2480001 -2.9785304 1.880814 0
6.2400002 -2.9850528 1.8787936 0
6.2330003 -2.9920516 1.8770258 0
6.2260003 -2.9990253 1.8752581 0
6.2180004 -3.005465 1.8732378 0
6.2110004 -3.0123861 1.8714702 0
6.2040005 -3.0192821 1.8697025 0
6.1960006 -3.0256388 1.8676822 0
6.1890006 -3.0324824 1.8659146 0
6.1820002 -3.0393004 1.8641466 0
6.1750002 -3.0460939 1.862379 0
6.1680002 -3.0528617 1.8606112 0
6.1610003 -3.0596044 1.8588436 0
6.1530004 -3.0657969 1.8568233 0
6.1460004 -3.0724871 1.8550556 0
6.1390004 -3.0791523 1.8532878 0
6.1320004 -3.0857921 1.8515201 0
6.1250005 -3.0924067 1.8497524 0
6.1180005 -3.0989959 1.8479847 0
6.1110005 -3.1055601 1.8462169 0
6.1040006 -3.1120989 1.8444492 0
6.0970006 -3.1186125 1.8426815 0
6.0900002 -3.1251006 1.8409137 0
6.0830002 -3.1315637 1.8391459 0
6.0760002 -3.1380012 1.8373781 0
6.0690002 -3.1444139 1.8356105 0
6.0620003 -3.1508012 1.8338428 0
6.0550003 -3.1571631 1.832075 0
6.0480003 -3.1635001 1.8303072 0
6.0410004 -3.1698117 1.8285396 0
6.0350003 -3.1766534 1.8270243 0
6.0280004 -3.1829164 1.8252566 0
6.0210004 -3.1891539 1.823489 0
6.0140004 -3.1953661 1.8217211 0
6.0070004 -3.2015533 1.8199534 0
6.0010004 -3.2082796 1.8184382 0
5.9940004 -3.2144182 1.8166705 0
5.9870005 -3.2205312 1.8149028 0
5.9800005 -3.226619 1.8131351 0
6.3300004 -2.9019876 1.890825 0
6.3220005 -2.9088168 1.8888193 0
6.3150005 -2.9161024 1.8870641 0
6.3070002 -2.9228756 1.8850582 0
6.3000002 -2.9301088 1.8833032 0
6.2920003 -2.9368262 1.8812973 0
6.2850003 -2.9440074 1.8795422 0
6.2770004 -2.9506688 1.8775364 0
6.2700005 -2.9577975 1.8757813 0
6.2620006 -2.9644032 1.8737755 0
6.2550006 -2.9714794 1.8720205 0
6.2480001 -2.9785304 1.8702652 0
6.2400002 -2.9850528 1.8682593 0
6.2330003 -2.9920516 1.8665043 0
6.2260003 -2.9990253 1.8647492 0
6.2180004 -3.005465 1.8627434 0
6.2110004 -3.0123861 1.8609883 0
6.2040005 -3.0192821 1.8592331 0
6.1960006 -3.0256388 1.8572273 0
6.1890006 -3.0324824 1.8554723 0
6.1820002 -3.0393004 1.8537171 0
6.1750002 -3.0460939 1.851962 0
6.1680002 -3.0528617 1.8502069 0
6.1610003 -3.0596044 1.8484517 0
6.1530004 -3.0657969 1.846446 0
6.1460004 -3.0724871 1.8446908 0
6.1390004 -3.0791523 1.8429358 0
6.1320004 -3.0857921 1.8411807 0
6.1250005 -3.0924067 1.8394256 0
6.1180005 -3.0989959 1.8376704 0
6.1110005 -3.1055601 1.8359153 0
6.1040006 -3.1120989 1.8341603 0
6.0970006 -3.1186125 1.8324052 0
6.0900002 -3.1251006 1.83065 0
6.0830002 -3.1315637 1.8288949 0
6.0760002 -3.1380012 1.8271397 0
6.0690002 -3.1444139 1.8253847 0
6.0620003 -3.1508012 1.8236295 0
6.0550003 -3.1571631 1.8218745 0
6.0480003 -3.1635001 1.8201194 0
6.0420003 -3.1703656 1.818615 0
6.0350003 -3.1766534 1.8168598 0
6.0280004 -3.1829164 1.8151048 0
6.0210004 -3.1891539 1.8133497 0
6.0140004 -3.1953661 1.8115946 0
6.0070004 -3.2015533 1.8098395 0
6.0010004 -3.2082796 1.8083352 0
5.9940004 -3.2144182 1.8065799 0
5.9870005 -3.2205312 1.8048249 0
5.9800005 -3.226619 1.8030698 0
6.3300004 -2.9019876 1.8801285 0
6.3220005 -2.9088168 1.8781371 0
6.3150005 -2.9161024 1.8763946 0
6.3070002 -2.9228756 1.8744031 0
6.3000002 -2.9301088 1.8726606 0
6.2920003 -2.9368262 1.8706692 0
6.2850003 -2.9440074 1.8689268 0
6.2770004 -2.9506688 1.8669355 0
6.2700005 -2.9577975 1.865193 0
6.2620006 -2.9644032 1.8632016 0
6.2550006 -2.9714794 1.8614591 0
6.2480001 -2.9785304 1.8597165 0
6.2400002 -2.9850528 1.8577251 0
6.2330003 -2.9920516 1.8559827 0
6.2260003 -2.9990253 1.8542402 0
6.2180004 -3.005465 1.8522488 0
6.2110004 -3.0123861 1.8505063 0
6.2040005 -3.0192821 1.8487638 0
6.1960006 -3.0256388 1.8467726 0
6.1890006 -3.0324824 1.8450301 0
6.1820002 -3.0393004 1.8432875 0
6.1750002 -3.0460939 1.841545 0
6.1680002 -3.0528617 1.8398025 0
6.1610003 -3.0596044 1.83806 0
6.1530004 -3.0657969 1.8360687 0
6.1460004 -3.0724871 1.8343263 0
6.1390004 -3.0791523 1.8325838 0
6.1320004 -3.0857921 1.8308413 0
6.1250005 -3.0924067 1.8290987 0
6.1180005 -3.0989959 1.8273562 0
6.1110005 -3.1055601 1.8256137 0
6.1040006 -3.1120989 1.8238713 0
6.0970006 -3.1186125 1.8221289 0
6.0900002 -3.1251006 1.8203863 0
6.0830002 -3.1315637 1.8186438 0
6.0760002 -3.1380012 1.8169013 0
6.0690002 -3.1444139 1.8151588 0
6.0620003 -3.1508012 1.8134164 0
6.0550003 -3.1571631 1.8116739 0
6.0480003 -3.1635001 1.8099314 0
6.0420003 -3.1703656 1.8084378 0
6.0350003 -3.1766534 1.8066953 0
6.0280004 -3.1829164 1.804953 0
6.0210004 -3.1891539 1.8032105 0
6.0140004 -3.1953661 1.801468 0
6.0070004 -3.2015533 1.7997255 0
6.0010004 -3.2082796 1.798232 0
5.9940004 -3.2144182 1.7964895 0
5.9870005 -3.2205312 1.794747 0
5.9800005 -3.226619 1.7930045 0
6.3300004 -2.9019876 1.8694319 0
6.3220005 -2.9088168 1.8674549 0
6.3150005 -2.9161024 1.865725 0
6.3070002 -2.9228756 1.8637481 0
6.3000002 -2.9301088 1.8620181 0
6.2920003 -2.9368262 1.8600413 0
6.2850003 -2.9440074 1.8583114 0
6.2770004 -2.9506688 1.8563344 0
6.2700005 -2.9577975 1.8546046 0
6.2620006 -2.9644032 1.8526276 0
6.2550006 -2.9714794 1.8508978 0
6.2480001 -2.9785304 1.8491679 0
6.2400002 -2.9850528 1.8471909 0
6.2330003 -2.9920516 1.8454611 0
6.2260003 -2.9990253 1.8437313 0
6.2180004 -3.005465 1.8417543 0
6.2110004 -3.0123861 1.8400245 0
6.2040005 -3.0192821 1.8382946 0
6.1970005 -3.0261528 1.8365647 0
6.1890006 -3.0324824 1.8345878 0
6.1820002 -3.0393004 1.8328578 0
6.1750002 -3.0460939 1.8311279 0
6.1680002 -3.0528617 1.8293982 0
6.1610003 -3.0596044 1.8276683 0
6.1530004 -3.0657969 1.8256913 0
6.1460004 -3.0724871 1.8239615 0
6.1390004 -3.0791523 1.8222317 0
6.1320004 -3.0857921 1.8205018 0
6.1250005 -3.0924067 1.818772 0
6.1180005 -3.0989959 1.8170421 0
6.1110005 -3.1055601 1.8153123 0
6.1040006 -3.1120989 1.8135824 0
6.0970006 -3.1186125 1.8118526 0
6.0900002 -3.1251006 1.8101226 0
6.0830002 -3.1315637 1.8083928 0
6.0760002 -3.1380012 1.8066629 0
6.0690002 -3.1444139 1.8049331 0
6.0620003 -3.1508012 1.8032032 0
6.0550003 -3.1571631 1.8014734 0
6.0480003 -3.1635001 1.7997437 0
6.0420003 -3.1703656 1.7982608 0
6.0350003 -3.1766534 1.796531 0
6.0280004 -3.1829164 1.7948011 0
6.0210004 -3.1891539 1.7930713 0
6.0140004 -3.1953661 1.7913414 0
6.0070004 -3.2015533 1.7896116 0
6.0010004 -3.2082796 1.7881289 0
5.9940004 -3.2144182 1.786399 0
5.9870005 -3.2205312 1.7846692 0
5.9800005 -3.226619 1.7829393 0
6.3300004 -2.9019876 1.8587353 0
6.3220005 -2.9088168 1.8567728 0
6.3150005 -2.9161024 1.8550556 0
6.3070002 -2.9228756 1.8530929 0
6.3000002 -2.9301088 1.8513757 0
6.2920003 -2.9368262 1.8494132 0
6.2850003 -2.9440074 1.8476961 0
6.2770004 -2.9506688 1.8457334 0
6.2700005 -2.9577975 1.8440163 0
6.2620006 -2.9644032 1.8420538 0
6.2550006 -2.9714794 1.8403366 0
6.2480001 -2.9785304 1.8386192 0
6.2400002 -2.9850528 1.8366566 0
6.2330003 -2.9920516 1.8349395 0
6.2260003 -2.9990253 1.8332223 0
6.2180004 -3.005465 1.8312597 0
6.2110004 -3.0123861 1.8295424 0
6.2040005 -3.0192821 1.8278253 0
6.1970005 -3.0261528 1.826108 0
6.1890006 -3.0324824 1.8241456 0
6.1820002 -3.0393004 1.8224282 0
6.1750002 -3.0460939 1.820711 0
6.1680002 -3.0528617 1.8189937 0
6.1610003 -3.0596044 1.8172766 0
6.1530004 -3.0657969 1.8153141 0
6.1460004 -3.0724871 1.8135968 0
6.1390004 -3.0791523 1.8118795 0
6.1320004 -3.0857921 1.8101624 0
6.1250005 -3.0924067 1.8084451 0
6.1180005 -3.0989959 1.806728 0
6.1110005 -3.1055601 1.8050107 0
6.1040006 -3.1120989 1.8032936 0
6.0970006 -3.1186125 1.8015763 0
6.0900002 -3.1251006 1.799859 0
6.0830002 -3.1315637 1.7981417 0
6.0760002 -3.1380012 1.7964245 0
6.0690002 -3.1444139 1.7947073 0
6.0620003 -3.1508012 1.7929901 0
6.0550003 -3.1571631 1.7912729 0
6.0480003 -3.1635001 1.7895557 0
6.0420003 -3.1703656 1.7880837 0
6.0350003 -3.1766534 1.7863666 0
6.0280004 -3.1829164 1.7846493 0
6.0210004 -3.1891539 1.7829322 0
6.0140004 -3.1953661 1.7812148 0
6.0070004 -3.2015533 1.7794976 0
6.0010004 -3.2082796 1.7780257 0
5.9940004 -3.2144182 1.7763085 0
5.9870005 -3.2205312 1.7745912 0
5.9800005 -3.226619 1.7728741 0
6.3300004 -2.9019876 1.8480388 0
6.3220005 -2.9088168 1.8460906 0
6.3150005 -2.9161024 1.8443861 0
6.3070002 -2.9228756 1.8424379 0
6.3000002 -2.9301088 1.8407333 0
6.2920003 -2.9368262 1.8387852 0
6.2850003 -2.9440074 1.8370806 0
6.2770004 -2.9506688 1.8351325 0
6.2700005 -2.9577975 1.8334279 0
6.2620006 -2.9644032 1.8314798 0
6.2550006 -2.9714794 1.8297752 0
6.2480001 -2.9785304 1.8280705 0
6.2400002 -2.9850528 1.8261224 0
6.2330003 -2.9920516 1.8244178 0
6.2260003 -2.9990253 1.8227133 0
6.2180004 -3.005465 1.8207651 0
6.2110004 -3.0123861 1.8190606 0
6.2040005 -3.0192821 1.817356 0
6.1970005 -3.0261528 1.8156513 0
6.1890006 -3.0324824 1.8137033 0
6.1820002 -3.0393004 1.8119986 0
6.1750002 -3.0460939 1.8102939 0
6.1680002 -3.0528617 1.8085893 0
6.1610003 -3.0596044 1.8068849 0
6.1530004 -3.0657969 1.8049368 0
6.1460004 -3.0724871 1.8032321 0
6.1390004 -3.0791523 1.8015275 0
6.1320004 -3.0857921 1.799823 0
6.1250005 -3.0924067 1.7981184 0
6.1180005 -3.0989959 1.7964138 0
6.1110005 -3.1055601 1.7947092 0
6.1040006 -3.1120989 1.7930045 0
6.0970006 -3.1186125 1.7913001 0
6.0900002 -3.1251006 1.7895954 0
6.0830002 -3.1315637 1.7878907 0
6.0760002 -3.1380012 1.7861861 0
6.0690002 -3.1444139 1.7844815 0
6.0620003 -3.1508012 1.7827768 0
6.0550003 -3.1571631 1.7810724 0
6.0480003 -3.1635001 1.7793678 0
6.0420003 -3.1703656 1.7779067 0
6.0350003 -3.1766534 1.7762021 0
6.0280004 -3.1829164 1.7744975 0
6.0210004 -3.1891539 1.7727928 0
6.0140004 -3.1953661 1.7710882 0
6.0070004 -3.2015533 1.7693837 0
6.0010004 -3.2082796 1.7679226 0
5.9940004 -3.2144182 1.7662181 0
5.9870005 -3.2205312 1.7645134 0
5.9800005 -3.226619 1.7628088 0
6.3300004 -2.9019876 1.8373421 0
6.3220005 -2.9088168 1.8354084 0
6.3150005 -2.9161024 1.8337165 0
6.3070002 -2.9228756 1.8317828 0
6.3000002 -2.9301088 1.8300909 0
6.2920003 -2.9368262 1.8281571 0
6.2850003 -2.9440074 1.8264651 0
6.2770004 -2.9506688 1.8245316 0
6.2700005 -2.9577975 1.8228396 0
6.2620006 -2.9644032 1.8209059 0
6.2550006 -2.9714794 1.8192139 0
6.2480001 -2.9785304 1.8175218 0
6.2400002 -2.9850528 1.8155881 0
6.2330003 -2.9920516 1.8138962 0
6.2260003 -2.9990253 1.8122042 0
6.2180004 -3.005465 1.8102707 0
6.2110004 -3.0123861 1.8085787 0
6.2040005 -3.0192821 1.8068867 0
6.1970005 -3.0261528 1.8051946 0
6.1890006 -3.0324824 1.803261 0
6.1820002 -3.0393004 1.801569 0
6.1750002 -3.0460939 1.799877 0
6.1680002 -3.0528617 1.798185 0
6.1610003 -3.0596044 1.7964931 0
6.1530004 -3.0657969 1.7945595 0
6.1460004 -3.0724871 1.7928674 0
6.1390004 -3.0791523 1.7911755 0
6.1320004 -3.0857921 1.7894835 0
6.1250005 -3.0924067 1.7877915 0
6.1180005 -3.0989959 1.7860996 0
6.1110005 -3.1055601 1.7844076 0
6.1040006 -3.1120989 1.7827157 0
6.0970006 -3.1186125 1.7810237 0
6.0900002 -3.1251006 1.7793317 0
6.0830002 -3.1315637 1.7776397 0
6.0760002 -3.1380012 1.7759477 0
6.0690002 -3.1444139 1.7742556 0
6.0620003 -3.1508012 1.7725637 0
6.0550003 -3.1571631 1.7708718 0
6.0480003 -3.1635001 1.7691798 0
6.0420003 -3.1703656 1.7677295 0
6.0350003 -3.1766534 1.7660376 0
6.0280004 -3.1829164 1.7643456 0
6.0210004 -3.1891539 1.7626537 0
6.0140004 -3.1953661 1.7609618 0
6.0070004 -3.2015533 1.7592698 0
6.0010004 -3.2082796 1.7578195 0
5.9940004 -3.2144182 1.7561276 0
5.9870005 -3.2205312 1.7544355 0
5.9810004 -3.2271891 1.7529854 0
6.3300004 -2.9019876 1.8266456 0
6.3220005 -2.9088168 1.8247263 0
6.3150005 -2.9161024 1.823047 0
6.3070002 -2.9228756 1.8211277 0
6.3000002 -2.9301088 1.8194484 0
6.2920003 -2.9368262 1.8175291 0
6.2850003 -2.9440074 1.8158498 0
6.2770004 -2.9506688 1.8139305 0
6.2700005 -2.9577975 1.8122511 0
6.2620006 -2.9644032 1.8103319 0
6.2550006 -2.9714794 1.8086526 0
6.2480001 -2.9785304 1.8069731 0
6.2400002 -2.9850528 1.8050539 0
6.2330003 -2.9920516 1.8033745 0
6.2260003 -2.9990253 1.8016952 0
6.2180004 -3.005465 1.7997761 0
6.2110004 -3.0123861 1.7980967 0
6.2040005 -3.0192821 1.7964174 0
6.1970005 -3.0261528 1.7947381 0
6.1890006 -3.0324824 1.7928188 0
6.1820002 -3.0393004 1.7911392 0
6.1750002 -3.0460939 1.7894601 0
6.1680002 -3.0528617 1.7877808 0
6.1610003 -3.0596044 1.7861013 0
6.1530004 -3.0657969 1.7841821 0
6.1460004 -3.0724871 1.7825028 0
6.1390004 -3.0791523 1.7808235 0
6.1320004 -3.0857921 1.779144 0
6.1250005 -3.0924067 1.7774647 0
6.1180005 -3.0989959 1.7757854 0
6.1110005 -3.1055601 1.774106 0
6.1040006 -3.1120989 1.7724267 0
6.0970006 -3.1186125 1.7707474 0
6.0900002 -3.1251006 1.769068 0
6.0830002 -3.1315637 1.7673886 0
6.0760002 -3.1380012 1.7657093 0
6.0690002 -3.1444139 1.7640299 0
6.0620003 -3.1508012 1.7623506 0
6.0550003 -3.1571631 1.7606713 0
6.0480003 -3.1635001 1.758992 0
6.0420003 -3.1703656 1.7575525 0
6.0350003 -3.1766534 1.7558731 0
6.0280004 -3.1829164 1.7541938 0
6.0210004 -3.1891539 1.7525144 0
6.0140004 -3.1953661 1.7508352 0
6.0070004 -3.2015533 1.7491558 0
6.0010004 -3.2082796 1.7477163 0
5.9940004 -3.2144182 1.746037 0
5.9870005 -3.2205312 1.7443577 0
5.9810004 -3.2271891 1.7429183 0
6.3300004 -2.9019876 1.815949 0
6.3220005 -2.9088168 1.8140441 0
6.3150005 -2.9161024 1.8123775 0
6.3070002 -2.9228756 1.8104725 0
6.3000002 -2.9301088 1.8088058 0
6.2920003 -2.9368262 1.8069011 0
6.2850003 -2.9440074 1.8052343 0
6.2770004 -2.9506688 1.8033296 0
6.2700005 -2.9577975 1.8016628 0
6.2620006 -2.9644032 1.7997581 0
6.2550006 -2.9714794 1.7980913 0
6.2480001 -2.9785304 1.7964245 0
6.2400002 -2.9850528 1.7945197 0
6.2330003 -2.9920516 1.792853 0
6.2260003 -2.9990253 1.7911863 0
6.2180004 -3.005465 1.7892815 0
6.2110004 -3.0123861 1.7876148 0
6.2040005 -3.0192821 1.785948 0
6.1970005 -3.0261528 1.7842814 0
6.1890006 -3.0324824 1.7823765 0
6.1820002 -3.0393004 1.7807097 0
6.1750002 -3.0460939 1.779043 0
6.1680002 -3.0528617 1.7773763 0
6.1610003 -3.0596044 1.7757096 0
6.1530004 -3.0657969 1.7738048 0
6.1460004 -3.0724871 1.7721381 0
6.1390004 -3.0791523 1.7704713 0
6.1320004 -3.0857921 1.7688047 0
6.1250005 -3.0924067 1.767138 0
6.1180005 -3.0989959 1.7654712 0
6.1110005 -3.1055601 1.7638046 0
6.1040006 -3.1120989 1.7621378 0
6.0970006 -3.1186125 1.7604711 0
6.0900002 -3.1251006 1.7588043 0
6.0830002 -3.1315637 1.7571375 0
6.0760002 -3.1380012 1.7554709 0
6.0690002 -3.1444139 1.7538042 0
6.0620003 -3.1508012 1.7521374 0
6.0550003 -3.1571631 1.7504708 0
6.0480003 -3.1635001 1.748804 0
6.0420003 -3.1703656 1.7473754 0
6.0350003 -3.1766534 1.7457086 0
6.0280004 -3.1829164 1.744042 0
6.0210004 -3.1891539 1.7423753 0
6.0140004 -3.1953661 1.7407085 0
6.0070004 -3.2015533 1.7390418 0
6.0010004 -3.2082796 1.7376132 0
5.9940004 -3.2144182 1.7359464 0
5.9870005 -3.2205312 1.7342799 0
5.9810004 -3.2271891 1.7328511 0
6.3300004 -2.9019876 1.8052523 0
6.3220005 -2.9088168 1.803362 0
6.3150005 -2.9161024 1.801708 0
6.3070002 -2.9228756 1.7998174 0
6.3000002 -2.9301088 1.7981634 0
6.2920003 -2.9368262 1.7962731 0
6.2850003 -2.9440074 1.794619 0
6.2770004 -2.9506688 1.7927285 0
6.2700005 -2.9577975 1.7910744 0
6.2620006 -2.9644032 1.7891841 0
6.2550006 -2.9714794 1.7875301 0
6.2480001 -2.9785304 1.7858758 0
6.2400002 -2.9850528 1.7839855 0
6.2330003 -2.9920516 1.7823315 0
6.2260003 -2.9990253 1.7806773 0
6.2180004 -3.005465 1.7787869 0
6.2110004 -3.0123861 1.7771329 0
6.2040005 -3.0192821 1.7754787 0
6.1970005 -3.0261528 1.7738247 0
6.1890006 -3.0324824 1.7719343 0
6.1820002 -3.0393004 1.7702801 0
6.1750002 -3.0460939 1.7686261 0
6.1680002 -3.0528617 1.7669719 0
6.1610003 -3.0596044 1.7653179 0
6.1530004 -3.0657969 1.7634275 0
6.1460004 -3.0724871 1.7617733 0
6.1390004 -3.0791523 1.7601193 0
6.1320004 -3.0857921 1.7584652 0
6.1250005 -3.0924067 1.7568111 0
6.1180005 -3.0989959 1.755157 0
6.1110005 -3.1055601 1.753503 0
6.1040006 -3.1120989 1.7518489 0
6.0970006 -3.1186125 1.7501948 0
6.0900002 -3.1251006 1.7485406 0
6.0830002 -3.1315637 1.7468865 0
6.0760002 -3.1380012 1.7452325 0
6.0690002 -3.1444139 1.7435784 0
6.0620003 -3.1508012 1.7419243 0
6.0550003 -3.1571631 1.7402703 0
6.0480003 -3.1635001 1.7386161 0
6.0420003 -3.1703656 1.7371984 0
6.0350003 -3.1766534 1.7355443 0
6.0280004 -3.1829164 1.7338901 0
6.0210004 -3.1891539 1.732236 0
6.0140004 -3.1953661 1.7305819 0
6.0070004 -3.2015533 1.7289279 0
6.0010004 -3.2082796 1.72751 0
5.9940004 -3.2144182 1.7258559 0
5.9870005 -3.2205312 1.7242019 0
5.9810004 -3.2271891 1.722784 0
6.3300004 -2.9019876 1.7945558 0
6.3220005 -2.9088168 1.7926799 0
6.3150005 -2.9161024 1.7910384 0
6.3070002 -2.9228756 1.7891624 0
6.3000002 -2.9301088 1.7875209 0
6.2920003 -2.9368262 1.785645 0
6.2850003 -2.9440074 1.7840035 0
6.2770004 -2.9506688 1.7821276 0
6.2700005 -2.9577975 1.7804861 0
6.2620006 -2.9644032 1.7786102 0
6.2550006 -2.9714794 1.7769687 0
6.2480001 -2.9785304 1.7753271 0
6.2400002 -2.9850528 1.7734512 0
6.2330003 -2.9920516 1.7718098 0
6.2260003 -2.9990253 1.7701683 0
6.2180004 -3.005465 1.7682923 0
6.2110004 -3.0123861 1.7666509 0
6.2040005 -3.0192821 1.7650094 0
6.1970005 -3.0261528 1.763368 0
6.1890006 -3.0324824 1.761492 0
6.1820002 -3.0393004 1.7598505 0
6.1750002 -3.0460939 1.758209 0
6.1680002 -3.0528617 1.7565676 0
6.1610003 -3.0596044 1.7549261 0
6.1530004 -3.0657969 1.7530501 0
6.1460004 -3.0724871 1.7514087 0
6.1390004 -3.0791523 1.7497673 0
6.1320004 -3.0857921 1.7481258 0
6.1250005 -3.0924067 1.7464844 0
6.1180005 -3.0989959 1.7448429 0
6.1110005 -3.1055601 1.7432014 0
6.1040006 -3.1120989 1.74156 0
6.0970006 -3.1186125 1.7399185 0
6.0900002 -3.1251006 1.738277 0
6.0830002 -3.1315637 1.7366356 0
6.0760002 -3.1380012 1.7349941 0
6.0690002 -3.1444139 1.7333525 0
6.0620003 -3.1508012 1.731711 0
6.0550003 -3.1571631 1.7300696 0
6.0480003 -3.1635001 1.7284282 0
6.0420003 -3.1703656 1.7270212 0
6.0350003 -3.1766534 1.7253798 0
6.0280004 -3.1829164 1.7237383 0
6.0210004 -3.1891539 1.7220968 0
6.0140004 -3.1953661 1.7204554 0
6.0070004 -3.2015533 1.7188139 0
6.0010004 -3.2082796 1.717407 0
5.9940004 -3.2144182 1.7157655 0
5.9870005 -3.2205312 1.7141241 0
5.9810004 -3.2271891 1.7127171 0
6.3300004 -2.9019876 1.7838593 0
6.3220005 -2.9088168 1.7819977 0
6.3150005 -2.9161024 1.7803688 0
6.3070002 -2.9228756 1.7785072 0
6.3000002 -2.9301088 1.7768785 0
6.2920003 -2.9368262 1.775017 0
6.2850003 -2.9440074 1.7733881 0
6.2770004 -2.9506688 1.7715266 0
6.2700005 -2.9577975 1.7698978 0
6.2620006 -2.9644032 1.7680362 0
6.2550006 -2.9714794 1.7664074 0
6.2480001 -2.9785304 1.7647785 0
6.2400002 -2.9850528 1.762917 0
6.2330003 -2.9920516 1.7612882 0
6.2260003 -2.9990253 1.7596593 0
6.2180004 -3.005465 1.7577978 0
6.2110004 -3.0123861 1.756169 0
6.2040005 -3.0192821 1.7545402 0
6.1970005 -3.0261528 1.7529113 0
6.1890006 -3.0324824 1.7510498 0
6.1820002 -3.0393004 1.7494209 0
6.1750002 -3.0460939 1.7477921 0
6.1680002 -3.0528617 1.7461632 0
6.1610003 -3.0596044 1.7445344 0
6.1530004 -3.0657969 1.7426728 0
6.1460004 -3.0724871 1.741044 0
6.1390004 -3.0791523 1.7394153 0
6.1320004 -3.0857921 1.7377864 0
6.1250005 -3.0924067 1.7361575 0
6.1180005 -3.0989959 1.7345288 0
6.1110005 -3.1055601 1.7328999 0
6.1040006 -3.1120989 1.731271 0
6.0970006 -3.1186125 1.7296423 0
6.0900002 -3.1251006 1.7280133 0
6.0830002 -3.1315637 1.7263844 0
6.0760002 -3.1380012 1.7247556 0
6.0690002 -3.1444139 1.7231268 0
6.0620003 -3.1508012 1.7214979 0
6.0550003 -3.1571631 1.7198691 0
6.0480003 -3.1635001 1.7182403 0
6.0420003 -3.1703656 1.7168442 0
6.0350003 -3.1766534 1.7152153 0
6.0280004 -3.1829164 1.7135864 0
6.0210004 -3.1891539 1.7119576 0
6.0140004 -3.1953661 1.7103288 0
6.0080004 -3.202116 1.7089326 0
6.0010004 -3.2082796 1.7073039 0
5.9940004 -3.2144182 1.705675 0
5.9870005 -3.2205312 1.7040461 0
5.9810004 -3.2271891 1.70265 0
6.3300004 -2.9019876 1.7731626 0
6.3220005 -2.9088168 1.7713156 0
6.3150005 -2.9161024 1.7696993 0
6.3070002 -2.9228756 1.7678522 0
6.3000002 -2.9301088 1.7662359 0
6.2920003 -2.9368262 1.7643889 0
6.2850003 -2.9440074 1.7627727 0
6.2770004 -2.9506688 1.7609257 0
6.2700005 -2.9577975 1.7593094 0
6.2620006 -2.9644032 1.7574624 0
6.2550006 -2.9714794 1.7558461 0
6.2480001 -2.9785304 1.7542298 0
6.2400002 -2.9850528 1.7523828 0
6.2330003 -2.9920516 1.7507665 0
6.2260003 -2.9990253 1.7491503 0
6.2180004 -3.005465 1.7473032 0
6.2110004 -3.0123861 1.745687 0
6.2040005 -3.0192821 1.7440709 0
6.1970005 -3.0261528 1.7424546 0
6.1890006 -3.0324824 1.7406076 0
6.1820002 -3.0393004 1.7389913 0
6.1750002 -3.0460939 1.737375 0
6.1680002 -3.0528617 1.7357589 0
6.1610003 -3.0596044 1.7341427 0
6.1530004 -3.0657969 1.7322955 0
6.1460004 -3.0724871 1.7306794 0
6.1390004 -3.0791523 1.7290632 0
6.1320004 -3.0857921 1.7274469 0
6.1250005 -3.0924067 1.7258308 0
6.1180005 -3.0989959 1.7242146 0
6.1110005 -3.1055601 1.7225983 0
6.1040006 -3.1120989 1.7209821 0
6.0970006 -3.1186125 1.719366 0
6.0900002 -3.1251006 1.7177496 0
6.0830002 -3.1315637 1.7161334 0
6.0760002 -3.1380012 1.7145172 0
6.0690002 -3.1444139 1.712901 0
6.0620003 -3.1508012 1.7112848 0
6.0550003 -3.1571631 1.7096686 0
6.0480003 -3.1635001 1.7080524 0
6.0420003 -3.1703656 1.7066671 0
6.0350003 -3.1766534 1.7050508 0
6.0280004 -3.1829164 1.7034346 0
6.0210004 -3.1891539 1.7018185 0
6.0140004 -3.1953661 1.7002022 0
6.0080004 -3.202116 1.6988169 0
6.0010004 -3.2082796 1.6972007 0
5.9940004 -3.2144182 1.6955845 0
5.9870005 -3.2205312 1.6939683 0
5.9810004 -3.2271891 1.692583 0
6.3300004 -2.9019876 1.7624661 0
6.3220005 -2.9088168 1.7606335 0
6.3150005 -2.9161024 1.7590299 0
6.3070002 -2.9228756 1.7571971 0
6.3000002 -2.9301088 1.7555934 0
6.2920003 -2.9368262 1.7537608 0
6.2850003 -2.9440074 1.7521572 0
6.2770004 -2.9506688 1.7503246 0
6.2700005 -2.9577975 1.7487211 0
6.2620006 -2.9644032 1.7468884 0
6.2550006 -2.9714794 1.7452849 0
6.2480001 -2.9785304 1.7436811 0
6.2400002 -2.9850528 1.7418485 0
6.2330003 -2.9920516 1.7402449 0
6.2260003 -2.9990253 1.7386414 0
6.2180004 -3.005465 1.7368087 0
6.2110004 -3.0123861 1.7352052 0
6.2040005 -3.0192821 1.7336016 0
6.1970005 -3.0261528 1.731998 0
6.1890006 -3.0324824 1.7301654 0
6.1820002 -3.0393004 1.7285616 0
6.1750002 -3.0460939 1.726958 0
6.1680002 -3.0528617 1.7253544 0
6.1610003 -3.0596044 1.7237509 0
6.1530004 -3.0657969 1.7219182 0
6.1460004 -3.0724871 1.7203147 0
6.1390004 -3.0791523 1.718711 0
6.1320004 -3.0857921 1.7171075 0
6.1250005 -3.0924067 1.7155039 0
6.1180005 -3.0989959 1.7139003 0
6.1110005 -3.1055601 1.7122968 0
6.1040006 -3.1120989 1.7106932 0
6.0970006 -3.1186125 1.7090896 0
6.0900002 -3.1251006 1.7074859 0
6.0830002 -3.1315637 1.7058824 0
6.0760002 -3.1380012 1.7042787 0
6.0690002 -3.1444139 1.7026752 0
6.0620003 -3.1508012 1.7010716 0
6.0550003 -3.1571631 1.699468 0
6.0480003 -3.1635001 1.6978644 0
6.0420003 -3.1703656 1.6964899 0
6.0350003 -3.1766534 1.6948863 0
6.0280004 -3.1829164 1.6932828 0
6.0210004 -3.1891539 1.6916792 0
6.0140004 -3.1953661 1.6900756 0
6.0080004 -3.202116 1.6887012 0
6.0010004 -3.2082796 1.6870975 0
5.9940004 -3.2144182 1.6854939 0
5.9870005 -3.2205312 1.6838905 0
5.9810004 -3.2271891 1.6825159 0
6.3300004 -2.9019876 1.7517695 0
6.3220005 -2.9088168 1.7499512 0
6.3150005 -2.9161024 1.7483603 0
6.3070002 -2.9228756 1.746542 0
6.3000002 -2.9301088 1.744951 0
6.2920003 -2.9368262 1.7431328 0
6.2850003 -2.9440074 1.7415419 0
6.2770004 -2.9506688 1.7397236 0
6.2700005 -2.9577975 1.7381327 0
6.2620006 -2.9644032 1.7363145 0
6.2550006 -2.9714794 1.7347234 0
6.2480001 -2.9785304 1.7331325 0
6.2400002 -2.9850528 1.7313143 0
6.2330003 -2.9920516 1.7297233 0
6.2260003 -2.9990253 1.7281324 0
6.2180004 -3.005465 1.7263142 0
6.2110004 -3.0123861 1.7247232 0
6.2040005 -3.0192821 1.7231323 0
6.1970005 -3.0261528 1.7215413 0
6.1890006 -3.0324824 1.7197231 0
6.1820002 -3.0393004 1.718132 0
6.1750002 -3.0460939 1.7165411 0
6.1680002 -3.0528617 1.7149501 0
6.1610003 -3.0596044 1.7133592 0
6.1530004 -3.0657969 1.7115409 0
6.1460004 -3.0724871 1.70995 0
6.1390004 -3.0791523 1.708359 0
6.1320004 -3.0857921 1.7067682 0
6.1250005 -3.0924067 1.7051771 0
6.1180005 -3.0989959 1.7035862 0
6.1110005 -3.1055601 1.7019953 0
6.1040006 -3.1120989 1.7004043 0
6.0970006 -3.1186125 1.6988133 0
6.0900002 -3.1251006 1.6972222 0
6.0830002 -3.1315637 1.6956313 0
6.0760002 -3.1380012 1.6940404 0
6.0690002 -3.1444139 1.6924495 0
6.0620003 -3.1508012 1.6908585 0
6.0550003 -3.1571631 1.6892675 0
6.0480003 -3.1635001 1.6876765 0
6.0420003 -3.1703656 1.6863129 0
6.0350003 -3.1766534 1.6847218 0
6.0280004 -3.1829164 1.683131 0
6.0210004 -3.1891539 1.68154 0
6.0140004 -3.1953661 1.679949 0
6.0080004 -3.202116 1.6785854 0
6.0010004 -3.2082796 1.6769943 0
5.9940004 -3.2144182 1.6754035 0
5.9870005 -3.2205312 1.6738125 0
5.9810004 -3.2271891 1.6724489 0
6.3300004 -2.9019876 1.7410729 0
6.3220005 -2.9088168 1.7392691 0
6.3150005 -2.9161024 1.7376908 0
6.3070002 -2.9228756 1.7358869 0
6.3000002 -2.9301088 1.7343086 0
6.2920003 -2.9368262 1.7325047 0
6.2850003 -2.9440074 1.7309264 0
6.2770004 -2.9506688 1.7291228 0
6.2700005 -2.9577975 1.7275444 0
6.2620006 -2.9644032 1.7257406 0
6.2550006 -2.9714794 1.7241622 0
6.2480001 -2.9785304 1.7225838 0
6.2400002 -2.9850528 1.72078 0
6.2330003 -2.9920516 1.7192017 0
6.2260003 -2.9990253 1.7176234 0
6.2180004 -3.005465 1.7158196 0
6.2110004 -3.0123861 1.7142413 0
6.2040005 -3.0192821 1.7126629 0
6.1970005 -3.0261528 1.7110846 0
6.1890006 -3.0324824 1.7092808 0
6.1820002 -3.0393004 1.7077024 0
6.1750002 -3.0460939 1.7061241 0
6.1680002 -3.0528617 1.7045457 0
6.1610003 -3.0596044 1.7029674 0
6.1530004 -3.0657969 1.7011636 0
6.1460004 -3.0724871 1.6995853 0
6.1390004 -3.0791523 1.698007 0
6.1320004 -3.0857921 1.6964287 0
6.1250005 -3.0924067 1.6948503 0
6.1180005 -3.0989959 1.693272 0
6.1110005 -3.1055601 1.6916937 0
6.1040006 -3.1120989 1.6901153 0
6.0970006 -3.1186125 1.688537 0
6.0900002 -3.1251006 1.6869586 0
6.0830002 -3.1315637 1.6853802 0
6.0760002 -3.1380012 1.6838019 0
6.0690002 -3.1444139 1.6822236 0
6.0620003 -3.1508012 1.6806452 0
6.0550003 -3.1571631 1.6790669 0
6.0480003 -3.1635001 1.6774886 0
6.0420003 -3.1703656 1.6761358 0
6.0350003 -3.1766534 1.6745574 0
6.0280004 -3.1829164 1.6729792 0
6.0210004 -3.1891539 1.6714009 0
6.0140004 -3.1953661 1.6698226 0
6.0080004 -3.202116 1.6684697 0
6.0010004 -3.2082796 1.6668913 0
5.9940004 -3.2144182 1.665313 0
5.9870005 -3.2205312 1.6637347 0
5.9810004 -3.2271891 1.6623818 0
6.3300004 -2.9019876 1.7303764 0
6.3220005 -2.9088168 1.728587 0
6.3150005 -2.9161024 1.7270213 0
6.3070002 -2.9228756 1.7252318 0
6.3000002 -2.9301088 1.7236662 0
6.2920003 -2.9368262 1.7218767 0
6.2850003 -2.9440074 1.720311 0
6.2770004 -2.9506688 1.7185217 0
6.2700005 -2.9577975 1.716956 0
6.2620006 -2.9644032 1.7151667 0
6.2550006 -2.9714794 1.713601 0
6.2480001 -2.9785304 1.7120351 0
6.2400002 -2.9850528 1.7102458 0
6.2330003 -2.9920516 1.70868 0
6.2260003 -2.9990253 1.7071143 0
6.2180004 -3.005465 1.7053251 0
6.2110004 -3.0123861 1.7037593 0
6.2040005 -3.0192821 1.7021936 0
6.1970005 -3.0261528 1.7006279 0
6.1890006 -3.0324824 1.6988386 0
6.1820002 -3.0393004 1.6972728 0
6.1750002 -3.0460939 1.6957071 0
6.1680002 -3.0528617 1.6941414 0
6.1610003 -3.0596044 1.6925757 0
6.1540003 -3.0663218 1.69101 0
6.1460004 -3.0724871 1.6892207 0
6.1390004 -3.0791523 1.687655 0
6.1320004 -3.0857921 1.6860893 0
6.1250005 -3.0924067 1.6845235 0
6.1180005 -3.0989959 1.6829578 0
6.1110005 -3.1055601 1.6813922 0
6.1040006 -3.1120989 1.6798265 0
6.0970006 -3.1186125 1.6782607 0
6.0900002 -3.1251006 1.6766949 0
6.0830002 -3.1315637 1.6751293 0
6.0760002 -3.1380012 1.6735636 0
6.0690002 -3.1444139 1.6719978 0
6.0620003 -3.1508012 1.6704321 0
6.0550003 -3.1571631 1.6688664 0
6.0480003 -3.1635001 1.6673008 0
6.0420003 -3.1703656 1.6659588 0
6.0350003 -3.1766534 1.6643931 0
6.0280004 -3.1829164 1.6628273 0
6.0210004 -3.1891539 1.6612616 0
6.0140004 -3.1953661 1.6596959 0
6.0080004 -3.202116 1.6583538 0
6.0010004 -3.2082796 1.6567882 0
5.9940004 -3.2144182 1.6552225 0
5.9870005 -3.2205312 1.6536567 0
5.9810004 -3.2271891 1.6523148 0
6.3300004 -2.9019876 1.7196797 0
6.3220005 -2.9088168 1.7179048 0
6.3150005 -2.9161024 1.7163517 0
6.3070002 -2.9228756 1.7145767 0
6.3000002 -2.9301088 1.7130237 0
6.2920003 -2.9368262 1.7112486 0
6.2850003 -2.9440074 1.7096957 0
6.2770004 -2.9506688 1.7079207 0
6.2700005 -2.9577975 1.7063677 0
6.2630005 -2.964901 1.7048146 0
6.2550006 -2.9714794 1.7030396 0
6.2480001 -2.9785304 1.7014865 0
6.2400002 -2.9850528 1.6997116 0
6.2330003 -2.9920516 1.6981585 0
6.2260003 -2.9990253 1.6966054 0
6.2180004 -3.005465 1.6948304 0
6.2110004 -3.0123861 1.6932775 0
6.2040005 -3.0192821 1.6917243 0
6.1970005 -3.0261528 1.6901712 0
6.1890006 -3.0324824 1.6883963 0
6.1820002 -3.0393004 1.6868432 0
6.1750002 -3.0460939 1.6852901 0
6.1680002 -3.0528617 1.6837369 0
6.1610003 -3.0596044 1.682184 0
6.1540003 -3.0663218 1.6806308 0
6.1460004 -3.0724871 1.678856 0
6.1390004 -3.0791523 1.6773028 0
6.1320004 -3.0857921 1.6757499 0
6.1250005 -3.0924067 1.6741967 0
6.1180005 -3.0989959 1.6726437 0
6.1110005 -3.1055601 1.6710906 0
6.1040006 -3.1120989 1.6695374 0
6.0970006 -3.1186125 1.6679845 0
6.0900002 -3.1251006 1.6664312 0
6.0830002 -3.1315637 1.6648782 0
6.0760002 -3.1380012 1.6633251 0
6.0690002 -3.1444139 1.6617721 0
6.0620003 -3.1508012 1.660219 0
6.0550003 -3.1571631 1.6586659 0
6.0480003 -3.1635001 1.6571128 0
6.0420003 -3.1703656 1.6557816 0
6.0350003 -3.1766534 1.6542286 0
6.0280004 -3.1829164 1.6526754 0
6.0210004 -3.1891539 1.6511225 0
6.0140004 -3.1953661 1.6495693 0
6.0080004 -3.202116 1.6482382 0
6.0010004 -3.2082796 1.646685 0
5.9940004 -3.2144182 1.6451319 0
5.9870005 -3.2205312 1.6435789 0
5.9810004 -3.2271891 1.6422477 0
6.3300004 -2.9019876 1.7089832 0
6.3220005 -2.9088168 1.7072227 0
6.3150005 -2.9161024 1.7056823 0
6.3070002 -2.9228756 1.7039216 0
6.3000002 -2.9301088 1.7023811 0
6.2920003 -2.9368262 1.7006207 0
6.2850003 -2.9440074 1.6990802 0
6.2770004 -2.9506688 1.6973197 0
6.2700005 -2.9577975 1.6957792 0
6.2630005 -2.964901 1.6942389 0
6.2550006 -2.9714794 1.6924783 0
6.2480001 -2.9785304 1.6909378 0
6.2400002 -2.9850528 1.6891774 0
6.2330003 -2.9920516 1.6876369 0
6.2260003 -2.9990253 1.6860964 0
6.2180004 -3.005465 1.6843359 0
6.2110004 -3.0123861 1.6827954 0
6.2040005 -3.0192821 1.6812551 0
6.1970005 -3.0261528 1.6797147 0
6.1890006 -3.0324824 1.6779541 0
6.1820002 -3.0393004 1.6764135 0
6.1750002 -3.0460939 1.674873 0
6.1680002 -3.0528617 1.6733327 0
6.1610003 -3.0596044 1.6717923 0
6.1540003 -3.0663218 1.6702517 0
6.1460004 -3.0724871 1.6684912 0
6.1390004 -3.0791523 1.6669508 0
6.1320004 -3.0857921 1.6654103 0
6.1250005 -3.0924067 1.66387 0
6.1180005 -3.0989959 1.6623296 0
6.1110005 -3.1055601 1.660789 0
6.1040006 -3.1120989 1.6592486 0
6.0970006 -3.1186125 1.6577082 0
6.0900002 -3.1251006 1.6561676 0
6.0830002 -3.1315637 1.6546271 0
6.0760002 -3.1380012 1.6530867 0
6.0690002 -3.1444139 1.6515464 0
6.0620003 -3.1508012 1.6500058 0
6.0550003 -3.1571631 1.6484654 0
6.0490003 -3.164052 1.647145 0
6.0420003 -3.1703656 1.6456045 0
6.0350003 -3.1766534 1.6440641 0
6.0280004 -3.1829164 1.6425236 0
6.0210004 -3.1891539 1.6409832 0
6.0140004 -3.1953661 1.6394427 0
6.0080004 -3.202116 1.6381223 0
6.0010004 -3.2082796 1.6365819 0
5.9940004 -3.2144182 1.6350414 0
5.9870005 -3.2205312 1.6335011 0
5.9810004 -3.2271891 1.6321806 0
6.3300004 -2.9019876 1.6982865 0
6.3220005 -2.9088168 1.6965406 0
6.3150005 -2.9161024 1.6950127 0
6.3070002 -2.9228756 1.6932665 0
6.3000002 -2.9301088 1.6917387 0
6.2920003 -2.9368262 1.6899925 0
6.2850003 -2.9440074 1.6884648 0
6.2770004 -2.9506688 1.6867188 0
6.2700005 -2.9577975 1.6851909 0
6.2630005 -2.964901 1.6836631 0
6.2550006 -2.9714794 1.6819171 0
6.2480001 -2.9785304 1.6803892 0
6.2400002 -2.9850528 1.6786431 0
6.2330003 -2.9920516 1.6771152 0
6.2260003 -2.9990253 1.6755874 0
6.2180004 -3.005465 1.6738414 0
6.2110004 -3.0123861 1.6723136 0
6.2040005 -3.0192821 1.6707858 0
6.1970005 -3.0261528 1.669258 0
6.1890006 -3.0324824 1.6675118 0
6.1820002 -3.0393004 1.6659839 0
6.1750002 -3.0460939 1.6644561 0
6.1680002 -3.0528617 1.6629283 0
6.1610003 -3.0596044 1.6614004 0
6.1540003 -3.0663218 1.6598727 0
6.1460004 -3.0724871 1.6581266 0
6.1390004 -3.0791523 1.6565988 0
6.1320004 -3.0857921 1.6550709 0
6.1250005 -3.0924067 1.6535431 0
6.1180005 -3.0989959 1.6520153 0
6.1110005 -3.1055601 1.6504875 0
6.1040006 -3.1120989 1.6489598 0
6.0970006 -3.1186125 1.6474319 0
6.0900002 -3.1251006 1.6459039 0
6.0830002 -3.1315637 1.6443762 0
6.0760002 -3.1380012 1.6428483 0
6.0690002 -3.1444139 1.6413205 0
6.0620003 -3.1508012 1.6397927 0
6.0550003 -3.1571631 1.6382648 0
6.0490003 -3.164052 1.6369553 0
6.0420003 -3.1703656 1.6354274 0
6.0350003 -3.1766534 1.6338996 0
6.0280004 -3.1829164 1.6323718 0
6.0210004 -3.1891539 1.630844 0
6.0140004 -3.1953661 1.6293162 0
6.0080004 -3.202116 1.6280066 0
6.0010004 -3.2082796 1.6264787 0
5.9940004 -3.2144182 1.6249509 0
5.9870005 -3.2205312 1.6234231 0
5.9810004 -3.2271891 1.6221136 0
6.3300004 -2.9019876 1.68759 0
6.3220005 -2.9088168 1.6858584 0
6.3150005 -2.9161024 1.6843431 0
6.3070002 -2.9228756 1.6826115 0
6.3000002 -2.9301088 1.6810962 0
6.2920003 -2.9368262 1.6793647 0
6.2850003 -2.9440074 1.6778494 0
6.2770004 -2.9506688 1.6761178 0
6.2700005 -2.9577975 1.6746025 0
6.2630005 -2.964901 1.6730874 0
6.2550006 -2.9714794 1.6713557 0
6.2480001 -2.9785304 1.6698405 0
6.2400002 -2.9850528 1.6681089 0
6.2330003 -2.9920516 1.6665937 0
6.2260003 -2.9990253 1.6650784 0
6.2180004 -3.005465 1.6633468 0
6.2110004 -3.0123861 1.6618316 0
6.2040005 -3.0192821 1.6603165 0
6.1970005 -3.0261528 1.6588013 0
6.1890006 -3.0324824 1.6570696 0
6.1820002 -3.0393004 1.6555543 0
6.1750002 -3.0460939 1.6540391 0
6.1680002 -3.0528617 1.652524 0
6.1610003 -3.0596044 1.6510087 0
6.1540003 -3.0663218 1.6494936 0
6.1460004 -3.0724871 1.6477618 0
6.1390004 -3.0791523 1.6462468 0
6.1320004 -3.0857921 1.6447315 0
6.1250005 -3.0924067 1.6432164 0
6.1180005 -3.0989959 1.6417011 0
6.1110005 -3.1055601 1.640186 0
6.1040006 -3.1120989 1.6386707 0
6.0970006 -3.1186125 1.6371555 0
6.0900002 -3.1251006 1.6356403 0
6.0830002 -3.1315637 1.6341251 0
6.0760002 -3.1380012 1.6326098 0
6.0690002 -3.1444139 1.6310947 0
6.0620003 -3.1508012 1.6295794 0
6.0550003 -3.1571631 1.6280643 0
6.0490003 -3.164052 1.6267655 0
6.0420003 -3.1703656 1.6252503 0
6.0350003 -3.1766534 1.6237352 0
6.0280004 -3.1829164 1.62222 0
6.0210004 -3.1891539 1.6207048 0
6.0140004 -3.1953661 1.6191896 0
6.0080004 -3.202116 1.6178908 0
6.0010004 -3.2082796 1.6163757 0
5.9940004 -3.2144182 1.6148604 0
5.9870005 -3.2205312 1.6133453 0
5.9810004 -3.2271891 1.6120465 0
6.3300004 -2.9019876 1.6768935 0
6.3220005 -2.9088168 1.6751763 0
6.3150005 -2.9161024 1.6736736 0
6.3070002 -2.9228756 1.6719563 0
6.3000002 -2.9301088 1.6704538 0
6.2920003 -2.9368262 1.6687366 0
6.2850003 -2.9440074 1.6672339 0
6.2770004 -2.9506688 1.6655167 0
6.2700005 -2.9577975 1.6640142 0
6.2630005 -2.964901 1.6625116 0
6.2550006 -2.9714794 1.6607945 0
6.2480001 -2.9785304 1.6592917 0
6.2400002 -2.9850528 1.6575745 0
6.2330003 -2.9920516 1.656072 0
6.2260003 -2.9990253 1.6545694 0
6.2180004 -3.005465 1.6528523 0
6.2110004 -3.0123861 1.6513497 0
6.2040005 -3.0192821 1.649847 0
6.1970005 -3.0261528 1.6483446 0
6.1890006 -3.0324824 1.6466273 0
6.1820002 -3.0393004 1.6451247 0
6.1750002 -3.0460939 1.6436222 0
6.1680002 -3.0528617 1.6421195 0
6.1610003 -3.0596044 1.640617 0
6.1540003 -3.0663218 1.6391144 0
6.1460004 -3.0724871 1.6373973 0
6.1390004 -3.0791523 1.6358947 0
6.1320004 -3.0857921 1.634392 0
6.1250005 -3.0924067 1.6328895 0
6.1180005 -3.0989959 1.631387 0
6.1110005 -3.1055601 1.6298844 0
6.1040006 -3.1120989 1.6283818 0
6.0970006 -3.1186125 1.6268792 0
6.0900002 -3.1251006 1.6253766 0
6.0830002 -3.1315637 1.6238741 0
6.0760002 -3.1380012 1.6223714 0
6.0690002 -3.1444139 1.6208689 0
6.0620003 -3.1508012 1.6193663 0
6.0550003 -3.1571631 1.6178638 0
6.0490003 -3.164052 1.6165758 0
6.0420003 -3.1703656 1.6150732 0
6.0350003 -3.1766534 1.6135707 0
6.0280004 -3.1829164 1.6120682 0
6.0210004 -3.1891539 1.6105655 0
6.0140004 -3.1953661 1.609063 0
6.0080004 -3.202116 1.6077751 0
6.0010004 -3.2082796 1.6062726 0
5.9940004 -3.2144182 1.6047699 0
5.9870005 -3.2205312 1.6032673 0
5.9810004 -3.2271891 1.6019795 0
6.3220005 -2.9088168 1.664494 0
6.3150005 -2.9161024 1.663004 0
6.3070002 -2.9228756 1.6613013 0
