# .PCD v0.7 - Point Cloud Data file format
VERSION 0.7
FIELDS x y z intensity
SIZE 4 4 4 4
TYPE F F F F
COUNT 1 1 1 1
WIDTH 1459
HEIGHT 1
VIEWPOINT 0 0 0 1 0 0 0
POINTS 1459
DATA ascii
3.7130003 1.8364453 0.68487281 0
3.7190003 1.8338675 0.68538147 0
3.7260003 1.831833 0.68597496 0
3.7350004 1.8308988 0.68673795 0
3.7500002 1.8332977 0.68800962 0
3.7600002 1.8328468 0.68885744 0
3.7640002 1.8290154 0.68919653 0
3.6930003 1.8547809 0.67723727 0
3.6960003 1.8505673 0.67748618 0
3.7000003 1.8469163 0.67781806 0
3.7040002 1.843251 0.67815 0
3.7090003 1.8401413 0.67856491 0
3.7140002 1.8370134 0.67897975 0
3.7200003 1.8344342 0.67947757 0
3.7270002 1.8323976 0.68005842 0
3.7360003 1.8314613 0.68080521 0
3.7520003 1.8344196 0.68213284 0
3.7560003 1.83061 0.68246472 0
3.7610002 1.8273432 0.68287957 0
3.7730002 1.8279475 0.68387532 0
3.7860003 1.8290623 0.68495399 0
3.6950002 1.8559353 0.67145967 0
3.6980002 1.8517181 0.67170322 0
3.7020001 1.8480635 0.67202783 0
3.7060003 1.8443947 0.67235255 0
3.7100003 1.8407114 0.67267728 0
3.7150002 1.8375815 0.67308307 0
3.7220004 1.8355668 0.67365134 0
3.7290003 1.8335267 0.67421949 0
3.7390003 1.8331497 0.67503119 0
3.7530003 1.8349806 0.67616761 0
3.7520003 1.8283733 0.67608643 0
3.7600002 1.8267858 0.67673582 0
3.7700002 1.8262808 0.67754757 0
3.7810001 1.8262933 0.67844045 0
3.7940001 1.8273702 0.67949563 0
3.6980002 1.857667 0.6657542 0
3.7000003 1.8528689 0.66591299 0
3.7040002 1.8492107 0.66623044 0
3.7080002 1.8455381 0.66654789 0
3.7120004 1.8418512 0.66686535 0
3.7180002 1.8392862 0.66734159 0
3.7240002 1.8366996 0.66781783 0
3.7320004 1.8352206 0.66845274 0
3.7430003 1.8354009 0.66932577 0
3.7490003 1.8327366 0.66980195 0
3.7520003 1.8283733 0.67004007 0
3.7590003 1.8262285 0.67059565 0
3.7690003 1.8257253 0.67138934 0
3.7780004 1.824632 0.67210364 0
3.7890003 1.8246105 0.67297673 0
3.8030002 1.8261997 0.67408782 0
3.7000003 1.8588214 0.65996039 0
3.7030003 1.8545953 0.66019309 0
3.7070003 1.8509318 0.66050339 0
3.7110002 1.8472537 0.66081357 0
3.7160003 1.8441314 0.66120148 0
3.7210002 1.8409908 0.66158926 0
3.7280002 1.8389652 0.66213214 0
3.7370002 1.8380435 0.66283023 0
3.7460003 1.8370892 0.66352832 0
3.7460003 1.8310537 0.66352832 0
3.7520003 1.8283733 0.66399372 0
3.7600002 1.8267858 0.6646142 0
3.7680004 1.8251698 0.66523474 0
3.7770002 1.8240783 0.66593277 0
3.7860003 1.8229547 0.66663086 0
3.7980003 1.8234488 0.66756165 0
3.8110003 1.8244482 0.66856998 0
3.7040002 1.8611304 0.65431088 0
3.7070003 1.8568969 0.65453815 0
3.7110002 1.8532261 0.65484118 0
3.7150002 1.8495408 0.65514421 0
3.7200003 1.8464112 0.65552306 0
3.7260003 1.8438319 0.65597761 0
3.7340002 1.8423634 0.65658367 0
3.7430003 1.8414309 0.65726554 0
3.7420003 1.8348382 0.65718973 0
3.7470002 1.8316145 0.65756857 0
3.7540002 1.8294915 0.65809888 0
3.7610002 1.8273432 0.65862918 0
3.7690003 1.8257253 0.65923524 0
3.7770002 1.8240783 0.6598413 0
3.7850003 1.8224026 0.66044748 0
3.7950003 1.8217984 0.66120505 0
3.8060002 1.8217064 0.66203839 0
3.8190002 1.8226677 0.66302323 0
3.7100003 1.8645937 0.64879483 0
3.7130003 1.8603493 0.64901668 0
3.7170002 1.8566678 0.6493125 0
3.7210002 1.8529718 0.64960837 0
3.7270002 1.8504013 0.65005207 0
3.7340002 1.8483775 0.6505698 0
3.7400002 1.8457619 0.65101349 0
3.7390003 1.8391726 0.65093958 0
3.7440002 1.8359636 0.65130931 0
3.7500002 1.8332977 0.65175307 0
3.7560003 1.83061 0.65219682 0
3.7630002 1.8284578 0.65271449 0
3.7700002 1.8262808 0.65323222 0
3.7770002 1.8240783 0.65374988 0
3.7850003 1.8224026 0.65434158 0
3.7940001 1.8212482 0.65500712 0
3.8030002 1.8200613 0.65567279 0
3.8140004 1.8199352 0.65648627 0
3.8270001 1.8208584 0.6574477 0
3.7180002 1.8692113 0.64340144 0
3.7200003 1.8643773 0.64354575 0
3.7250001 1.8612565 0.64390647 0
3.7300003 1.8581181 0.64426726 0
3.7380002 1.8566712 0.64484447 0
3.7370002 1.850082 0.64477235 0
3.7380002 1.8446289 0.64484447 0
3.7430003 1.8414309 0.64520526 0
3.7470002 1.837652 0.64549387 0
3.7530003 1.8349806 0.64592677 0
3.7590003 1.8322874 0.64635968 0
3.7650003 1.8295727 0.64679259 0
3.7710001 1.8268363 0.6472255 0
3.7780004 1.824632 0.64773059 0
3.7860003 1.8229547 0.6483078 0
3.7940001 1.8212482 0.64888501 0
3.8030002 1.8200613 0.6495344 0
3.8120003 1.8188419 0.6501838 0
3.8230002 1.8186795 0.65097743 0
3.8360002 1.8195635 0.65191543 0
3.7370002 1.8801787 0.63875306 0
3.7370002 1.8741592 0.63875306 0
3.7360003 1.8675663 0.63868266 0
3.7350004 1.8609771 0.63861239 0
3.7350004 1.8549614 0.63861239 0
3.7380002 1.8506501 0.63882339 0
3.7420003 1.8468947 0.63910478 0
3.7460003 1.8431249 0.63938618 0
3.7510002 1.839903 0.6397379 0
3.7560003 1.8366635 0.64008963 0
3.7620003 1.8339651 0.64051175 0
3.7670002 1.8306875 0.64086348 0
3.7730002 1.8279475 0.6412856 0
3.7800002 1.8257396 0.64177799 0
3.7870002 1.8235065 0.64227045 0
3.7940001 1.8212482 0.6427629 0
3.8020003 1.8195128 0.64332569 0
3.8110003 1.8182954 0.64395881 0
3.8210003 1.8175901 0.64466232 0
3.8320003 1.8173918 0.64543617 0
3.8440003 1.8176947 0.64628035 0
3.7350004 1.8790241 0.63259661 0
3.7350004 1.8730086 0.63259661 0
3.7360003 1.8675663 0.63266516 0
3.7380002 1.8626924 0.63280225 0
3.7410002 1.8583813 0.63300788 0
3.7440002 1.8540593 0.63321352 0
3.7470002 1.8497266 0.63341916 0
3.7510002 1.8459477 0.63369334 0
3.7550004 1.8421545 0.63396752 0
3.7600002 1.8389075 0.63431025 0
3.7650003 1.8356425 0.63465297 0
3.7700002 1.8323597 0.6349957 0
3.7760003 1.8296143 0.63540697 0
3.7820003 1.8268472 0.63581824 0
3.7890003 1.8246105 0.63629806 0
3.7960002 1.8223485 0.63677788 0
3.8030002 1.8200613 0.6372577 0
3.8110003 1.8182954 0.63780606 0
3.8200002 1.8170451 0.63842297 0
3.8290002 1.8157628 0.63903981 0
3.8400002 1.8155301 0.63979381 0
3.8520002 1.8157971 0.64061636 0
3.7440002 1.8781872 0.62718159 0
3.7440002 1.8721553 0.62718159 0
3.7450004 1.8666952 0.62724835 0
3.7470002 1.8618015 0.6273818 0
3.7490003 1.8569005 0.62751532 0
3.7520003 1.8525587 0.62771553 0
3.7560003 1.8487707 0.6279825 0
3.7600002 1.8449683 0.62824947 0
3.7640002 1.8411512 0.62851644 0
3.7690003 1.8378792 0.6288501 0
3.7740002 1.8345891 0.62918383 0
3.7790003 1.8312809 0.62951756 0
3.7850003 1.8285085 0.62991798 0
3.7910004 1.8257145 0.6303184 0
3.7980003 1.8234488 0.63078558 0
3.8040001 1.8206096 0.63118601 0
3.8120003 1.8188419 0.63171995 0
3.8200002 1.8170451 0.63225389 0
3.8290002 1.8157628 0.63285458 0
3.8380003 1.8144478 0.63345528 0
3.8490002 1.8141789 0.63418937 0
3.8610003 1.8144082 0.63499027 0
3.7530003 1.8773177 0.62173408 0
3.7530003 1.8712695 0.62173408 0
3.7540002 1.8657913 0.62179905 0
3.7560003 1.8608778 0.62192893 0
3.7580004 1.8559572 0.62205881 0
3.7610002 1.8515936 0.6222536 0
3.7650003 1.8477824 0.62251335 0
3.7690003 1.8439562 0.62277311 0
3.7730002 1.8401159 0.62303287 0
3.7780004 1.8368188 0.62335753 0
3.7830002 1.8335031 0.6236822 0
3.7880003 1.8301699 0.62400687 0
3.7940001 1.8273702 0.6243965 0
3.8000002 1.8245491 0.62478614 0
3.8060002 1.8217064 0.62517577 0
3.8130002 1.8193884 0.62563032 0
3.8210003 1.8175901 0.62614983 0
3.8290002 1.8157628 0.62666929 0
3.8370004 1.8139068 0.6271888 0
3.8470004 1.8131005 0.62783819 0
3.8570004 1.812258 0.62848759 0
3.8690002 1.8124511 0.6292668 0
3.7620003 1.8764158 0.61625415 0
3.7630002 1.8709214 0.61631727 0
3.7630002 1.8648553 0.61631727 0
3.7650003 1.8599219 0.61644351 0
3.7670002 1.8549811 0.61656976 0
3.7700002 1.8505962 0.61675918 0
3.7740002 1.8467611 0.61701173 0
3.7780004 1.842912 0.61726427 0
3.7820003 1.8390483 0.61751682 0
3.7860003 1.83517 0.6177693 0
3.7910004 1.8318312 0.61808503 0
3.7970002 1.8290262 0.61846375 0
3.8030002 1.8261997 0.6188426 0
3.8090003 1.8233514 0.61922139 0
3.8150003 1.8204817 0.61960018 0
3.8220003 1.8181349 0.62004215 0
3.8290002 1.8157628 0.62048405 0
3.8380003 1.8144478 0.62105227 0
3.8460002 1.8125609 0.6215573 0
3.8560002 1.8117205 0.62218869 0
3.8660002 1.8108437 0.62282002 0
3.8780003 1.8109989 0.62357759 0
3.8930004 1.8127072 0.62452459 0
3.7720003 1.8760515 0.61080301 0
3.7720003 1.869969 0.61080301 0
3.7720003 1.8638867 0.61080301 0
3.7740002 1.8589332 0.61092567 0
3.7760003 1.8539728 0.61104834 0
3.7800002 1.8501271 0.61129367 0
3.7830002 1.8457079 0.61147761 0
3.7870002 1.8418349 0.61172295 0
3.7910004 1.837948 0.61196828 0
3.7950003 1.8340461 0.61221361 0
3.8000002 1.830682 0.61252022 0
3.8060002 1.8278501 0.61288822 0
3.8110003 1.8244482 0.61319488 0
3.8180003 1.8221213 0.61362416 0
3.8240004 1.8192244 0.61399215 0
3.8310003 1.8168488 0.61442149 0
3.8380003 1.8144478 0.61485076 0
3.8470004 1.8131005 0.6154027 0
3.8550003 1.811183 0.61589336 0
3.8650002 1.8103082 0.6165067 0
3.8750002 1.8093972 0.61711997 0
3.8870003 1.8095144 0.61785591 0
3.9010003 1.810649 0.61871451 0
3.9070003 1.8075049 0.61908251 0
3.9140003 1.804866 0.61951184 0
3.7820003 1.8756511 0.60531586 0
3.7810001 1.8689841 0.60525632 0
3.7820003 1.8634501 0.60531586 0
3.7840002 1.8584751 0.60543489 0
3.7860003 1.853493 0.60555393 0
3.7890003 1.8490629 0.6057325 0
3.7920003 1.8446219 0.60591108 0
3.7960002 1.8407257 0.6061492 0
3.8000002 1.836815 0.60638732 0
3.8040001 1.8328899 0.60662538 0
3.8090003 1.8295004 0.60692304 0
3.8150003 1.8266416 0.60728019 0
3.8200002 1.8232143 0.6075778 0
3.8270001 1.8208584 0.6079945 0
3.8330002 1.8179345 0.60835165 0
3.8400002 1.8155301 0.60876834 0
3.8470004 1.8131005 0.60918498 0
3.8550003 1.811183 0.60966122 0
3.8640003 1.8097725 0.61019695 0
3.8740003 1.8088633 0.61079222 0
3.8840003 1.807918 0.61138749 0
3.8960001 1.8079972 0.61210179 0
3.9010003 1.8043339 0.6123994 0
3.9080002 1.8017057 0.6128161 0
3.9150002 1.7990524 0.61323273 0
3.9240003 1.7974198 0.61376846 0
3.7920003 1.8752145 0.5997926 0
3.7910004 1.8685313 0.59973484 0
3.7910004 1.8624147 0.59973484 0
3.7930002 1.8574198 0.5998503 0
3.7950003 1.8524181 0.59996575 0
3.7980003 1.8479662 0.6001389 0
3.8010004 1.8435036 0.60031211 0
3.8050003 1.839584 0.60054296 0
3.8090003 1.8356497 0.60077381 0
3.8130002 1.8317013 0.60100472 0
3.8180003 1.8282865 0.60129333 0
3.8240004 1.8254005 0.60163969 0
3.8290002 1.8219479 0.60192829 0
3.8360002 1.8195635 0.60233235 0
3.8420002 1.8166125 0.60267866 0
3.8490002 1.8141789 0.60308272 0
3.8560002 1.8117205 0.60348678 0
3.8650002 1.8103082 0.60400629 0
3.8730001 1.8083293 0.60446805 0
3.8830004 1.807386 0.60504526 0
3.8930004 1.8064066 0.60562247 0
3.8970003 1.8022199 0.60585338 0
3.9030004 1.7990723 0.60619974 0
3.9100003 1.7964278 0.60660374 0
3.9180002 1.7942812 0.60706556 0
3.9280002 1.7931484 0.60764277 0
3.8020003 1.8747419 0.59423327 0
3.8000002 1.8674798 0.5941214 0
3.8010004 1.8619078 0.59417731 0
3.8020003 1.8563323 0.59423327 0
3.8040001 1.8513105 0.59434509 0
3.8070002 1.846837 0.59451282 0
3.8100002 1.8423526 0.59468055 0
3.8140004 1.8384097 0.59490424 0
3.8180003 1.8344522 0.59512794 0
3.8220003 1.8304801 0.59535158 0
3.8280003 1.8275868 0.59568709 0
3.8330002 1.824127 0.5959667 0
3.8390002 1.8211923 0.59630221 0
3.8450003 1.8182358 0.59663773 0
3.8510003 1.8152579 0.59697324 0
3.8580003 1.8127954 0.59736466 0
3.8650002 1.8103082 0.59775609 0
3.8740003 1.8088633 0.59825933 0
3.8820002 1.8068538 0.59870666 0
3.8900003 1.8048155 0.59915406 0
3.8940003 1.8006343 0.59937769 0
3.9000003 1.797492 0.59971321 0
3.9060004 1.7943282 0.60004872 0
3.9130003 1.7916658 0.60044014 0
3.9220002 1.7900206 0.60094339 0
3.8120003 1.8742332 0.58863783 0
3.8100002 1.8669566 0.58852959 0
3.8100002 1.8608055 0.58852959 0
3.8120003 1.8557695 0.58863783 0
3.8130002 1.8501703 0.58869195 0
3.8160002 1.8456753 0.58885431 0
3.8190002 1.8411694 0.58901662 0
3.8230002 1.8372028 0.58923304 0
3.8270001 1.8332217 0.58944952 0
3.8320003 1.8297728 0.58972013 0
3.8370004 1.8263062 0.58999068 0
3.8420002 1.822821 0.59026122 0
3.8480003 1.8198591 0.59058595 0
3.8540003 1.8168758 0.59091061 0
3.8600004 1.8138707 0.59123534 0
3.8670003 1.8113797 0.59161413 0
3.8740003 1.8088633 0.59199291 0
3.8830004 1.807386 0.59247994 0
3.8880002 1.8037548 0.59275049 0
3.8920002 1.7995771 0.59296697 0
3.8980002 1.7964386 0.59329164 0
3.9040003 1.7932783 0.59361637 0
3.9110003 1.7906195 0.59399509 0
3.9190001 1.7884567 0.59442806 0
3.9300003 1.7878237 0.59502333 0
3.8220003 1.8736885 0.58300632 0
3.8200002 1.8663975 0.58290172 0
3.8200002 1.8602284 0.58290172 0
3.8210003 1.8546151 0.58295405 0
3.8230002 1.8495518 0.58305866 0
3.8260002 1.8450333 0.58321559 0
3.8290002 1.8405039 0.58337247 0
3.8320003 1.8359636 0.58352947 0
3.8370004 1.8325059 0.58379102 0
3.8410003 1.828485 0.58400023 0
3.8460002 1.8249928 0.58426178 0
3.8510003 1.8214827 0.58452332 0
3.8570004 1.8184937 0.5848372 0
3.8630002 1.8154831 0.58515108 0
3.8690002 1.8124511 0.58546495 0
3.8760002 1.8099309 0.58583111 0
3.8830004 1.807386 0.58619726 0
3.8870003 1.8032246 0.58640653 0
3.8910003 1.7990487 0.58661574 0
3.8960001 1.7953851 0.58687729 0
3.9020002 1.7922285 0.58719116 0
3.9090002 1.7895733 0.58755732 0
3.9170003 1.7874142 0.58797586 0
3.9260004 1.7857457 0.58844662 0
3.8320003 1.8731077 0.57733876 0
3.8290002 1.8652449 0.57718724 0
3.8300002 1.8596152 0.57723773 0
3.8300002 1.853428 0.57723773 0
3.8320003 1.8483449 0.57733876 0
3.8350003 1.8438048 0.57749033 0
3.8380003 1.8392539 0.57764184 0
3.8420002 1.8352385 0.57784384 0
3.8460002 1.8312087 0.57804585 0
3.8500001 1.8271646 0.5782479 0
3.8550003 1.8236471 0.57850039 0
3.8600004 1.8201118 0.57875293 0
3.8660002 1.8170958 0.57905602 0
3.8720002 1.8140583 0.57935905 0
3.8780003 1.8109989 0.57966208 0
3.8820002 1.8068538 0.57986408 0
3.8860002 1.8026942 0.58006614 0
3.8900003 1.7985202 0.58026814 0
3.8950002 1.7948585 0.58052069 0
3.9010003 1.7917036 0.58082372 0
3.9080002 1.7890502 0.58117729 0
3.9150002 1.7863715 0.58153081 0
3.9250002 1.7852261 0.5820359 0
3.8420002 1.8724906 0.57163513 0
3.8390002 1.8646153 0.57148904 0
3.8390002 1.858412 0.57148904 0
3.8400002 1.8527607 0.57153773 0
3.8420002 1.8476559 0.57163513 0
3.8440003 1.842544 0.57173252 0
3.8480003 1.8385178 0.57192737 0
3.8510003 1.8339325 0.57207346 0
3.8550003 1.8298794 0.57226825 0
3.8590002 1.8258119 0.5724631 0
3.8640003 1.8222692 0.57270658 0
3.8700004 1.8192459 0.57299882 0
3.8750002 1.8156654 0.57324231 0
3.8780003 1.8109989 0.57338846 0
3.8820002 1.8068538 0.57358325 0
3.8860002 1.8026942 0.57377803 0
3.8900003 1.7985202 0.57397288 0
3.8950002 1.7948585 0.57421637 0
3.9010003 1.7917036 0.57450861 0
3.9070003 1.7885271 0.57480079 0
3.9150002 1.7863715 0.57519042 0
3.9240003 1.7847066 0.57562876 0
3.8520002 1.8718379 0.56589544 0
3.8490002 1.8639497 0.56575471 0
3.8490002 1.8577284 0.56575471 0
3.8500001 1.8520571 0.56580162 0
3.8520002 1.8469309 0.56589544 0
3.8540003 1.8417971 0.5659892 0
3.8570004 1.837201 0.56612992 0
3.8600004 1.8325942 0.56627059 0
3.8650002 1.8290585 0.56650507 0
3.8690002 1.8249658 0.56669271 0
3.8730001 1.8208584 0.56688029 0
3.8760002 1.8162011 0.56702101 0
3.8790002 1.8115329 0.56716168 0
3.8820002 1.8068538 0.56730235 0
3.8860002 1.8026942 0.56748998 0
3.8910003 1.7990487 0.56772447 0
3.8960001 1.7953851 0.56795895 0
3.9020002 1.7922285 0.56824034 0
3.9080002 1.7890502 0.56852174 0
3.9160004 1.7868929 0.56889695 0
3.9250002 1.7852261 0.56931901 0
3.8630002 1.8717024 0.56016469 0
3.8600004 1.8638002 0.56002945 0
3.8590002 1.8570086 0.55998433 0
3.8590002 1.8507692 0.55998433 0
3.8610003 1.8456231 0.56007451 0
3.8630002 1.8404696 0.56016469 0
3.8670003 1.8363947 0.56034505 0
3.8700004 1.8317645 0.56048036 0
3.8720002 1.8265839 0.5605706 0
3.8740003 1.8213961 0.56066078 0
3.8770003 1.8167368 0.56079602 0
3.8800004 1.8120668 0.56093132 0
3.8830004 1.807386 0.56106663 0
3.8870003 1.8032246 0.56124699 0
3.8920002 1.7995771 0.56147248 0
3.8970003 1.7959119 0.56169796 0
3.9030004 1.7927535 0.56196851 0
3.9090002 1.7895733 0.56223905 0
3.9170003 1.7874142 0.56259984 0
3.9270003 1.7862651 0.56305081 0
3.8730001 1.8709755 0.55435103 0
3.8700004 1.8630605 0.55422115 0
3.8690002 1.8562529 0.55417788 0
3.8690002 1.8499955 0.55417788 0
3.8700004 1.8442829 0.55422115 0
3.8710003 1.8385667 0.55426443 0
3.8720002 1.8328468 0.55430776 0
3.8730001 1.827123 0.55435103 0
3.8760002 1.8224711 0.55448091 0
3.8780003 1.8172725 0.55456746 0
3.8810003 1.8126009 0.55469739 0
3.8850002 1.8084502 0.55487055 0
3.8890002 1.804285 0.5550437 0
3.8930004 1.8001058 0.55521691 0
3.8990002 1.7969652 0.55547661 0
3.9050002 1.7938032 0.55573636 0
3.9110003 1.7906195 0.55599612 0
3.9190001 1.7884567 0.55634242 0
3.9290004 1.7873042 0.55677533 0
3.8770003 1.8731834 0.54825234 0
3.8740003 1.8652611 0.54812789 0
3.8720002 1.8578979 0.54804492 0
3.8720002 1.851635 0.54804492 0
3.8720002 1.8453723 0.54804492 0
3.8730001 1.8396524 0.5480864 0
3.8740003 1.8339289 0.54812789 0
3.8760002 1.8287411 0.54821086 0
3.8780003 1.8235463 0.54829383 0
3.8810003 1.8188797 0.54841828 0
3.8840003 1.8142024 0.5485428 0
3.8870003 1.8095144 0.54866725 0
3.8910003 1.8053457 0.54883319 0
3.8960001 1.8016912 0.54904062 0
3.9010003 1.7980187 0.5492481 0
3.9070003 1.7948531 0.54949701 0
3.9140003 1.7921889 0.5497874 0
3.9230003 1.790542 0.55016077 0
3.9340003 1.7899016 0.55061716 0
3.8780003 1.8674617 0.5420202 0
3.8770003 1.8606397 0.5419805 0
3.8760002 1.8538213 0.54194081 0
3.8750002 1.8470066 0.54190117 0
3.8760002 1.8412812 0.54194081 0
3.8770003 1.8355525 0.5419805 0
3.8790002 1.8303592 0.5420599 0
3.8810003 1.8251587 0.54213923 0
3.8830004 1.8199512 0.54221863 0
3.8870003 1.8158044 0.54237735 0
3.8900003 1.8111107 0.54249644 0
3.8940003 1.8069369 0.54265511 0
3.8990002 1.8032768 0.54285359 0
3.9050002 1.8001255 0.54309165 0
3.9110003 1.7969527 0.54332978 0
3.9190001 1.7948042 0.54364723 0
3.9280002 1.7931484 0.54400438 0
3.8810003 1.862833 0.53586018 0
3.8800004 1.8560076 0.53582233 0
3.8790002 1.8491856 0.53578442 0
3.8800004 1.8434532 0.53582233 0
3.8810003 1.8377169 0.53586018 0
3.8830004 1.8325167 0.535936 0
3.8850002 1.8273089 0.5360117 0
3.8870003 1.8220941 0.53608751 0
3.8900003 1.8174061 0.53620112 0
3.8940003 1.8132393 0.53635263 0
3.8980002 1.809058 0.53650415 0
3.9030004 1.8053908 0.53669357 0
3.9090002 1.8022324 0.53692085 0
3.9160004 1.7995772 0.53718603 0
3.9240003 1.7974198 0.53748906 0
3.8480003 1.8447373 0.52839065 0
3.8580003 1.8439834 0.52875137 0
3.8690002 1.8437381 0.52914822 0
3.8800004 1.8434532 0.52954507 0
3.8860002 1.8404226 0.52976155 0
3.8870003 1.8346739 0.52979761 0
3.8890002 1.8294591 0.52986974 0
3.8920002 1.8247727 0.52997798 0
3.8950002 1.8200756 0.53008622 0
3.8990002 1.8159 0.53023052 0
3.9040003 1.8122399 0.53041089 0
3.9090002 1.8085618 0.53059125 0
3.9150002 1.8053926 0.53080773 0
3.9230003 1.8032517 0.53109634 0
3.9330003 1.8021278 0.53145713 0
3.7060003 1.8503581 0.51730442 0
3.7140002 1.8489691 0.5175786 0
3.7230003 1.8481214 0.51788706 0
3.7320004 1.847241 0.51819551 0
3.7400002 1.8457619 0.51846969 0
3.7490003 1.8448186 0.51877815 0
3.7580004 1.8438426 0.5190866 0
3.7670002 1.8428344 0.51939505 0
3.7760003 1.8417935 0.51970351 0
3.7850003 1.8407203 0.52001196 0
3.7940001 1.8396145 0.52032042 0
3.8030002 1.8384764 0.52062887 0
3.8120003 1.8373057 0.52093732 0
3.8210003 1.8361025 0.52124578 0
3.8310003 1.8354152 0.52158844 0
3.8400002 1.8341454 0.5218969 0
3.8490002 1.8328429 0.52220535 0
3.8590002 1.8320512 0.52254808 0
3.8680003 1.830682 0.52285653 0
3.8780003 1.8298198 0.52319926 0
3.8870003 1.8283842 0.52350771 0
3.8970003 1.8274513 0.52385044 0
3.9020002 1.8238132 0.5240218 0
3.9060004 1.8196249 0.5241589 0
3.9110003 1.8159521 0.52433026 0
3.9170003 1.8127902 0.52453589 0
3.9240003 1.8101331 0.5247758 0
3.6900003 1.8471147 0.51082152 0
3.6990004 1.8463427 0.51111376 0
3.7070003 1.8449665 0.51137352 0
3.7150002 1.8435613 0.51163328 0
3.7240002 1.8426955 0.51192546 0
3.7320004 1.8412308 0.51218522 0
3.7410002 1.8403018 0.5124774 0
3.7500002 1.8393404 0.51276964 0
3.7580004 1.8377856 0.5130294 0
3.7670002 1.8367609 0.51332164 0
3.7760003 1.835704 0.51361382 0
3.7850003 1.8346144 0.51390606 0
3.7940001 1.8334924 0.51419824 0
3.8030002 1.8323379 0.51449049 0
3.8110003 1.830601 0.51475024 0
3.8210003 1.8299319 0.51507491 0
3.8300002 1.8286798 0.51536715 0
3.8390002 1.8273954 0.51565933 0
3.8480003 1.8260788 0.51595157 0
3.8570004 1.8247296 0.51624382 0
3.8660002 1.8233477 0.516536 0
3.8760002 1.8224711 0.51686066 0
3.8850002 1.8210226 0.51715291 0
3.8940003 1.8195417 0.51744509 0
3.9040003 1.8185605 0.51776981 0
3.9140003 1.8175433 0.51809448 0
3.9240003 1.8164898 0.51841915 0
3.6850002 1.8442377 0.50473368 0
3.6930003 1.8429011 0.50497901 0
3.7020001 1.8421073 0.50525498 0
3.7100003 1.8407114 0.50550032 0
3.7180002 1.8392862 0.50574565 0
3.7270002 1.8383988 0.50602162 0
3.7350004 1.8369143 0.50626695 0
3.7440002 1.8359636 0.50654292 0
3.7520003 1.8344196 0.50678825 0
3.7610002 1.8334059 0.50706422 0
3.7700002 1.8323597 0.50734019 0
3.7780004 1.8307254 0.50758553 0
3.7870002 1.8296161 0.5078615 0
3.7960002 1.8284742 0.50813746 0
3.8050003 1.8273 0.50841343 0
3.8130002 1.8255447 0.50865877 0
3.8220003 1.8243074 0.50893474 0
3.8310003 1.8230376 0.50921071 0
3.8400002 1.8217353 0.50948673 0
3.8490002 1.8204005 0.5097627 0
3.8590002 1.8195724 0.51006937 0
3.8680003 1.818171 0.51034534 0
3.8770003 1.8167368 0.51062131 0
3.8870003 1.8158044 0.51092798 0
3.8960001 1.8143035 0.51120394 0
3.9050002 1.8127704 0.51147991 0
3.9150002 1.811733 0.51178658 0
3.9240003 1.8101331 0.51206255 0
3.6810002 1.841936 0.49869272 0
3.6900003 1.8411803 0.49895248 0
3.6980002 1.8398201 0.49918336 0
3.7060003 1.8384312 0.49941427 0
3.7140002 1.8370134 0.49964514 0
3.7230003 1.8361334 0.4999049 0
3.7310002 1.8346559 0.50013578 0
3.7390003 1.8331497 0.50036669 0
3.7480001 1.8321756 0.50062639 0
3.7560003 1.83061 0.50085729 0
3.7650003 1.8295727 0.50111705 0
3.7740002 1.828503 0.50137681 0
3.7820003 1.8268472 0.50160766 0
3.7910004 1.8257145 0.50186741 0
3.8000002 1.8245491 0.50212717 0
3.8090003 1.8233514 0.50238693 0
3.8170002 1.8215747 0.50261784 0
3.8260002 1.8203137 0.50287759 0
3.8350003 1.8190205 0.50313729 0
3.8440003 1.8176947 0.50339705 0
3.8530002 1.8163364 0.5036568 0
3.8630002 1.8154831 0.50394541 0
3.8720002 1.8140583 0.50420517 0
3.8810003 1.8126009 0.50446492 0
3.8900003 1.8111107 0.50472468 0
3.9000003 1.8101188 0.50501329 0
3.9090002 1.8085618 0.50527304 0
3.9180002 1.8069727 0.50553274 0
3.9280002 1.8058761 0.50582135 0
3.6760004 1.8449683 0.49263915 0
3.6790001 1.840785 0.49272031 0
3.6870003 1.8394595 0.49293679 0
3.6950002 1.8381047 0.49315324 0
3.7030003 1.8367212 0.4933697 0
3.7120004 1.8358771 0.49361321 0
3.7200003 1.8344342 0.49382967 0
3.7280002 1.8329622 0.49404612 0
3.7370002 1.8320241 0.49428964 0
3.7450004 1.8304926 0.49450609 0
3.7540002 1.8294915 0.49474961 0
3.7620003 1.8279005 0.49496606 0
3.7710001 1.8268363 0.49520957 0
3.7790003 1.8251859 0.49542603 0
3.7880003 1.8240584 0.49566954 0
3.7970002 1.8228987 0.49591306 0
3.8050003 1.8211581 0.49612951 0
3.8140004 1.8199352 0.49637303 0
3.8230002 1.8186795 0.49661654 0
3.8320003 1.8173918 0.49686006 0
3.8410003 1.8160713 0.49710357 0
3.8500001 1.8147184 0.49734709 0
3.8590002 1.8133329 0.4975906 0
3.8680003 1.8119154 0.49783412 0
3.8770003 1.810465 0.49807763 0
3.8860002 1.8089821 0.49832115 0
3.8950002 1.807467 0.49856466 0
3.9050002 1.806448 0.49883524 0
3.9140003 1.804866 0.49907875 0
3.9230003 1.8032517 0.49932227 0
3.6760004 1.8449683 0.48672986 0
3.6780002 1.8402097 0.48678038 0
3.6860003 1.8388859 0.48698241 0
3.6940002 1.8375329 0.48718444 0
3.7020001 1.8361511 0.48738647 0
3.7100003 1.8347406 0.4875885 0
3.7190003 1.8338675 0.48781577 0
3.7270002 1.8323976 0.4880178 0
3.7350004 1.8308988 0.48821983 0
3.7430003 1.8293707 0.48842186 0
3.7520003 1.8283733 0.48864913 0
3.7600002 1.8267858 0.48885116 0
3.7690003 1.8257253 0.48907843 0
3.7770002 1.8240783 0.48928046 0
3.7860003 1.8229547 0.48950773 0
3.7950003 1.8217984 0.48973501 0
3.8030002 1.8200613 0.48993704 0
3.8120003 1.8188419 0.49016434 0
3.8210003 1.8175901 0.49039161 0
3.8290002 1.8157628 0.49059361 0
3.8380003 1.8144478 0.49082091 0
3.8470004 1.8131005 0.49104819 0
3.8560002 1.8117205 0.49127549 0
3.8650002 1.8103082 0.49150276 0
3.8740003 1.8088633 0.49173003 0
3.8830004 1.807386 0.49195731 0
3.8930004 1.8064066 0.49220985 0
3.9020002 1.8048624 0.49243712 0
3.9110003 1.8032858 0.4926644 0
3.9200003 1.8016769 0.49289167 0
3.9310002 1.8010815 0.49316949 0
3.6760004 1.8449683 0.4808206 0
3.6770003 1.8396344 0.48084405 0
3.6850002 1.8383121 0.48103166 0
3.6930003 1.8369613 0.48121923 0
3.7010002 1.8355813 0.48140684 0
3.7090003 1.8341725 0.48159444 0
3.7180002 1.8333012 0.48180547 0
3.7260003 1.831833 0.48199308 0
3.7340002 1.8303356 0.48218066 0
3.7430003 1.8293707 0.48239172 0
3.7510002 1.8278141 0.48257929 0
3.7590003 1.8262285 0.48276693 0
3.7680004 1.8251698 0.48297796 0
3.7760003 1.8235245 0.48316556 0
3.7850003 1.8224026 0.48337659 0
3.7940001 1.8212482 0.48358762 0
3.8020003 1.8195128 0.48377523 0
3.8110003 1.8182954 0.48398629 0
3.8200002 1.8170451 0.48419732 0
3.8290002 1.8157628 0.48440838 0
3.8370004 1.8139068 0.48459595 0
3.8460002 1.8125609 0.48480701 0
3.8550003 1.811183 0.48501807 0
3.8640003 1.8097725 0.4852291 0
3.8730001 1.8083293 0.48544014 0
3.8820002 1.8068538 0.4856512 0
3.8910003 1.8053457 0.48586226 0
3.9010003 1.8043339 0.48609674 0
3.9100003 1.8027592 0.4863078 0
3.9190001 1.801152 0.48651883 0
3.9290004 1.8000355 0.48675331 0
3.6760004 1.8449683 0.47491133 0
3.6780002 1.8402097 0.47495461 0
3.6860003 1.8388859 0.47512779 0
3.6940002 1.8375329 0.47530094 0
3.7020001 1.8361511 0.47547412 0
3.7100003 1.8347406 0.47564727 0
3.7180002 1.8333012 0.47582045 0
3.7270002 1.8323976 0.47601527 0
3.7350004 1.8308988 0.47618842 0
3.7430003 1.8293707 0.47636157 0
3.7520003 1.8283733 0.47655639 0
3.7600002 1.8267858 0.47672957 0
3.7680004 1.8251698 0.47690272 0
3.7770002 1.8240783 0.47709754 0
3.7850003 1.8224026 0.47727072 0
3.7940001 1.8212482 0.47746551 0
3.8030002 1.8200613 0.47766033 0
3.8110003 1.8182954 0.47783351 0
3.8200002 1.8170451 0.4780283 0
3.8290002 1.8157628 0.47822312 0
3.8380003 1.8144478 0.47841793 0
3.8460002 1.8125609 0.47859108 0
3.8550003 1.811183 0.4787859 0
3.8640003 1.8097725 0.47898072 0
3.8730001 1.8083293 0.47917554 0
3.8820002 1.8068538 0.47937033 0
3.8910003 1.8053457 0.47956514 0
3.9000003 1.8038055 0.47975996 0
3.9090002 1.8022324 0.47995478 0
3.9190001 1.801152 0.48017123 0
3.9280002 1.7995123 0.48036605 0
3.6760004 1.8449683 0.46900207 0
3.6800003 1.8413607 0.4690814 0
3.6880002 1.8400329 0.46924013 0
3.6960003 1.8386766 0.46939889 0
3.7040002 1.8372914 0.46955761 0
3.7120004 1.8358771 0.46971637 0
3.7200003 1.8344342 0.4698751 0
3.7280002 1.8329622 0.47003382 0
3.7360003 1.8314613 0.47019255 0
3.7450004 1.8304926 0.47037113 0
3.7530003 1.8289324 0.47052988 0
3.7610002 1.8273432 0.47068861 0
3.7700002 1.8262808 0.47086719 0
3.7780004 1.824632 0.47102594 0
3.7870002 1.8235065 0.47120449 0
3.7950003 1.8217984 0.47136325 0
3.8040001 1.8206096 0.47154182 0
3.8120003 1.8188419 0.47170055 0
3.8210003 1.8175901 0.47187912 0
3.8300002 1.8163058 0.4720577 0
3.8380003 1.8144478 0.47221643 0
3.8470004 1.8131005 0.472395 0
3.8560002 1.8117205 0.47257358 0
3.8650002 1.8103082 0.47275215 0
3.8740003 1.8088633 0.47293073 0
3.8830004 1.807386 0.4731093 0
3.8920002 1.8058761 0.47328788 0
3.9010003 1.8043339 0.47346646 0
3.9100003 1.8027592 0.47364503 0
3.9190001 1.801152 0.47382361 0
3.9290004 1.8000355 0.47402206 0
3.6820002 1.8425114 0.46320099 0
3.6900003 1.8411803 0.46334529 0
3.6980002 1.8398201 0.46348959 0
3.7060003 1.8384312 0.46363392 0
3.7140002 1.8370134 0.46377823 0
3.7220004 1.8355668 0.46392253 0
3.7310002 1.8346559 0.46408486 0
3.7390003 1.8331497 0.46422917 0
3.7470002 1.8316145 0.46437347 0
3.7550004 1.8300507 0.46451777 0
3.7640002 1.8290154 0.46468014 0
3.7720003 1.827392 0.46482444 0
3.7810001 1.8262933 0.46498677 0
3.7890003 1.8246105 0.46513107 0
3.7980003 1.8234488 0.46529341 0
3.8060002 1.8217064 0.46543771 0
3.8150003 1.8204817 0.46560007 0
3.8240004 1.8192244 0.46576241 0
3.8320003 1.8173918 0.46590671 0
3.8410003 1.8160713 0.46606904 0
3.8500001 1.8147184 0.46623141 0
3.8590002 1.8133329 0.46639374 0
3.8680003 1.8119154 0.46655607 0
3.8770003 1.810465 0.46671844 0
3.8860002 1.8089821 0.46688077 0
3.8950002 1.807467 0.4670431 0
3.9040003 1.8059193 0.46720546 0
3.9110003 1.8032858 0.46733171 0
3.9190001 1.801152 0.46747601 0
3.9290004 1.8000355 0.4676564 0
3.6860003 1.8448132 0.45734584 0
3.6940002 1.8434747 0.45747572 0
3.7020001 1.8421073 0.4576056 0
3.7100003 1.8407114 0.45773545 0
3.7180002 1.8392862 0.45786533 0
3.7260003 1.8378323 0.45799521 0
3.7350004 1.8369143 0.45814133 0
3.7430003 1.8354009 0.45827121 0
3.7510002 1.8338585 0.45840105 0
3.7590003 1.8322874 0.45853093 0
3.7680004 1.8312448 0.45867705 0
3.7760003 1.8296143 0.45880693 0
3.7840002 1.8279548 0.45893681 0
3.7930002 1.8268183 0.4590829 0
3.8010004 1.8250993 0.45921278 0
3.8100002 1.8238997 0.45935887 0
3.8190002 1.8226677 0.45950499 0
3.8270001 1.8208584 0.45963487 0
3.8360002 1.8195635 0.45978099 0
3.8450003 1.8182358 0.45992708 0
3.8530002 1.8163364 0.46005696 0
3.8620002 1.8149456 0.46020308 0
3.8710003 1.8135226 0.46034917 0
3.8800004 1.8120668 0.46049529 0
3.8890002 1.8105786 0.46064138 0
3.8980002 1.809058 0.4607875 0
3.9050002 1.806448 0.46090114 0
3.9110003 1.8032858 0.46099854 0
3.9190001 1.801152 0.46112841 0
3.9290004 1.8000355 0.46129078 0
3.6910002 1.8476902 0.45149067 0
3.6990004 1.8463427 0.45160612 0
3.7070003 1.8449665 0.45172155 0
3.7150002 1.8435613 0.451837 0
3.7230003 1.8421273 0.45195246 0
3.7320004 1.8412308 0.45208234 0
3.7400002 1.8397372 0.45219776 0
3.7480001 1.8382148 0.45231321 0
3.7560003 1.8366635 0.45242867 0
3.7640002 1.8350832 0.45254409 0
3.7730002 1.8340318 0.45267397 0
3.7810001 1.8323921 0.45278943 0
3.7900002 1.8312773 0.4529193 0
3.7980003 1.8295782 0.45303473 0
3.8060002 1.8278501 0.45315018 0
3.8150003 1.8266416 0.45328006 0
3.8240004 1.8254005 0.45340994 0
3.8320003 1.8235822 0.45352536 0
3.8410003 1.8222783 0.45365524 0
3.8500001 1.8209414 0.45378512 0
3.8580003 1.819033 0.45390058 0
3.8670003 1.8176333 0.45403045 0
3.8760002 1.8162011 0.4541603 0
3.8850002 1.8147365 0.45429018 0
3.8940003 1.8132393 0.45442006 0
3.9000003 1.8101188 0.45450664 0
3.9050002 1.806448 0.45457879 0
3.9110003 1.8032858 0.45466536 0
3.9190001 1.801152 0.45478082 0
3.9290004 1.8000355 0.45492512 0
3.6980002 1.8517181 0.44564274 0
3.7060003 1.8503581 0.44574374 0
3.7140002 1.8489691 0.44584477 0
3.7220004 1.8475513 0.44594577 0
3.7300003 1.8461047 0.44604677 0
3.7380002 1.8446289 0.4461478 0
3.7470002 1.8436894 0.44626144 0
3.7550004 1.8421545 0.44636247 0
3.7630002 1.8405905 0.44646347 0
3.7710001 1.8389976 0.44656447 0
3.7800002 1.8379334 0.4466781 0
3.7880003 1.8362811 0.44677913 0
3.7970002 1.8351537 0.44689277 0
3.8050003 1.833442 0.44699377 0
3.8140004 1.8322515 0.44710743 0
3.8220003 1.8304801 0.44720843 0
3.8310003 1.8292264 0.44732207 0
3.8390002 1.8273954 0.4474231 0
3.8480003 1.8260788 0.44753674 0
3.8570004 1.8247296 0.44765037 0
3.8660002 1.8233477 0.44776401 0
3.8740003 1.8213961 0.44786501 0
3.8830004 1.8199512 0.44797868 0
3.8910003 1.81794 0.44807968 0
3.8950002 1.8137714 0.44813019 0
3.9000003 1.8101188 0.44819331 0
3.9050002 1.806448 0.44825643 0
3.9110003 1.8032858 0.44833222 0
3.9190001 1.801152 0.44843322 0
3.9290004 1.8000355 0.44855949 0
3.7240002 1.8546871 0.43997517 0
3.7320004 1.8532515 0.44006175 0
3.7400002 1.8517867 0.44014832 0
3.7490003 1.8508595 0.44024575 0
3.7570002 1.8493353 0.44033232 0
3.7650003 1.8477824 0.4404189 0
3.7730002 1.8462002 0.44050547 0
3.7820003 1.8451486 0.4406029 0
3.7900002 1.8435071 0.44068947 0
3.7980003 1.8418369 0.44077605 0
3.8070002 1.8406913 0.44087347 0
3.8150003 1.8389617 0.44096005 0
3.8240004 1.8377531 0.44105744 0
3.8320003 1.8359636 0.44114405 0
3.8410003 1.834692 0.44124144 0
3.8500001 1.8333877 0.44133884 0
3.8580003 1.8315082 0.44142544 0
3.8670003 1.8301411 0.44152284 0
3.8760002 1.8287411 0.44162023 0
3.8850002 1.8273089 0.44171765 0
3.8880002 1.8226298 0.44175011 0
3.8910003 1.81794 0.44178259 0
3.8950002 1.8137714 0.44182587 0
3.9000003 1.8101188 0.44187999 0
3.9050002 1.806448 0.44193411 0
3.9110003 1.8032858 0.44199905 0
3.9190001 1.801152 0.44208562 0
3.9290004 1.8000355 0.44219387 0
3.8570004 1.8434368 0.43517885 0
3.8660002 1.8421038 0.43526 0
3.8740003 1.8401954 0.43533218 0
3.8810003 1.8377169 0.4353953 0
3.8830004 1.8325167 0.43541333 0
3.8850002 1.8273089 0.43543136 0
3.8880002 1.8226298 0.43545842 0
3.8910003 1.81794 0.43548548 0
3.8950002 1.8137714 0.43552157 0
3.9000003 1.8101188 0.43556666 0
3.9050002 1.806448 0.43561175 0
3.9110003 1.8032858 0.43566588 0
3.9190001 1.801152 0.43573803 0
3.9290004 1.8000355 0.43582821 0
3.8800004 1.8497304 0.42910904 0
3.8810003 1.8439959 0.42911625 0
3.8810003 1.8377169 0.42911625 0
3.8830004 1.8325167 0.42913067 0
3.8850002 1.8273089 0.4291451 0
3.8880002 1.8226298 0.42916673 0
3.8910003 1.81794 0.4291884 0
3.8950002 1.8137714 0.42921725 0
3.9000003 1.8101188 0.42925334 0
3.9050002 1.806448 0.4292894 0
3.9110003 1.8032858 0.4293327 0
3.9190001 1.801152 0.42939043 0
3.9290004 1.8000355 0.42946258 0
3.6750002 1.8148535 0.42172244 0
3.6830003 1.8134774 0.42176571 0
3.6910002 1.8120722 0.42180902 0
3.6990004 1.8106382 0.42185229 0
3.7070003 1.8091753 0.42189559 0
3.7160003 1.8082428 0.42194429 0
3.7240002 1.8067204 0.42198759 0
3.7320004 1.8051691 0.42203087 0
3.7410002 1.8041426 0.42207959 0
3.7490003 1.8025318 0.42212287 0
3.7580004 1.8014424 0.42217159 0
3.8810003 1.8377169 0.4228372 0
3.8830004 1.8325167 0.42284802 0
3.8850002 1.8273089 0.42285883 0
3.8880002 1.8226298 0.42287508 0
3.8910003 1.81794 0.42289129 0
3.8950002 1.8137714 0.42291296 0
3.9000003 1.8101188 0.42294002 0
3.9050002 1.806448 0.42296705 0
3.9110003 1.8032858 0.42299953 0
3.9190001 1.801152 0.4230428 0
3.9290004 1.8000355 0.42309693 0
3.6750002 1.8148535 0.41581497 0
3.6830003 1.8134774 0.41584381 0
3.6910002 1.8120722 0.41587269 0
3.6990004 1.8106382 0.41590154 0
3.7070003 1.8091753 0.41593039 0
3.7160003 1.8082428 0.41596287 0
3.7240002 1.8067204 0.41599172 0
3.7320004 1.8051691 0.4160206 0
3.7410002 1.8041426 0.41605306 0
3.7490003 1.8025318 0.41608194 0
3.7580004 1.8014424 0.41611439 0
3.8810003 1.8377169 0.41655812 0
3.8830004 1.8325167 0.41656533 0
3.8850002 1.8273089 0.41657257 0
3.8880002 1.8226298 0.41658339 0
3.8910003 1.81794 0.41659421 0
3.8950002 1.8137714 0.41660863 0
3.9000003 1.8101188 0.41662666 0
3.9050002 1.806448 0.41664472 0
3.9110003 1.8032858 0.41666636 0
3.9190001 1.801152 0.41669521 0
3.9290004 1.8000355 0.4167313 0
3.6750002 1.8148535 0.40990749 0
3.6830003 1.8134774 0.40992191 0
3.6910002 1.8120722 0.40993634 0
3.6990004 1.8106382 0.40995076 0
3.7070003 1.8091753 0.40996522 0
3.7160003 1.8082428 0.40998143 0
3.7240002 1.8067204 0.40999588 0
3.7320004 1.8051691 0.41001031 0
3.7410002 1.8041426 0.41002655 0
3.7490003 1.8025318 0.41004097 0
3.7580004 1.8014424 0.41005722 0
3.7660003 1.799772 0.41007164 0
3.8810003 1.8377169 0.41027907 0
3.8830004 1.8325167 0.41028267 0
3.8850002 1.8273089 0.41028628 0
3.8880002 1.8226298 0.4102917 0
3.8910003 1.81794 0.4102971 0
3.8950002 1.8137714 0.41030434 0
3.9000003 1.8101188 0.41031334 0
3.9050002 1.806448 0.41032237 0
3.9110003 1.8032858 0.41033319 0
3.9190001 1.801152 0.41034761 0
3.9290004 1.8000355 0.41036564 0
3.6750002 1.8148535 0.40400001 0
3.6830003 1.8134774 0.40400001 0
3.6910002 1.8120722 0.40400001 0
3.6990004 1.8106382 0.40400001 0
3.7070003 1.8091753 0.40400001 0
3.7160003 1.8082428 0.40400001 0
3.7240002 1.8067204 0.40400001 0
3.7320004 1.8051691 0.40400001 0
3.7410002 1.8041426 0.40400001 0
3.7490003 1.8025318 0.40400001 0
3.7580004 1.8014424 0.40400001 0
3.7660003 1.799772 0.40400001 0
3.8810003 1.8377169 0.40400001 0
3.8830004 1.8325167 0.40400001 0
3.8850002 1.8273089 0.40400001 0
3.8880002 1.8226298 0.40400001 0
3.8910003 1.81794 0.40400001 0
3.8950002 1.8137714 0.40400001 0
3.9000003 1.8101188 0.40400001 0
3.9050002 1.806448 0.40400001 0
3.9110003 1.8032858 0.40400001 0
3.9190001 1.801152 0.40400001 0
3.9290004 1.8000355 0.40400001 0
3.6830003 1.8134774 0.39807811 0
3.6910002 1.8120722 0.39806369 0
3.6990004 1.8106382 0.39804927 0
3.7070003 1.8091753 0.39803481 0
3.7160003 1.8082428 0.3980186 0
3.7240002 1.8067204 0.39800414 0
3.7320004 1.8051691 0.39798972 0
3.7410002 1.8041426 0.39797348 0
3.7490003 1.8025318 0.39795905 0
3.7580004 1.8014424 0.39794281 0
3.7660003 1.799772 0.39792839 0
3.8810003 1.8377169 0.39772096 0
3.8830004 1.8325167 0.39771736 0
3.8850002 1.8273089 0.39771375 0
3.8880002 1.8226298 0.39770833 0
3.8910003 1.81794 0.39770293 0
3.8950002 1.8137714 0.39769569 0
3.9000003 1.8101188 0.39768669 0
3.9050002 1.806448 0.39767766 0
3.9110003 1.8032858 0.39766684 0
3.9190001 1.801152 0.39765242 0
3.9290004 1.8000355 0.39763439 0
3.6910002 1.8120722 0.39212734 0
3.6990004 1.8106382 0.39209849 0
3.7070003 1.8091753 0.39206964 0
3.7160003 1.8082428 0.39203715 0
3.7240002 1.8067204 0.3920083 0
3.7320004 1.8051691 0.39197943 0
3.7410002 1.8041426 0.39194697 0
3.7490003 1.8025318 0.39191809 0
3.7580004 1.8014424 0.39188564 0
3.7660003 1.799772 0.39185679 0
3.8810003 1.8377169 0.39144191 0
3.8830004 1.8325167 0.3914347 0
3.8850002 1.8273089 0.39142746 0
3.8880002 1.8226298 0.39141664 0
3.8910003 1.81794 0.39140582 0
3.8950002 1.8137714 0.3913914 0
3.9000003 1.8101188 0.39137337 0
3.9050002 1.806448 0.39135531 0
3.9110003 1.8032858 0.39133367 0
3.9190001 1.801152 0.39130482 0
3.9290004 1.8000355 0.39126873 0
3.7250001 1.8612565 0.38600704 0
3.7240002 1.8546871 0.38601243 0
3.7240002 1.8486912 0.38601243 0
3.7250001 1.8432635 0.38600704 0
3.7270002 1.8383988 0.38599619 0
3.7300003 1.8340913 0.38597998 0
3.7340002 1.8303356 0.38595831 0
3.7380002 1.8265657 0.38593668 0
3.7440002 1.8238997 0.38590422 0
3.7530003 1.8228842 0.3858555 0
3.8820002 1.8633815 0.38515744 0
3.8810003 1.856554 0.38516283 0
3.8800004 1.8497304 0.38516825 0
3.8810003 1.8439959 0.38516283 0
3.8810003 1.8377169 0.38516283 0
3.8830004 1.8325167 0.38515201 0
3.8850002 1.8273089 0.38514119 0
3.8880002 1.8226298 0.38512495 0
3.8910003 1.81794 0.38510874 0
3.8950002 1.8137714 0.38508707 0
3.9000003 1.8101188 0.38506001 0
3.9050002 1.806448 0.38503298 0
3.9110003 1.8032858 0.3850005 0
3.9190001 1.801152 0.38495722 0
3.9290004 1.8000355 0.3849031 0
3.7280002 1.8689806 0.37998772 0
3.7250001 1.8612565 0.38000935 0
3.7240002 1.8546871 0.38001657 0
3.7240002 1.8486912 0.38001657 0
3.7250001 1.8432635 0.38000935 0
3.7270002 1.8383988 0.37999493 0
3.7300003 1.8340913 0.37997329 0
3.7340002 1.8303356 0.37994441 0
3.7380002 1.8265657 0.37991557 0
3.7440002 1.8238997 0.37987226 0
3.7530003 1.8228842 0.37980735 0
3.8850002 1.8713129 0.37885493 0
3.8820002 1.8633815 0.37887657 0
3.8810003 1.856554 0.37888378 0
3.8800004 1.8497304 0.37889099 0
3.8810003 1.8439959 0.37888378 0
3.8810003 1.8377169 0.37888378 0
3.8830004 1.8325167 0.37886935 0
3.8850002 1.8273089 0.37885493 0
3.8880002 1.8226298 0.37883329 0
3.8910003 1.81794 0.37881163 0
3.8950002 1.8137714 0.37878278 0
3.9000003 1.8101188 0.37874669 0
3.9050002 1.806448 0.37871063 0
3.9110003 1.8032858 0.37866732 0
3.9190001 1.801152 0.3786096 0
3.9290004 1.8000355 0.37853745 0
3.7280002 1.8689806 0.37398463 0
3.7250001 1.8612565 0.3740117 0
3.7240002 1.8546871 0.37402073 0
3.7240002 1.8486912 0.37402073 0
3.7250001 1.8432635 0.3740117 0
3.7270002 1.8383988 0.37399366 0
3.7300003 1.8340913 0.3739666 0
3.7340002 1.8303356 0.37393054 0
3.7380002 1.8265657 0.37389445 0
3.7440002 1.8238997 0.37384033 0
3.7530003 1.8228842 0.37375918 0
3.8850002 1.8713129 0.37256867 0
3.8820002 1.8633815 0.37259573 0
3.8810003 1.856554 0.37260473 0
3.8800004 1.8497304 0.37261376 0
3.8810003 1.8439959 0.37260473 0
3.8810003 1.8377169 0.37260473 0
3.8830004 1.8325167 0.3725867 0
3.8850002 1.8273089 0.37256867 0
3.8880002 1.8226298 0.37254161 0
3.8910003 1.81794 0.37251455 0
3.8950002 1.8137714 0.37247846 0
3.9000003 1.8101188 0.37243336 0
3.9050002 1.806448 0.37238827 0
3.9110003 1.8032858 0.37233415 0
3.9190001 1.801152 0.372262 0
3.9290004 1.8000355 0.37217182 0
3.7280002 1.8689806 0.36798158 0
3.7250001 1.8612565 0.36801404 0
3.7240002 1.8546871 0.36802486 0
3.7240002 1.8486912 0.36802486 0
3.7250001 1.8432635 0.36801404 0
3.7270002 1.8383988 0.3679924 0
3.7300003 1.8340913 0.36795992 0
3.7340002 1.8303356 0.36791664 0
3.7380002 1.8265657 0.36787334 0
3.7440002 1.8238997 0.3678084 0
3.7530003 1.8228842 0.36771101 0
3.8850002 1.8713129 0.36628237 0
3.8820002 1.8633815 0.36631486 0
3.8810003 1.856554 0.36632568 0
3.8800004 1.8497304 0.36633649 0
3.8810003 1.8439959 0.36632568 0
3.8810003 1.8377169 0.36632568 0
3.8830004 1.8325167 0.36630404 0
3.8850002 1.8273089 0.36628237 0
3.8880002 1.8226298 0.36624992 0
3.8910003 1.81794 0.36621743 0
3.8950002 1.8137714 0.36617416 0
3.9000003 1.8101188 0.36612004 0
3.9050002 1.806448 0.36606592 0
3.9110003 1.8032858 0.36600098 0
3.9190001 1.801152 0.3659144 0
3.9290004 1.8000355 0.36580616 0
3.7280002 1.8689806 0.3619785 0
3.7250001 1.8612565 0.36201638 0
3.7240002 1.8546871 0.36202902 0
3.7240002 1.8486912 0.36202902 0
3.7250001 1.8432635 0.36201638 0
3.7270002 1.8383988 0.36199111 0
3.7300003 1.8340913 0.36195326 0
3.7340002 1.8303356 0.36190274 0
3.7380002 1.8265657 0.36185223 0
3.7440002 1.8238997 0.36177647 0
3.7530003 1.8228842 0.36166283 0
3.8850002 1.8713129 0.35999611 0
3.8820002 1.8633815 0.36003399 0
3.8810003 1.856554 0.36004663 0
3.8800004 1.8497304 0.36005923 0
3.8810003 1.8439959 0.36004663 0
3.8810003 1.8377169 0.36004663 0
3.8830004 1.8325167 0.36002135 0
3.8850002 1.8273089 0.35999611 0
3.8880002 1.8226298 0.35995823 0
3.8910003 1.81794 0.35992035 0
3.8950002 1.8137714 0.35986984 0
3.9000003 1.8101188 0.35980672 0
3.9050002 1.806448 0.3597436 0
3.9110003 1.8032858 0.35966781 0
3.9190001 1.801152 0.35956681 0
3.9290004 1.8000355 0.35944054 0
3.7280002 1.8689806 0.35597542 0
3.7250001 1.8612565 0.35601872 0
3.7240002 1.8546871 0.35603315 0
3.7240002 1.8486912 0.35603315 0
3.7250001 1.8432635 0.35601872 0
3.7270002 1.8383988 0.35598984 0
3.7300003 1.8340913 0.35594657 0
3.7340002 1.8303356 0.35588884 0
3.7380002 1.8265657 0.35583112 0
3.7440002 1.8238997 0.35574454 0
3.7530003 1.8228842 0.35561466 0
3.8920002 1.8814628 0.35360882 0
3.8850002 1.8713129 0.35370985 0
3.8820002 1.8633815 0.35375312 0
3.8810003 1.856554 0.35376757 0
3.8800004 1.8497304 0.353782 0
3.8810003 1.8439959 0.35376757 0
3.8810003 1.8377169 0.35376757 0
3.8830004 1.8325167 0.3537387 0
3.8850002 1.8273089 0.35370985 0
3.8880002 1.8226298 0.35366654 0
3.8910003 1.81794 0.35362327 0
3.8950002 1.8137714 0.35356554 0
3.9000003 1.8101188 0.35349339 0
3.9050002 1.806448 0.35342124 0
3.9110003 1.8032858 0.35333467 0
3.9190001 1.801152 0.35321921 0
3.9290004 1.8000355 0.35307491 0
3.7280002 1.8689806 0.34997237 0
3.7250001 1.8612565 0.35002106 0
3.7240002 1.8546871 0.35003728 0
3.7240002 1.8486912 0.35003728 0
3.7250001 1.8432635 0.35002106 0
3.7270002 1.8383988 0.34998858 0
3.7300003 1.8340913 0.34993988 0
3.7340002 1.8303356 0.34987494 0
3.7380002 1.8265657 0.34981 0
3.7440002 1.8238997 0.34971261 0
3.7530003 1.8228842 0.34956649 0
3.8920002 1.8814628 0.34730992 0
3.8850002 1.8713129 0.34742355 0
3.8820002 1.8633815 0.34747228 0
3.8810003 1.856554 0.34748849 0
3.8800004 1.8497304 0.34750473 0
3.8810003 1.8439959 0.34748849 0
3.8810003 1.8377169 0.34748849 0
3.8830004 1.8325167 0.34745604 0
3.8850002 1.8273089 0.34742355 0
3.8880002 1.8226298 0.34737486 0
3.8910003 1.81794 0.34732616 0
3.8950002 1.8137714 0.34726122 0
3.9000003 1.8101188 0.34718007 0
3.9050002 1.806448 0.34709889 0
3.9110003 1.8032858 0.34700149 0
3.9190001 1.801152 0.34687161 0
3.9290004 1.8000355 0.34670925 0
3.7280002 1.8689806 0.34396929 0
3.7250001 1.8612565 0.34402341 0
3.7240002 1.8546871 0.34404144 0
3.7240002 1.8486912 0.34404144 0
3.7250001 1.8432635 0.34402341 0
3.7270002 1.8383988 0.34398732 0
3.7300003 1.8340913 0.34393319 0
3.7340002 1.8303356 0.34386104 0
3.7380002 1.8265657 0.34378889 0
3.7440002 1.8238997 0.34368068 0
3.7530003 1.8228842 0.34351832 0
3.8920002 1.8814628 0.34101105 0
3.8850002 1.8713129 0.34113729 0
3.8820002 1.8633815 0.34119141 0
3.8810003 1.856554 0.34120944 0
3.8800004 1.8497304 0.34122747 0
3.8810003 1.8439959 0.34120944 0
3.8810003 1.8377169 0.34120944 0
3.8830004 1.8325167 0.34117338 0
3.8850002 1.8273089 0.34113729 0
3.8880002 1.8226298 0.34108317 0
3.8910003 1.81794 0.34102905 0
3.8950002 1.8137714 0.34095693 0
3.9000003 1.8101188 0.34086671 0
3.9050002 1.806448 0.34077653 0
3.9110003 1.8032858 0.34066832 0
3.9190001 1.801152 0.34052402 0
3.9290004 1.8000355 0.34034362 0
3.7280002 1.8689806 0.3379662 0
3.7250001 1.8612565 0.33802572 0
3.7240002 1.8546871 0.33804557 0
3.7240002 1.8486912 0.33804557 0
3.7250001 1.8432635 0.33802572 0
3.7270002 1.8383988 0.33798605 0
3.7300003 1.8340913 0.33792651 0
3.7340002 1.8303356 0.33784714 0
3.7380002 1.8265657 0.33776778 0
3.7440002 1.8238997 0.33764875 0
3.7530003 1.8228842 0.33747014 0
3.8920002 1.8814628 0.33471215 0
3.8850002 1.8713129 0.33485103 0
3.8820002 1.8633815 0.33491054 0
3.8810003 1.856554 0.33493039 0
3.8800004 1.8497304 0.33495024 0
3.8810003 1.8439959 0.33493039 0
3.8810003 1.8377169 0.33493039 0
3.8830004 1.8325167 0.33489072 0
3.8850002 1.8273089 0.33485103 0
3.8880002 1.8226298 0.33479151 0
3.8910003 1.81794 0.33473197 0
3.8950002 1.8137714 0.3346526 0
3.9000003 1.8101188 0.33455339 0
3.9050002 1.806448 0.33445418 0
3.9110003 1.8032858 0.33433515 0
3.9190001 1.801152 0.33417642 0
3.9290004 1.8000355 0.33397797 0
3.7280002 1.8689806 0.33196312 0
3.7250001 1.8612565 0.33202806 0
3.7240002 1.8546871 0.33204973 0
3.7240002 1.8486912 0.33204973 0
3.7250001 1.8432635 0.33202806 0
3.7270002 1.8383988 0.33198476 0
3.7300003 1.8340913 0.33191985 0
3.7340002 1.8303356 0.33183324 0
3.7380002 1.8265657 0.33174667 0
3.7440002 1.8238997 0.33161679 0
3.7530003 1.8228842 0.33142197 0
3.8920002 1.8814628 0.32841325 0
3.8850002 1.8713129 0.32856476 0
3.8820002 1.8633815 0.3286297 0
3.8810003 1.856554 0.32865134 0
3.8800004 1.8497304 0.32867298 0
3.8810003 1.8439959 0.32865134 0
3.8810003 1.8377169 0.32865134 0
3.8830004 1.8325167 0.32860804 0
3.8850002 1.8273089 0.32856476 0
3.8880002 1.8226298 0.32849982 0
3.8910003 1.81794 0.32843488 0
3.8950002 1.8137714 0.32834828 0
3.9000003 1.8101188 0.32824007 0
3.9050002 1.806448 0.32813185 0
3.9110003 1.8032858 0.32800198 0
3.9190001 1.801152 0.32782879 0
3.9290004 1.8000355 0.32761234 0
3.7280002 1.8689806 0.32596004 0
3.7250001 1.8612565 0.3260304 0
3.7240002 1.8546871 0.32605386 0
3.7240002 1.8486912 0.32605386 0
3.7250001 1.8432635 0.3260304 0
3.7270002 1.8383988 0.32598349 0
3.7300003 1.8340913 0.32591316 0
3.7340002 1.8303356 0.32581937 0
3.7380002 1.8265657 0.32572556 0
3.7440002 1.8238997 0.32558486 0
3.7530003 1.8228842 0.32537383 0
3.8920002 1.8814628 0.32211435 0
3.8850002 1.8713129 0.3222785 0
3.8820002 1.8633815 0.32234883 0
3.8810003 1.856554 0.32237229 0
3.8800004 1.8497304 0.32239574 0
3.8810003 1.8439959 0.32237229 0
3.8810003 1.8377169 0.32237229 0
3.8830004 1.8325167 0.32232538 0
3.8850002 1.8273089 0.3222785 0
3.8880002 1.8226298 0.32220814 0
3.8910003 1.81794 0.32213777 0
3.8950002 1.8137714 0.32204399 0
3.9000003 1.8101188 0.32192674 0
3.9050002 1.806448 0.3218095 0
3.9110003 1.8032858 0.3216688 0
3.9190001 1.801152 0.3214812 0
3.9290004 1.8000355 0.32124671 0
3.7280002 1.8689806 0.31995699 0
3.7250001 1.8612565 0.32003275 0
3.7240002 1.8546871 0.32005799 0
3.7240002 1.8486912 0.32005799 0
3.7250001 1.8432635 0.32003275 0
3.7270002 1.8383988 0.31998223 0
3.7300003 1.8340913 0.31990647 0
3.7340002 1.8303356 0.31980544 0
3.7380002 1.8265657 0.31970444 0
3.7440002 1.8238997 0.31955293 0
3.7530003 1.8228842 0.31932566 0
3.8920002 1.8814628 0.31581545 0
3.8850002 1.8713129 0.31599221 0
3.8820002 1.8633815 0.31606796 0
3.8810003 1.856554 0.31609324 0
3.8800004 1.8497304 0.31611848 0
3.8810003 1.8439959 0.31609324 0
3.8810003 1.8377169 0.31609324 0
3.8830004 1.8325167 0.31604272 0
3.8850002 1.8273089 0.31599221 0
3.8880002 1.8226298 0.31591645 0
3.8910003 1.81794 0.31584069 0
3.8950002 1.8137714 0.31573969 0
3.9000003 1.8101188 0.31561342 0
3.9050002 1.806448 0.31548715 0
3.9110003 1.8032858 0.31533563 0
3.9190001 1.801152 0.3151336 0
