# .PCD v0.7 - Point Cloud Data file format
VERSION 0.7
FIELDS x y z intensity
SIZE 4 4 4 4
TYPE F F F F
COUNT 1 1 1 1
WIDTH 1408
HEIGHT 1
VIEWPOINT 0 0 0 1 0 0 0
POINTS 1408
DATA ascii
2.7330003 0.23595506 0.46291602 0
2.7340002 0.23186582 0.46294126 0
2.7350001 0.22777298 0.4629665 0
2.7360003 0.22367656 0.46299177 0
2.7370002 0.21957648 0.46301702 0
2.7380002 0.21547282 0.46304226 0
2.7390003 0.21136558 0.46306753 0
2.7400002 0.20725468 0.46309277 0
2.7400002 0.20303378 0.46309277 0
2.7410002 0.19891746 0.46311802 0
2.7420001 0.19479756 0.46314329 0
2.7430003 0.19067407 0.46316853 0
2.7440002 0.18654694 0.46319377 0
2.7450001 0.18241623 0.46321905 0
2.7460003 0.17828192 0.46324429 0
2.7470002 0.17414397 0.46326953 0
2.7480001 0.17000242 0.4632948 0
2.7490003 0.16585729 0.46332005 0
2.7500002 0.16170852 0.46334529 0
2.7510002 0.15755615 0.46337056 0
2.7520001 0.15340017 0.4633958 0
2.7530003 0.1492406 0.46342108 0
2.7540002 0.14507741 0.46344632 0
2.7550001 0.1409106 0.46347156 0
2.7560003 0.13674021 0.46349683 0
2.7570002 0.13256618 0.46352208 0
2.7580001 0.12838857 0.46354732 0
2.7590003 0.12420735 0.46357259 0
2.7600002 0.12002252 0.46359783 0
2.7610002 0.11583406 0.46362311 0
2.7620003 0.11164202 0.46364835 0
2.7630002 0.10744636 0.46367359 0
2.7640002 0.10324709 0.46369886 0
2.7650001 0.099044219 0.46372411 0
2.7660003 0.09483774 0.46374935 0
2.7660003 0.090569928 0.46374935 0
2.7670002 0.086358041 0.46377462 0
2.7680001 0.082142532 0.46379986 0
2.7690003 0.077923432 0.46382511 0
2.7700002 0.073700711 0.46385038 0
2.7710001 0.069474384 0.46387562 0
2.7720003 0.065244466 0.46390089 0
2.7730002 0.061010923 0.46392614 0
2.7740002 0.056773778 0.46395138 0
2.7750001 0.052533019 0.46397662 0
2.7760003 0.048288662 0.46400189 0
2.7770002 0.044040699 0.46402714 0
2.7780001 0.039789114 0.46405238 0
2.7790003 0.035533939 0.46407765 0
2.6900003 0.42077148 0.45769939 0
2.6910002 0.41684276 0.45772284 0
2.6920002 0.41291043 0.4577463 0
2.6930003 0.40897456 0.45776972 0
2.6940002 0.40503505 0.45779318 0
2.6950002 0.4010919 0.45781663 0
2.6960001 0.39714515 0.45784009 0
2.6970003 0.39319485 0.45786354 0
2.6970003 0.3890515 0.45786354 0
2.6980002 0.38509572 0.45788699 0
2.6990001 0.38113636 0.45791042 0
2.7000003 0.37717342 0.45793387 0
2.7010002 0.37320685 0.45795733 0
2.7020001 0.36923665 0.45798078 0
2.7030003 0.3652629 0.45800424 0
2.7040002 0.36128545 0.45802769 0
2.7050002 0.35730445 0.45805112 0
2.7060001 0.35331985 0.45807457 0
2.7070003 0.34933162 0.45809802 0
2.7080002 0.3453398 0.45812148 0
2.7090001 0.34134436 0.45814493 0
2.7090001 0.33717936 0.45814493 0
2.7100003 0.33317855 0.45816839 0
2.7110002 0.32917407 0.45819181 0
2.7120001 0.32516599 0.45821527 0
2.7130003 0.32115436 0.45823872 0
2.7140002 0.31713906 0.45826218 0
2.7150002 0.31312019 0.45828563 0
2.7160003 0.30909771 0.45830908 0
2.7170002 0.30507159 0.45833254 0
2.7180002 0.30104187 0.45835596 0
2.7190001 0.29700854 0.45837942 0
2.7200003 0.29297164 0.45840287 0
2.7210002 0.2889311 0.45842633 0
2.7220001 0.28488696 0.45844978 0
2.7220001 0.28069851 0.45844978 0
2.7230003 0.276649 0.45847321 0
2.7240002 0.27259582 0.45849666 0
2.7250001 0.26853904 0.45852011 0
2.7260003 0.26447871 0.45854357 0
2.7270002 0.26041472 0.45856702 0
2.7280002 0.25634709 0.45859045 0
2.7290001 0.25227588 0.4586139 0
2.7300003 0.2482011 0.45863736 0
2.7310002 0.24412271 0.45866081 0
2.7320001 0.24004069 0.45868427 0
2.7330003 0.23595506 0.45870772 0
2.7340002 0.23186582 0.45873117 0
2.7350001 0.22777298 0.4587546 0
2.7360003 0.22367656 0.45877805 0
2.7370002 0.21957648 0.45880151 0
2.7380002 0.21547282 0.45882496 0
2.7390003 0.21136558 0.45884842 0
2.7400002 0.20725468 0.45887187 0
2.7400002 0.20303378 0.45887187 0
2.7410002 0.19891746 0.4588953 0
2.7420001 0.19479756 0.45891875 0
2.7430003 0.19067407 0.4589422 0
2.7440002 0.18654694 0.45896566 0
2.7450001 0.18241623 0.45898911 0
2.7460003 0.17828192 0.45901257 0
2.7470002 0.17414397 0.45903599 0
2.7480001 0.17000242 0.45905945 0
2.7490003 0.16585729 0.4590829 0
2.7500002 0.16170852 0.45910636 0
2.7510002 0.15755615 0.45912981 0
2.7520001 0.15340017 0.45915326 0
2.7530003 0.1492406 0.45917672 0
2.7540002 0.14507741 0.45920014 0
2.7550001 0.1409106 0.4592236 0
2.7560003 0.13674021 0.45924705 0
2.7570002 0.13256618 0.45927051 0
2.7580001 0.12838857 0.45929396 0
2.7590003 0.12420735 0.45931742 0
2.7600002 0.12002252 0.45934084 0
2.7610002 0.11583406 0.4593643 0
2.7620003 0.11164202 0.45938775 0
2.7630002 0.10744636 0.4594112 0
2.7640002 0.10324709 0.45943466 0
2.7650001 0.099044219 0.45945811 0
2.7660003 0.09483774 0.45948154 0
2.7660003 0.090569928 0.45948154 0
2.7670002 0.086358041 0.45950499 0
2.7680001 0.082142532 0.45952845 0
2.7690003 0.077923432 0.4595519 0
2.7700002 0.073700711 0.45957536 0
2.7710001 0.069474384 0.45959878 0
2.7720003 0.065244466 0.45962223 0
2.7730002 0.061010923 0.45964569 0
2.7740002 0.056773778 0.45966914 0
2.7750001 0.052533019 0.4596926 0
2.7760003 0.048288662 0.45971605 0
2.7770002 0.044040699 0.45973951 0
2.7780001 0.039789114 0.45976293 0
2.7790003 0.035533939 0.45978639 0
2.6900003 0.42077148 0.45356867 0
2.6910002 0.41684276 0.4535903 0
2.6920002 0.41291043 0.45361197 0
2.6930003 0.40897456 0.45363361 0
2.6940002 0.40503505 0.45365524 0
2.6950002 0.4010919 0.45367688 0
2.6960001 0.39714515 0.45369855 0
2.6970003 0.39319485 0.45372018 0
2.6970003 0.3890515 0.45372018 0
2.6980002 0.38509572 0.45374182 0
2.6990001 0.38113636 0.45376348 0
2.7000003 0.37717342 0.45378512 0
2.7010002 0.37320685 0.45380676 0
2.7020001 0.36923665 0.45382842 0
2.7030003 0.3652629 0.45385006 0
2.7040002 0.36128545 0.4538717 0
2.7050002 0.35730445 0.45389336 0
2.7060001 0.35331985 0.453915 0
2.7070003 0.34933162 0.45393664 0
2.7080002 0.3453398 0.45395827 0
2.7090001 0.34134436 0.45397994 0
2.7090001 0.33717936 0.45397994 0
2.7100003 0.33317855 0.45400158 0
2.7110002 0.32917407 0.45402324 0
2.7120001 0.32516599 0.45404488 0
2.7130003 0.32115436 0.45406651 0
2.7140002 0.31713906 0.45408815 0
2.7150002 0.31312019 0.45410982 0
2.7160003 0.30909771 0.45413145 0
2.7170002 0.30507159 0.45415309 0
2.7180002 0.30104187 0.45417476 0
2.7190001 0.29700854 0.45419639 0
2.7200003 0.29297164 0.45421803 0
2.7210002 0.2889311 0.45423967 0
2.7220001 0.28488696 0.45426133 0
2.7220001 0.28069851 0.45426133 0
2.7230003 0.276649 0.45428297 0
2.7240002 0.27259582 0.45430461 0
2.7250001 0.26853904 0.45432627 0
2.7260003 0.26447871 0.45434791 0
2.7270002 0.26041472 0.45436954 0
2.7280002 0.25634709 0.45439121 0
2.7290001 0.25227588 0.45441285 0
2.7300003 0.2482011 0.45443448 0
2.7310002 0.24412271 0.45445615 0
2.7320001 0.24004069 0.45447779 0
2.7330003 0.23595506 0.45449942 0
2.7340002 0.23186582 0.45452106 0
2.7350001 0.22777298 0.45454273 0
2.7360003 0.22367656 0.45456436 0
2.7370002 0.21957648 0.45458603 0
2.7380002 0.21547282 0.45460767 0
2.7390003 0.21136558 0.4546293 0
2.7400002 0.20725468 0.45465094 0
2.7400002 0.20303378 0.45465094 0
2.7410002 0.19891746 0.4546726 0
2.7420001 0.19479756 0.45469424 0
2.7430003 0.19067407 0.45471588 0
2.7440002 0.18654694 0.45473754 0
2.7450001 0.18241623 0.45475918 0
2.7460003 0.17828192 0.45478082 0
2.7470002 0.17414397 0.45480245 0
2.7480001 0.17000242 0.45482412 0
2.7490003 0.16585729 0.45484576 0
2.7500002 0.16170852 0.45486739 0
2.7510002 0.15755615 0.45488906 0
2.7520001 0.15340017 0.4549107 0
2.7530003 0.1492406 0.45493233 0
2.7540002 0.14507741 0.454954 0
2.7550001 0.1409106 0.45497563 0
2.7560003 0.13674021 0.45499727 0
2.7570002 0.13256618 0.45501894 0
2.7580001 0.12838857 0.45504057 0
2.7590003 0.12420735 0.45506221 0
2.7600002 0.12002252 0.45508385 0
2.7610002 0.11583406 0.45510551 0
2.7620003 0.11164202 0.45512715 0
2.7630002 0.10744636 0.45514882 0
2.7640002 0.10324709 0.45517045 0
2.7650001 0.099044219 0.45519209 0
2.7660003 0.09483774 0.45521373 0
2.7660003 0.090569928 0.45521373 0
2.7670002 0.086358041 0.45523539 0
2.7680001 0.082142532 0.45525703 0
2.7690003 0.077923432 0.45527866 0
2.7700002 0.073700711 0.45530033 0
2.7710001 0.069474384 0.45532197 0
2.7720003 0.065244466 0.4553436 0
2.7730002 0.061010923 0.45536527 0
2.7740002 0.056773778 0.45538691 0
2.7750001 0.052533019 0.45540854 0
2.7760003 0.048288662 0.45543021 0
2.7770002 0.044040699 0.45545185 0
2.7780001 0.039789114 0.45547348 0
2.7790003 0.035533939 0.45549512 0
2.6900003 0.42077148 0.44943795 0
2.6910002 0.41684276 0.44945779 0
2.6920002 0.41291043 0.44947761 0
2.6930003 0.40897456 0.44949746 0
2.6940002 0.40503505 0.44951731 0
2.6950002 0.4010919 0.44953716 0
2.6960001 0.39714515 0.44955701 0
2.6970003 0.39319485 0.44957685 0
2.6970003 0.3890515 0.44957685 0
2.6980002 0.38509572 0.44959667 0
2.6990001 0.38113636 0.44961652 0
2.7000003 0.37717342 0.44963637 0
2.7010002 0.37320685 0.44965619 0
2.7020001 0.36923665 0.44967604 0
2.7030003 0.3652629 0.44969589 0
2.7040002 0.36128545 0.44971573 0
2.7050002 0.35730445 0.44973558 0
2.7060001 0.35331985 0.4497554 0
2.7070003 0.34933162 0.44977525 0
2.7080002 0.3453398 0.4497951 0
2.7090001 0.34134436 0.44981495 0
2.7090001 0.33717936 0.44981495 0
2.7100003 0.33317855 0.44983479 0
2.7110002 0.32917407 0.44985461 0
2.7120001 0.32516599 0.44987446 0
2.7130003 0.32115436 0.44989431 0
2.7140002 0.31713906 0.44991416 0
2.7150002 0.31312019 0.44993398 0
2.7160003 0.30909771 0.44995382 0
2.7170002 0.30507159 0.44997367 0
2.7180002 0.30104187 0.44999352 0
2.7190001 0.29700854 0.45001337 0
2.7200003 0.29297164 0.45003319 0
2.7210002 0.2889311 0.45005304 0
2.7220001 0.28488696 0.45007288 0
2.7220001 0.28069851 0.45007288 0
2.7230003 0.276649 0.45009273 0
2.7240002 0.27259582 0.45011258 0
2.7250001 0.26853904 0.4501324 0
2.7260003 0.26447871 0.45015225 0
2.7270002 0.26041472 0.4501721 0
2.7280002 0.25634709 0.45019194 0
2.7290001 0.25227588 0.45021176 0
2.7300003 0.2482011 0.45023161 0
2.7310002 0.24412271 0.45025146 0
2.7320001 0.24004069 0.45027131 0
2.7330003 0.23595506 0.45029116 0
2.7340002 0.23186582 0.45031098 0
2.7350001 0.22777298 0.45033082 0
2.7360003 0.22367656 0.45035067 0
2.7370002 0.21957648 0.45037052 0
2.7380002 0.21547282 0.45039034 0
2.7390003 0.21136558 0.45041019 0
2.7400002 0.20725468 0.45043004 0
2.7400002 0.20303378 0.45043004 0
2.7410002 0.19891746 0.45044988 0
2.7420001 0.19479756 0.45046973 0
2.7430003 0.19067407 0.45048958 0
2.7440002 0.18654694 0.4505094 0
2.7450001 0.18241623 0.45052925 0
2.7460003 0.17828192 0.4505491 0
2.7470002 0.17414397 0.45056894 0
2.7480001 0.17000242 0.45058876 0
2.7490003 0.16585729 0.45060861 0
2.7500002 0.16170852 0.45062846 0
2.7510002 0.15755615 0.45064831 0
2.7520001 0.15340017 0.45066813 0
2.7530003 0.1492406 0.45068797 0
2.7540002 0.14507741 0.45070782 0
2.7550001 0.1409106 0.45072767 0
2.7560003 0.13674021 0.45074752 0
2.7570002 0.13256618 0.45076734 0
2.7580001 0.12838857 0.45078719 0
2.7590003 0.12420735 0.45080703 0
2.7600002 0.12002252 0.45082688 0
2.7610002 0.11583406 0.45084673 0
2.7620003 0.11164202 0.45086655 0
2.7630002 0.10744636 0.4508864 0
2.7640002 0.10324709 0.45090625 0
2.7650001 0.099044219 0.45092607 0
2.7660003 0.09483774 0.45094591 0
2.7660003 0.090569928 0.45094591 0
2.7670002 0.086358041 0.45096576 0
2.7680001 0.082142532 0.45098561 0
2.7690003 0.077923432 0.45100546 0
2.7700002 0.073700711 0.45102531 0
2.7710001 0.069474384 0.45104513 0
2.7720003 0.065244466 0.45106497 0
2.7730002 0.061010923 0.45108482 0
2.7740002 0.056773778 0.45110467 0
2.7750001 0.052533019 0.45112449 0
2.7760003 0.048288662 0.45114434 0
2.7770002 0.044040699 0.45116419 0
2.7780001 0.039789114 0.45118403 0
2.7790003 0.035533939 0.45120388 0
2.6900003 0.42077148 0.44530722 0
2.6910002 0.41684276 0.44532526 0
2.6920002 0.41291043 0.44534329 0
2.6930003 0.40897456 0.44536135 0
2.6940002 0.40503505 0.44537938 0
2.6950002 0.4010919 0.44539741 0
2.6960001 0.39714515 0.44541544 0
2.6970003 0.39319485 0.4454335 0
2.6970003 0.3890515 0.4454335 0
2.6980002 0.38509572 0.44545153 0
2.6990001 0.38113636 0.44546956 0
2.7000003 0.37717342 0.44548762 0
2.7010002 0.37320685 0.44550565 0
2.7020001 0.36923665 0.44552368 0
2.7030003 0.3652629 0.44554171 0
2.7040002 0.36128545 0.44555974 0
2.7050002 0.35730445 0.4455778 0
2.7060001 0.35331985 0.44559583 0
2.7070003 0.34933162 0.44561386 0
2.7080002 0.3453398 0.44563192 0
2.7090001 0.34134436 0.44564995 0
2.7090001 0.33717936 0.44564995 0
2.7100003 0.33317855 0.44566798 0
2.7110002 0.32917407 0.44568601 0
2.7120001 0.32516599 0.44570407 0
2.7130003 0.32115436 0.4457221 0
2.7140002 0.31713906 0.44574013 0
2.7150002 0.31312019 0.44575816 0
2.7160003 0.30909771 0.44577622 0
2.7170002 0.30507159 0.44579425 0
2.7180002 0.30104187 0.44581228 0
2.7190001 0.29700854 0.44583032 0
2.7200003 0.29297164 0.44584838 0
2.7210002 0.2889311 0.44586641 0
2.7220001 0.28488696 0.44588444 0
2.7220001 0.28069851 0.44588444 0
2.7230003 0.276649 0.44590247 0
2.7240002 0.27259582 0.44592053 0
2.7250001 0.26853904 0.44593856 0
2.7260003 0.26447871 0.44595659 0
2.7270002 0.26041472 0.44597462 0
2.7280002 0.25634709 0.44599268 0
2.7290001 0.25227588 0.44601071 0
2.7300003 0.2482011 0.44602874 0
2.7310002 0.24412271 0.44604677 0
2.7320001 0.24004069 0.44606483 0
2.7330003 0.23595506 0.44608286 0
2.7340002 0.23186582 0.44610089 0
2.7350001 0.22777298 0.44611895 0
2.7360003 0.22367656 0.44613698 0
2.7370002 0.21957648 0.44615501 0
2.7380002 0.21547282 0.44617304 0
2.7390003 0.21136558 0.4461911 0
2.7400002 0.20725468 0.44620913 0
2.7400002 0.20303378 0.44620913 0
2.7410002 0.19891746 0.44622716 0
2.7420001 0.19479756 0.44624519 0
2.7430003 0.19067407 0.44626325 0
2.7440002 0.18654694 0.44628128 0
2.7450001 0.18241623 0.44629931 0
2.7460003 0.17828192 0.44631737 0
2.7470002 0.17414397 0.44633541 0
2.7480001 0.17000242 0.44635344 0
2.7490003 0.16585729 0.44637147 0
2.7500002 0.16170852 0.4463895 0
2.7510002 0.15755615 0.44640756 0
2.7520001 0.15340017 0.44642559 0
2.7530003 0.1492406 0.44644362 0
2.7540002 0.14507741 0.44646165 0
2.7550001 0.1409106 0.44647968 0
2.7560003 0.13674021 0.44649774 0
2.7570002 0.13256618 0.44651577 0
2.7580001 0.12838857 0.4465338 0
2.7590003 0.12420735 0.44655186 0
2.7600002 0.12002252 0.44656989 0
2.7610002 0.11583406 0.44658792 0
2.7620003 0.11164202 0.44660598 0
2.7630002 0.10744636 0.44662401 0
2.7640002 0.10324709 0.44664204 0
2.7650001 0.099044219 0.44666007 0
2.7660003 0.09483774 0.4466781 0
2.7660003 0.090569928 0.4466781 0
2.7670002 0.086358041 0.44669616 0
2.7680001 0.082142532 0.44671419 0
2.7690003 0.077923432 0.44673222 0
2.7700002 0.073700711 0.44675028 0
2.7710001 0.069474384 0.44676831 0
2.7720003 0.065244466 0.44678634 0
2.7730002 0.061010923 0.44680437 0
2.7740002 0.056773778 0.44682243 0
2.7750001 0.052533019 0.44684047 0
2.7760003 0.048288662 0.4468585 0
2.7770002 0.044040699 0.44687653 0
2.7780001 0.039789114 0.44689459 0
2.7790003 0.035533939 0.44691262 0
2.6900003 0.42077148 0.4411765 0
2.6910002 0.41684276 0.44119275 0
2.6920002 0.41291043 0.44120896 0
2.6930003 0.40897456 0.4412252 0
2.6940002 0.40503505 0.44124144 0
2.6950002 0.4010919 0.44125769 0
2.6960001 0.39714515 0.4412739 0
2.6970003 0.39319485 0.44129014 0
2.6970003 0.3890515 0.44129014 0
2.6980002 0.38509572 0.44130638 0
2.6990001 0.38113636 0.44132262 0
2.7000003 0.37717342 0.44133884 0
2.7010002 0.37320685 0.44135508 0
2.7020001 0.36923665 0.44137132 0
2.7030003 0.3652629 0.44138753 0
2.7040002 0.36128545 0.44140378 0
2.7050002 0.35730445 0.44142002 0
2.7060001 0.35331985 0.44143623 0
2.7070003 0.34933162 0.44145247 0
2.7080002 0.3453398 0.44146872 0
2.7090001 0.34134436 0.44148496 0
2.7090001 0.33717936 0.44148496 0
2.7100003 0.33317855 0.4415012 0
2.7110002 0.32917407 0.44151741 0
2.7120001 0.32516599 0.44153365 0
2.7130003 0.32115436 0.4415499 0
2.7140002 0.31713906 0.44156611 0
2.7150002 0.31312019 0.44158235 0
2.7160003 0.30909771 0.44159859 0
2.7170002 0.30507159 0.44161484 0
2.7180002 0.30104187 0.44163108 0
2.7190001 0.29700854 0.44164729 0
2.7200003 0.29297164 0.44166353 0
2.7210002 0.2889311 0.44167978 0
2.7220001 0.28488696 0.44169599 0
2.7220001 0.28069851 0.44169599 0
2.7230003 0.276649 0.44171223 0
2.7240002 0.27259582 0.44172847 0
2.7250001 0.26853904 0.44174469 0
2.7260003 0.26447871 0.44176093 0
2.7270002 0.26041472 0.44177717 0
2.7280002 0.25634709 0.44179341 0
2.7290001 0.25227588 0.44180962 0
2.7300003 0.2482011 0.44182587 0
2.7310002 0.24412271 0.44184211 0
2.7320001 0.24004069 0.44185835 0
2.7330003 0.23595506 0.44187456 0
2.7340002 0.23186582 0.44189081 0
2.7350001 0.22777298 0.44190705 0
2.7360003 0.22367656 0.44192329 0
2.7370002 0.21957648 0.4419395 0
2.7380002 0.21547282 0.44195575 0
2.7390003 0.21136558 0.44197199 0
2.7400002 0.20725468 0.44198823 0
2.7400002 0.20303378 0.44198823 0
2.7410002 0.19891746 0.44200444 0
2.7420001 0.19479756 0.44202068 0
2.7430003 0.19067407 0.44203693 0
2.7440002 0.18654694 0.44205314 0
2.7450001 0.18241623 0.44206938 0
2.7460003 0.17828192 0.44208562 0
2.7470002 0.17414397 0.44210187 0
2.7480001 0.17000242 0.44211808 0
2.7490003 0.16585729 0.44213432 0
2.7500002 0.16170852 0.44215056 0
2.7510002 0.15755615 0.44216681 0
2.7520001 0.15340017 0.44218302 0
2.7530003 0.1492406 0.44219926 0
2.7540002 0.14507741 0.4422155 0
2.7550001 0.1409106 0.44223171 0
2.7560003 0.13674021 0.44224796 0
2.7570002 0.13256618 0.4422642 0
2.7580001 0.12838857 0.44228044 0
2.7590003 0.12420735 0.44229668 0
2.7600002 0.12002252 0.4423129 0
2.7610002 0.11583406 0.44232914 0
2.7620003 0.11164202 0.44234538 0
2.7630002 0.10744636 0.44236159 0
2.7640002 0.10324709 0.44237784 0
2.7650001 0.099044219 0.44239408 0
2.7660003 0.09483774 0.44241032 0
2.7660003 0.090569928 0.44241032 0
2.7670002 0.086358041 0.44242653 0
2.7680001 0.082142532 0.44244277 0
2.7690003 0.077923432 0.44245902 0
2.7700002 0.073700711 0.44247526 0
2.7710001 0.069474384 0.44249147 0
2.7720003 0.065244466 0.44250771 0
2.7730002 0.061010923 0.44252396 0
2.7740002 0.056773778 0.44254017 0
2.7750001 0.052533019 0.44255641 0
2.7760003 0.048288662 0.44257265 0
2.7770002 0.044040699 0.4425889 0
2.7780001 0.039789114 0.44260511 0
2.7790003 0.035533939 0.44262135 0
2.6900003 0.42077148 0.43704578 0
2.6910002 0.41684276 0.43706021 0
2.6920002 0.41291043 0.43707463 0
2.6930003 0.40897456 0.43708909 0
2.6940002 0.40503505 0.43710351 0
2.6950002 0.4010919 0.43711793 0
2.6960001 0.39714515 0.43713236 0
2.6970003 0.39319485 0.43714678 0
2.6970003 0.3890515 0.43714678 0
2.6980002 0.38509572 0.43716124 0
2.6990001 0.38113636 0.43717566 0
2.7000003 0.37717342 0.43719009 0
2.7010002 0.37320685 0.43720451 0
2.7020001 0.36923665 0.43721893 0
2.7030003 0.3652629 0.43723339 0
2.7040002 0.36128545 0.43724781 0
2.7050002 0.35730445 0.43726224 0
2.7060001 0.35331985 0.43727666 0
2.7070003 0.34933162 0.43729109 0
2.7080002 0.3453398 0.43730554 0
2.7090001 0.34134436 0.43731996 0
2.7090001 0.33717936 0.43731996 0
2.7100003 0.33317855 0.43733439 0
2.7110002 0.32917407 0.43734881 0
2.7120001 0.32516599 0.43736324 0
2.7130003 0.32115436 0.43737769 0
2.7140002 0.31713906 0.43739212 0
2.7150002 0.31312019 0.43740654 0
2.7160003 0.30909771 0.43742096 0
2.7170002 0.30507159 0.43743539 0
2.7180002 0.30104187 0.43744984 0
2.7190001 0.29700854 0.43746427 0
2.7200003 0.29297164 0.43747869 0
2.7210002 0.2889311 0.43749312 0
2.7220001 0.28488696 0.43750757 0
2.7220001 0.28069851 0.43750757 0
2.7230003 0.276649 0.43752199 0
2.7240002 0.27259582 0.43753642 0
2.7250001 0.26853904 0.43755084 0
2.7260003 0.26447871 0.43756527 0
2.7270002 0.26041472 0.43757972 0
2.7280002 0.25634709 0.43759415 0
2.7290001 0.25227588 0.43760857 0
2.7300003 0.2482011 0.43762299 0
2.7310002 0.24412271 0.43763742 0
2.7320001 0.24004069 0.43765187 0
2.7330003 0.23595506 0.4376663 0
2.7340002 0.23186582 0.43768072 0
2.7350001 0.22777298 0.43769515 0
2.7360003 0.22367656 0.43770957 0
2.7370002 0.21957648 0.43772402 0
2.7380002 0.21547282 0.43773845 0
2.7390003 0.21136558 0.43775287 0
2.7400002 0.20725468 0.4377673 0
2.7400002 0.20303378 0.4377673 0
2.7410002 0.19891746 0.43778172 0
2.7420001 0.19479756 0.43779618 0
2.7430003 0.19067407 0.4378106 0
2.7440002 0.18654694 0.43782502 0
2.7450001 0.18241623 0.43783945 0
2.7460003 0.17828192 0.43785387 0
2.7470002 0.17414397 0.43786833 0
2.7480001 0.17000242 0.43788275 0
2.7490003 0.16585729 0.43789718 0
2.7500002 0.16170852 0.4379116 0
2.7510002 0.15755615 0.43792605 0
2.7520001 0.15340017 0.43794048 0
2.7530003 0.1492406 0.4379549 0
2.7540002 0.14507741 0.43796933 0
2.7550001 0.1409106 0.43798375 0
2.7560003 0.13674021 0.43799821 0
2.7570002 0.13256618 0.43801263 0
2.7580001 0.12838857 0.43802705 0
2.7590003 0.12420735 0.43804148 0
2.7600002 0.12002252 0.4380559 0
2.7610002 0.11583406 0.43807036 0
2.7620003 0.11164202 0.43808478 0
2.7630002 0.10744636 0.43809921 0
2.7640002 0.10324709 0.43811363 0
2.7650001 0.099044219 0.43812805 0
2.7660003 0.09483774 0.43814251 0
2.7660003 0.090569928 0.43814251 0
2.7670002 0.086358041 0.43815693 0
2.7680001 0.082142532 0.43817136 0
2.7690003 0.077923432 0.43818578 0
2.7700002 0.073700711 0.43820021 0
2.7710001 0.069474384 0.43821466 0
2.7720003 0.065244466 0.43822908 0
2.7730002 0.061010923 0.43824351 0
2.7740002 0.056773778 0.43825793 0
2.7750001 0.052533019 0.43827236 0
2.7760003 0.048288662 0.43828681 0
2.7770002 0.044040699 0.43830124 0
2.7780001 0.039789114 0.43831566 0
2.7790003 0.035533939 0.43833008 0
2.6900003 0.42077148 0.43291506 0
2.6910002 0.41684276 0.4329277 0
2.6920002 0.41291043 0.4329403 0
2.6930003 0.40897456 0.43295294 0
2.6940002 0.40503505 0.43296558 0
2.6950002 0.4010919 0.43297818 0
2.6960001 0.39714515 0.43299082 0
2.6970003 0.39319485 0.43300346 0
2.6970003 0.3890515 0.43300346 0
2.6980002 0.38509572 0.43301606 0
2.6990001 0.38113636 0.4330287 0
2.7000003 0.37717342 0.43304133 0
2.7010002 0.37320685 0.43305394 0
2.7020001 0.36923665 0.43306658 0
2.7030003 0.3652629 0.43307921 0
2.7040002 0.36128545 0.43309182 0
2.7050002 0.35730445 0.43310446 0
2.7060001 0.35331985 0.43311709 0
2.7070003 0.34933162 0.43312973 0
2.7080002 0.3453398 0.43314233 0
2.7090001 0.34134436 0.43315497 0
2.7090001 0.33717936 0.43315497 0
2.7100003 0.33317855 0.43316761 0
2.7110002 0.32917407 0.43318021 0
2.7120001 0.32516599 0.43319285 0
2.7130003 0.32115436 0.43320549 0
2.7140002 0.31713906 0.43321809 0
2.7150002 0.31312019 0.43323073 0
2.7160003 0.30909771 0.43324336 0
2.7170002 0.30507159 0.43325597 0
2.7180002 0.30104187 0.43326861 0
2.7190001 0.29700854 0.43328124 0
2.7200003 0.29297164 0.43329385 0
2.7210002 0.2889311 0.43330649 0
2.7220001 0.28488696 0.43331912 0
2.7230003 0.28083923 0.43333173 0
2.7230003 0.276649 0.43333173 0
2.7240002 0.27259582 0.43334436 0
2.7250001 0.26853904 0.433357 0
2.7260003 0.26447871 0.43336964 0
2.7270002 0.26041472 0.43338224 0
2.7280002 0.25634709 0.43339488 0
2.7290001 0.25227588 0.43340749 0
2.7300003 0.2482011 0.43342012 0
2.7310002 0.24412271 0.43343276 0
2.7320001 0.24004069 0.43344536 0
2.7330003 0.23595506 0.433458 0
2.7340002 0.23186582 0.43347064 0
2.7350001 0.22777298 0.43348327 0
2.7360003 0.22367656 0.43349588 0
2.7370002 0.21957648 0.43350852 0
2.7380002 0.21547282 0.43352115 0
2.7390003 0.21136558 0.43353376 0
2.7400002 0.20725468 0.43354639 0
2.7400002 0.20303378 0.43354639 0
2.7410002 0.19891746 0.43355903 0
2.7420001 0.19479756 0.43357164 0
2.7430003 0.19067407 0.43358427 0
2.7440002 0.18654694 0.43359691 0
2.7450001 0.18241623 0.43360952 0
2.7460003 0.17828192 0.43362215 0
2.7470002 0.17414397 0.43363479 0
2.7480001 0.17000242 0.43364739 0
2.7490003 0.16585729 0.43366003 0
2.7500002 0.16170852 0.43367267 0
2.7510002 0.15755615 0.43368527 0
2.7520001 0.15340017 0.43369791 0
2.7530003 0.1492406 0.43371055 0
2.7540002 0.14507741 0.43372315 0
2.7550001 0.1409106 0.43373579 0
2.7560003 0.13674021 0.43374842 0
2.7570002 0.13256618 0.43376106 0
2.7580001 0.12838857 0.43377367 0
2.7590003 0.12420735 0.4337863 0
2.7600002 0.12002252 0.43379894 0
2.7610002 0.11583406 0.43381155 0
2.7620003 0.11164202 0.43382418 0
2.7630002 0.10744636 0.43383682 0
2.7640002 0.10324709 0.43384942 0
2.7650001 0.099044219 0.43386206 0
2.7660003 0.09483774 0.4338747 0
2.7660003 0.090569928 0.4338747 0
2.7670002 0.086358041 0.4338873 0
2.7680001 0.082142532 0.43389994 0
2.7690003 0.077923432 0.43391258 0
2.7700002 0.073700711 0.43392518 0
2.7710001 0.069474384 0.43393782 0
2.7720003 0.065244466 0.43395045 0
2.7730002 0.061010923 0.43396306 0
2.7740002 0.056773778 0.4339757 0
2.7750001 0.052533019 0.43398833 0
2.7760003 0.048288662 0.43400097 0
2.7770002 0.044040699 0.43401358 0
2.7780001 0.039789114 0.43402621 0
2.7790003 0.035533939 0.43403885 0
2.6900003 0.42077148 0.42878434 0
2.6910002 0.41684276 0.42879516 0
2.6920002 0.41291043 0.42880598 0
2.6930003 0.40897456 0.4288168 0
2.6940002 0.40503505 0.42882764 0
2.6950002 0.4010919 0.42883846 0
2.6960001 0.39714515 0.42884928 0
2.6970003 0.39319485 0.4288601 0
2.6970003 0.3890515 0.4288601 0
2.6980002 0.38509572 0.42887092 0
2.6990001 0.38113636 0.42888173 0
2.7000003 0.37717342 0.42889255 0
2.7010002 0.37320685 0.4289034 0
2.7020001 0.36923665 0.42891422 0
2.7030003 0.3652629 0.42892504 0
2.7040002 0.36128545 0.42893586 0
2.7050002 0.35730445 0.42894667 0
2.7060001 0.35331985 0.42895749 0
2.7070003 0.34933162 0.42896834 0
2.7080002 0.3453398 0.42897916 0
2.7090001 0.34134436 0.42898998 0
2.7090001 0.33717936 0.42898998 0
2.7100003 0.33317855 0.42900079 0
2.7110002 0.32917407 0.42901161 0
2.7120001 0.32516599 0.42902243 0
2.7130003 0.32115436 0.42903328 0
2.7140002 0.31713906 0.4290441 0
2.7150002 0.31312019 0.42905492 0
2.7160003 0.30909771 0.42906573 0
2.7170002 0.30507159 0.42907655 0
2.7180002 0.30104187 0.42908737 0
2.7190001 0.29700854 0.42909819 0
2.7200003 0.29297164 0.42910904 0
2.7210002 0.2889311 0.42911986 0
2.7220001 0.28488696 0.42913067 0
2.7230003 0.28083923 0.42914149 0
2.7230003 0.276649 0.42914149 0
2.7240002 0.27259582 0.42915231 0
2.7250001 0.26853904 0.42916313 0
2.7260003 0.26447871 0.42917398 0
2.7270002 0.26041472 0.42918479 0
2.7280002 0.25634709 0.42919561 0
2.7290001 0.25227588 0.42920643 0
2.7300003 0.2482011 0.42921725 0
2.7310002 0.24412271 0.42922807 0
2.7320001 0.24004069 0.42923889 0
2.7330003 0.23595506 0.42924973 0
2.7340002 0.23186582 0.42926055 0
2.7350001 0.22777298 0.42927137 0
2.7360003 0.22367656 0.42928219 0
2.7370002 0.21957648 0.42929301 0
2.7380002 0.21547282 0.42930382 0
2.7390003 0.21136558 0.42931467 0
2.7400002 0.20725468 0.42932549 0
2.7400002 0.20303378 0.42932549 0
2.7410002 0.19891746 0.42933631 0
2.7420001 0.19479756 0.42934713 0
2.7430003 0.19067407 0.42935795 0
2.7440002 0.18654694 0.42936876 0
2.7450001 0.18241623 0.42937958 0
2.7460003 0.17828192 0.42939043 0
2.7470002 0.17414397 0.42940125 0
2.7480001 0.17000242 0.42941207 0
2.7490003 0.16585729 0.42942289 0
2.7500002 0.16170852 0.4294337 0
2.7510002 0.15755615 0.42944452 0
2.7520001 0.15340017 0.42945534 0
2.7530003 0.1492406 0.42946619 0
2.7540002 0.14507741 0.42947701 0
2.7550001 0.1409106 0.42948782 0
2.7560003 0.13674021 0.42949864 0
2.7570002 0.13256618 0.42950946 0
2.7580001 0.12838857 0.42952028 0
2.7590003 0.12420735 0.42953113 0
2.7600002 0.12002252 0.42954195 0
2.7610002 0.11583406 0.42955276 0
2.7620003 0.11164202 0.42956358 0
2.7630002 0.10744636 0.4295744 0
2.7640002 0.10324709 0.42958522 0
2.7650001 0.099044219 0.42959607 0
2.7660003 0.09483774 0.42960688 0
2.7660003 0.090569928 0.42960688 0
2.7670002 0.086358041 0.4296177 0
2.7680001 0.082142532 0.42962852 0
2.7690003 0.077923432 0.42963934 0
2.7700002 0.073700711 0.42965016 0
2.7710001 0.069474384 0.42966098 0
2.7720003 0.065244466 0.42967182 0
2.7730002 0.061010923 0.42968264 0
2.7740002 0.056773778 0.42969346 0
2.7750001 0.052533019 0.42970428 0
2.7760003 0.048288662 0.4297151 0
2.7770002 0.044040699 0.42972592 0
2.7780001 0.039789114 0.42973673 0
2.7790003 0.035533939 0.42974758 0
2.6900003 0.42077148 0.42465362 0
2.6910002 0.41684276 0.42466265 0
2.6920002 0.41291043 0.42467165 0
2.6930003 0.40897456 0.42468068 0
2.6940002 0.40503505 0.42468971 0
2.6950002 0.4010919 0.42469871 0
2.6960001 0.39714515 0.42470774 0
2.6970003 0.39319485 0.42471674 0
2.6970003 0.3890515 0.42471674 0
2.6980002 0.38509572 0.42472577 0
2.6990001 0.38113636 0.4247348 0
2.7000003 0.37717342 0.4247438 0
2.7010002 0.37320685 0.42475283 0
2.7020001 0.36923665 0.42476183 0
2.7030003 0.3652629 0.42477086 0
2.7040002 0.36128545 0.42477989 0
2.7050002 0.35730445 0.42478889 0
2.7060001 0.35331985 0.42479792 0
2.7070003 0.34933162 0.42480695 0
2.7080002 0.3453398 0.42481595 0
2.7090001 0.34134436 0.42482498 0
2.7090001 0.33717936 0.42482498 0
2.7100003 0.33317855 0.42483401 0
2.7110002 0.32917407 0.42484301 0
2.7120001 0.32516599 0.42485204 0
2.7130003 0.32115436 0.42486104 0
2.7140002 0.31713906 0.42487007 0
2.7150002 0.31312019 0.4248791 0
2.7160003 0.30909771 0.4248881 0
2.7170002 0.30507159 0.42489713 0
2.7180002 0.30104187 0.42490616 0
2.7190001 0.29700854 0.42491516 0
2.7200003 0.29297164 0.42492419 0
2.7210002 0.2889311 0.4249332 0
2.7220001 0.28488696 0.42494223 0
2.7230003 0.28083923 0.42495126 0
2.7230003 0.276649 0.42495126 0
2.7240002 0.27259582 0.42496026 0
2.7250001 0.26853904 0.42496929 0
2.7260003 0.26447871 0.42497832 0
2.7270002 0.26041472 0.42498732 0
2.7280002 0.25634709 0.42499635 0
2.7290001 0.25227588 0.42500538 0
2.7300003 0.2482011 0.42501438 0
2.7310002 0.24412271 0.42502341 0
2.7320001 0.24004069 0.42503241 0
2.7330003 0.23595506 0.42504144 0
2.7340002 0.23186582 0.42505047 0
2.7350001 0.22777298 0.42505947 0
2.7360003 0.22367656 0.4250685 0
2.7370002 0.21957648 0.4250775 0
2.7380002 0.21547282 0.42508653 0
2.7390003 0.21136558 0.42509556 0
2.7400002 0.20725468 0.42510456 0
2.7400002 0.20303378 0.42510456 0
2.7410002 0.19891746 0.42511359 0
2.7420001 0.19479756 0.42512262 0
2.7430003 0.19067407 0.42513162 0
2.7440002 0.18654694 0.42514065 0
2.7450001 0.18241623 0.42514968 0
2.7460003 0.17828192 0.42515868 0
2.7470002 0.17414397 0.42516771 0
2.7480001 0.17000242 0.42517671 0
2.7490003 0.16585729 0.42518574 0
2.7500002 0.16170852 0.42519477 0
2.7510002 0.15755615 0.42520377 0
2.7520001 0.15340017 0.4252128 0
2.7530003 0.1492406 0.42522183 0
2.7540002 0.14507741 0.42523083 0
2.7550001 0.1409106 0.42523986 0
2.7560003 0.13674021 0.42524886 0
2.7570002 0.13256618 0.42525789 0
2.7580001 0.12838857 0.42526692 0
2.7590003 0.12420735 0.42527592 0
2.7600002 0.12002252 0.42528495 0
2.7610002 0.11583406 0.42529398 0
2.7620003 0.11164202 0.42530298 0
2.7630002 0.10744636 0.42531201 0
2.7640002 0.10324709 0.42532104 0
2.7650001 0.099044219 0.42533004 0
2.7660003 0.09483774 0.42533907 0
2.7660003 0.090569928 0.42533907 0
2.7670002 0.086358041 0.42534807 0
2.7680001 0.082142532 0.4253571 0
2.7690003 0.077923432 0.42536613 0
2.7700002 0.073700711 0.42537513 0
2.7710001 0.069474384 0.42538416 0
2.7720003 0.065244466 0.42539316 0
2.7730002 0.061010923 0.42540219 0
2.7740002 0.056773778 0.42541122 0
2.7750001 0.052533019 0.42542022 0
2.7760003 0.048288662 0.42542925 0
2.7770002 0.044040699 0.42543828 0
2.7780001 0.039789114 0.42544729 0
2.7790003 0.035533939 0.42545632 0
2.6900003 0.42077148 0.4205229 0
2.6910002 0.41684276 0.42053011 0
2.6920002 0.41291043 0.42053732 0
2.6930003 0.40897456 0.42054453 0
2.6940002 0.40503505 0.42055175 0
2.6950002 0.4010919 0.42055899 0
2.6960001 0.39714515 0.4205662 0
2.6970003 0.39319485 0.42057341 0
2.6970003 0.3890515 0.42057341 0
2.6980002 0.38509572 0.42058063 0
2.6990001 0.38113636 0.42058784 0
2.7000003 0.37717342 0.42059505 0
2.7010002 0.37320685 0.42060226 0
2.7020001 0.36923665 0.42060947 0
2.7030003 0.3652629 0.42061669 0
2.7040002 0.36128545 0.4206239 0
2.7050002 0.35730445 0.42063111 0
2.7060001 0.35331985 0.42063835 0
2.7070003 0.34933162 0.42064556 0
2.7080002 0.3453398 0.42065278 0
2.7090001 0.34134436 0.42065999 0
2.7090001 0.33717936 0.42065999 0
2.7100003 0.33317855 0.4206672 0
2.7110002 0.32917407 0.42067441 0
2.7120001 0.32516599 0.42068163 0
2.7130003 0.32115436 0.42068884 0
2.7140002 0.31713906 0.42069605 0
2.7150002 0.31312019 0.42070329 0
2.7160003 0.30909771 0.4207105 0
2.7170002 0.30507159 0.42071772 0
2.7180002 0.30104187 0.42072493 0
2.7190001 0.29700854 0.42073214 0
2.7200003 0.29297164 0.42073935 0
2.7210002 0.2889311 0.42074656 0
2.7220001 0.28488696 0.42075378 0
2.7230003 0.28083923 0.42076099 0
2.7230003 0.276649 0.42076099 0
2.7240002 0.27259582 0.4207682 0
2.7250001 0.26853904 0.42077544 0
2.7260003 0.26447871 0.42078266 0
2.7270002 0.26041472 0.42078987 0
2.7280002 0.25634709 0.42079708 0
2.7290001 0.25227588 0.42080429 0
2.7300003 0.2482011 0.4208115 0
2.7310002 0.24412271 0.42081872 0
2.7320001 0.24004069 0.42082593 0
2.7330003 0.23595506 0.42083314 0
2.7340002 0.23186582 0.42084038 0
2.7350001 0.22777298 0.42084759 0
2.7360003 0.22367656 0.42085481 0
2.7370002 0.21957648 0.42086202 0
2.7380002 0.21547282 0.42086923 0
2.7390003 0.21136558 0.42087644 0
2.7400002 0.20725468 0.42088366 0
2.7400002 0.20303378 0.42088366 0
2.7410002 0.19891746 0.42089087 0
2.7420001 0.19479756 0.42089808 0
2.7430003 0.19067407 0.42090529 0
2.7440002 0.18654694 0.4209125 0
2.7450001 0.18241623 0.42091975 0
2.7460003 0.17828192 0.42092696 0
2.7470002 0.17414397 0.42093417 0
2.7480001 0.17000242 0.42094138 0
2.7490003 0.16585729 0.42094859 0
2.7500002 0.16170852 0.42095581 0
2.7510002 0.15755615 0.42096302 0
2.7520001 0.15340017 0.42097023 0
2.7530003 0.1492406 0.42097747 0
2.7540002 0.14507741 0.42098469 0
2.7550001 0.1409106 0.4209919 0
2.7560003 0.13674021 0.42099911 0
2.7570002 0.13256618 0.42100632 0
2.7580001 0.12838857 0.42101353 0
2.7590003 0.12420735 0.42102075 0
2.7600002 0.12002252 0.42102796 0
2.7610002 0.11583406 0.42103517 0
2.7620003 0.11164202 0.42104238 0
2.7630002 0.10744636 0.42104959 0
2.7640002 0.10324709 0.42105684 0
2.7650001 0.099044219 0.42106405 0
2.7660003 0.09483774 0.42107126 0
2.7660003 0.090569928 0.42107126 0
2.7670002 0.086358041 0.42107847 0
2.7680001 0.082142532 0.42108569 0
2.7690003 0.077923432 0.4210929 0
2.7700002 0.073700711 0.42110011 0
2.7710001 0.069474384 0.42110732 0
2.7720003 0.065244466 0.42111453 0
2.7730002 0.061010923 0.42112178 0
2.7740002 0.056773778 0.42112899 0
2.7750001 0.052533019 0.4211362 0
2.7760003 0.048288662 0.42114341 0
2.7770002 0.044040699 0.42115062 0
2.7780001 0.039789114 0.42115784 0
2.7790003 0.035533939 0.42116505 0
2.6900003 0.42077148 0.41639218 0
2.6910002 0.41684276 0.4163976 0
2.6920002 0.41291043 0.416403 0
2.6930003 0.40897456 0.41640842 0
2.6940002 0.40503505 0.41641381 0
2.6950002 0.4010919 0.41641924 0
2.6960001 0.39714515 0.41642463 0
2.6970003 0.39319485 0.41643006 0
2.6970003 0.3890515 0.41643006 0
2.6980002 0.38509572 0.41643548 0
2.6990001 0.38113636 0.41644087 0
2.7000003 0.37717342 0.4164463 0
2.7010002 0.37320685 0.41645169 0
2.7020001 0.36923665 0.41645712 0
2.7030003 0.3652629 0.41646254 0
2.7040002 0.36128545 0.41646793 0
2.7050002 0.35730445 0.41647336 0
2.7060001 0.35331985 0.41647875 0
2.7070003 0.34933162 0.41648418 0
2.7080002 0.3453398 0.41648957 0
2.7090001 0.34134436 0.416495 0
2.7090001 0.33717936 0.416495 0
2.7100003 0.33317855 0.41650042 0
2.7110002 0.32917407 0.41650581 0
2.7120001 0.32516599 0.41651124 0
2.7130003 0.32115436 0.41651663 0
2.7140002 0.31713906 0.41652206 0
2.7150002 0.31312019 0.41652745 0
2.7160003 0.30909771 0.41653287 0
2.7170002 0.30507159 0.4165383 0
2.7180002 0.30104187 0.41654369 0
2.7190001 0.29700854 0.41654912 0
2.7200003 0.29297164 0.41655451 0
2.7210002 0.2889311 0.41655993 0
2.7220001 0.28488696 0.41656533 0
2.7230003 0.28083923 0.41657075 0
2.7230003 0.276649 0.41657075 0
2.7240002 0.27259582 0.41657618 0
2.7250001 0.26853904 0.41658157 0
2.7260003 0.26447871 0.416587 0
2.7270002 0.26041472 0.41659239 0
2.7280002 0.25634709 0.41659781 0
2.7290001 0.25227588 0.41660321 0
2.7300003 0.2482011 0.41660863 0
2.7310002 0.24412271 0.41661406 0
2.7320001 0.24004069 0.41661945 0
2.7330003 0.23595506 0.41662487 0
2.7340002 0.23186582 0.41663027 0
2.7350001 0.22777298 0.41663569 0
2.7360003 0.22367656 0.41664112 0
2.7370002 0.21957648 0.41664651 0
2.7380002 0.21547282 0.41665193 0
2.7390003 0.21136558 0.41665733 0
2.7400002 0.20725468 0.41666275 0
2.7400002 0.20303378 0.41666275 0
2.7410002 0.19891746 0.41666815 0
2.7420001 0.19479756 0.41667357 0
2.7430003 0.19067407 0.41667899 0
2.7440002 0.18654694 0.41668439 0
2.7450001 0.18241623 0.41668981 0
2.7460003 0.17828192 0.41669521 0
2.7470002 0.17414397 0.41670063 0
2.7480001 0.17000242 0.41670603 0
2.7490003 0.16585729 0.41671145 0
2.7500002 0.16170852 0.41671687 0
2.7510002 0.15755615 0.41672227 0
2.7520001 0.15340017 0.41672769 0
2.7530003 0.1492406 0.41673309 0
2.7540002 0.14507741 0.41673851 0
2.7550001 0.1409106 0.4167439 0
2.7560003 0.13674021 0.41674933 0
2.7570002 0.13256618 0.41675475 0
2.7580001 0.12838857 0.41676015 0
2.7590003 0.12420735 0.41676557 0
2.7600002 0.12002252 0.41677096 0
2.7610002 0.11583406 0.41677639 0
2.7620003 0.11164202 0.41678181 0
2.7630002 0.10744636 0.41678721 0
2.7640002 0.10324709 0.41679263 0
2.7650001 0.099044219 0.41679803 0
2.7660003 0.09483774 0.41680345 0
2.7660003 0.090569928 0.41680345 0
2.7670002 0.086358041 0.41680884 0
2.7680001 0.082142532 0.41681427 0
2.7690003 0.077923432 0.41681969 0
2.7700002 0.073700711 0.41682509 0
2.7710001 0.069474384 0.41683051 0
2.7720003 0.065244466 0.4168359 0
2.7730002 0.061010923 0.41684133 0
2.7740002 0.056773778 0.41684672 0
2.7750001 0.052533019 0.41685215 0
2.7760003 0.048288662 0.41685757 0
2.7770002 0.044040699 0.41686296 0
2.7780001 0.039789114 0.41686839 0
2.7790003 0.035533939 0.41687378 0
2.6900003 0.42077148 0.41226146 0
2.6910002 0.41684276 0.41226506 0
2.6920002 0.41291043 0.41226867 0
2.6930003 0.40897456 0.41227227 0
2.6940002 0.40503505 0.41227588 0
2.6950002 0.4010919 0.41227949 0
2.6960001 0.39714515 0.41228309 0
2.6970003 0.39319485 0.4122867 0
2.6970003 0.3890515 0.4122867 0
2.6980002 0.38509572 0.4122903 0
2.6990001 0.38113636 0.41229391 0
2.7000003 0.37717342 0.41229755 0
2.7010002 0.37320685 0.41230115 0
2.7020001 0.36923665 0.41230476 0
2.7030003 0.3652629 0.41230837 0
2.7040002 0.36128545 0.41231197 0
2.7050002 0.35730445 0.41231558 0
2.7060001 0.35331985 0.41231918 0
2.7070003 0.34933162 0.41232279 0
2.7080002 0.3453398 0.4123264 0
2.7090001 0.34134436 0.41233 0
2.7090001 0.33717936 0.41233 0
2.7100003 0.33317855 0.41233361 0
2.7110002 0.32917407 0.41233721 0
2.7120001 0.32516599 0.41234082 0
2.7130003 0.32115436 0.41234443 0
2.7140002 0.31713906 0.41234803 0
2.7150002 0.31312019 0.41235164 0
2.7160003 0.30909771 0.41235524 0
2.7170002 0.30507159 0.41235885 0
2.7180002 0.30104187 0.41236246 0
2.7190001 0.29700854 0.41236606 0
2.7200003 0.29297164 0.4123697 0
2.7210002 0.2889311 0.4123733 0
2.7220001 0.28488696 0.41237691 0
2.7230003 0.28083923 0.41238052 0
2.7230003 0.276649 0.41238052 0
2.7240002 0.27259582 0.41238412 0
2.7250001 0.26853904 0.41238773 0
2.7260003 0.26447871 0.41239133 0
2.7270002 0.26041472 0.41239494 0
2.7280002 0.25634709 0.41239855 0
2.7290001 0.25227588 0.41240215 0
2.7300003 0.2482011 0.41240576 0
2.7310002 0.24412271 0.41240937 0
2.7320001 0.24004069 0.41241297 0
2.7330003 0.23595506 0.41241658 0
2.7340002 0.23186582 0.41242018 0
2.7350001 0.22777298 0.41242379 0
2.7360003 0.22367656 0.4124274 0
2.7370002 0.21957648 0.412431 0
2.7380002 0.21547282 0.41243461 0
2.7390003 0.21136558 0.41243824 0
2.7400002 0.20725468 0.41244185 0
2.7400002 0.20303378 0.41244185 0
2.7410002 0.19891746 0.41244546 0
2.7420001 0.19479756 0.41244906 0
2.7430003 0.19067407 0.41245267 0
2.7440002 0.18654694 0.41245627 0
2.7450001 0.18241623 0.41245988 0
2.7460003 0.17828192 0.41246349 0
2.7470002 0.17414397 0.41246709 0
2.7480001 0.17000242 0.4124707 0
2.7490003 0.16585729 0.4124743 0
2.7500002 0.16170852 0.41247791 0
2.7510002 0.15755615 0.41248152 0
2.7520001 0.15340017 0.41248512 0
2.7530003 0.1492406 0.41248873 0
2.7540002 0.14507741 0.41249233 0
2.7550001 0.1409106 0.41249594 0
2.7560003 0.13674021 0.41249955 0
2.7570002 0.13256618 0.41250315 0
2.7580001 0.12838857 0.41250676 0
2.7590003 0.12420735 0.4125104 0
2.7600002 0.12002252 0.412514 0
2.7610002 0.11583406 0.41251761 0
2.7620003 0.11164202 0.41252121 0
2.7630002 0.10744636 0.41252482 0
2.7640002 0.10324709 0.41252843 0
2.7650001 0.099044219 0.41253203 0
2.7660003 0.09483774 0.41253564 0
2.7660003 0.090569928 0.41253564 0
2.7670002 0.086358041 0.41253924 0
2.7680001 0.082142532 0.41254285 0
2.7690003 0.077923432 0.41254646 0
2.7700002 0.073700711 0.41255006 0
2.7710001 0.069474384 0.41255367 0
2.7720003 0.065244466 0.41255727 0
2.7730002 0.061010923 0.41256088 0
2.7740002 0.056773778 0.41256449 0
2.7750001 0.052533019 0.41256809 0
2.7760003 0.048288662 0.4125717 0
2.7770002 0.044040699 0.4125753 0
2.7780001 0.039789114 0.41257894 0
2.7790003 0.035533939 0.41258255 0
2.6900003 0.42077148 0.40813074 0
2.6910002 0.41684276 0.40813255 0
2.6920002 0.41291043 0.40813434 0
2.6930003 0.40897456 0.40813616 0
2.6940002 0.40503505 0.40813795 0
2.6950002 0.4010919 0.40813977 0
2.6960001 0.39714515 0.40814155 0
2.6970003 0.39319485 0.40814337 0
2.6970003 0.3890515 0.40814337 0
2.6980002 0.38509572 0.40814516 0
2.6990001 0.38113636 0.40814698 0
2.7000003 0.37717342 0.40814877 0
2.7010002 0.37320685 0.40815058 0
2.7020001 0.36923665 0.40815237 0
2.7030003 0.3652629 0.40815419 0
2.7040002 0.36128545 0.40815598 0
2.7050002 0.35730445 0.4081578 0
2.7060001 0.35331985 0.40815958 0
2.7070003 0.34933162 0.4081614 0
2.7080002 0.3453398 0.40816319 0
2.7090001 0.34134436 0.40816501 0
2.7090001 0.33717936 0.40816501 0
2.7100003 0.33317855 0.40816683 0
2.7110002 0.32917407 0.40816861 0
2.7120001 0.32516599 0.40817043 0
2.7130003 0.32115436 0.40817222 0
2.7140002 0.31713906 0.40817404 0
2.7150002 0.31312019 0.40817583 0
2.7160003 0.30909771 0.40817764 0
2.7170002 0.30507159 0.40817943 0
2.7180002 0.30104187 0.40818125 0
2.7190001 0.29700854 0.40818304 0
2.7200003 0.29297164 0.40818486 0
2.7210002 0.2889311 0.40818664 0
2.7220001 0.28488696 0.40818846 0
2.7230003 0.28083923 0.40819025 0
2.7230003 0.276649 0.40819025 0
2.7240002 0.27259582 0.40819207 0
2.7250001 0.26853904 0.40819386 0
2.7260003 0.26447871 0.40819567 0
2.7270002 0.26041472 0.40819746 0
2.7280002 0.25634709 0.40819928 0
2.7290001 0.25227588 0.40820107 0
2.7300003 0.2482011 0.40820289 0
2.7310002 0.24412271 0.4082047 0
2.7320001 0.24004069 0.40820649 0
2.7330003 0.23595506 0.40820831 0
2.7340002 0.23186582 0.4082101 0
2.7350001 0.22777298 0.40821192 0
2.7360003 0.22367656 0.4082137 0
2.7370002 0.21957648 0.40821552 0
2.7380002 0.21547282 0.40821731 0
2.7390003 0.21136558 0.40821913 0
2.7400002 0.20725468 0.40822092 0
2.7400002 0.20303378 0.40822092 0
2.7410002 0.19891746 0.40822273 0
2.7420001 0.19479756 0.40822452 0
2.7430003 0.19067407 0.40822634 0
2.7440002 0.18654694 0.40822813 0
2.7450001 0.18241623 0.40822995 0
2.7460003 0.17828192 0.40823174 0
2.7470002 0.17414397 0.40823355 0
2.7480001 0.17000242 0.40823534 0
2.7490003 0.16585729 0.40823716 0
2.7500002 0.16170852 0.40823898 0
2.7510002 0.15755615 0.40824077 0
2.7520001 0.15340017 0.40824258 0
2.7530003 0.1492406 0.40824437 0
2.7540002 0.14507741 0.40824619 0
2.7550001 0.1409106 0.40824798 0
2.7560003 0.13674021 0.4082498 0
2.7570002 0.13256618 0.40825158 0
2.7580001 0.12838857 0.4082534 0
2.7590003 0.12420735 0.40825519 0
2.7600002 0.12002252 0.40825701 0
2.7610002 0.11583406 0.4082588 0
2.7620003 0.11164202 0.40826061 0
2.7630002 0.10744636 0.4082624 0
2.7640002 0.10324709 0.40826422 0
2.7650001 0.099044219 0.40826601 0
2.7660003 0.09483774 0.40826783 0
2.7660003 0.090569928 0.40826783 0
2.7670002 0.086358041 0.40826961 0
2.7680001 0.082142532 0.40827143 0
2.7690003 0.077923432 0.40827325 0
2.7700002 0.073700711 0.40827504 0
2.7710001 0.069474384 0.40827686 0
2.7720003 0.065244466 0.40827864 0
2.7730002 0.061010923 0.40828046 0
2.7740002 0.056773778 0.40828225 0
2.7750001 0.052533019 0.40828407 0
2.7760003 0.048288662 0.40828586 0
2.7770002 0.044040699 0.40828767 0
2.7780001 0.039789114 0.40828946 0
2.7790003 0.035533939 0.40829128 0
2.6900003 0.42077148 0.40400001 0
2.6910002 0.41684276 0.40400001 0
2.6920002 0.41291043 0.40400001 0
2.6930003 0.40897456 0.40400001 0
2.6940002 0.40503505 0.40400001 0
2.6950002 0.4010919 0.40400001 0
2.6960001 0.39714515 0.40400001 0
2.6970003 0.39319485 0.40400001 0
2.6970003 0.3890515 0.40400001 0
2.6980002 0.38509572 0.40400001 0
2.6990001 0.38113636 0.40400001 0
2.7000003 0.37717342 0.40400001 0
2.7010002 0.37320685 0.40400001 0
2.7020001 0.36923665 0.40400001 0
2.7030003 0.3652629 0.40400001 0
2.7040002 0.36128545 0.40400001 0
2.7050002 0.35730445 0.40400001 0
2.7060001 0.35331985 0.40400001 0
2.7070003 0.34933162 0.40400001 0
2.7080002 0.3453398 0.40400001 0
2.7090001 0.34134436 0.40400001 0
2.7090001 0.33717936 0.40400001 0
2.7100003 0.33317855 0.40400001 0
2.7110002 0.32917407 0.40400001 0
2.7120001 0.32516599 0.40400001 0
2.7130003 0.32115436 0.40400001 0
2.7140002 0.31713906 0.40400001 0
2.7150002 0.31312019 0.40400001 0
2.7160003 0.30909771 0.40400001 0
2.7170002 0.30507159 0.40400001 0
2.7180002 0.30104187 0.40400001 0
2.7190001 0.29700854 0.40400001 0
2.7200003 0.29297164 0.40400001 0
2.7210002 0.2889311 0.40400001 0
2.7220001 0.28488696 0.40400001 0
2.7230003 0.28083923 0.40400001 0
2.7230003 0.276649 0.40400001 0
2.7240002 0.27259582 0.40400001 0
2.7250001 0.26853904 0.40400001 0
2.7260003 0.26447871 0.40400001 0
2.7270002 0.26041472 0.40400001 0
2.7280002 0.25634709 0.40400001 0
2.7290001 0.25227588 0.40400001 0
2.7300003 0.2482011 0.40400001 0
2.7310002 0.24412271 0.40400001 0
2.7320001 0.24004069 0.40400001 0
2.7330003 0.23595506 0.40400001 0
2.7340002 0.23186582 0.40400001 0
2.7350001 0.22777298 0.40400001 0
2.7360003 0.22367656 0.40400001 0
2.7370002 0.21957648 0.40400001 0
2.7380002 0.21547282 0.40400001 0
2.7390003 0.21136558 0.40400001 0
2.7400002 0.20725468 0.40400001 0
2.7400002 0.20303378 0.40400001 0
2.7410002 0.19891746 0.40400001 0
2.7420001 0.19479756 0.40400001 0
2.7430003 0.19067407 0.40400001 0
2.7440002 0.18654694 0.40400001 0
2.7450001 0.18241623 0.40400001 0
2.7460003 0.17828192 0.40400001 0
2.7470002 0.17414397 0.40400001 0
2.7480001 0.17000242 0.40400001 0
2.7490003 0.16585729 0.40400001 0
2.7500002 0.16170852 0.40400001 0
2.7510002 0.15755615 0.40400001 0
2.7520001 0.15340017 0.40400001 0
2.7530003 0.1492406 0.40400001 0
2.7540002 0.14507741 0.40400001 0
2.7550001 0.1409106 0.40400001 0
2.7560003 0.13674021 0.40400001 0
2.7570002 0.13256618 0.40400001 0
2.7580001 0.12838857 0.40400001 0
2.7590003 0.12420735 0.40400001 0
2.7600002 0.12002252 0.40400001 0
2.7610002 0.11583406 0.40400001 0
2.7620003 0.11164202 0.40400001 0
2.7630002 0.10744636 0.40400001 0
2.7640002 0.10324709 0.40400001 0
2.7650001 0.099044219 0.40400001 0
2.7660003 0.09483774 0.40400001 0
2.7660003 0.090569928 0.40400001 0
2.7670002 0.086358041 0.40400001 0
2.7680001 0.082142532 0.40400001 0
2.7690003 0.077923432 0.40400001 0
2.7700002 0.073700711 0.40400001 0
2.7710001 0.069474384 0.40400001 0
2.7720003 0.065244466 0.40400001 0
2.7730002 0.061010923 0.40400001 0
2.7740002 0.056773778 0.40400001 0
2.7750001 0.052533019 0.40400001 0
2.7760003 0.048288662 0.40400001 0
2.7770002 0.044040699 0.40400001 0
2.7780001 0.039789114 0.40400001 0
2.7790003 0.035533939 0.40400001 0
2.6900003 0.42077148 0.39986929 0
2.6910002 0.41684276 0.39986748 0
2.6920002 0.41291043 0.39986569 0
2.6930003 0.40897456 0.39986387 0
2.6940002 0.40503505 0.39986208 0
2.6950002 0.4010919 0.39986026 0
2.6960001 0.39714515 0.39985847 0
2.6970003 0.39319485 0.39985666 0
2.6970003 0.3890515 0.39985666 0
2.6980002 0.38509572 0.39985487 0
2.6990001 0.38113636 0.39985305 0
2.7000003 0.37717342 0.39985126 0
2.7010002 0.37320685 0.39984944 0
2.7020001 0.36923665 0.39984766 0
2.7030003 0.3652629 0.39984584 0
2.7040002 0.36128545 0.39984405 0
2.7050002 0.35730445 0.39984223 0
2.7060001 0.35331985 0.39984044 0
2.7070003 0.34933162 0.39983863 0
2.7080002 0.3453398 0.39983684 0
2.7090001 0.34134436 0.39983502 0
2.7090001 0.33717936 0.39983502 0
2.7100003 0.33317855 0.3998332 0
2.7110002 0.32917407 0.39983141 0
2.7120001 0.32516599 0.3998296 0
2.7130003 0.32115436 0.39982781 0
2.7140002 0.31713906 0.39982599 0
2.7150002 0.31312019 0.3998242 0
2.7160003 0.30909771 0.39982238 0
