# .PCD v0.7 - Point Cloud Data file format
VERSION 0.7
FIELDS x y z intensity
SIZE 4 4 4 4
TYPE F F F F
COUNT 1 1 1 1
WIDTH 1446
HEIGHT 1
VIEWPOINT 0 0 0 1 0 0 0
POINTS 1446
DATA ascii
4.033 0.40617323 0.61370355 0
4.0410004 0.40060127 0.61416531 0
4.0490003 0.39500046 0.61462712 0
4.0580001 0.3894898 0.61514658 0
4.066 0.38382944 0.61560833 0
4.0740004 0.37814027 0.61607015 0
4.0820003 0.37242216 0.61653191 0
4.0900002 0.36667523 0.61699367 0
4.099 0.36100948 0.61751318 0
4.1070004 0.35520303 0.617975 0
4.1150002 0.34936771 0.61843675 0
4.1240001 0.34360817 0.61895621 0
4.132 0.33771327 0.61941803 0
4.1410003 0.33189058 0.61993754 0
4.1490002 0.32593623 0.6203993 0
4.158 0.32005039 0.62091875 0
4.1660004 0.31403652 0.62138057 0
4.1750002 0.30808753 0.62190002 0
4.184 0.30210611 0.62241954 0
4.1920004 0.29600206 0.62288129 0
4.2010002 0.28995746 0.62340081 0
4.21 0.28388044 0.62392032 0
4.2140002 0.91028166 0.61727148 0
4.211 0.90265524 0.6171037 0
4.2090001 0.89528662 0.61699188 0
4.2010002 0.88645345 0.61654454 0
4.1920004 0.87740552 0.6160413 0
4.1860003 0.86911523 0.61570579 0
4.1790004 0.86060667 0.61531436 0
4.1740003 0.85259956 0.61503476 0
4.1700001 0.84484679 0.61481106 0
4.1660004 0.83710849 0.61458743 0
4.1620002 0.82938451 0.61436373 0
4.1600003 0.82213682 0.61425191 0
4.1570001 0.81466728 0.61408412 0
4.1550002 0.80743575 0.61397231 0
4.1540003 0.80043703 0.6139164 0
4.1530004 0.79344189 0.61386049 0
4.1530004 0.78667212 0.61386049 0
4.1530004 0.77990246 0.61386049 0
4.1540003 0.77335101 0.6139164 0
4.1560001 0.76701248 0.61402822 0
4.158 0.76066667 0.61414003 0
4.1630001 0.75495219 0.61441964 0
4.0510001 0.66525602 0.6081568 0
4.039 0.65635419 0.60748583 0
4.0320001 0.64845175 0.60709441 0
4.0280004 0.64114273 0.60687071 0
4.026 0.63422328 0.60675889 0
4.0250001 0.6274969 0.60670298 0
4.0240002 0.62077409 0.60664701 0
4.0250001 0.61441928 0.60670298 0
4.026 0.60806084 0.60675889 0
4.0280004 0.60187745 0.60687071 0
4.0310001 0.59586352 0.6070385 0
4.0350003 0.5900138 0.60726213 0
4.0410004 0.5844959 0.60759765 0
4.0469999 0.57895637 0.60793316 0
4.0550003 0.5737344 0.6083805 0
4.0630002 0.56848347 0.60882783 0
4.0700002 0.56303781 0.60921925 0
3.9210002 0.53196001 0.60088748 0
3.9160004 0.52479708 0.60060787 0
3.9110003 0.51765215 0.60032833 0
3.9060004 0.51052535 0.60004872 0
3.9010003 0.50341654 0.59976912 0
3.9020002 0.49725652 0.59982502 0
3.9090002 0.49201286 0.60021645 0
3.9170003 0.48689544 0.60066384 0
3.9240003 0.48159945 0.60105526 0
3.9320002 0.47642612 0.6015026 0
3.9400003 0.47122401 0.60194993 0
3.9470003 0.46584862 0.60234135 0
3.9550002 0.46059048 0.60278869 0
3.9630003 0.45530355 0.60323602 0
3.9700003 0.44984883 0.60362744 0
3.9780002 0.44450596 0.60407484 0
3.9860003 0.43913421 0.60452217 0
3.9940002 0.43373358 0.6049695 0
4.0020003 0.42830417 0.60541689 0
4.0090003 0.42271596 0.60580826 0
4.0170002 0.41723058 0.60625565 0
4.0250001 0.41171634 0.60670298 0
4.033 0.40617323 0.60715032 0
4.0410004 0.40060127 0.60759765 0
4.0490003 0.39500046 0.60804498 0
4.0580001 0.3894898 0.60854828 0
4.066 0.38382944 0.60899562 0
4.0740004 0.37814027 0.60944295 0
4.0820003 0.37242216 0.60989028 0
4.0900002 0.36667523 0.61033762 0
4.099 0.36100948 0.61084092 0
4.1070004 0.35520303 0.61128825 0
4.1150002 0.34936771 0.61173558 0
4.1240001 0.34360817 0.61223888 0
4.132 0.33771327 0.61268616 0
4.1410003 0.33189058 0.61318946 0
4.1490002 0.32593623 0.61363679 0
4.158 0.32005039 0.61414003 0
4.1660004 0.31403652 0.61458743 0
4.1750002 0.30808753 0.61509067 0
4.184 0.30210611 0.61559391 0
4.1920004 0.29600206 0.6160413 0
4.2010002 0.28995746 0.61654454 0
4.21 0.28388044 0.61704779 0
4.2120004 0.91665643 0.61028349 0
4.2080002 0.9087773 0.61006707 0
4.2049999 0.90116167 0.60990471 0
4.204 0.89405102 0.60985059 0
4.198 0.88571745 0.60952592 0
4.191 0.87716198 0.60914713 0
4.1849999 0.86887348 0.60882246 0
4.1800003 0.86084652 0.60855186 0
4.1760001 0.85307574 0.60833538 0
4.1719999 0.84531933 0.60811895 0
4.1680002 0.8375774 0.60790247 0
4.1660004 0.83031529 0.60779428 0
4.1630001 0.82282948 0.60763192 0
4.1620002 0.81581265 0.6075778 0
4.1600003 0.80857223 0.60746956 0
4.1589999 0.80156434 0.60741544 0
4.1589999 0.79478383 0.60741544 0
4.1600003 0.78822523 0.60746956 0
4.1600003 0.78144294 0.60746956 0
4.1630001 0.7753154 0.60763192 0
4.165 0.76896054 0.60774016 0
4.1700001 0.76324248 0.60801071 0
4.0510001 0.66525602 0.60157114 0
4.039 0.65635419 0.60092175 0
4.0320001 0.64845175 0.60054296 0
4.0280004 0.64114273 0.60032654 0
4.026 0.63422328 0.6002183 0
4.0250001 0.6274969 0.60016418 0
4.0240002 0.62077409 0.60011005 0
4.0250001 0.61441928 0.60016418 0
4.026 0.60806084 0.6002183 0
4.0280004 0.60187745 0.60032654 0
4.0310001 0.59586352 0.60048884 0
4.0350003 0.5900138 0.60070527 0
4.0410004 0.5844959 0.60102999 0
4.0469999 0.57895637 0.60135466 0
4.0550003 0.5737344 0.60178757 0
4.0630002 0.56848347 0.60222048 0
4.0700002 0.56303781 0.60259932 0
3.9210002 0.53196001 0.5945363 0
3.9160004 0.52479708 0.5942657 0
3.9110003 0.51765215 0.59399509 0
3.9060004 0.51052535 0.59372455 0
3.9010003 0.50341654 0.593454 0
3.9020002 0.49725652 0.59350812 0
3.9090002 0.49201286 0.59388691 0
3.9170003 0.48689544 0.59431982 0
3.9240003 0.48159945 0.59469861 0
3.9320002 0.47642612 0.59513152 0
3.9400003 0.47122401 0.59556448 0
3.9470003 0.46584862 0.59594321 0
3.9550002 0.46059048 0.59637618 0
3.9630003 0.45530355 0.59680909 0
3.9700003 0.44984883 0.59718788 0
3.9780002 0.44450596 0.59762079 0
3.9860003 0.43913421 0.59805369 0
3.9940002 0.43373358 0.5984866 0
4.0020003 0.42830417 0.59891951 0
4.0090003 0.42271596 0.59929836 0
4.0170002 0.41723058 0.59973121 0
4.0250001 0.41171634 0.60016418 0
4.033 0.40617323 0.60059708 0
4.0410004 0.40060127 0.60102999 0
4.0490003 0.39500046 0.6014629 0
4.0580001 0.3894898 0.60194993 0
4.066 0.38382944 0.60238284 0
4.0740004 0.37814027 0.60281575 0
4.0820003 0.37242216 0.60324866 0
4.0900002 0.36667523 0.60368156 0
4.099 0.36100948 0.60416859 0
4.1070004 0.35520303 0.6046015 0
4.1150002 0.34936771 0.60503447 0
4.1240001 0.34360817 0.60552144 0
4.132 0.33771327 0.60595441 0
4.1410003 0.33189058 0.60644138 0
4.1490002 0.32593623 0.60687435 0
4.158 0.32005039 0.60736138 0
4.1660004 0.31403652 0.60779428 0
4.1750002 0.30808753 0.60828125 0
4.184 0.30210611 0.60876834 0
4.1920004 0.29600206 0.60920125 0
4.2010002 0.28995746 0.60968828 0
4.21 0.28388044 0.61017531 0
4.2120004 0.92353255 0.60340738 0
4.2070003 0.91539371 0.60314584 0
4.2030001 0.90752363 0.60293663 0
4.2010002 0.90016598 0.60283196 0
4.2000003 0.89306259 0.60277969 0
4.197 0.88547212 0.60262275 0
4.191 0.87716198 0.60230887 0
4.1860003 0.86911523 0.60204732 0
4.1820002 0.86132634 0.60183811 0
4.178 0.85355192 0.60162884 0
4.1740003 0.84579194 0.60141963 0
4.1719999 0.8385154 0.60131496 0
4.1690001 0.83101338 0.60115808 0
4.1680002 0.82398391 0.60110575 0
4.1660004 0.81672907 0.60100114 0
4.1660004 0.80993587 0.60100114 0
4.165 0.80291718 0.60094881 0
4.1660004 0.79634959 0.60100114 0
4.1670003 0.78977835 0.60105342 0
4.1690001 0.78342348 0.60115808 0
4.1719999 0.77727973 0.60131496 0
4.177 0.77155805 0.60157657 0
4.0510001 0.66525602 0.59498543 0
4.039 0.65635419 0.59435773 0
4.0320001 0.64845175 0.59399152 0
4.0280004 0.64114273 0.59378231 0
4.026 0.63422328 0.59367764 0
4.0250001 0.6274969 0.59362537 0
4.0240002 0.62077409 0.59357303 0
4.0250001 0.61441928 0.59362537 0
4.026 0.60806084 0.59367764 0
4.0280004 0.60187745 0.59378231 0
4.0310001 0.59586352 0.59393924 0
4.0350003 0.5900138 0.59414846 0
4.0410004 0.5844959 0.59446234 0
4.0469999 0.57895637 0.59477615 0
4.0550003 0.5737344 0.5951947 0
4.0630002 0.56848347 0.59561312 0
4.0700002 0.56303781 0.59597933 0
3.9210002 0.53196001 0.58818507 0
3.9160004 0.52479708 0.58792353 0
3.9110003 0.51765215 0.58766198 0
3.9060004 0.51052535 0.58740044 0
3.9010003 0.50341654 0.58713889 0
3.9020002 0.49725652 0.58719116 0
3.9090002 0.49201286 0.58755732 0
3.9170003 0.48689544 0.58797586 0
3.9240003 0.48159945 0.58834201 0
3.9320002 0.47642612 0.5887605 0
3.9400003 0.47122401 0.58917898 0
3.9470003 0.46584862 0.58954513 0
3.9550002 0.46059048 0.58996361 0
3.9630003 0.45530355 0.5903821 0
3.9700003 0.44984883 0.59074831 0
3.9780002 0.44450596 0.59116673 0
3.9860003 0.43913421 0.59158528 0
3.9940002 0.43373358 0.5920037 0
4.0020003 0.42830417 0.59242225 0
4.0090003 0.42271596 0.5927884 0
4.0170002 0.41723058 0.59320688 0
4.0250001 0.41171634 0.59362537 0
4.033 0.40617323 0.59404385 0
4.0410004 0.40060127 0.59446234 0
4.0490003 0.39500046 0.59488082 0
4.0580001 0.3894898 0.59535158 0
4.066 0.38382944 0.59577006 0
4.0740004 0.37814027 0.59618855 0
4.0820003 0.37242216 0.59660709 0
4.0900002 0.36667523 0.59702551 0
4.099 0.36100948 0.59749633 0
4.1070004 0.35520303 0.59791481 0
4.1150002 0.34936771 0.5983333 0
4.1240001 0.34360817 0.59880412 0
4.132 0.33771327 0.59922254 0
4.1410003 0.33189058 0.59969336 0
4.1490002 0.32593623 0.60011184 0
4.158 0.32005039 0.60058266 0
4.1660004 0.31403652 0.60100114 0
4.1750002 0.30808753 0.6014719 0
4.184 0.30210611 0.60194272 0
4.1920004 0.29600206 0.6023612 0
4.2010002 0.28995746 0.60283196 0
4.21 0.28388044 0.60330278 0
4.2150002 0.93117708 0.59668279 0
4.2080002 0.92251515 0.59632927 0
4.2030001 0.91438359 0.59607673 0
4.2000003 0.90677148 0.59592521 0
4.1990004 0.8996681 0.59587473 0
4.198 0.89256823 0.59582418 0
4.197 0.88547212 0.5957737 0
4.1920004 0.87740552 0.59552115 0
4.1870003 0.86935693 0.59526861 0
4.184 0.86180621 0.59511709 0
4.1800003 0.85402817 0.59491509 0
4.178 0.84673715 0.59481406 0
4.1760001 0.8394534 0.59471303 0
4.1740003 0.8321768 0.594612 0
4.1730003 0.82513839 0.59456152 0
4.1719999 0.81810349 0.59451103 0
4.1719999 0.8112995 0.59451103 0
4.1730003 0.80472106 0.59456152 0
4.1740003 0.79813892 0.594612 0
4.1760001 0.79177511 0.59471303 0
4.1800003 0.78584421 0.59491509 0
4.1849999 0.78011709 0.59516764 0
4.0510001 0.66525602 0.58839971 0
4.039 0.65635419 0.58779365 0
4.0320001 0.64845175 0.58744013 0
4.0280004 0.64114273 0.58723807 0
4.026 0.63422328 0.58713704 0
4.0250001 0.6274969 0.58708656 0
4.0240002 0.62077409 0.58703601 0
4.0250001 0.61441928 0.58708656 0
4.026 0.60806084 0.58713704 0
4.0280004 0.60187745 0.58723807 0
4.0310001 0.59586352 0.58738959 0
4.0350003 0.5900138 0.58759165 0
4.0410004 0.5844959 0.58789468 0
4.0469999 0.57895637 0.58819771 0
4.0550003 0.5737344 0.58860177 0
4.0630002 0.56848347 0.58900583 0
4.0700002 0.56303781 0.58935934 0
3.9210002 0.53196001 0.58183384 0
3.9160004 0.52479708 0.58158135 0
3.9110003 0.51765215 0.58132881 0
3.9060004 0.51052535 0.58107626 0
3.9010003 0.50341654 0.58082372 0
3.9020002 0.49725652 0.5808742 0
3.9090002 0.49201286 0.58122778 0
3.9170003 0.48689544 0.58163184 0
3.9240003 0.48159945 0.58198535 0
3.9320002 0.47642612 0.58238941 0
3.9400003 0.47122401 0.58279347 0
3.9470003 0.46584862 0.58314705 0
3.9550002 0.46059048 0.58355105 0
3.9630003 0.45530355 0.58395517 0
3.9700003 0.44984883 0.58430868 0
3.9780002 0.44450596 0.58471274 0
3.9860003 0.43913421 0.5851168 0
3.9940002 0.43373358 0.58552086 0
4.0020003 0.42830417 0.58592486 0
4.0090003 0.42271596 0.58627844 0
4.0170002 0.41723058 0.5866825 0
4.0250001 0.41171634 0.58708656 0
4.033 0.40617323 0.58749062 0
4.0410004 0.40060127 0.58789468 0
4.0490003 0.39500046 0.58829868 0
4.0580001 0.3894898 0.58875328 0
4.066 0.38382944 0.58915734 0
4.0740004 0.37814027 0.5895614 0
4.0820003 0.37242216 0.58996546 0
4.0900002 0.36667523 0.59036946 0
4.099 0.36100948 0.59082401 0
4.1070004 0.35520303 0.59122813 0
4.1150002 0.34936771 0.59163213 0
4.1240001 0.34360817 0.59208667 0
4.132 0.33771327 0.59249073 0
4.1410003 0.33189058 0.59294534 0
4.1490002 0.32593623 0.59334934 0
4.158 0.32005039 0.59380394 0
4.1660004 0.31403652 0.594208 0
4.1750002 0.30808753 0.59466255 0
4.184 0.30210611 0.59511709 0
4.1920004 0.29600206 0.59552115 0
4.2010002 0.28995746 0.5959757 0
4.21 0.28388044 0.5964303 0
4.211 0.93015242 0.58960646 0
4.2049999 0.9217521 0.58931422 0
4.2010002 0.9138785 0.58911943 0
4.198 0.90626997 0.58897334 0
4.197 0.89917028 0.58892465 0
4.1960001 0.89207417 0.58887589 0
4.1960001 0.88522685 0.58887589 0
4.1930003 0.87764907 0.5887298 0
4.1900001 0.87008202 0.58858371 0
4.1870003 0.86252588 0.58843762 0
4.184 0.85498053 0.58829153 0
4.1820002 0.84768236 0.58819407 0
4.1800003 0.84039134 0.58809668 0
4.1790004 0.83334029 0.58804798 0
4.178 0.82629275 0.58799928 0
4.178 0.81947798 0.58799928 0
4.1790004 0.81289053 0.58804798 0
4.1800003 0.80629939 0.58809668 0
4.1830001 0.80015206 0.58824277 0
4.1870003 0.79421568 0.58843762 0
4.0510001 0.66525602 0.58181405 0
4.039 0.65635419 0.58122957 0
4.0320001 0.64845175 0.58088863 0
4.0280004 0.64114273 0.58069384 0
4.026 0.63422328 0.58059645 0
4.0250001 0.6274969 0.58054775 0
4.0240002 0.62077409 0.58049905 0
4.0250001 0.61441928 0.58054775 0
4.026 0.60806084 0.58059645 0
4.0280004 0.60187745 0.58069384 0
4.0310001 0.59586352 0.58083999 0
4.0350003 0.5900138 0.58103478 0
4.0410004 0.5844959 0.58132696 0
4.0469999 0.57895637 0.5816192 0
4.0550003 0.5737344 0.58200884 0
4.0630002 0.56848347 0.58239841 0
4.0700002 0.56303781 0.58273935 0
3.9210002 0.53196001 0.57548267 0
3.9160004 0.52479708 0.57523912 0
3.9110003 0.51765215 0.57499564 0
3.9060004 0.51052535 0.57475209 0
3.9010003 0.50341654 0.57450861 0
3.9020002 0.49725652 0.5745573 0
3.9090002 0.49201286 0.57489824 0
3.9170003 0.48689544 0.57528782 0
3.9240003 0.48159945 0.57562876 0
3.9320002 0.47642612 0.57601839 0
3.9400003 0.47122401 0.57640803 0
3.9470003 0.46584862 0.57674891 0
3.9550002 0.46059048 0.57713854 0
3.9630003 0.45530355 0.57752818 0
3.9700003 0.44984883 0.57786906 0
3.9780002 0.44450596 0.57825869 0
3.9860003 0.43913421 0.57864833 0
3.9940002 0.43373358 0.57903796 0
4.0020003 0.42830417 0.5794276 0
4.0090003 0.42271596 0.57976854 0
4.0170002 0.41723058 0.58015811 0
4.0250001 0.41171634 0.58054775 0
4.033 0.40617323 0.58093739 0
4.0410004 0.40060127 0.58132696 0
4.0490003 0.39500046 0.5817166 0
4.0580001 0.3894898 0.58215493 0
4.066 0.38382944 0.58254457 0
4.0740004 0.37814027 0.5829342 0
4.0820003 0.37242216 0.58332384 0
4.0900002 0.36667523 0.58371341 0
4.099 0.36100948 0.58415174 0
4.1070004 0.35520303 0.58454138 0
4.1150002 0.34936771 0.58493102 0
4.1240001 0.34360817 0.58536935 0
4.132 0.33771327 0.58575892 0
4.1410003 0.33189058 0.58619726 0
4.1490002 0.32593623 0.58658689 0
4.158 0.32005039 0.58702523 0
4.1660004 0.31403652 0.58741486 0
4.1750002 0.30808753 0.58785319 0
4.184 0.30210611 0.58829153 0
4.1920004 0.29600206 0.5886811 0
4.2010002 0.28995746 0.58911943 0
4.21 0.28388044 0.58955777 0
4.21 0.9298963 0.58268523 0
4.204 0.92149776 0.5824039 0
4.2000003 0.91362596 0.58221626 0
4.197 0.90601933 0.5820756 0
4.1960001 0.89892131 0.58202869 0
4.1950002 0.89182699 0.58198178 0
4.1950002 0.88498145 0.58198178 0
4.1960001 0.87837958 0.58202869 0
4.1930003 0.87080717 0.58188796 0
4.1900001 0.86324567 0.58174729 0
4.1880002 0.85593295 0.58165348 0
4.1860003 0.84862757 0.58155966 0
4.1849999 0.84156382 0.58151281 0
4.1849999 0.83473641 0.58151281 0
4.1849999 0.82790899 0.58151281 0
4.1860003 0.8213107 0.58155966 0
4.1870003 0.81470871 0.58160657 0
4.1900001 0.80855417 0.58174729 0
4.1940002 0.80261242 0.58193487 0
4.4070001 0.77074808 0.59192437 0
4.0510001 0.66525602 0.57522833 0
4.039 0.65635419 0.57466555 0
4.0320001 0.64845175 0.57433724 0
4.0280004 0.64114273 0.57414961 0
4.026 0.63422328 0.57405585 0
4.0250001 0.6274969 0.57400894 0
4.0240002 0.62077409 0.57396203 0
4.0250001 0.61441928 0.57400894 0
4.026 0.60806084 0.57405585 0
4.0280004 0.60187745 0.57414961 0
4.0310001 0.59586352 0.57429034 0
4.0350003 0.5900138 0.57447791 0
4.0410004 0.5844959 0.57475936 0
4.0469999 0.57895637 0.5750407 0
4.0550003 0.5737344 0.57541591 0
4.0630002 0.56848347 0.57579112 0
4.0700002 0.56303781 0.57611936 0
3.9210002 0.53196001 0.56913143 0
3.9160004 0.52479708 0.56889695 0
3.9110003 0.51765215 0.56866246 0
3.9060004 0.51052535 0.56842798 0
3.9010003 0.50341654 0.56819344 0
3.9020002 0.49725652 0.56824034 0
3.9090002 0.49201286 0.56856865 0
3.9170003 0.48689544 0.56894386 0
3.9240003 0.48159945 0.56927216 0
3.9320002 0.47642612 0.56964731 0
3.9400003 0.47122401 0.57002252 0
3.9470003 0.46584862 0.57035083 0
3.9550002 0.46059048 0.57072604 0
3.9630003 0.45530355 0.57110119 0
3.9700003 0.44984883 0.57142949 0
3.9780002 0.44450596 0.57180464 0
3.9860003 0.43913421 0.57217991 0
3.9940002 0.43373358 0.57255507 0
4.0020003 0.42830417 0.57293028 0
4.0090003 0.42271596 0.57325858 0
4.0170002 0.41723058 0.57363373 0
4.0250001 0.41171634 0.57400894 0
4.033 0.40617323 0.57438409 0
4.0410004 0.40060127 0.57475936 0
4.0490003 0.39500046 0.57513452 0
4.0580001 0.3894898 0.57555664 0
4.066 0.38382944 0.57593179 0
4.0740004 0.37814027 0.576307 0
4.0820003 0.37242216 0.57668221 0
4.0900002 0.36667523 0.57705736 0
4.099 0.36100948 0.57747948 0
4.1070004 0.35520303 0.57785463 0
4.1150002 0.34936771 0.57822984 0
4.1240001 0.34360817 0.57865196 0
4.132 0.33771327 0.57902712 0
4.1410003 0.33189058 0.57944924 0
4.1490002 0.32593623 0.57982439 0
4.158 0.32005039 0.58024651 0
4.1660004 0.31403652 0.58062172 0
4.1750002 0.30808753 0.58104378 0
4.184 0.30210611 0.5814659 0
4.1920004 0.29600206 0.58184111 0
4.2010002 0.28995746 0.58226317 0
4.21 0.28388044 0.58268523 0
4.2090001 0.92964023 0.57576764 0
4.2030001 0.92124343 0.57549709 0
4.2000003 0.91362596 0.57536179 0
4.197 0.90601933 0.57522649 0
4.1950002 0.8986724 0.5751363 0
4.1950002 0.89182699 0.5751363 0
4.1950002 0.88498145 0.5751363 0
4.1960001 0.87837958 0.57518142 0
4.1960001 0.87153232 0.57518142 0
4.1940002 0.86420524 0.57509124 0
4.1930003 0.85712349 0.57504612 0
4.1920004 0.85004538 0.57500106 0
4.191 0.84297079 0.57495594 0
4.191 0.83613253 0.57495594 0
4.1920004 0.82952523 0.57500106 0
4.1940002 0.8231433 0.57509124 0
4.197 0.81698155 0.57522649 0
4.2010002 0.81103432 0.57540691 0
4.4050002 0.77034044 0.58460629 0
4.4030004 0.76271218 0.58451611 0
4.0510001 0.66525602 0.56864262 0
4.039 0.65635419 0.56810147 0
4.0320001 0.64845175 0.5677858 0
4.0280004 0.64114273 0.56760544 0
4.026 0.63422328 0.56751525 0
4.0250001 0.6274969 0.56747013 0
4.0240002 0.62077409 0.56742501 0
4.0250001 0.61441928 0.56747013 0
4.026 0.60806084 0.56751525 0
4.0280004 0.60187745 0.56760544 0
4.0310001 0.59586352 0.56774068 0
4.0350003 0.5900138 0.5679211 0
4.0410004 0.5844959 0.56819165 0
4.0469999 0.57895637 0.56846225 0
4.0550003 0.5737344 0.56882298 0
4.0630002 0.56848347 0.56918377 0
4.0700002 0.56303781 0.56949943 0
3.9210002 0.53196001 0.56278026 0
3.9160004 0.52479708 0.56255478 0
3.9110003 0.51765215 0.56232929 0
3.9060004 0.51052535 0.56210381 0
3.9010003 0.50341654 0.56187832 0
3.9020002 0.49725652 0.56192344 0
3.9090002 0.49201286 0.56223905 0
3.9170003 0.48689544 0.56259984 0
3.9240003 0.48159945 0.5629155 0
3.9320002 0.47642612 0.56327629 0
3.9400003 0.47122401 0.56363702 0
3.9470003 0.46584862 0.56395268 0
3.9550002 0.46059048 0.56431347 0
3.9630003 0.45530355 0.56467426 0
3.9700003 0.44984883 0.56498992 0
3.9780002 0.44450596 0.56535065 0
3.9860003 0.43913421 0.56571144 0
3.9940002 0.43373358 0.56607217 0
4.0020003 0.42830417 0.56643295 0
4.0090003 0.42271596 0.56674862 0
4.0170002 0.41723058 0.56710935 0
4.0250001 0.41171634 0.56747013 0
4.033 0.40617323 0.56783092 0
4.0410004 0.40060127 0.56819165 0
4.0490003 0.39500046 0.56855243 0
4.0580001 0.3894898 0.56895828 0
4.066 0.38382944 0.56931901 0
4.0740004 0.37814027 0.5696798 0
4.0820003 0.37242216 0.57004058 0
4.0900002 0.36667523 0.57040131 0
4.099 0.36100948 0.57080722 0
4.1070004 0.35520303 0.57116795 0
4.1150002 0.34936771 0.57152867 0
4.1240001 0.34360817 0.57193458 0
4.132 0.33771327 0.57229531 0
4.1410003 0.33189058 0.57270116 0
4.1490002 0.32593623 0.57306194 0
4.158 0.32005039 0.57346779 0
4.1660004 0.31403652 0.57382858 0
4.1750002 0.30808753 0.57423443 0
4.184 0.30210611 0.57464027 0
4.1920004 0.29600206 0.57500106 0
4.2010002 0.28995746 0.57540691 0
4.21 0.28388044 0.57581276 0
4.21 0.9298963 0.56894022 0
4.204 0.92149776 0.56868052 0
4.2000003 0.91362596 0.56850731 0
4.198 0.90626997 0.56842077 0
4.1960001 0.89892131 0.56833416 0
4.1950002 0.89182699 0.56829083 0
4.1950002 0.88498145 0.56829083 0
4.1960001 0.87837958 0.56833416 0
4.198 0.87201571 0.56842077 0
4.1990004 0.86540478 0.56846404 0
4.198 0.85831398 0.56842077 0
4.198 0.85146314 0.56842077 0
4.198 0.84461224 0.56842077 0
4.1990004 0.83799416 0.56846404 0
4.2010002 0.83160317 0.56855059 0
4.2030001 0.82520509 0.56863719 0
4.2080002 0.81948161 0.56885362 0
4.4050002 0.77034044 0.57738209 0
4.4020004 0.76251018 0.57725215 0
4.0510001 0.66525602 0.5620569 0
4.039 0.65635419 0.56153738 0
4.0320001 0.64845175 0.56123435 0
4.0280004 0.64114273 0.5610612 0
4.026 0.63422328 0.5609746 0
4.0250001 0.6274969 0.56093132 0
4.0240002 0.62077409 0.56088805 0
4.0250001 0.61441928 0.56093132 0
4.026 0.60806084 0.5609746 0
4.0280004 0.60187745 0.5610612 0
4.0310001 0.59586352 0.56119108 0
4.0350003 0.5900138 0.56136423 0
4.0410004 0.5844959 0.56162399 0
4.0469999 0.57895637 0.56188375 0
4.0550003 0.5737344 0.56223005 0
4.0630002 0.56848347 0.56257641 0
4.0700002 0.56303781 0.56287944 0
3.9210002 0.53196001 0.55642903 0
3.9160004 0.52479708 0.55621254 0
3.9110003 0.51765215 0.55599612 0
3.9060004 0.51052535 0.55577964 0
3.9010003 0.50341654 0.55556321 0
3.9020002 0.49725652 0.55560648 0
3.9090002 0.49201286 0.55590951 0
3.9170003 0.48689544 0.55625588 0
3.9240003 0.48159945 0.55655891 0
3.9320002 0.47642612 0.55690527 0
3.9400003 0.47122401 0.55725157 0
3.9470003 0.46584862 0.5575546 0
3.9550002 0.46059048 0.55790091 0
3.9630003 0.45530355 0.55824727 0
3.9700003 0.44984883 0.5585503 0
3.9780002 0.44450596 0.55889666 0
3.9860003 0.43913421 0.55924296 0
3.9940002 0.43373358 0.55958927 0
4.0020003 0.42830417 0.55993563 0
4.0090003 0.42271596 0.56023866 0
4.0170002 0.41723058 0.56058502 0
4.0250001 0.41171634 0.56093132 0
4.033 0.40617323 0.56127763 0
4.0410004 0.40060127 0.56162399 0
4.0490003 0.39500046 0.56197035 0
4.0580001 0.3894898 0.56235993 0
4.066 0.38382944 0.56270629 0
4.0740004 0.37814027 0.56305265 0
4.0820003 0.37242216 0.56339896 0
4.0900002 0.36667523 0.56374526 0
4.099 0.36100948 0.5641349 0
4.1070004 0.35520303 0.56448126 0
4.1150002 0.34936771 0.56482756 0
4.1240001 0.34360817 0.5652172 0
4.132 0.33771327 0.5655635 0
4.1410003 0.33189058 0.56595314 0
4.1490002 0.32593623 0.56629944 0
4.158 0.32005039 0.56668907 0
4.1660004 0.31403652 0.56703544 0
4.1750002 0.30808753 0.56742501 0
4.184 0.30210611 0.56781465 0
4.1920004 0.29600206 0.56816101 0
4.2010002 0.28995746 0.56855059 0
4.21 0.28388044 0.56894022 0
4.2120004 0.9304086 0.56215072 0
4.2060003 0.92200655 0.56190181 0
4.2020001 0.91413105 0.56173587 0
4.1990004 0.90652078 0.56161135 0
4.197 0.89917028 0.56152838 0
4.197 0.89232117 0.56152838 0
4.197 0.88547212 0.56152838 0
4.197 0.87862307 0.56152838 0
4.1990004 0.87225747 0.56161135 0
4.2010002 0.8658846 0.56169432 0
4.2030001 0.85950452 0.56177729 0
4.2049999 0.85311723 0.56186026 0
4.2060003 0.84648824 0.56190181 0
4.2080002 0.84008831 0.56198478 0
4.211 0.83391207 0.56210923 0
4.2160001 0.82818317 0.56231666 0
4.224 0.82311809 0.56264853 0
4.0510001 0.66525602 0.55547118 0
4.039 0.65635419 0.55497336 0
4.0320001 0.64845175 0.55468297 0
4.0280004 0.64114273 0.55451703 0
4.026 0.63422328 0.554434 0
4.0250001 0.6274969 0.55439252 0
4.0240002 0.62077409 0.55435103 0
4.0250001 0.61441928 0.55439252 0
4.026 0.60806084 0.554434 0
4.0280004 0.60187745 0.55451703 0
4.0310001 0.59586352 0.55464149 0
4.0350003 0.5900138 0.55480742 0
4.0410004 0.5844959 0.55505633 0
4.0469999 0.57895637 0.55530524 0
4.0550003 0.5737344 0.55563712 0
4.0630002 0.56848347 0.55596906 0
4.0700002 0.56303781 0.55625945 0
3.9210002 0.53196001 0.5500778 0
3.9160004 0.52479708 0.54987037 0
3.9110003 0.51765215 0.54966295 0
3.9060004 0.51052535 0.54945552 0
3.9010003 0.50341654 0.5492481 0
3.9020002 0.49725652 0.54928958 0
3.9090002 0.49201286 0.54957998 0
3.9170003 0.48689544 0.54991186 0
3.9240003 0.48159945 0.55020225 0
3.9320002 0.47642612 0.55053419 0
3.9400003 0.47122401 0.55086607 0
3.9470003 0.46584862 0.55115652 0
3.9550002 0.46059048 0.5514884 0
3.9630003 0.45530355 0.55182028 0
3.9700003 0.44984883 0.55211067 0
3.9780002 0.44450596 0.55244261 0
3.9860003 0.43913421 0.55277449 0
3.9940002 0.43373358 0.55310643 0
4.0020003 0.42830417 0.55343831 0
4.0090003 0.42271596 0.5537287 0
4.0170002 0.41723058 0.55406064 0
4.0250001 0.41171634 0.55439252 0
4.033 0.40617323 0.55472445 0
4.0410004 0.40060127 0.55505633 0
4.0490003 0.39500046 0.55538821 0
4.0580001 0.3894898 0.55576164 0
4.066 0.38382944 0.55609351 0
4.0740004 0.37814027 0.55642545 0
4.0820003 0.37242216 0.55675733 0
4.0900002 0.36667523 0.55708921 0
4.099 0.36100948 0.55746257 0
4.1070004 0.35520303 0.55779451 0
4.1150002 0.34936771 0.55812645 0
4.1240001 0.34360817 0.55849981 0
4.132 0.33771327 0.55883169 0
4.1410003 0.33189058 0.55920506 0
4.1490002 0.32593623 0.55953699 0
4.158 0.32005039 0.55991036 0
4.1660004 0.31403652 0.5602423 0
4.1750002 0.30808753 0.56061566 0
4.184 0.30210611 0.56098902 0
4.1920004 0.29600206 0.56132096 0
4.2010002 0.28995746 0.56169432 0
4.21 0.28388044 0.56206775 0
4.2150002 0.93117708 0.55539364 0
4.2090001 0.92276949 0.55515552 0
4.204 0.91463608 0.55495715 0
4.2010002 0.90702218 0.55483806 0
4.2000003 0.89991701 0.55479836 0
4.1990004 0.89281541 0.55475867 0
4.1990004 0.88596284 0.55475867 0
4.1990004 0.87911016 0.55475867 0
4.2010002 0.87274086 0.55483806 0
4.2030001 0.86636442 0.55491745 0
4.2060003 0.86021882 0.55503649 0
4.2090001 0.85406244 0.55515552 0
4.2140002 0.84836417 0.55535394 0
4.2179999 0.84241521 0.55551267 0
4.223 0.83668274 0.55571109 0
4.0510001 0.66525602 0.54888552 0
4.039 0.65635419 0.54840928 0
4.0320001 0.64845175 0.54813153 0
4.0280004 0.64114273 0.5479728 0
4.026 0.63422328 0.5478934 0
4.0250001 0.6274969 0.54785371 0
4.0240002 0.62077409 0.54781401 0
4.0250001 0.61441928 0.54785371 0
4.026 0.60806084 0.5478934 0
4.0280004 0.60187745 0.5479728 0
4.0310001 0.59586352 0.54809183 0
4.0350003 0.5900138 0.54825056 0
4.0410004 0.5844959 0.54848868 0
4.0469999 0.57895637 0.54872674 0
4.0550003 0.5737344 0.54904425 0
4.0630002 0.56848347 0.54936171 0
4.0700002 0.56303781 0.54963946 0
3.9210002 0.53196001 0.54372662 0
3.9160004 0.52479708 0.5435282 0
3.9110003 0.51765215 0.54332978 0
3.9060004 0.51052535 0.54313135 0
3.9010003 0.50341654 0.54293293 0
3.9020002 0.49725652 0.54297262 0
3.9090002 0.49201286 0.54325038 0
3.9170003 0.48689544 0.5435679 0
3.9240003 0.48159945 0.54384565 0
3.9320002 0.47642612 0.54416311 0
3.9400003 0.47122401 0.54448062 0
3.9470003 0.46584862 0.54475838 0
3.9550002 0.46059048 0.54507583 0
3.9630003 0.45530355 0.54539335 0
3.9700003 0.44984883 0.54567111 0
3.9780002 0.44450596 0.54598856 0
3.9860003 0.43913421 0.54630607 0
3.9940002 0.43373358 0.54662353 0
4.0020003 0.42830417 0.54694098 0
4.0090003 0.42271596 0.5472188 0
4.0170002 0.41723058 0.54753625 0
4.0250001 0.41171634 0.54785371 0
4.033 0.40617323 0.54817116 0
4.0410004 0.40060127 0.54848868 0
4.0490003 0.39500046 0.54880613 0
4.0580001 0.3894898 0.54916328 0
4.066 0.38382944 0.54948074 0
4.0740004 0.37814027 0.54979825 0
4.0820003 0.37242216 0.5501157 0
4.0900002 0.36667523 0.55043316 0
4.099 0.36100948 0.55079031 0
4.1070004 0.35520303 0.55110776 0
4.1150002 0.34936771 0.55142528 0
4.1240001 0.34360817 0.55178243 0
4.132 0.33771327 0.55209988 0
4.1410003 0.33189058 0.55245703 0
4.1490002 0.32593623 0.55277449 0
4.158 0.32005039 0.55313164 0
4.1660004 0.31403652 0.55344915 0
4.1750002 0.30808753 0.5538063 0
4.184 0.30210611 0.55416346 0
4.1920004 0.29600206 0.55448091 0
4.2010002 0.28995746 0.55483806 0
4.21 0.28388044 0.55519521 0
4.2210002 0.93271387 0.54873937 0
4.2130003 0.92378688 0.54843634 0
4.2080002 0.9156462 0.54824698 0
4.2049999 0.90802515 0.54813331 0
4.2030001 0.90066379 0.54805756 0
4.2020001 0.89355677 0.54801965 0
4.2010002 0.88645345 0.5479818 0
4.2020001 0.87984061 0.54801965 0
4.204 0.87346601 0.54809546 0
4.2060003 0.86708415 0.54817116 0
4.2090001 0.86093313 0.54828483 0
4.2120004 0.85477138 0.54839849 0
4.217 0.84906769 0.54858786 0
4.223 0.8435787 0.54881513 0
4.23 0.83829892 0.54908031 0
4.0510001 0.66525602 0.54229981 0
4.039 0.65635419 0.54184526 0
4.0320001 0.64845175 0.54158008 0
4.0280004 0.64114273 0.54142857 0
4.026 0.63422328 0.54135281 0
4.0250001 0.6274969 0.54131496 0
4.0240002 0.62077409 0.54127705 0
4.0250001 0.61441928 0.54131496 0
4.026 0.60806084 0.54135281 0
4.0280004 0.60187745 0.54142857 0
4.0310001 0.59586352 0.54154217 0
4.0350003 0.5900138 0.54169369 0
4.0410004 0.5844959 0.54192102 0
4.0469999 0.57895637 0.54214823 0
4.0550003 0.5737344 0.54245132 0
4.0630002 0.56848347 0.54275435 0
4.0700002 0.56303781 0.54301953 0
3.9210002 0.53196001 0.53737539 0
3.9160004 0.52479708 0.53718603 0
3.9110003 0.51765215 0.5369966 0
3.9060004 0.51052535 0.53680718 0
3.9010003 0.50341654 0.53661782 0
3.9020002 0.49725652 0.53665566 0
3.9090002 0.49201286 0.53692085 0
3.9170003 0.48689544 0.53722388 0
3.9240003 0.48159945 0.53748906 0
3.9320002 0.47642612 0.53779209 0
3.9400003 0.47122401 0.53809512 0
3.9470003 0.46584862 0.5383603 0
3.9550002 0.46059048 0.53866333 0
3.9630003 0.45530355 0.53896636 0
3.9700003 0.44984883 0.53923154 0
3.9780002 0.44450596 0.53953457 0
3.9860003 0.43913421 0.5398376 0
3.9940002 0.43373358 0.54014063 0
4.0020003 0.42830417 0.54044366 0
4.0090003 0.42271596 0.54070884 0
4.0170002 0.41723058 0.54101187 0
4.0250001 0.41171634 0.54131496 0
4.033 0.40617323 0.54161793 0
4.0410004 0.40060127 0.54192102 0
4.0490003 0.39500046 0.54222405 0
4.0580001 0.3894898 0.54256499 0
4.066 0.38382944 0.54286802 0
4.0740004 0.37814027 0.54317105 0
4.0820003 0.37242216 0.54347408 0
4.0900002 0.36667523 0.54377711 0
4.099 0.36100948 0.54411805 0
4.1070004 0.35520303 0.54442108 0
4.1150002 0.34936771 0.54472411 0
4.1240001 0.34360817 0.54506505 0
4.132 0.33771327 0.54536808 0
4.1410003 0.33189058 0.54570901 0
4.1490002 0.32593623 0.54601204 0
4.158 0.32005039 0.54635292 0
4.1660004 0.31403652 0.54665601 0
4.1750002 0.30808753 0.54699689 0
4.184 0.30210611 0.54733783 0
4.1920004 0.29600206 0.54764086 0
4.2010002 0.28995746 0.5479818 0
4.21 0.28388044 0.54832268 0
4.2190003 0.92531282 0.54177487 0
4.2130003 0.91690886 0.54155844 0
4.2090001 0.90902811 0.54141414 0
4.2070003 0.90165949 0.54134196 0
4.2060003 0.89454538 0.5413059 0
4.2049999 0.8874346 0.54126978 0
4.2060003 0.88081479 0.5413059 0
4.2070003 0.87419111 0.54134196 0
4.2090001 0.86780387 0.54141414 0
4.2120004 0.86164743 0.54152238 0
4.2160001 0.85571653 0.54166669 0
4.2210002 0.85000563 0.54184705 0
4.2270002 0.84450942 0.54206347 0
4.0510001 0.66525602 0.53571409 0
4.039 0.65635419 0.53528118 0
4.0320001 0.64845175 0.53502864 0
4.0280004 0.64114273 0.53488433 0
4.026 0.63422328 0.53481221 0
4.0250001 0.6274969 0.53477609 0
4.0240002 0.62077409 0.53474003 0
4.0250001 0.61441928 0.53477609 0
4.026 0.60806084 0.53481221 0
4.0280004 0.60187745 0.53488433 0
4.0310001 0.59586352 0.53499258 0
4.0350003 0.5900138 0.53513688 0
4.0410004 0.5844959 0.5353533 0
4.0469999 0.57895637 0.53556979 0
4.0550003 0.5737344 0.53585839 0
4.0630002 0.56848347 0.536147 0
4.0700002 0.56303781 0.53639954 0
3.9210002 0.53196001 0.53102422 0
3.9160004 0.52479708 0.53084379 0
3.9110003 0.51765215 0.53066343 0
3.9060004 0.51052535 0.53048307 0
3.9010003 0.50341654 0.53030264 0
3.9020002 0.49725652 0.53033876 0
3.9090002 0.49201286 0.53059125 0
3.9170003 0.48689544 0.53087986 0
3.9240003 0.48159945 0.5311324 0
3.9320002 0.47642612 0.53142101 0
3.9400003 0.47122401 0.53170967 0
3.9470003 0.46584862 0.53196216 0
3.9550002 0.46059048 0.53225076 0
3.9630003 0.45530355 0.53253937 0
3.9700003 0.44984883 0.53279191 0
3.9780002 0.44450596 0.53308052 0
3.9860003 0.43913421 0.53336912 0
3.9940002 0.43373358 0.53365779 0
4.0020003 0.42830417 0.53394639 0
4.0090003 0.42271596 0.53419888 0
4.0170002 0.41723058 0.53448749 0
4.0250001 0.41171634 0.53477609 0
4.033 0.40617323 0.5350647 0
4.0410004 0.40060127 0.5353533 0
4.0490003 0.39500046 0.53564191 0
4.0580001 0.3894898 0.53596663 0
4.066 0.38382944 0.53625524 0
4.0740004 0.37814027 0.53654385 0
4.0820003 0.37242216 0.53683245 0
4.0900002 0.36667523 0.53712106 0
4.099 0.36100948 0.53744578 0
4.1070004 0.35520303 0.53773439 0
4.1150002 0.34936771 0.53802299 0
4.1240001 0.34360817 0.53834766 0
4.132 0.33771327 0.53863627 0
4.1410003 0.33189058 0.53896093 0
4.1490002 0.32593623 0.53924954 0
4.158 0.32005039 0.53957427 0
4.1660004 0.31403652 0.53986287 0
4.1750002 0.30808753 0.54018754 0
4.184 0.30210611 0.5405122 0
4.1920004 0.29600206 0.54080081 0
4.2010002 0.28995746 0.54112554 0
4.21 0.28388044 0.5414502 0
4.2290001 0.92785627 0.53522885 0
4.2200003 0.91867667 0.53492039 0
4.2150002 0.91053247 0.53474903 0
4.2120004 0.90290415 0.53464627 0
4.211 0.89578086 0.53461194 0
4.21 0.88866127 0.53457773 0
4.211 0.88203222 0.53461194 0
4.2120004 0.87539971 0.53464627 0
4.2140002 0.86900336 0.53471482 0
4.2179999 0.86307603 0.53485185 0
4.2220001 0.85713434 0.53498894 0
4.2270002 0.85141259 0.5351603 0
4.2340002 0.8461383 0.53540021 0
4.0510001 0.66525602 0.52912837 0
4.039 0.65635419 0.5287171 0
4.0320001 0.64845175 0.52847719 0
4.0280004 0.64114273 0.5283401 0
4.026 0.63422328 0.52827156 0
4.0250001 0.6274969 0.52823734 0
4.0240002 0.62077409 0.52820301 0
4.0250001 0.61441928 0.52823734 0
4.026 0.60806084 0.52827156 0
4.0280004 0.60187745 0.5283401 0
4.0310001 0.59586352 0.52844292 0
4.0350003 0.5900138 0.52858001 0
4.0410004 0.5844959 0.52878571 0
4.0469999 0.57895637 0.52899128 0
4.0550003 0.5737344 0.52926546 0
4.0630002 0.56848347 0.52953964 0
4.0700002 0.56303781 0.52977955 0
3.9210002 0.53196001 0.52467299 0
3.9160004 0.52479708 0.52450162 0
3.9110003 0.51765215 0.52433026 0
3.9060004 0.51052535 0.5241589 0
3.9010003 0.50341654 0.52398753 0
3.9020002 0.49725652 0.5240218 0
3.9090002 0.49201286 0.52426171 0
3.9170003 0.48689544 0.52453589 0
3.9240003 0.48159945 0.5247758 0
3.9320002 0.47642612 0.52504998 0
3.9400003 0.47122401 0.52532417 0
3.9470003 0.46584862 0.52556407 0
3.9550002 0.46059048 0.52583826 0
3.9630003 0.45530355 0.52611244 0
3.9700003 0.44984883 0.52635235 0
3.9780002 0.44450596 0.52662653 0
3.9860003 0.43913421 0.52690071 0
3.9940002 0.43373358 0.52717483 0
4.0020003 0.42830417 0.52744901 0
4.0090003 0.42271596 0.52768898 0
4.0170002 0.41723058 0.5279631 0
4.0250001 0.41171634 0.52823734 0
4.033 0.40617323 0.52851146 0
4.0410004 0.40060127 0.52878571 0
4.0490003 0.39500046 0.52905983 0
4.0580001 0.3894898 0.52936828 0
4.066 0.38382944 0.52964246 0
4.0740004 0.37814027 0.52991664 0
4.0820003 0.37242216 0.53019083 0
4.0900002 0.36667523 0.53046501 0
4.099 0.36100948 0.53077346 0
4.1070004 0.35520303 0.53104764 0
4.1150002 0.34936771 0.53132182 0
4.1240001 0.34360817 0.53163028 0
4.132 0.33771327 0.53190446 0
4.1410003 0.33189058 0.53221291 0
4.1490002 0.32593623 0.53248709 0
4.158 0.32005039 0.53279555 0
4.1660004 0.31403652 0.53306973 0
4.1750002 0.30808753 0.53337812 0
4.184 0.30210611 0.53368664 0
4.1920004 0.29600206 0.53396082 0
4.2010002 0.28995746 0.53426921 0
4.21 0.28388044 0.53457773 0
4.2309999 0.92145449 0.52838701 0
4.224 0.91278899 0.52815974 0
4.2200003 0.90489554 0.52802986 0
4.2179999 0.89751077 0.52796495 0
4.217 0.89037848 0.52793247 0
4.217 0.88349342 0.52793247 0
4.2190003 0.87709165 0.52799737 0
4.2210002 0.87068272 0.52806234 0
4.2160001 0.86259985 0.52789998 0
4.21 0.85429871 0.52770519 0
4.2030001 0.84578472 0.52747792 0
4.197 0.83752871 0.52728307 0
4.191 0.82929432 0.52708828 0
4.118 0.73196083 0.52471805 0
4.1129999 0.72421706 0.52455574 0
4.1070004 0.71628577 0.5243609 0
4.1010003 0.70837605 0.52416611 0
4.0950003 0.70048803 0.52397132 0
4.1000004 0.6948241 0.52413362 0
4.0510001 0.66525602 0.52254272 0
4.039 0.65635419 0.52215308 0
4.0320001 0.64845175 0.52192581 0
4.0280004 0.64114273 0.52179593 0
4.026 0.63422328 0.52173096 0
4.0250001 0.6274969 0.52169853 0
4.0240002 0.62077409 0.52166605 0
4.0250001 0.61441928 0.52169853 0
4.026 0.60806084 0.52173096 0
4.0280004 0.60187745 0.52179593 0
4.0310001 0.59586352 0.52189332 0
4.0350003 0.5900138 0.5220232 0
4.0410004 0.5844959 0.52221799 0
4.0469999 0.57895637 0.52241278 0
4.0550003 0.5737344 0.52267253 0
4.0630002 0.56848347 0.52293229 0
4.0700002 0.56303781 0.52315956 0
3.9210002 0.53196001 0.51832175 0
3.9160004 0.52479708 0.51815945 0
3.9110003 0.51765215 0.51799709 0
3.9060004 0.51052535 0.51783472 0
3.9010003 0.50341654 0.51767242 0
3.9020002 0.49725652 0.51770484 0
3.9090002 0.49201286 0.51793218 0
3.9170003 0.48689544 0.51819187 0
3.9240003 0.48159945 0.51841915 0
3.9320002 0.47642612 0.5186789 0
3.9400003 0.47122401 0.51893866 0
3.9470003 0.46584862 0.51916593 0
3.9550002 0.46059048 0.51942569 0
3.9630003 0.45530355 0.51968545 0
3.9700003 0.44984883 0.51991272 0
3.9780002 0.44450596 0.52017248 0
3.9860003 0.43913421 0.52043223 0
3.9940002 0.43373358 0.52069199 0
4.0020003 0.42830417 0.52095175 0
4.0090003 0.42271596 0.52117902 0
4.0170002 0.41723058 0.52143878 0
4.0250001 0.41171634 0.52169853 0
4.033 0.40617323 0.52195823 0
4.0410004 0.40060127 0.52221799 0
4.0490003 0.39500046 0.52247775 0
4.0580001 0.3894898 0.52276993 0
4.066 0.38382944 0.52302969 0
4.0740004 0.37814027 0.52328944 0
4.0820003 0.37242216 0.5235492 0
4.0900002 0.36667523 0.52380896 0
4.099 0.36100948 0.52410114 0
4.1070004 0.35520303 0.5243609 0
4.1150002 0.34936771 0.52462065 0
4.1240001 0.34360817 0.52491289 0
4.132 0.33771327 0.52517265 0
4.1410003 0.33189058 0.52546483 0
4.1490002 0.32593623 0.52572459 0
4.158 0.32005039 0.52601683 0
4.1660004 0.31403652 0.52627659 0
4.1750002 0.30808753 0.52656877 0
4.184 0.30210611 0.52686101 0
4.1920004 0.29600206 0.52712077 0
4.2010002 0.28995746 0.52741295 0
4.21 0.28388044 0.52770519 0
4.2320004 0.90788269 0.52150732 0
4.2280002 0.89998198 0.52138466 0
4.223 0.89185041 0.52123129 0
4.217 0.88349342 0.52104735 0
4.211 0.87515795 0.52086335 0
4.2049999 0.86684418 0.52067935 0
4.1990004 0.85855216 0.52049536 0
4.1930003 0.85028166 0.52031136 0
4.1870003 0.84203285 0.52012742 0
4.1810002 0.83380568 0.51994342 0
4.1750002 0.82560009 0.51975942 0
4.1690001 0.81741625 0.51957542 0
4.164 0.80948126 0.51942211 0
4.158 0.80133891 0.51923811 0
4.152 0.79321814 0.51905411 0
4.1460004 0.78511906 0.51887012 0
4.1400003 0.77704161 0.51868618 0
4.1340003 0.76898581 0.51850218 0
4.1290002 0.76116806 0.51834881 0
4.1230001 0.75315386 0.51816487 0
4.1170001 0.74516112 0.51798087 0
4.1110001 0.73719007 0.51779687 0
4.1059999 0.72944987 0.51764357 0
4.1000004 0.72152042 0.51745957 0
4.0950003 0.71381813 0.51730621 0
4.0890002 0.70593011 0.51712227 0
4.092 0.69988191 0.51721424 0
4.1000004 0.6948241 0.51745957 0
4.1070004 0.6895389 0.51767421 0
4.0510001 0.66525602 0.515957 0
4.039 0.65635419 0.515589 0
4.0320001 0.64845175 0.51537436 0
4.0280004 0.64114273 0.5152517 0
4.026 0.63422328 0.51519036 0
4.0250001 0.6274969 0.51515973 0
4.0240002 0.62077409 0.51512903 0
4.0250001 0.61441928 0.51515973 0
4.026 0.60806084 0.51519036 0
4.0280004 0.60187745 0.5152517 0
4.0310001 0.59586352 0.51534367 0
4.0350003 0.5900138 0.51546633 0
4.0410004 0.5844959 0.51565033 0
4.0469999 0.57895637 0.51583433 0
4.0550003 0.5737344 0.51607966 0
4.0630002 0.56848347 0.51632494 0
4.0700002 0.56303781 0.51653957 0
3.9210002 0.53196001 0.51197058 0
3.9160004 0.52479708 0.51181722 0
3.9110003 0.51765215 0.51166391 0
3.9060004 0.51052535 0.51151061 0
3.9010003 0.50341654 0.51135725 0
3.9020002 0.49725652 0.51138794 0
3.9090002 0.49201286 0.51160258 0
3.9170003 0.48689544 0.51184791 0
3.9240003 0.48159945 0.51206255 0
3.9320002 0.47642612 0.51230788 0
3.9400003 0.47122401 0.51255322 0
3.9470003 0.46584862 0.51276785 0
3.9550002 0.46059048 0.51301318 0
3.9630003 0.45530355 0.51325846 0
3.9700003 0.44984883 0.51347315 0
3.9780002 0.44450596 0.51371843 0
3.9860003 0.43913421 0.51396376 0
3.9940002 0.43373358 0.51420909 0
4.0020003 0.42830417 0.51445442 0
4.0090003 0.42271596 0.51466906 0
4.0170002 0.41723058 0.51491439 0
4.0250001 0.41171634 0.51515973 0
4.033 0.40617323 0.515405 0
4.0410004 0.40060127 0.51565033 0
4.0490003 0.39500046 0.51589566 0
4.0580001 0.3894898 0.51617163 0
4.066 0.38382944 0.51641697 0
4.0740004 0.37814027 0.51666224 0
4.0820003 0.37242216 0.51690757 0
4.0900002 0.36667523 0.51715291 0
4.099 0.36100948 0.51742887 0
4.1070004 0.35520303 0.51767421 0
4.1150002 0.34936771 0.51791954 0
4.1240001 0.34360817 0.51819551 0
4.132 0.33771327 0.51844084 0
4.1410003 0.33189058 0.51871681 0
4.1490002 0.32593623 0.51896214 0
4.158 0.32005039 0.51923811 0
4.1660004 0.31403652 0.51948345 0
4.1750002 0.30808753 0.51975942 0
4.184 0.30210611 0.52003539 0
4.1920004 0.29600206 0.52028072 0
4.2010002 0.28995746 0.52055669 0
4.21 0.28388044 0.52083266 0
4.2309999 0.91454411 0.51456624 0
4.2250004 0.90614021 0.51439309 0
4.2190003 0.89775783 0.51421994 0
4.2130003 0.88939726 0.51404673 0
4.2070003 0.88105822 0.51387358 0
4.2010002 0.87274086 0.51370043 0
4.1950002 0.86444515 0.51352727 0
4.1890001 0.85617113 0.51335406 0
4.1830001 0.84791869 0.51318091 0
4.178 0.83992237 0.51303661 0
4.1719999 0.83171141 0.51286346 0
4.1660004 0.82352215 0.51269031 0
4.1600003 0.81535453 0.51251709 0
4.1540003 0.80720854 0.51234394 0
4.1490002 0.79930961 0.51219964 0
4.1430001 0.79120511 0.51202649 0
4.1370001 0.7831223 0.51185334 0
4.132 0.77528107 0.51170903 0
4.1259999 0.76723969 0.51153582 0
4.1200004 0.75922 0.51136267 0
4.1150002 0.75143653 0.51121837 0
4.1090002 0.74345833 0.51104522 0
4.1030002 0.73550171 0.51087207 0
4.098 0.72777599 0.51072776 0
4.092 0.71986091 0.51055455 0
4.0870004 0.71217304 0.51041025 0
4.085 0.70511478 0.51035255 0
4.092 0.69988191 0.51055455 0
4.1000004 0.6948241 0.51078546 0
4.1070004 0.6895389 0.51098752 0
4.1150002 0.68442512 0.51121837 0
4.0510001 0.66525602 0.50937128 0
4.039 0.65635419 0.50902498 0
4.0320001 0.64845175 0.50882292 0
4.0280004 0.64114273 0.50870746 0
4.026 0.63422328 0.50864977 0
4.0250001 0.6274969 0.50862092 0
4.0240002 0.62077409 0.50859201 0
4.0250001 0.61441928 0.50862092 0
4.026 0.60806084 0.50864977 0
4.0280004 0.60187745 0.50870746 0
4.0310001 0.59586352 0.50879407 0
4.0350003 0.5900138 0.50890952 0
4.0410004 0.5844959 0.50908267 0
4.0469999 0.57895637 0.50925583 0
4.0550003 0.5737344 0.50948673 0
4.0630002 0.56848347 0.50971758 0
4.0700002 0.56303781 0.50991964 0
3.9210002 0.53196001 0.50561935 0
3.9160004 0.52479708 0.50547504 0
3.9110003 0.51765215 0.50533074 0
3.9060004 0.51052535 0.50518644 0
3.9010003 0.50341654 0.50504214 0
3.9020002 0.49725652 0.50507098 0
3.9090002 0.49201286 0.50527304 0
3.9170003 0.48689544 0.50550389 0
3.9240003 0.48159945 0.50570595 0
3.9320002 0.47642612 0.5059368 0
3.9400003 0.47122401 0.50616771 0
3.9470003 0.46584862 0.50636971 0
3.9550002 0.46059048 0.50660062 0
3.9630003 0.45530355 0.50683153 0
3.9700003 0.44984883 0.50703353 0
3.9780002 0.44450596 0.50726444 0
3.9860003 0.43913421 0.50749528 0
3.9940002 0.43373358 0.50772619 0
4.0020003 0.42830417 0.5079571 0
4.0090003 0.42271596 0.5081591 0
4.0170002 0.41723058 0.50839001 0
4.0250001 0.41171634 0.50862092 0
4.033 0.40617323 0.50885177 0
4.0410004 0.40060127 0.50908267 0
4.0490003 0.39500046 0.50931358 0
4.0580001 0.3894898 0.50957328 0
4.066 0.38382944 0.50980419 0
4.0740004 0.37814027 0.5100351 0
4.0820003 0.37242216 0.51026595 0
4.0900002 0.36667523 0.51049685 0
4.099 0.36100948 0.51075661 0
4.1070004 0.35520303 0.51098752 0
4.1150002 0.34936771 0.51121837 0
4.1240001 0.34360817 0.51147813 0
4.132 0.33771327 0.51170903 0
4.1410003 0.33189058 0.51196873 0
4.1490002 0.32593623 0.51219964 0
4.158 0.32005039 0.5124594 0
4.1660004 0.31403652 0.51269031 0
4.1750002 0.30808753 0.51295 0
4.184 0.30210611 0.51320976 0
4.1920004 0.29600206 0.51344067 0
4.2010002 0.28995746 0.51370043 0
4.21 0.28388044 0.51396018 0
4.2309999 0.92145449 0.50765586 0
4.223 0.91253829 0.50743937 0
4.2179999 0.90439773 0.50730413 0
4.2120004 0.89602798 0.50714177 0
4.2060003 0.88767999 0.50697941 0
4.2000003 0.87935358 0.5068171 0
4.1940002 0.87104887 0.50665474 0
4.1880002 0.86276579 0.50649238 0
4.1830001 0.85474247 0.50635713 0
4.177 0.84650087 0.50619477 0
4.171 0.83828086 0.50603241 0
4.165 0.8300826 0.5058701 0
4.1600003 0.82213682 0.5057348 0
4.1540003 0.81397998 0.50557244 0
4.1480002 0.80584484 0.50541013 0
4.1430001 0.79795676 0.50527483 0
4.1370001 0.78986311 0.50511247 0
4.131 0.78179103 0.50495017 0
4.1259999 0.77396071 0.50481486 0
4.1200004 0.76593018 0.5046525 0
4.1150002 0.7581377 0.5045172 0
4.1090002 0.75014859 0.50435489 0
4.1030002 0.74218118 0.50419253 0
4.098 0.73444647 0.50405723 0
4.092 0.72652054 0.50389493 0
4.0870004 0.71882373 0.50375962 0
4.0810003 0.71093929 0.50359726 0
4.085 0.70511478 0.5037055 0
4.092 0.69988191 0.50389493 0
4.1000004 0.6948241 0.50411135 0
4.1070004 0.6895389 0.50430077 0
4.1150002 0.68442512 0.5045172 0
4.0510001 0.66525602 0.50278556 0
4.039 0.65635419 0.5024609 0
4.0320001 0.64845175 0.50227147 0
4.0280004 0.64114273 0.50216329 0
4.026 0.63422328 0.50210917 0
4.0250001 0.6274969 0.50208211 0
4.0240002 0.62077409 0.50205505 0
4.0250001 0.61441928 0.50208211 0
4.026 0.60806084 0.50210917 0
4.0280004 0.60187745 0.50216329 0
4.0310001 0.59586352 0.50224441 0
4.0350003 0.5900138 0.50235265 0
4.0410004 0.5844959 0.50251502 0
4.0469999 0.57895637 0.50267732 0
4.0550003 0.5737344 0.50289381 0
4.0630002 0.56848347 0.50311023 0
4.0700002 0.56303781 0.50329965 0
3.9210002 0.53196001 0.49926814 0
3.9160004 0.52479708 0.49913287 0
3.9110003 0.51765215 0.49899757 0
3.9060004 0.51052535 0.4988623 0
3.9010003 0.50341654 0.49872699 0
3.9020002 0.49725652 0.49875405 0
3.9090002 0.49201286 0.49894345 0
3.9170003 0.48689544 0.49915993 0
3.9240003 0.48159945 0.4993493 0
3.9320002 0.47642612 0.49956578 0
3.9400003 0.47122401 0.49978223 0
3.9470003 0.46584862 0.49997163 0
3.9550002 0.46059048 0.50018811 0
3.9630003 0.45530355 0.50040454 0
3.9700003 0.44984883 0.50059396 0
3.9780002 0.44450596 0.50081038 0
3.9860003 0.43913421 0.50102687 0
3.9940002 0.43373358 0.50124329 0
4.0020003 0.42830417 0.50145978 0
4.0090003 0.42271596 0.50164914 0
4.0170002 0.41723058 0.50186563 0
4.0250001 0.41171634 0.50208211 0
4.033 0.40617323 0.50229853 0
4.0410004 0.40060127 0.50251502 0
4.0490003 0.39500046 0.50273144 0
4.0580001 0.3894898 0.50297499 0
4.066 0.38382944 0.50319141 0
4.0740004 0.37814027 0.5034079 0
4.0820003 0.37242216 0.50362432 0
4.0900002 0.36667523 0.5038408 0
4.099 0.36100948 0.50408429 0
4.1070004 0.35520303 0.50430077 0
4.1150002 0.34936771 0.5045172 0
4.1240001 0.34360817 0.50476074 0
4.132 0.33771327 0.50497723 0
4.1410003 0.33189058 0.50522071 0
4.1490002 0.32593623 0.50543714 0
4.158 0.32005039 0.50568068 0
4.1660004 0.31403652 0.50589716 0
4.1750002 0.30808753 0.50614065 0
4.184 0.30210611 0.50638419 0
4.1920004 0.29600206 0.50660062 0
4.2010002 0.28995746 0.50684416 0
4.21 0.28388044 0.50708765 0
4.2250004 0.9199394 0.50059396 0
4.2179999 0.91128463 0.50041717 0
4.2130003 0.90315306 0.50029093 0
4.2070003 0.89479238 0.50013936 0
4.2010002 0.88645345 0.49998787 0
4.1950002 0.87813604 0.49983633 0
4.1900001 0.87008202 0.49971008 0
4.184 0.86180621 0.49955857 0
4.178 0.85355192 0.49940705 0
4.1719999 0.84531933 0.49925551 0
4.1670003 0.83734292 0.49912924 0
4.1610003 0.82915181 0.49897772 0
4.1550002 0.8209824 0.49882621 0
4.1500001 0.81306368 0.49869996 0
4.1440001 0.80493569 0.49854842 0
4.138 0.7968294 0.4983969 0
4.1330004 0.78896838 0.49827063 0
4.1270003 0.78090358 0.49811912 0
4.1220002 0.77308047 0.49799284 0
4.1160002 0.76505709 0.49784133 0
4.1110001 0.75727189 0.49771506 0
4.105 0.74929005 0.49756354 0
4.1000004 0.7415427 0.4974373 0
4.0940003 0.73360234 0.49728575 0
4.0890002 0.72589284 0.49715948 0
4.0830002 0.71799392 0.49700797 0
4.0780001 0.71032238 0.49688172 0
4.085 0.70511478 0.49705848 0
4.092 0.69988191 0.49723524 0
4.1000004 0.6948241 0.4974373 0
4.1070004 0.6895389 0.49761406 0
4.1150002 0.68442512 0.49781609 0
4.0510001 0.66525602 0.49619988 0
4.039 0.65635419 0.49589682 0
4.0320001 0.64845175 0.49572006 0
4.0280004 0.64114273 0.49561906 0
