# .PCD v0.7 - Point Cloud Data file format
VERSION 0.7
FIELDS x y z intensity
SIZE 4 4 4 4
TYPE F F F F
COUNT 1 1 1 1
WIDTH 1418
HEIGHT 1
VIEWPOINT 0 0 0 1 0 0 0
POINTS 1418
DATA ascii
4.5430002 -2.235641 0.3068487 0
4.5380001 -2.2404625 0.30696595 0
4.5340004 -2.2457981 0.30705976 0
4.5290003 -2.2505856 0.30717701 0
4.5240002 -2.2553546 0.30729425 0
4.5190001 -2.2601061 0.30741149 0
4.5140004 -2.2648392 0.30752873 0
4.5090003 -2.2695544 0.30764598 0
4.5040002 -2.2742515 0.30776325 0
4.4990001 -2.2789304 0.30788049 0
4.4940004 -2.2835917 0.30799773 0
4.4890003 -2.2882347 0.30811498 0
4.4850001 -2.2934098 0.30820879 0
4.4800005 -2.2980187 0.30832601 0
4.4750004 -2.3026094 0.30844328 0
4.4700003 -2.3071818 0.30856052 0
4.4650002 -2.3117363 0.30867776 0
4.4610004 -2.3168323 0.30877155 0
4.4560003 -2.3213525 0.30888879 0
4.4510002 -2.3258548 0.30900607 0
4.4460001 -2.330339 0.30912331 0
4.4420004 -2.335372 0.3092171 0
4.4370003 -2.3398218 0.30933434 0
4.4320002 -2.3442538 0.30945161 0
4.4270005 -2.3486676 0.30956885 0
4.4230003 -2.3536372 0.30966264 0
4.9890003 -1.8008673 0.28811255 0
4.9830003 -1.8068397 0.28826407 0
4.9770002 -1.8127904 0.28841558 0
4.9710002 -1.8187195 0.28856713 0
4.9650002 -1.824627 0.28871864 0
4.9590001 -1.8305128 0.28887016 0
4.9530005 -1.8363771 0.28902167 0
4.9470005 -1.8422197 0.28917319 0
4.9410005 -1.8480406 0.2893247 0
4.9350004 -1.8538398 0.28947622 0
4.9290004 -1.8596174 0.28962773 0
4.9230003 -1.8653733 0.28977928 0
4.9170003 -1.8711076 0.28993079 0
4.9120002 -1.8772261 0.29005706 0
4.9060001 -1.8829188 0.29020858 0
4.9000001 -1.88859 0.29036009 0
4.8940005 -1.8942397 0.29051161 0
4.8880005 -1.8998675 0.29066312 0
4.8820004 -1.9054738 0.29081464 0
4.8760004 -1.9110583 0.29096615 0
4.8710003 -1.9170399 0.29109246 0
4.8650002 -1.922583 0.29124397 0
4.8590002 -1.9281043 0.29139549 0
4.8530002 -1.933604 0.291547 0
4.8480005 -1.9395082 0.29167324 0
4.8420005 -1.9449666 0.29182479 0
4.8360004 -1.9504031 0.2919763 0
4.8310003 -1.9562491 0.29210258 0
4.8250003 -1.9616443 0.29225409 0
4.8190002 -1.9670178 0.29240561 0
4.8140001 -1.9728062 0.29253188 0
4.8080001 -1.9781383 0.29268342 0
4.8020005 -1.983449 0.29283491 0
4.7970004 -1.9891796 0.29296118 0
4.7910004 -1.9944484 0.2931127 0
4.7850003 -1.9996958 0.29326421 0
4.7800002 -2.0053685 0.29339051 0
4.7740002 -2.0105743 0.29354203 0
4.7690005 -2.0162096 0.29366827 0
4.7630005 -2.021374 0.29381979 0
4.7580004 -2.0269711 0.29394606 0
4.7520003 -2.0320938 0.2940976 0
4.7470002 -2.0376532 0.29422385 0
4.7410002 -2.0427346 0.29437536 0
4.7360005 -2.0482562 0.29450163 0
4.7310004 -2.0537596 0.2946279 0
4.7250004 -2.0587795 0.29477942 0
4.7200003 -2.064245 0.29490569 0
4.7140002 -2.0692234 0.29505721 0
4.7090001 -2.074651 0.29518348 0
4.7040005 -2.0800607 0.29530975 0
4.6980004 -2.0849781 0.29546127 0
4.6930003 -2.0903497 0.29558754 0
4.6870003 -2.0952253 0.29573905 0
4.6820002 -2.100559 0.29586533 0
4.6770005 -2.1058753 0.29599157 0
4.6720004 -2.1111729 0.29611784 0
4.6660004 -2.1159675 0.29626936 0
4.6610003 -2.1212273 0.29639563 0
4.6560001 -2.1264689 0.2965219 0
4.6510005 -2.1316931 0.29664814 0
4.6450005 -2.1364064 0.29679969 0
4.6400003 -2.1415923 0.29692596 0
4.6350002 -2.14676 0.29705223 0
4.6300001 -2.1519098 0.29717851 0
4.6250005 -2.1570418 0.29730475 0
4.6190004 -2.1616542 0.29745626 0
4.6140003 -2.166748 0.29758254 0
4.6090002 -2.171824 0.29770881 0
4.6040001 -2.1768818 0.29783508 0
4.5990005 -2.1819217 0.29796135 0
4.5940003 -2.1869438 0.2980876 0
4.5890002 -2.1919472 0.29821387 0
4.5840001 -2.196933 0.29834014 0
4.5790005 -2.201901 0.29846641 0
4.5730004 -2.2063329 0.29861793 0
4.5680003 -2.2112625 0.2987442 0
4.5630002 -2.2161744 0.29887047 0
4.5580001 -2.2210679 0.29899675 0
4.5530005 -2.2259438 0.29912299 0
4.5480003 -2.2308013 0.29924926 0
4.5430002 -2.235641 0.29937553 0
4.5380001 -2.2404625 0.29950181 0
4.5340004 -2.2457981 0.29960281 0
4.5290003 -2.2505856 0.29972908 0
4.5240002 -2.2553546 0.29985535 0
4.5190001 -2.2601061 0.29998162 0
4.5140004 -2.2648392 0.30010787 0
4.5090003 -2.2695544 0.30023414 0
4.5040002 -2.2742515 0.30036041 0
4.4990001 -2.2789304 0.30048668 0
4.4940004 -2.2835917 0.30061293 0
4.4890003 -2.2882347 0.3007392 0
4.4850001 -2.2934098 0.30084023 0
4.4800005 -2.2980187 0.30096647 0
4.4750004 -2.3026094 0.30109274 0
4.4700003 -2.3071818 0.30121902 0
4.4650002 -2.3117363 0.30134529 0
4.4610004 -2.3168323 0.30144629 0
4.4560003 -2.3213525 0.30157256 0
4.4510002 -2.3258548 0.30169883 0
4.4460001 -2.330339 0.30182511 0
4.4420004 -2.335372 0.30192611 0
4.4370003 -2.3398218 0.30205238 0
4.4320002 -2.3442538 0.30217865 0
4.4270005 -2.3486676 0.30230492 0
4.4230003 -2.3536372 0.30240592 0
4.9890003 -1.8008673 0.27983487 0
4.9830003 -1.8068397 0.27999723 0
4.9770002 -1.8127904 0.28015956 0
4.9710002 -1.8187195 0.2803219 0
4.9650002 -1.824627 0.28048426 0
4.9590001 -1.8305128 0.28064659 0
4.9530005 -1.8363771 0.28080893 0
4.9470005 -1.8422197 0.28097126 0
4.9410005 -1.8480406 0.28113362 0
4.9350004 -1.8538398 0.28129596 0
4.9290004 -1.8596174 0.28145829 0
4.9230003 -1.8653733 0.28162065 0
4.9170003 -1.8711076 0.28178298 0
4.9120002 -1.8772261 0.28191829 0
4.9060001 -1.8829188 0.28208062 0
4.9000001 -1.88859 0.28224295 0
4.8940005 -1.8942397 0.28240532 0
4.8880005 -1.8998675 0.28256762 0
4.8820004 -1.9054738 0.28272998 0
4.8760004 -1.9110583 0.28289232 0
4.8710003 -1.9170399 0.28302762 0
4.8650002 -1.922583 0.28318995 0
4.8590002 -1.9281043 0.28335232 0
4.8530002 -1.933604 0.28351465 0
4.8480005 -1.9395082 0.28364992 0
4.8420005 -1.9449666 0.28381228 0
4.8360004 -1.9504031 0.28397459 0
4.8310003 -1.9562491 0.28410989 0
4.8250003 -1.9616443 0.28427225 0
4.8190002 -1.9670178 0.28443459 0
4.8140001 -1.9728062 0.28456989 0
4.8080001 -1.9781383 0.28473222 0
4.8020005 -1.983449 0.28489456 0
4.7970004 -1.9891796 0.28502983 0
4.7910004 -1.9944484 0.28519219 0
4.7850003 -1.9996958 0.28535452 0
4.7800002 -2.0053685 0.2854898 0
4.7740002 -2.0105743 0.28565216 0
4.7690005 -2.0162096 0.28578743 0
4.7630005 -2.021374 0.28594977 0
4.7580004 -2.0269711 0.28608507 0
4.7520003 -2.0320938 0.2862474 0
4.7470002 -2.0376532 0.2863827 0
4.7410002 -2.0427346 0.28654504 0
4.7360005 -2.0482562 0.28668031 0
4.7310004 -2.0537596 0.28681561 0
4.7250004 -2.0587795 0.28697795 0
4.7200003 -2.064245 0.28711325 0
4.7140002 -2.0692234 0.28727558 0
4.7090001 -2.074651 0.28741086 0
4.7040005 -2.0800607 0.28754616 0
4.6980004 -2.0849781 0.28770849 0
4.6930003 -2.0903497 0.28784376 0
4.6870003 -2.0952253 0.28800613 0
4.6820002 -2.100559 0.2881414 0
4.6770005 -2.1058753 0.28827667 0
4.6720004 -2.1111729 0.28841197 0
4.6660004 -2.1159675 0.28857434 0
4.6610003 -2.1212273 0.28870961 0
4.6560001 -2.1264689 0.28884488 0
4.6510005 -2.1316931 0.28898019 0
4.6450005 -2.1364064 0.28914252 0
4.6400003 -2.1415923 0.28927782 0
4.6350002 -2.14676 0.28941309 0
4.6300001 -2.1519098 0.2895484 0
4.6250005 -2.1570418 0.28968367 0
4.6190004 -2.1616542 0.289846 0
4.6140003 -2.166748 0.28998131 0
4.6090002 -2.171824 0.29011658 0
4.6040001 -2.1768818 0.29025188 0
4.5990005 -2.1819217 0.29038715 0
4.5940003 -2.1869438 0.29052243 0
4.5890002 -2.1919472 0.29065773 0
4.5840001 -2.196933 0.290793 0
4.5790005 -2.201901 0.2909283 0
4.5730004 -2.2063329 0.29109064 0
4.5680003 -2.2112625 0.29122591 0
4.5630002 -2.2161744 0.29136121 0
4.5580001 -2.2210679 0.29149652 0
4.5530005 -2.2259438 0.29163176 0
4.5480003 -2.2308013 0.29176706 0
4.5430002 -2.235641 0.29190236 0
4.5380001 -2.2404625 0.29203764 0
4.5340004 -2.2457981 0.29214585 0
4.5290003 -2.2505856 0.29228115 0
4.5240002 -2.2553546 0.29241645 0
4.5190001 -2.2601061 0.29255173 0
4.5140004 -2.2648392 0.292687 0
4.5090003 -2.2695544 0.2928223 0
4.5040002 -2.2742515 0.29295757 0
4.4990001 -2.2789304 0.29309288 0
4.4940004 -2.2835917 0.29322815 0
4.4890003 -2.2882347 0.29336345 0
4.4850001 -2.2934098 0.29347166 0
4.4800005 -2.2980187 0.29360694 0
4.4750004 -2.3026094 0.29374224 0
4.4700003 -2.3071818 0.29387751 0
4.4650002 -2.3117363 0.29401281 0
4.4610004 -2.3168323 0.29412103 0
4.4560003 -2.3213525 0.29425633 0
4.4510002 -2.3258548 0.2943916 0
4.4460001 -2.330339 0.2945269 0
4.4420004 -2.335372 0.29463512 0
4.4370003 -2.3398218 0.29477042 0
4.4320002 -2.3442538 0.29490569 0
4.4270005 -2.3486676 0.29504097 0
4.4230003 -2.3536372 0.29514921 0
4.9890003 -1.8008673 0.27155721 0
4.9830003 -1.8068397 0.27173036 0
4.9770002 -1.8127904 0.27190351 0
4.9710002 -1.8187195 0.2720767 0
4.9650002 -1.824627 0.27224988 0
4.9590001 -1.8305128 0.27242303 0
4.9530005 -1.8363771 0.27259618 0
4.9470005 -1.8422197 0.27276933 0
4.9410005 -1.8480406 0.27294251 0
4.9350004 -1.8538398 0.27311569 0
4.9290004 -1.8596174 0.27328885 0
4.9230003 -1.8653733 0.273462 0
4.9170003 -1.8711076 0.27363518 0
4.9120002 -1.8772261 0.27377951 0
4.9060001 -1.8829188 0.27395266 0
4.9000001 -1.88859 0.27412581 0
4.8940005 -1.8942397 0.27429897 0
4.8880005 -1.8998675 0.27447215 0
4.8820004 -1.9054738 0.27464533 0
4.8760004 -1.9110583 0.27481848 0
4.8710003 -1.9170399 0.27496278 0
4.8650002 -1.922583 0.27513593 0
4.8590002 -1.9281043 0.27530912 0
4.8530002 -1.933604 0.2754823 0
4.8480005 -1.9395082 0.2756266 0
4.8420005 -1.9449666 0.27579975 0
4.8360004 -1.9504031 0.2759729 0
4.8310003 -1.9562491 0.27611721 0
4.8250003 -1.9616443 0.27629039 0
4.8190002 -1.9670178 0.27646357 0
4.8140001 -1.9728062 0.27660787 0
4.8080001 -1.9781383 0.27678102 0
4.8020005 -1.983449 0.27695417 0
4.7970004 -1.9891796 0.27709848 0
4.7910004 -1.9944484 0.27727166 0
4.7850003 -1.9996958 0.27744484 0
4.7800002 -2.0053685 0.27758914 0
4.7740002 -2.0105743 0.27776229 0
4.7690005 -2.0162096 0.2779066 0
4.7630005 -2.021374 0.27807975 0
4.7580004 -2.0269711 0.27822405 0
4.7520003 -2.0320938 0.27839723 0
4.7470002 -2.0376532 0.27854156 0
4.7410002 -2.0427346 0.27871472 0
4.7360005 -2.0482562 0.27885902 0
4.7300005 -2.0532959 0.27903217 0
4.7250004 -2.0587795 0.27917647 0
4.7200003 -2.064245 0.27932078 0
4.7140002 -2.0692234 0.27949396 0
4.7090001 -2.074651 0.27963826 0
4.7040005 -2.0800607 0.27978256 0
4.6980004 -2.0849781 0.27995571 0
4.6930003 -2.0903497 0.28010005 0
4.6870003 -2.0952253 0.2802732 0
4.6820002 -2.100559 0.2804175 0
4.6770005 -2.1058753 0.2805618 0
4.6720004 -2.1111729 0.28070611 0
4.6660004 -2.1159675 0.28087926 0
4.6610003 -2.1212273 0.28102359 0
4.6560001 -2.1264689 0.28116789 0
4.6510005 -2.1316931 0.2813122 0
4.6450005 -2.1364064 0.28148535 0
4.6400003 -2.1415923 0.28162965 0
4.6350002 -2.14676 0.28177398 0
4.6300001 -2.1519098 0.28191829 0
4.6250005 -2.1570418 0.28206259 0
4.6190004 -2.1616542 0.28223574 0
4.6140003 -2.166748 0.28238004 0
4.6090002 -2.171824 0.28252435 0
4.6040001 -2.1768818 0.28266865 0
4.5990005 -2.1819217 0.28281295 0
4.5940003 -2.1869438 0.28295726 0
4.5890002 -2.1919472 0.28310156 0
4.5840001 -2.196933 0.28324589 0
4.5790005 -2.201901 0.28339016 0
4.5730004 -2.2063329 0.28356335 0
4.5680003 -2.2112625 0.28370765 0
4.5630002 -2.2161744 0.28385195 0
4.5580001 -2.2210679 0.28399628 0
4.5530005 -2.2259438 0.28414056 0
4.5480003 -2.2308013 0.28428486 0
4.5430002 -2.235641 0.28442919 0
4.5380001 -2.2404625 0.2845735 0
4.5340004 -2.2457981 0.28468892 0
4.5290003 -2.2505856 0.28483322 0
4.5240002 -2.2553546 0.28497753 0
4.5190001 -2.2601061 0.28512186 0
4.5140004 -2.2648392 0.28526613 0
4.5090003 -2.2695544 0.28541046 0
4.5040002 -2.2742515 0.28555477 0
4.4990001 -2.2789304 0.28569907 0
4.4940004 -2.2835917 0.28584337 0
4.4890003 -2.2882347 0.28598768 0
4.4850001 -2.2934098 0.28610313 0
4.4800005 -2.2980187 0.2862474 0
4.4750004 -2.3026094 0.28639171 0
4.4700003 -2.3071818 0.28653604 0
4.4650002 -2.3117363 0.28668034 0
4.4610004 -2.3168323 0.28679577 0
4.4560003 -2.3213525 0.28694007 0
4.4510002 -2.3258548 0.28708437 0
4.4460001 -2.330339 0.2872287 0
4.4420004 -2.335372 0.28734413 0
4.4370003 -2.3398218 0.28748843 0
4.4320002 -2.3442538 0.28763273 0
4.4270005 -2.3486676 0.28777704 0
4.4230003 -2.3536372 0.28789249 0
4.9890003 -1.8008673 0.26327953 0
4.9830003 -1.8068397 0.2634635 0
4.9770002 -1.8127904 0.2636475 0
4.9710002 -1.8187195 0.2638315 0
4.9650002 -1.824627 0.2640155 0
4.9590001 -1.8305128 0.2641995 0
4.9530005 -1.8363771 0.26438344 0
4.9470005 -1.8422197 0.26456743 0
4.9410005 -1.8480406 0.26475143 0
4.9350004 -1.8538398 0.2649354 0
4.9290004 -1.8596174 0.2651194 0
4.9230003 -1.8653733 0.26530337 0
4.9170003 -1.8711076 0.26548737 0
4.9120002 -1.8772261 0.26564071 0
4.9060001 -1.8829188 0.26582471 0
4.9000001 -1.88859 0.26600868 0
4.8940005 -1.8942397 0.26619267 0
4.8880005 -1.8998675 0.26637667 0
4.8820004 -1.9054738 0.26656064 0
4.8760004 -1.9110583 0.26674464 0
4.8710003 -1.9170399 0.26689798 0
4.8650002 -1.922583 0.26708198 0
4.8590002 -1.9281043 0.26726595 0
4.8530002 -1.933604 0.26744992 0
4.8480005 -1.9395082 0.26760325 0
4.8420005 -1.9449666 0.26778722 0
4.8360004 -1.9504031 0.26797122 0
4.8300004 -1.9558179 0.26815522 0
4.8250003 -1.9616443 0.26830852 0
4.8190002 -1.9670178 0.26849252 0
4.8140001 -1.9728062 0.26864585 0
4.8080001 -1.9781383 0.26882985 0
4.8020005 -1.983449 0.26901382 0
4.7970004 -1.9891796 0.26916713 0
4.7910004 -1.9944484 0.26935112 0
4.7850003 -1.9996958 0.26953512 0
4.7800002 -2.0053685 0.26968846 0
4.7740002 -2.0105743 0.26987243 0
4.7690005 -2.0162096 0.27002576 0
4.7630005 -2.021374 0.27020973 0
4.7580004 -2.0269711 0.27036309 0
4.7520003 -2.0320938 0.27054709 0
4.7470002 -2.0376532 0.2707004 0
4.7410002 -2.0427346 0.27088439 0
4.7360005 -2.0482562 0.2710377 0
4.7300005 -2.0532959 0.2712217 0
4.7250004 -2.0587795 0.271375 0
4.7200003 -2.064245 0.27152833 0
4.7140002 -2.0692234 0.2717123 0
4.7090001 -2.074651 0.27186567 0
4.7040005 -2.0800607 0.27201897 0
4.6980004 -2.0849781 0.27220297 0
4.6930003 -2.0903497 0.27235627 0
4.6870003 -2.0952253 0.27254027 0
4.6820002 -2.100559 0.2726936 0
4.6770005 -2.1058753 0.27284691 0
4.6720004 -2.1111729 0.27300024 0
4.6660004 -2.1159675 0.27318424 0
4.6610003 -2.1212273 0.27333754 0
4.6560001 -2.1264689 0.27349091 0
4.6510005 -2.1316931 0.27364421 0
4.6450005 -2.1364064 0.27382818 0
4.6400003 -2.1415923 0.27398151 0
4.6350002 -2.14676 0.27413484 0
4.6300001 -2.1519098 0.27428818 0
4.6250005 -2.1570418 0.27444148 0
4.6190004 -2.1616542 0.27462548 0
4.6140003 -2.166748 0.27477878 0
4.6090002 -2.171824 0.27493215 0
4.6040001 -2.1768818 0.27508545 0
4.5990005 -2.1819217 0.27523875 0
4.5940003 -2.1869438 0.27539212 0
4.5890002 -2.1919472 0.27554542 0
4.5840001 -2.196933 0.27569875 0
4.5790005 -2.201901 0.27585205 0
4.5730004 -2.2063329 0.27603602 0
4.5680003 -2.2112625 0.27618939 0
4.5630002 -2.2161744 0.27634269 0
4.5580001 -2.2210679 0.27649605 0
4.5530005 -2.2259438 0.27664936 0
4.5480003 -2.2308013 0.27680266 0
4.5430002 -2.235641 0.27695602 0
4.5380001 -2.2404625 0.27710932 0
4.5340004 -2.2457981 0.27723199 0
4.5290003 -2.2505856 0.27738529 0
4.5240002 -2.2553546 0.27753863 0
4.5190001 -2.2601061 0.27769196 0
4.5140004 -2.2648392 0.27784526 0
4.5090003 -2.2695544 0.2779986 0
4.5040002 -2.2742515 0.27815193 0
4.4990001 -2.2789304 0.27830523 0
4.4940004 -2.2835917 0.27845857 0
4.4890003 -2.2882347 0.2786119 0
4.4850001 -2.2934098 0.27873456 0
4.4800005 -2.2980187 0.27888787 0
4.4750004 -2.3026094 0.2790412 0
4.4700003 -2.3071818 0.27919453 0
4.4650002 -2.3117363 0.27934784 0
4.4610004 -2.3168323 0.2794705 0
4.4560003 -2.3213525 0.27962384 0
4.4510002 -2.3258548 0.27977714 0
4.4460001 -2.330339 0.27993047 0
4.4420004 -2.335372 0.28005314 0
4.4370003 -2.3398218 0.28020644 0
4.4320002 -2.3442538 0.2803598 0
4.4270005 -2.3486676 0.28051311 0
4.4230003 -2.3536372 0.28063577 0
4.9890003 -1.8008673 0.25500184 0
4.9830003 -1.8068397 0.25519666 0
4.9770002 -1.8127904 0.25539148 0
4.9710002 -1.8187195 0.25558627 0
4.9650002 -1.824627 0.25578111 0
4.9590001 -1.8305128 0.2559759 0
4.9530005 -1.8363771 0.25617069 0
4.9470005 -1.8422197 0.25636554 0
4.9410005 -1.8480406 0.25656033 0
4.9350004 -1.8538398 0.25675514 0
4.9290004 -1.8596174 0.25694996 0
4.9230003 -1.8653733 0.25714478 0
4.9170003 -1.8711076 0.2573396 0
4.9120002 -1.8772261 0.25750193 0
4.9060001 -1.8829188 0.25769675 0
4.9000001 -1.88859 0.25789154 0
4.8940005 -1.8942397 0.25808635 0
4.8880005 -1.8998675 0.25828117 0
4.8820004 -1.9054738 0.25847596 0
4.8760004 -1.9110583 0.25867078 0
4.8710003 -1.9170399 0.25883314 0
4.8650002 -1.922583 0.25902796 0
4.8590002 -1.9281043 0.25922275 0
4.8530002 -1.933604 0.25941759 0
4.8480005 -1.9395082 0.2595799 0
4.8420005 -1.9449666 0.25977471 0
4.8360004 -1.9504031 0.25996953 0
4.8300004 -1.9558179 0.26016432 0
4.8250003 -1.9616443 0.26032668 0
4.8190002 -1.9670178 0.2605215 0
4.8140001 -1.9728062 0.26068383 0
4.8080001 -1.9781383 0.26087865 0
4.8020005 -1.983449 0.26107347 0
4.7970004 -1.9891796 0.2612358 0
4.7910004 -1.9944484 0.26143062 0
4.7850003 -1.9996958 0.26162541 0
4.7800002 -2.0053685 0.26178777 0
4.7740002 -2.0105743 0.26198259 0
4.7690005 -2.0162096 0.26214492 0
4.7630005 -2.021374 0.26233974 0
4.7580004 -2.0269711 0.26250207 0
4.7520003 -2.0320938 0.26269689 0
4.7470002 -2.0376532 0.26285923 0
4.7410002 -2.0427346 0.26305407 0
4.7360005 -2.0482562 0.26321638 0
4.7300005 -2.0532959 0.26341119 0
4.7250004 -2.0587795 0.26357353 0
4.7200003 -2.064245 0.26373589 0
4.7140002 -2.0692234 0.26393071 0
4.7090001 -2.074651 0.26409304 0
4.7040005 -2.0800607 0.26425537 0
4.6980004 -2.0849781 0.26445019 0
4.6930003 -2.0903497 0.26461256 0
4.6870003 -2.0952253 0.26480734 0
4.6820002 -2.100559 0.26496971 0
4.6770005 -2.1058753 0.26513201 0
4.6720004 -2.1111729 0.26529437 0
4.6660004 -2.1159675 0.26548919 0
4.6610003 -2.1212273 0.26565152 0
4.6560001 -2.1264689 0.26581389 0
4.6510005 -2.1316931 0.26597619 0
4.6450005 -2.1364064 0.26617104 0
4.6400003 -2.1415923 0.26633334 0
4.6350002 -2.14676 0.2664957 0
4.6300001 -2.1519098 0.26665807 0
4.6250005 -2.1570418 0.2668204 0
4.6190004 -2.1616542 0.26701522 0
4.6140003 -2.166748 0.26717755 0
4.6090002 -2.171824 0.26733989 0
4.6040001 -2.1768818 0.26750225 0
4.5990005 -2.1819217 0.26766455 0
4.5940003 -2.1869438 0.26782691 0
4.5890002 -2.1919472 0.26798928 0
4.5840001 -2.196933 0.26815164 0
4.5790005 -2.201901 0.26831394 0
4.5730004 -2.2063329 0.26850876 0
4.5680003 -2.2112625 0.2686711 0
4.5630002 -2.2161744 0.26883346 0
4.5580001 -2.2210679 0.26899579 0
4.5530005 -2.2259438 0.26915812 0
4.5480003 -2.2308013 0.26932049 0
4.5430002 -2.235641 0.26948282 0
4.5380001 -2.2404625 0.26964515 0
4.5340004 -2.2457981 0.26977503 0
4.5290003 -2.2505856 0.2699374 0
4.5240002 -2.2553546 0.27009973 0
4.5190001 -2.2601061 0.27026206 0
4.5140004 -2.2648392 0.27042443 0
4.5090003 -2.2695544 0.27058673 0
4.5040002 -2.2742515 0.27074909 0
4.4990001 -2.2789304 0.27091146 0
4.4940004 -2.2835917 0.27107376 0
4.4890003 -2.2882347 0.27123612 0
4.4850001 -2.2934098 0.271366 0
4.4800005 -2.2980187 0.2715283 0
4.4750004 -2.3026094 0.27169067 0
4.4700003 -2.3071818 0.27185303 0
4.4650002 -2.3117363 0.27201539 0
4.4610004 -2.3168323 0.27214521 0
4.4560003 -2.3213525 0.27230757 0
4.4510002 -2.3258548 0.27246994 0
4.4460001 -2.330339 0.27263227 0
4.4420004 -2.335372 0.27276212 0
4.4370003 -2.3398218 0.27292448 0
4.4320002 -2.3442538 0.27308685 0
4.4270005 -2.3486676 0.27324915 0
4.4230003 -2.3536372 0.27337903 0
4.9890003 -1.8008673 0.24672417 0
4.9830003 -1.8068397 0.24692981 0
4.9770002 -1.8127904 0.24713543 0
4.9710002 -1.8187195 0.24734108 0
4.9650002 -1.824627 0.24754672 0
4.9590001 -1.8305128 0.24775234 0
4.9530005 -1.8363771 0.24795796 0
4.9470005 -1.8422197 0.24816361 0
4.9410005 -1.8480406 0.24836923 0
4.9350004 -1.8538398 0.24857487 0
4.9290004 -1.8596174 0.24878052 0
4.9230003 -1.8653733 0.24898614 0
4.9170003 -1.8711076 0.24919178 0
4.9120002 -1.8772261 0.24936314 0
4.9060001 -1.8829188 0.24956879 0
4.9000001 -1.88859 0.24977441 0
4.8940005 -1.8942397 0.24998003 0
4.8880005 -1.8998675 0.25018567 0
4.8820004 -1.9054738 0.2503913 0
4.8760004 -1.9110583 0.25059694 0
4.8710003 -1.9170399 0.2507683 0
4.8650002 -1.922583 0.25097394 0
4.8590002 -1.9281043 0.25117958 0
4.8530002 -1.933604 0.25138521 0
4.8480005 -1.9395082 0.25155658 0
4.8420005 -1.9449666 0.25176221 0
4.8360004 -1.9504031 0.25196785 0
4.8300004 -1.9558179 0.25217348 0
4.8250003 -1.9616443 0.25234485 0
4.8190002 -1.9670178 0.25255048 0
4.8140001 -1.9728062 0.25272185 0
4.8080001 -1.9781383 0.25292748 0
4.8020005 -1.983449 0.25313309 0
4.7970004 -1.9891796 0.25330445 0
4.7910004 -1.9944484 0.25351009 0
4.7850003 -1.9996958 0.25371575 0
4.7800002 -2.0053685 0.25388712 0
4.7740002 -2.0105743 0.25409272 0
4.7690005 -2.0162096 0.25426409 0
4.7630005 -2.021374 0.25446969 0
4.7580004 -2.0269711 0.25464109 0
4.7520003 -2.0320938 0.25484672 0
4.7470002 -2.0376532 0.25501809 0
4.7410002 -2.0427346 0.25522372 0
4.7360005 -2.0482562 0.25539505 0
4.7300005 -2.0532959 0.25560069 0
4.7250004 -2.0587795 0.25577205 0
4.7200003 -2.064245 0.25594342 0
4.7140002 -2.0692234 0.25614905 0
4.7090001 -2.074651 0.25632042 0
4.7040005 -2.0800607 0.25649178 0
4.6980004 -2.0849781 0.25669742 0
4.6930003 -2.0903497 0.25686878 0
4.6870003 -2.0952253 0.25707442 0
4.6820002 -2.100559 0.25724578 0
4.6770005 -2.1058753 0.25741714 0
4.6720004 -2.1111729 0.25758851 0
4.6660004 -2.1159675 0.25779414 0
4.6610003 -2.1212273 0.25796551 0
4.6560001 -2.1264689 0.25813687 0
4.6510005 -2.1316931 0.25830823 0
4.6450005 -2.1364064 0.25851387 0
4.6400003 -2.1415923 0.25868523 0
4.6350002 -2.14676 0.25885659 0
4.6300001 -2.1519098 0.25902796 0
4.6250005 -2.1570418 0.25919929 0
4.6190004 -2.1616542 0.25940496 0
4.6140003 -2.166748 0.25957632 0
4.6090002 -2.171824 0.25974768 0
4.6040001 -2.1768818 0.25991905 0
4.5990005 -2.1819217 0.26009038 0
4.5940003 -2.1869438 0.26026174 0
4.5890002 -2.1919472 0.26043311 0
4.5840001 -2.196933 0.26060447 0
4.5790005 -2.201901 0.26077583 0
4.5730004 -2.2063329 0.26098147 0
4.5680003 -2.2112625 0.26115283 0
4.5630002 -2.2161744 0.2613242 0
4.5580001 -2.2210679 0.26149556 0
4.5530005 -2.2259438 0.26166689 0
4.5480003 -2.2308013 0.26183826 0
4.5430002 -2.235641 0.26200962 0
4.5380001 -2.2404625 0.26218101 0
4.5340004 -2.2457981 0.26231807 0
4.5290003 -2.2505856 0.26248944 0
4.5240002 -2.2553546 0.2626608 0
4.5190001 -2.2601061 0.26283216 0
4.5140004 -2.2648392 0.26300353 0
4.5090003 -2.2695544 0.26317489 0
4.5040002 -2.2742515 0.26334625 0
4.4990001 -2.2789304 0.26351762 0
4.4940004 -2.2835917 0.26368898 0
4.4890003 -2.2882347 0.26386034 0
4.4850001 -2.2934098 0.26399744 0
4.4800005 -2.2980187 0.2641688 0
4.4750004 -2.3026094 0.26434016 0
4.4700003 -2.3071818 0.26451153 0
4.4650002 -2.3117363 0.26468289 0
4.4610004 -2.3168323 0.26481998 0
4.4560003 -2.3213525 0.26499134 0
4.4510002 -2.3258548 0.26516271 0
4.4460001 -2.330339 0.26533407 0
4.4420004 -2.335372 0.26547116 0
4.4370003 -2.3398218 0.26564252 0
4.4320002 -2.3442538 0.26581389 0
4.4270005 -2.3486676 0.26598522 0
4.4230003 -2.3536372 0.26612234 0
4.9890003 -1.8008673 0.23844649 0
4.9830003 -1.8068397 0.23866296 0
4.9770002 -1.8127904 0.23887941 0
4.9710002 -1.8187195 0.23909588 0
4.9650002 -1.824627 0.23931232 0
4.9590001 -1.8305128 0.23952879 0
4.9530005 -1.8363771 0.23974521 0
4.9470005 -1.8422197 0.23996168 0
4.9410005 -1.8480406 0.24017814 0
4.9350004 -1.8538398 0.24039461 0
4.9290004 -1.8596174 0.24061106 0
4.9230003 -1.8653733 0.24082752 0
4.9170003 -1.8711076 0.24104398 0
4.9120002 -1.8772261 0.24122436 0
4.9060001 -1.8829188 0.24144082 0
4.9000001 -1.88859 0.24165729 0
4.8940005 -1.8942397 0.24187373 0
4.8880005 -1.8998675 0.24209018 0
4.8820004 -1.9054738 0.24230663 0
4.8760004 -1.9110583 0.2425231 0
4.8710003 -1.9170399 0.24270348 0
4.8650002 -1.922583 0.24291994 0
4.8590002 -1.9281043 0.24313641 0
4.8530002 -1.933604 0.24335286 0
4.8480005 -1.9395082 0.24353322 0
4.8420005 -1.9449666 0.24374968 0
4.8360004 -1.9504031 0.24396613 0
4.8300004 -1.9558179 0.2441826 0
4.8250003 -1.9616443 0.244363 0
4.8190002 -1.9670178 0.24457943 0
4.8140001 -1.9728062 0.24475983 0
4.8080001 -1.9781383 0.24497628 0
4.8020005 -1.983449 0.24519274 0
4.7970004 -1.9891796 0.24537311 0
4.7910004 -1.9944484 0.24558957 0
4.7850003 -1.9996958 0.24580604 0
4.7800002 -2.0053685 0.2459864 0
4.7740002 -2.0105743 0.24620287 0
4.7690005 -2.0162096 0.24638325 0
4.7630005 -2.021374 0.2465997 0
4.7580004 -2.0269711 0.24678008 0
4.7520003 -2.0320938 0.24699654 0
4.7470002 -2.0376532 0.24717693 0
4.7410002 -2.0427346 0.24739338 0
4.7360005 -2.0482562 0.24757375 0
4.7300005 -2.0532959 0.24779022 0
4.7250004 -2.0587795 0.2479706 0
4.7200003 -2.064245 0.24815099 0
4.7140002 -2.0692234 0.24836744 0
4.7090001 -2.074651 0.24854782 0
4.7040005 -2.0800607 0.24872819 0
4.6980004 -2.0849781 0.24894466 0
4.6930003 -2.0903497 0.24912505 0
4.6870003 -2.0952253 0.24934149 0
4.6820002 -2.100559 0.24952188 0
4.6770005 -2.1058753 0.24970224 0
4.6720004 -2.1111729 0.24988264 0
4.6660004 -2.1159675 0.25009909 0
4.6610003 -2.1212273 0.25027949 0
4.6560001 -2.1264689 0.25045985 0
4.6510005 -2.1316931 0.25064024 0
4.6450005 -2.1364064 0.2508567 0
4.6400003 -2.1415923 0.25103706 0
4.6350002 -2.14676 0.25121745 0
4.6300001 -2.1519098 0.25139785 0
4.6250005 -2.1570418 0.25157821 0
4.6190004 -2.1616542 0.2517947 0
4.6140003 -2.166748 0.25197506 0
4.6090002 -2.171824 0.25215542 0
4.6040001 -2.1768818 0.25233582 0
4.5990005 -2.1819217 0.25251618 0
4.5940003 -2.1869438 0.25269657 0
4.5890002 -2.1919472 0.25287697 0
4.5840001 -2.196933 0.25305736 0
4.5790005 -2.201901 0.25323772 0
4.5730004 -2.2063329 0.25345418 0
4.5680003 -2.2112625 0.25363457 0
4.5630002 -2.2161744 0.25381494 0
4.5580001 -2.2210679 0.25399533 0
4.5530005 -2.2259438 0.25417569 0
4.5480003 -2.2308013 0.25435609 0
4.5430002 -2.235641 0.25453645 0
4.5380001 -2.2404625 0.25471684 0
4.5340004 -2.2457981 0.25486115 0
4.5290003 -2.2505856 0.25504154 0
4.5240002 -2.2553546 0.2552219 0
4.5190001 -2.2601061 0.2554023 0
4.5140004 -2.2648392 0.25558269 0
4.5090003 -2.2695544 0.25576305 0
4.5040002 -2.2742515 0.25594342 0
4.4990001 -2.2789304 0.25612384 0
4.4940004 -2.2835917 0.2563042 0
4.4890003 -2.2882347 0.25648457 0
4.4850001 -2.2934098 0.2566289 0
4.4800005 -2.2980187 0.25680926 0
4.4750004 -2.3026094 0.25698966 0
4.4700003 -2.3071818 0.25717002 0
4.4650002 -2.3117363 0.25735039 0
4.4610004 -2.3168323 0.25749469 0
4.4560003 -2.3213525 0.25767511 0
4.4510002 -2.3258548 0.25785547 0
4.4460001 -2.330339 0.25803587 0
4.4420004 -2.335372 0.25818014 0
4.4370003 -2.3398218 0.25836053 0
4.4320002 -2.3442538 0.25854093 0
4.4270005 -2.3486676 0.25872129 0
4.4230003 -2.3536372 0.25886559 0
4.9890003 -1.8008673 0.23016882 0
4.9830003 -1.8068397 0.23039611 0
4.9770002 -1.8127904 0.23062338 0
4.9710002 -1.8187195 0.23085065 0
4.9650002 -1.824627 0.23107795 0
4.9590001 -1.8305128 0.23130523 0
4.9530005 -1.8363771 0.2315325 0
4.9470005 -1.8422197 0.23175977 0
4.9410005 -1.8480406 0.23198704 0
4.9350004 -1.8538398 0.23221433 0
4.9290004 -1.8596174 0.2324416 0
4.9230003 -1.8653733 0.23266891 0
4.9170003 -1.8711076 0.23289618 0
4.9120002 -1.8772261 0.23308559 0
4.9060001 -1.8829188 0.23331286 0
4.9000001 -1.88859 0.23354015 0
4.8940005 -1.8942397 0.23376741 0
4.8880005 -1.8998675 0.23399469 0
4.8820004 -1.9054738 0.23422197 0
4.8760004 -1.9110583 0.23444925 0
4.8710003 -1.9170399 0.23463865 0
4.8650002 -1.922583 0.23486595 0
4.8590002 -1.9281043 0.23509322 0
4.8530002 -1.933604 0.23532051 0
4.8480005 -1.9395082 0.23550989 0
4.8420005 -1.9449666 0.23573717 0
4.8360004 -1.9504031 0.23596445 0
4.8300004 -1.9558179 0.23619173 0
4.8250003 -1.9616443 0.23638114 0
4.8190002 -1.9670178 0.23660842 0
4.8140001 -1.9728062 0.23679782 0
4.8080001 -1.9781383 0.2370251 0
4.8020005 -1.983449 0.23725237 0
4.7970004 -1.9891796 0.23744178 0
4.7910004 -1.9944484 0.23766905 0
4.7850003 -1.9996958 0.23789632 0
4.7800002 -2.0053685 0.23808573 0
4.7740002 -2.0105743 0.23831302 0
4.7690005 -2.0162096 0.23850241 0
4.7630005 -2.021374 0.23872969 0
4.7580004 -2.0269711 0.23891909 0
4.7520003 -2.0320938 0.23914637 0
4.7470002 -2.0376532 0.23933578 0
4.7410002 -2.0427346 0.23956305 0
4.7360005 -2.0482562 0.23975244 0
4.7300005 -2.0532959 0.23997973 0
4.7250004 -2.0587795 0.24016914 0
4.7200003 -2.064245 0.24035853 0
4.7140002 -2.0692234 0.24058582 0
4.7090001 -2.074651 0.24077523 0
4.7040005 -2.0800607 0.24096461 0
4.6980004 -2.0849781 0.24119188 0
4.6930003 -2.0903497 0.24138129 0
4.6870003 -2.0952253 0.24160857 0
4.6820002 -2.100559 0.24179797 0
4.6770005 -2.1058753 0.24198736 0
4.6720004 -2.1111729 0.24217677 0
4.6660004 -2.1159675 0.24240404 0
4.6610003 -2.1212273 0.24259345 0
4.6560001 -2.1264689 0.24278286 0
4.6510005 -2.1316931 0.24297224 0
4.6450005 -2.1364064 0.24319953 0
4.6400003 -2.1415923 0.24338892 0
4.6350002 -2.14676 0.24357833 0
4.6300001 -2.1519098 0.24376774 0
4.6250005 -2.1570418 0.24395713 0
4.6190004 -2.1616542 0.2441844 0
4.6140003 -2.166748 0.24437381 0
4.6090002 -2.171824 0.24456322 0
4.6040001 -2.1768818 0.24475262 0
4.5990005 -2.1819217 0.24494199 0
4.5940003 -2.1869438 0.2451314 0
4.5890002 -2.1919472 0.24532081 0
4.5840001 -2.196933 0.24551022 0
4.5790005 -2.201901 0.2456996 0
4.5730004 -2.2063329 0.24592687 0
4.5680003 -2.2112625 0.24611628 0
4.5630002 -2.2161744 0.24630569 0
4.5580001 -2.2210679 0.2464951 0
4.5530005 -2.2259438 0.24668449 0
4.5480003 -2.2308013 0.24687389 0
4.5430002 -2.235641 0.24706328 0
4.5380001 -2.2404625 0.24725269 0
4.5340004 -2.2457981 0.2474042 0
4.5290003 -2.2505856 0.2475936 0
4.5240002 -2.2553546 0.24778301 0
4.5190001 -2.2601061 0.24797241 0
4.5140004 -2.2648392 0.24816181 0
4.5090003 -2.2695544 0.24835122 0
4.5040002 -2.2742515 0.2485406 0
4.4990001 -2.2789304 0.24873 0
4.4940004 -2.2835917 0.2489194 0
4.4890003 -2.2882347 0.24910881 0
4.4850001 -2.2934098 0.24926032 0
4.4800005 -2.2980187 0.24944972 0
4.4750004 -2.3026094 0.24963912 0
4.4700003 -2.3071818 0.24982853 0
4.4650002 -2.3117363 0.25001794 0
4.4610004 -2.3168323 0.25016946 0
4.4560003 -2.3213525 0.25035885 0
4.4510002 -2.3258548 0.25054824 0
4.4460001 -2.330339 0.25073767 0
4.4420004 -2.335372 0.25088918 0
4.4370003 -2.3398218 0.25107858 0
4.4320002 -2.3442538 0.25126797 0
4.4270005 -2.3486676 0.25145733 0
4.4230003 -2.3536372 0.25160891 0
4.9890003 -1.8008673 0.22189113 0
4.9830003 -1.8068397 0.22212924 0
4.9770002 -1.8127904 0.22236736 0
4.9710002 -1.8187195 0.22260545 0
4.9650002 -1.824627 0.22284356 0
4.9590001 -1.8305128 0.22308166 0
4.9530005 -1.8363771 0.22331975 0
4.9470005 -1.8422197 0.22355784 0
4.9410005 -1.8480406 0.22379597 0
4.9350004 -1.8538398 0.22403407 0
4.9290004 -1.8596174 0.22427216 0
4.9230003 -1.8653733 0.22451027 0
4.9170003 -1.8711076 0.22474837 0
4.9120002 -1.8772261 0.2249468 0
4.9060001 -1.8829188 0.2251849 0
4.9000001 -1.88859 0.22542301 0
4.8940005 -1.8942397 0.22566108 0
4.8880005 -1.8998675 0.2258992 0
4.8820004 -1.9054738 0.22613731 0
4.8760004 -1.9110583 0.2263754 0
4.8710003 -1.9170399 0.22657382 0
4.8650002 -1.922583 0.22681193 0
4.8590002 -1.9281043 0.22705004 0
4.8530002 -1.933604 0.22728814 0
4.8480005 -1.9395082 0.22748655 0
4.8420005 -1.9449666 0.22772466 0
4.8360004 -1.9504031 0.22796275 0
4.8300004 -1.9558179 0.22820085 0
4.8250003 -1.9616443 0.22839928 0
4.8190002 -1.9670178 0.22863738 0
4.8140001 -1.9728062 0.22883581 0
4.8080001 -1.9781383 0.22907391 0
4.8020005 -1.983449 0.229312 0
4.7970004 -1.9891796 0.22951043 0
4.7910004 -1.9944484 0.22974853 0
4.7850003 -1.9996958 0.22998664 0
4.7800002 -2.0053685 0.23018506 0
4.7740002 -2.0105743 0.23042315 0
4.7690005 -2.0162096 0.23062156 0
4.7630005 -2.021374 0.23085967 0
4.7580004 -2.0269711 0.23105809 0
4.7520003 -2.0320938 0.2312962 0
4.7470002 -2.0376532 0.23149462 0
4.7410002 -2.0427346 0.23173273 0
4.7360005 -2.0482562 0.23193112 0
4.7300005 -2.0532959 0.23216923 0
4.7250004 -2.0587795 0.23236765 0
4.7200003 -2.064245 0.23256609 0
4.7140002 -2.0692234 0.23280418 0
4.7090001 -2.074651 0.2330026 0
4.7040005 -2.0800607 0.23320101 0
4.6980004 -2.0849781 0.23343912 0
4.6930003 -2.0903497 0.23363754 0
4.6870003 -2.0952253 0.23387565 0
4.6820002 -2.100559 0.23407407 0
4.6770005 -2.1058753 0.23427248 0
4.6720004 -2.1111729 0.23447089 0
4.6660004 -2.1159675 0.23470901 0
4.6610003 -2.1212273 0.23490742 0
4.6560001 -2.1264689 0.23510584 0
4.6510005 -2.1316931 0.23530425 0
4.6450005 -2.1364064 0.23554236 0
4.6400003 -2.1415923 0.23574078 0
4.6350002 -2.14676 0.2359392 0
4.6300001 -2.1519098 0.23613763 0
4.6250005 -2.1570418 0.23633602 0
4.6190004 -2.1616542 0.23657413 0
4.6140003 -2.166748 0.23677255 0
4.6090002 -2.171824 0.23697099 0
4.6040001 -2.1768818 0.23716941 0
4.5990005 -2.1819217 0.23736781 0
4.5940003 -2.1869438 0.23756623 0
4.5890002 -2.1919472 0.23776466 0
4.5840001 -2.196933 0.23796308 0
4.5790005 -2.201901 0.23816147 0
4.5730004 -2.2063329 0.2383996 0
4.5680003 -2.2112625 0.238598 0
4.5630002 -2.2161744 0.23879644 0
4.5580001 -2.2210679 0.23899487 0
4.5530005 -2.2259438 0.23919328 0
4.5480003 -2.2308013 0.23939168 0
4.5430002 -2.235641 0.23959011 0
4.5380001 -2.2404625 0.23978853 0
4.5340004 -2.2457981 0.23994726 0
4.5290003 -2.2505856 0.24014568 0
4.5240002 -2.2553546 0.24034411 0
4.5190001 -2.2601061 0.24054253 0
4.5140004 -2.2648392 0.24074093 0
4.5090003 -2.2695544 0.24093936 0
4.5040002 -2.2742515 0.24113779 0
4.4990001 -2.2789304 0.2413362 0
4.4940004 -2.2835917 0.24153461 0
4.4890003 -2.2882347 0.24173303 0
4.4850001 -2.2934098 0.24189177 0
4.4800005 -2.2980187 0.24209018 0
4.4750004 -2.3026094 0.2422886 0
4.4700003 -2.3071818 0.24248703 0
4.4650002 -2.3117363 0.24268545 0
4.4610004 -2.3168323 0.24284416 0
4.4560003 -2.3213525 0.2430426 0
4.4510002 -2.3258548 0.24324103 0
4.4460001 -2.330339 0.24343944 0
4.4420004 -2.335372 0.24359818 0
4.4370003 -2.3398218 0.24379659 0
4.4320002 -2.3442538 0.24399501 0
4.4270005 -2.3486676 0.24419342 0
4.4230003 -2.3536372 0.24435216 0
4.9890003 -1.8008673 0.21361347 0
4.9830003 -1.8068397 0.21386239 0
4.9770002 -1.8127904 0.21411131 0
4.9710002 -1.8187195 0.21436025 0
4.9650002 -1.824627 0.21460918 0
4.9590001 -1.8305128 0.2148581 0
4.9530005 -1.8363771 0.21510701 0
4.9470005 -1.8422197 0.21535593 0
4.9410005 -1.8480406 0.21560487 0
4.9350004 -1.8538398 0.2158538 0
4.9290004 -1.8596174 0.21610272 0
4.9230003 -1.8653733 0.21635164 0
4.9170003 -1.8711076 0.21660057 0
4.9120002 -1.8772261 0.21680802 0
4.9060001 -1.8829188 0.21705694 0
4.9000001 -1.88859 0.21730587 0
4.8940005 -1.8942397 0.21755478 0
4.8880005 -1.8998675 0.21780372 0
4.8820004 -1.9054738 0.21805264 0
4.8760004 -1.9110583 0.21830156 0
4.8710003 -1.9170399 0.218509 0
4.8650002 -1.922583 0.21875793 0
4.8590002 -1.9281043 0.21900687 0
4.8530002 -1.933604 0.21925579 0
4.8480005 -1.9395082 0.21946321 0
4.8420005 -1.9449666 0.21971214 0
4.8360004 -1.9504031 0.21996106 0
4.8300004 -1.9558179 0.22020999 0
4.8250003 -1.9616443 0.22041744 0
4.8190002 -1.9670178 0.22066636 0
4.8140001 -1.9728062 0.2208738 0
4.8080001 -1.9781383 0.22112273 0
4.8020005 -1.983449 0.22137164 0
4.7970004 -1.9891796 0.22157909 0
4.7910004 -1.9944484 0.22182801 0
4.7850003 -1.9996958 0.22207694 0
4.7800002 -2.0053685 0.22228438 0
4.7740002 -2.0105743 0.2225333 0
4.7690005 -2.0162096 0.22274072 0
4.7630005 -2.021374 0.22298966 0
4.7580004 -2.0269711 0.22319709 0
4.7520003 -2.0320938 0.22344601 0
4.7470002 -2.0376532 0.22365347 0
4.7410002 -2.0427346 0.22390239 0
4.7360005 -2.0482562 0.22410981 0
4.7300005 -2.0532959 0.22435874 0
4.7250004 -2.0587795 0.22456619 0
4.7200003 -2.064245 0.22477363 0
4.7140002 -2.0692234 0.22502257 0
4.7090001 -2.074651 0.22522999 0
4.7040005 -2.0800607 0.22543742 0
4.6980004 -2.0849781 0.22568636 0
4.6930003 -2.0903497 0.2258938 0
4.6870003 -2.0952253 0.22614272 0
4.6820002 -2.100559 0.22635016 0
4.6770005 -2.1058753 0.22655758 0
4.6720004 -2.1111729 0.22676504 0
4.6660004 -2.1159675 0.22701396 0
4.6610003 -2.1212273 0.2272214 0
4.6560001 -2.1264689 0.22742884 0
4.6510005 -2.1316931 0.22763626 0
4.6450005 -2.1364064 0.22788519 0
4.6400003 -2.1415923 0.22809264 0
4.6350002 -2.14676 0.22830006 0
4.6300001 -2.1519098 0.22850752 0
4.6250005 -2.1570418 0.22871494 0
4.6190004 -2.1616542 0.22896387 0
4.6140003 -2.166748 0.22917131 0
4.6090002 -2.171824 0.22937876 0
4.6040001 -2.1768818 0.2295862 0
4.5990005 -2.1819217 0.22979361 0
4.5940003 -2.1869438 0.23000106 0
4.5890002 -2.1919472 0.23020852 0
4.5840001 -2.196933 0.23041594 0
4.5790005 -2.201901 0.23062336 0
4.5730004 -2.2063329 0.2308723 0
4.5680003 -2.2112625 0.23107974 0
4.5630002 -2.2161744 0.23128718 0
4.5580001 -2.2210679 0.23149462 0
4.5530005 -2.2259438 0.23170206 0
4.5480003 -2.2308013 0.23190948 0
4.5430002 -2.235641 0.23211694 0
4.5380001 -2.2404625 0.23232438 0
4.5340004 -2.2457981 0.23249032 0
4.5290003 -2.2505856 0.23269776 0
4.5240002 -2.2553546 0.23290519 0
4.5190001 -2.2601061 0.23311265 0
4.5140004 -2.2648392 0.23332006 0
4.5090003 -2.2695544 0.23352751 0
4.5040002 -2.2742515 0.23373497 0
4.4990001 -2.2789304 0.23394239 0
4.4940004 -2.2835917 0.23414981 0
4.4890003 -2.2882347 0.23435727 0
4.4850001 -2.2934098 0.23452322 0
4.4800005 -2.2980187 0.23473063 0
4.4750004 -2.3026094 0.23493809 0
4.4700003 -2.3071818 0.23514554 0
4.4650002 -2.3117363 0.23535296 0
4.4610004 -2.3168323 0.2355189 0
4.4560003 -2.3213525 0.23572636 0
4.4510002 -2.3258548 0.2359338 0
4.4460001 -2.330339 0.23614123 0
4.4420004 -2.335372 0.23630717 0
4.4370003 -2.3398218 0.23651461 0
4.4320002 -2.3442538 0.23672207 0
4.4270005 -2.3486676 0.23692948 0
4.4230003 -2.3536372 0.23709543 0
4.9890003 -1.8008673 0.2053358 0
4.9830003 -1.8068397 0.20559554 0
4.9770002 -1.8127904 0.20585528 0
4.9710002 -1.8187195 0.20611504 0
4.9650002 -1.824627 0.20637479 0
4.9590001 -1.8305128 0.20663454 0
4.9530005 -1.8363771 0.20689426 0
4.9470005 -1.8422197 0.20715402 0
4.9410005 -1.8480406 0.20741378 0
4.9350004 -1.8538398 0.20767352 0
4.9290004 -1.8596174 0.20793328 0
4.9230003 -1.8653733 0.20819303 0
4.9170003 -1.8711076 0.20845278 0
4.9120002 -1.8772261 0.20866923 0
4.9060001 -1.8829188 0.20892899 0
4.9000001 -1.88859 0.20918873 0
4.8940005 -1.8942397 0.20944846 0
4.8880005 -1.8998675 0.20970821 0
4.8820004 -1.9054738 0.20996797 0
4.8760004 -1.9110583 0.21022771 0
4.8710003 -1.9170399 0.21044418 0
4.8650002 -1.922583 0.21070392 0
4.8590002 -1.9281043 0.21096367 0
4.8530002 -1.933604 0.21122342 0
4.8480005 -1.9395082 0.21143986 0
4.8420005 -1.9449666 0.21169962 0
4.8360004 -1.9504031 0.21195938 0
4.8300004 -1.9558179 0.21221912 0
4.8250003 -1.9616443 0.21243557 0
4.8190002 -1.9670178 0.21269533 0
4.8140001 -1.9728062 0.21291178 0
4.8080001 -1.9781383 0.21317154 0
4.8020005 -1.983449 0.21343127 0
4.7970004 -1.9891796 0.21364774 0
4.7910004 -1.9944484 0.2139075 0
4.7850003 -1.9996958 0.21416724 0
4.7800002 -2.0053685 0.21438369 0
4.7740002 -2.0105743 0.21464345 0
4.7690005 -2.0162096 0.21485989 0
4.7630005 -2.021374 0.21511964 0
4.7580004 -2.0269711 0.2153361 0
4.7520003 -2.0320938 0.21559586 0
4.7470002 -2.0376532 0.21581231 0
4.7410002 -2.0427346 0.21607205 0
4.7360005 -2.0482562 0.21628851 0
4.7300005 -2.0532959 0.21654825 0
4.7250004 -2.0587795 0.21676472 0
4.7200003 -2.064245 0.21698117 0
4.7140002 -2.0692234 0.21724093 0
4.7090001 -2.074651 0.21745738 0
4.7040005 -2.0800607 0.21767384 0
4.6980004 -2.0849781 0.21793358 0
4.6930003 -2.0903497 0.21815005 0
4.6870003 -2.0952253 0.21840981 0
4.6820002 -2.100559 0.21862625 0
4.6770005 -2.1058753 0.2188427 0
4.6720004 -2.1111729 0.21905915 0
4.6660004 -2.1159675 0.21931891 0
4.6610003 -2.1212273 0.21953537 0
4.6560001 -2.1264689 0.21975183 0
4.6510005 -2.1316931 0.21996827 0
4.6450005 -2.1364064 0.22022803 0
4.6400003 -2.1415923 0.22044449 0
4.6350002 -2.14676 0.22066095 0
4.6300001 -2.1519098 0.22087741 0
4.6250005 -2.1570418 0.22109385 0
4.6190004 -2.1616542 0.22135359 0
4.6140003 -2.166748 0.22157007 0
4.6090002 -2.171824 0.22178651 0
4.6040001 -2.1768818 0.222003 0
4.5990005 -2.1819217 0.22221942 0
4.5940003 -2.1869438 0.22243589 0
4.5890002 -2.1919472 0.22265235 0
4.5840001 -2.196933 0.22286882 0
4.5790005 -2.201901 0.22308527 0
4.5730004 -2.2063329 0.22334501 0
4.5680003 -2.2112625 0.22356147 0
4.5630002 -2.2161744 0.22377793 0
4.5580001 -2.2210679 0.22399439 0
4.5530005 -2.2259438 0.22421083 0
4.5480003 -2.2308013 0.2244273 0
4.5430002 -2.235641 0.22464375 0
4.5380001 -2.2404625 0.22486022 0
4.5340004 -2.2457981 0.22503337 0
4.5290003 -2.2505856 0.22524983 0
4.5240002 -2.2553546 0.2254663 0
4.5190001 -2.2601061 0.22568275 0
4.5140004 -2.2648392 0.2258992 0
4.5090003 -2.2695544 0.22611566 0
4.5040002 -2.2742515 0.22633213 0
4.4990001 -2.2789304 0.22654858 0
4.4940004 -2.2835917 0.22676502 0
4.4890003 -2.2882347 0.22698149 0
4.4850001 -2.2934098 0.22715466 0
4.4800005 -2.2980187 0.2273711 0
4.4750004 -2.3026094 0.22758757 0
4.4700003 -2.3071818 0.22780402 0
4.4650002 -2.3117363 0.22802049 0
4.4610004 -2.3168323 0.22819366 0
4.4560003 -2.3213525 0.22841009 0
4.4510002 -2.3258548 0.22862658 0
4.4460001 -2.330339 0.22884302 0
4.4420004 -2.335372 0.22901617 0
4.4370003 -2.3398218 0.22923265 0
4.4320002 -2.3442538 0.22944909 0
4.4270005 -2.3486676 0.22966555 0
4.4230003 -2.3536372 0.22983873 0
4.9890003 -1.8008673 0.19705811 0
4.9830003 -1.8068397 0.19732869 0
4.9770002 -1.8127904 0.19759926 0
4.9710002 -1.8187195 0.19786984 0
4.9650002 -1.824627 0.19814041 0
4.9590001 -1.8305128 0.19841099 0
4.9530005 -1.8363771 0.19868153 0
4.9470005 -1.8422197 0.19895211 0
4.9410005 -1.8480406 0.19922268 0
4.9350004 -1.8538398 0.19949324 0
4.9290004 -1.8596174 0.19976382 0
4.9230003 -1.8653733 0.20003439 0
4.9170003 -1.8711076 0.20030497 0
4.9120002 -1.8772261 0.20053045 0
4.9060001 -1.8829188 0.20080103 0
4.9000001 -1.88859 0.20107159 0
4.8940005 -1.8942397 0.20134215 0
4.8880005 -1.8998675 0.20161271 0
4.8820004 -1.9054738 0.20188329 0
4.8760004 -1.9110583 0.20215386 0
4.8710003 -1.9170399 0.20237936 0
4.8650002 -1.922583 0.20264994 0
4.8590002 -1.9281043 0.2029205 0
4.8530002 -1.933604 0.20319106 0
4.8480005 -1.9395082 0.20341653 0
4.8420005 -1.9449666 0.2036871 0
4.8360004 -1.9504031 0.20395768 0
4.8300004 -1.9558179 0.20422825 0
4.8250003 -1.9616443 0.20445372 0
4.8190002 -1.9670178 0.2047243 0
4.8140001 -1.9728062 0.20494978 0
4.8080001 -1.9781383 0.20522036 0
4.8020005 -1.983449 0.2054909 0
4.7970004 -1.9891796 0.20571639 0
4.7910004 -1.9944484 0.20598696 0
4.7850003 -1.9996958 0.20625754 0
4.7800002 -2.0053685 0.20648302 0
4.7740002 -2.0105743 0.2067536 0
4.7690005 -2.0162096 0.20697905 0
4.7630005 -2.021374 0.20724961 0
4.7580004 -2.0269711 0.20747511 0
4.7520003 -2.0320938 0.20774569 0
4.7470002 -2.0376532 0.20797116 0
4.7410002 -2.0427346 0.20824173 0
4.7360005 -2.0482562 0.2084672 0
4.7300005 -2.0532959 0.20873778 0
4.7250004 -2.0587795 0.20896325 0
4.7200003 -2.064245 0.20918871 0
4.7140002 -2.0692234 0.20945929 0
4.7090001 -2.074651 0.20968479 0
4.7040005 -2.0800607 0.20991024 0
4.6980004 -2.0849781 0.2101808 0
4.6930003 -2.0903497 0.2104063 0
4.6870003 -2.0952253 0.21067686 0
4.6820002 -2.100559 0.21090235 0
4.6770005 -2.1058753 0.2111278 0
4.6720004 -2.1111729 0.21135329 0
4.6660004 -2.1159675 0.21162386 0
4.6610003 -2.1212273 0.21184935 0
4.6560001 -2.1264689 0.21207483 0
4.6510005 -2.1316931 0.21230029 0
4.6450005 -2.1364064 0.21257086 0
4.6400003 -2.1415923 0.21279633 0
4.6350002 -2.14676 0.21302183 0
4.6300001 -2.1519098 0.2132473 0
4.6250005 -2.1570418 0.21347277 0
4.6190004 -2.1616542 0.21374334 0
4.6140003 -2.166748 0.21396881 0
4.6090002 -2.171824 0.2141943 0
4.6040001 -2.1768818 0.21441978 0
4.5990005 -2.1819217 0.21464524 0
4.5940003 -2.1869438 0.21487072 0
4.5890002 -2.1919472 0.21509619 0
4.5840001 -2.196933 0.21532169 0
4.5790005 -2.201901 0.21554714 0
4.5730004 -2.2063329 0.2158177 0
4.5680003 -2.2112625 0.2160432 0
4.5630002 -2.2161744 0.21626867 0
4.5580001 -2.2210679 0.21649416 0
4.5530005 -2.2259438 0.21671961 0
4.5480003 -2.2308013 0.2169451 0
4.5430002 -2.235641 0.21717058 0
4.5380001 -2.2404625 0.21739607 0
4.5340004 -2.2457981 0.21757643 0
4.5290003 -2.2505856 0.21780191 0
4.5240002 -2.2553546 0.2180274 0
4.5190001 -2.2601061 0.21825287 0
4.5140004 -2.2648392 0.21847834 0
4.5090003 -2.2695544 0.21870381 0
4.5040002 -2.2742515 0.21892929 0
4.4990001 -2.2789304 0.21915478 0
4.4940004 -2.2835917 0.21938024 0
4.4890003 -2.2882347 0.21960571 0
4.4850001 -2.2934098 0.21978611 0
4.4800005 -2.2980187 0.22001156 0
4.4750004 -2.3026094 0.22023705 0
4.4700003 -2.3071818 0.22046252 0
4.4650002 -2.3117363 0.22068802 0
4.4610004 -2.3168323 0.22086838 0
4.4560003 -2.3213525 0.22109385 0
4.4510002 -2.3258548 0.22131935 0
4.4460001 -2.330339 0.22154482 0
4.4420004 -2.335372 0.22172518 0
4.4370003 -2.3398218 0.22195067 0
4.4320002 -2.3442538 0.22217615 0
4.4270005 -2.3486676 0.2224016 0
4.4230003 -2.3536372 0.222582 0
4.9890003 -1.8008673 0.18878044 0
4.9830003 -1.8068397 0.18906184 0
4.9770002 -1.8127904 0.18934323 0
4.9710002 -1.8187195 0.18962462 0
4.9650002 -1.824627 0.18990602 0
4.9590001 -1.8305128 0.19018742 0
4.9530005 -1.8363771 0.19046879 0
4.9470005 -1.8422197 0.1907502 0
4.9410005 -1.8480406 0.19103159 0
4.9350004 -1.8538398 0.19131297 0
4.9290004 -1.8596174 0.19159438 0
4.9230003 -1.8653733 0.19187577 0
4.9170003 -1.8711076 0.19215718 0
4.9120002 -1.8772261 0.19239166 0
4.9060001 -1.8829188 0.19267307 0
4.9000001 -1.88859 0.19295447 0
4.8940005 -1.8942397 0.19323584 0
4.8880005 -1.8998675 0.19351722 0
4.8820004 -1.9054738 0.19379862 0
4.8760004 -1.9110583 0.19408002 0
4.8710003 -1.9170399 0.19431452 0
4.8650002 -1.922583 0.19459592 0
4.8590002 -1.9281043 0.19487731 0
4.8530002 -1.933604 0.19515872 0
4.8480005 -1.9395082 0.19539319 0
4.8420005 -1.9449666 0.19567458 0
4.8360004 -1.9504031 0.19595599 0
4.8300004 -1.9558179 0.19623737 0
4.8250003 -1.9616443 0.19647188 0
4.8190002 -1.9670178 0.19675328 0
4.8140001 -1.9728062 0.19698778 0
4.8080001 -1.9781383 0.19726917 0
4.8020005 -1.983449 0.19755055 0
4.7970004 -1.9891796 0.19778505 0
4.7910004 -1.9944484 0.19806644 0
4.7850003 -1.9996958 0.19834784 0
4.7800002 -2.0053685 0.19858234 0
4.7740002 -2.0105743 0.19886374 0
4.7690005 -2.0162096 0.19909821 0
4.7630005 -2.021374 0.19937961 0
4.7580004 -2.0269711 0.19961411 0
4.7520003 -2.0320938 0.1998955 0
4.7470002 -2.0376532 0.20013 0
4.7410002 -2.0427346 0.20041139 0
4.7360005 -2.0482562 0.20064588 0
4.7300005 -2.0532959 0.20092727 0
4.7250004 -2.0587795 0.20116179 0
4.7200003 -2.064245 0.20139627 0
4.7140002 -2.0692234 0.20167768 0
4.7090001 -2.074651 0.20191218 0
4.7040005 -2.0800607 0.20214665 0
4.6980004 -2.0849781 0.20242804 0
4.6930003 -2.0903497 0.20266254 0
4.6870003 -2.0952253 0.20294394 0
4.6820002 -2.100559 0.20317845 0
4.6770005 -2.1058753 0.20341292 0
4.6720004 -2.1111729 0.20364742 0
4.6660004 -2.1159675 0.20392881 0
4.6610003 -2.1212273 0.20416331 0
4.6560001 -2.1264689 0.20439783 0
4.6510005 -2.1316931 0.2046323 0
4.6450005 -2.1364064 0.20491369 0
4.6400003 -2.1415923 0.20514819 0
4.6350002 -2.14676 0.2053827 0
4.6300001 -2.1519098 0.20561719 0
4.6250005 -2.1570418 0.20585167 0
4.6190004 -2.1616542 0.20613307 0
4.6140003 -2.166748 0.20636757 0
4.6090002 -2.171824 0.20660207 0
4.6040001 -2.1768818 0.20683657 0
4.5990005 -2.1819217 0.20707104 0
4.5940003 -2.1869438 0.20730555 0
4.5890002 -2.1919472 0.20754005 0
4.5840001 -2.196933 0.20777455 0
4.5790005 -2.201901 0.20800903 0
4.5730004 -2.2063329 0.20829043 0
4.5680003 -2.2112625 0.20852493 0
4.5630002 -2.2161744 0.20875941 0
4.5580001 -2.2210679 0.20899393 0
4.5530005 -2.2259438 0.2092284 0
4.5480003 -2.2308013 0.2094629 0
4.5430002 -2.235641 0.20969741 0
4.5380001 -2.2404625 0.20993191 0
4.5340004 -2.2457981 0.21011949 0
4.5290003 -2.2505856 0.21035399 0
4.5240002 -2.2553546 0.21058849 0
4.5190001 -2.2601061 0.21082298 0
4.5140004 -2.2648392 0.21105747 0
4.5090003 -2.2695544 0.21129197 0
4.5040002 -2.2742515 0.21152647 0
4.4990001 -2.2789304 0.21176097 0
4.4940004 -2.2835917 0.21199545 0
4.4890003 -2.2882347 0.21222995 0
4.4850001 -2.2934098 0.21241756 0
4.4800005 -2.2980187 0.21265203 0
4.4750004 -2.3026094 0.21288653 0
4.4700003 -2.3071818 0.21312103 0
4.4650002 -2.3117363 0.21335553 0
4.4610004 -2.3168323 0.21354312 0
4.4560003 -2.3213525 0.2137776 0
4.4510002 -2.3258548 0.21401212 0
4.4460001 -2.330339 0.21424662 0
4.4420004 -2.335372 0.21443419 0
4.4370003 -2.3398218 0.21466869 0
4.4320002 -2.3442538 0.21490319 0
4.4270005 -2.3486676 0.21513768 0
4.4230003 -2.3536372 0.21532528 0
4.9890003 -1.8008673 0.18050276 0
