# .PCD v0.7 - Point Cloud Data file format
VERSION 0.7
FIELDS x y z intensity
SIZE 4 4 4 4
TYPE F F F F
COUNT 1 1 1 1
WIDTH 1378
HEIGHT 1
VIEWPOINT 0 0 0 1 0 0 0
POINTS 1378
DATA ascii
2.8620002 0.020614635 0.48393756 0
2.8630002 0.016198918 0.48397005 0
2.8630002 0.011756133 0.48397005 0
2.8640003 0.0073350035 0.48400253 0
2.8640003 0.0028904192 0.48400253 0
2.8650002 -0.0015361272 0.48403499 0
2.8650002 -0.0059825145 0.48403499 0
2.8660002 -0.01041447 0.48406744 0
2.8660002 -0.014862662 0.48406744 0
2.8660002 -0.019310854 0.48406744 0
2.8670001 -0.023750026 0.48409992 0
2.8670001 -0.028200021 0.48409992 0
2.8680003 -0.032644603 0.48413241 0
2.8680003 -0.037096404 0.48413241 0
2.8690002 -0.041546397 0.48416486 0
2.8690002 -0.046 0.48416486 0
2.8700001 -0.050455406 0.48419732 0
2.8700001 -0.054910813 0.48419732 0
2.8710003 -0.059371632 0.4842298 0
2.8710003 -0.063828841 0.4842298 0
2.9180002 -0.086877897 0.4857558 0
2.9050002 -0.091185391 0.48533374 0
2.8990002 -0.095584884 0.48513892 0
2.8930001 -0.099962726 0.48494411 0
2.8890002 -0.10436583 0.48481423 0
2.8860002 -0.10877974 0.48471683 0
2.8840003 -0.11320989 0.48465189 0
2.8820002 -0.11763284 0.48458695 0
2.8800001 -0.12204856 0.48452201 0
2.8790002 -0.12648953 0.48448956 0
2.8780003 -0.13092691 0.48445708 0
2.8780003 -0.13539673 0.48445708 0
2.8780003 -0.13986658 0.48445708 0
2.8790002 -0.1443761 0.48448956 0
2.8800001 -0.14888921 0.48452201 0
2.8820002 -0.15344925 0.48458695 0
2.8840003 -0.1580165 0.48465189 0
2.8860002 -0.16259095 0.48471683 0
2.8900001 -0.16727003 0.48484671 0
2.8940003 -0.17196354 0.48497659 0
2.9000001 -0.1767761 0.48517138 0
2.9100003 -0.18182676 0.48549607 0
2.9030001 -0.29883617 0.48526877 0
2.8810003 -0.30108917 0.48455447 0
2.8700001 -0.30441356 0.48419732 0
2.8700001 -0.30886894 0.48419732 0
2.8710003 -0.3134326 0.4842298 0
2.8710003 -0.31788984 0.4842298 0
2.8720002 -0.32245886 0.48426226 0
2.8720002 -0.32691789 0.48426226 0
2.8730001 -0.33149233 0.48429471 0
2.8730001 -0.33595318 0.48429471 0
2.8740003 -0.34053305 0.4843272 0
2.8700001 0.23023519 0.47974193 0
2.8620002 0.22489953 0.4794966 0
2.8580003 0.22002563 0.47937393 0
2.8540003 0.21516618 0.4792513 0
2.8510003 0.21042579 0.4791593 0
2.8490002 0.20579898 0.47909796 0
2.8480003 0.20128047 0.4790673 0
2.8460002 0.1966663 0.47900596 0
2.8460002 0.19225419 0.47900596 0
2.8460002 0.18784207 0.47900596 0
2.8460002 0.18342997 0.47900596 0
2.8460002 0.17901786 0.47900596 0
2.8470001 0.17469592 0.47903663 0
2.8470001 0.17028201 0.47903663 0
2.8480003 0.16595469 0.4790673 0
2.8480003 0.16153896 0.4790673 0
2.8490002 0.15720621 0.47909796 0
2.8490002 0.15278868 0.47909796 0
2.8490002 0.14837116 0.47909796 0
2.8500001 0.14403118 0.47912863 0
2.8500001 0.13961186 0.47912863 0
2.8510003 0.1352665 0.4791593 0
2.8510003 0.13084537 0.4791593 0
2.8520002 0.12649457 0.47918996 0
2.8520002 0.12207162 0.47918996 0
2.8530002 0.11771543 0.47922063 0
2.8530002 0.11329068 0.47922063 0
2.8530002 0.10886595 0.47922063 0
2.8540003 0.10450254 0.4792513 0
2.8540003 0.100076 0.4792513 0
2.8550003 0.095707178 0.47928196 0
2.8550003 0.091278821 0.47928196 0
2.8560002 0.086904585 0.4793126 0
2.8560002 0.082474425 0.4793126 0
2.8570001 0.07809478 0.4793433 0
2.8570001 0.073662817 0.4793433 0
2.8570001 0.069230869 0.4793433 0
2.8580003 0.064844012 0.47937393 0
2.8580003 0.060410257 0.47937393 0
2.8590002 0.056017984 0.4794046 0
2.8590002 0.051582422 0.4794046 0
2.8600001 0.047184732 0.47943527 0
2.8600001 0.04274736 0.47943527 0
2.8610003 0.038344268 0.47946593 0
2.8610003 0.0339051 0.47946593 0
2.8610003 0.029465925 0.47946593 0
2.8620002 0.025055613 0.4794966 0
2.8620002 0.020614635 0.4794966 0
2.8630002 0.016198918 0.47952726 0
2.8630002 0.011756133 0.47952726 0
2.8640003 0.0073350035 0.47955793 0
2.8640003 0.0028904192 0.47955793 0
2.8650002 -0.0015361272 0.4795886 0
2.8650002 -0.0059825145 0.4795886 0
2.8650002 -0.010428902 0.4795886 0
2.8660002 -0.014862662 0.47961926 0
2.8660002 -0.019310854 0.47961926 0
2.8670001 -0.023750026 0.47964993 0
2.8670001 -0.028200021 0.47964993 0
2.8680003 -0.032644603 0.4796806 0
2.8680003 -0.037096404 0.4796806 0
2.8690002 -0.041546397 0.47971126 0
2.8690002 -0.046 0.47971126 0
2.8690002 -0.050453603 0.47971126 0
2.8700001 -0.054910813 0.47974193 0
2.8700001 -0.059366219 0.47974193 0
2.8710003 -0.063828841 0.4797726 0
2.9180002 -0.086877897 0.48121384 0
2.9050002 -0.091185391 0.48081517 0
2.8990002 -0.095584884 0.4806312 0
2.8930001 -0.099962726 0.4804472 0
2.8890002 -0.10436583 0.48032454 0
2.8860002 -0.10877974 0.48023257 0
2.8840003 -0.11320989 0.48017123 0
2.8820002 -0.11763284 0.4801099 0
2.8800001 -0.12204856 0.48004857 0
2.8790002 -0.12648953 0.4800179 0
2.8780003 -0.13092691 0.47998723 0
2.8780003 -0.13539673 0.47998723 0
2.8780003 -0.13986658 0.47998723 0
2.8790002 -0.1443761 0.4800179 0
2.8800001 -0.14888921 0.48004857 0
2.8820002 -0.15344925 0.4801099 0
2.8840003 -0.1580165 0.48017123 0
2.8860002 -0.16259095 0.48023257 0
2.8900001 -0.16727003 0.4803552 0
2.8940003 -0.17196354 0.48047787 0
2.9000001 -0.1767761 0.48066187 0
2.9100003 -0.18182676 0.48096853 0
2.9030001 -0.29883617 0.48075384 0
2.8810003 -0.30108917 0.48007923 0
2.8700001 -0.30441356 0.47974193 0
2.8700001 -0.30886894 0.47974193 0
2.8710003 -0.3134326 0.4797726 0
2.8710003 -0.31788984 0.4797726 0
2.8720002 -0.32245886 0.47980326 0
2.8720002 -0.32691789 0.47980326 0
2.8730001 -0.33149233 0.4798339 0
2.8730001 -0.33595318 0.4798339 0
2.8740003 -0.34053305 0.4798646 0
2.8700001 0.23023519 0.47528651 0
2.8620002 0.22489953 0.47505563 0
2.8580003 0.22002563 0.47494018 0
2.8540003 0.21516618 0.47482473 0
2.8510003 0.21042579 0.47473815 0
2.8490002 0.20579898 0.47468042 0
2.8480003 0.20128047 0.47465158 0
2.8470001 0.19676553 0.47462273 0
2.8460002 0.19225419 0.47459385 0
2.8460002 0.18784207 0.47459385 0
2.8460002 0.18342997 0.47459385 0
2.8470001 0.17910986 0.47462273 0
2.8470001 0.17469592 0.47462273 0
2.8480003 0.17037041 0.47465158 0
2.8480003 0.16595469 0.47465158 0
2.8490002 0.16162373 0.47468042 0
2.8490002 0.15720621 0.47468042 0
2.8490002 0.15278868 0.47468042 0
2.8500001 0.14845052 0.4747093 0
2.8500001 0.14403118 0.4747093 0
2.8510003 0.13968763 0.47473815 0
2.8510003 0.1352665 0.47473815 0
2.8520002 0.1309175 0.47476703 0
2.8520002 0.12649457 0.47476703 0
2.8530002 0.12214018 0.47479588 0
2.8530002 0.11771543 0.47479588 0
2.8530002 0.11329068 0.47479588 0
2.8540003 0.1089291 0.47482473 0
2.8540003 0.10450254 0.47482473 0
2.8550003 0.10013552 0.47485361 0
2.8550003 0.095707178 0.47485361 0
2.8560002 0.09133473 0.47488245 0
2.8560002 0.086904585 0.47488245 0
2.8570001 0.082526729 0.47491133 0
2.8570001 0.07809478 0.47491133 0
2.8570001 0.073662817 0.47491133 0
2.8580003 0.069277778 0.47494018 0
2.8580003 0.064844012 0.47494018 0
2.8590002 0.060453545 0.47496903 0
2.8590002 0.056017984 0.47496903 0
2.8600001 0.051622104 0.47499791 0
2.8600001 0.047184732 0.47499791 0
2.8610003 0.042783443 0.47502679 0
2.8610003 0.038344268 0.47502679 0
2.8610003 0.0339051 0.47502679 0
2.8620002 0.029496592 0.47505563 0
2.8620002 0.025055613 0.47505563 0
2.8630002 0.020641688 0.47508448 0
2.8630002 0.016198918 0.47508448 0
2.8640003 0.011779584 0.47511336 0
2.8640003 0.0073350035 0.47511336 0
2.8650002 0.0029102601 0.47514221 0
2.8650002 -0.0015361272 0.47514221 0
2.8650002 -0.0059825145 0.47514221 0
2.8660002 -0.01041447 0.47517109 0
2.8660002 -0.014862662 0.47517109 0
2.8670001 -0.019300032 0.47519994 0
2.8670001 -0.023750026 0.47519994 0
2.8680003 -0.028192805 0.47522879 0
2.8680003 -0.032644603 0.47522879 0
2.8690002 -0.037092794 0.47525766 0
2.8690002 -0.041546397 0.47525766 0
2.8690002 -0.046 0.47525766 0
2.8700001 -0.050455406 0.47528651 0
2.8700001 -0.054910813 0.47528651 0
2.8710003 -0.059371632 0.47531539 0
2.8710003 -0.063828841 0.47531539 0
2.9180002 -0.086877897 0.47667184 0
2.9050002 -0.091185391 0.47629666 0
2.8990002 -0.095584884 0.47612348 0
2.8930001 -0.099962726 0.4759503 0
2.8890002 -0.10436583 0.47583488 0
2.8860002 -0.10877974 0.4757483 0
2.8840003 -0.11320989 0.47569057 0
2.8820002 -0.11763284 0.47563285 0
2.8800001 -0.12204856 0.47557512 0
2.8790002 -0.12648953 0.47554627 0
2.8780003 -0.13092691 0.47551739 0
2.8780003 -0.13539673 0.47551739 0
2.8780003 -0.13986658 0.47551739 0
2.8790002 -0.1443761 0.47554627 0
2.8800001 -0.14888921 0.47557512 0
2.8820002 -0.15344925 0.47563285 0
2.8840003 -0.1580165 0.47569057 0
2.8860002 -0.16259095 0.4757483 0
2.8900001 -0.16727003 0.47586372 0
2.8940003 -0.17196354 0.47597918 0
2.9000001 -0.1767761 0.47615233 0
2.9100003 -0.18182676 0.47644097 0
2.9030001 -0.29883617 0.47623891 0
2.8810003 -0.30108917 0.475604 0
2.8700001 -0.30441356 0.47528651 0
2.8700001 -0.30886894 0.47528651 0
2.8710003 -0.3134326 0.47531539 0
2.8710003 -0.31788984 0.47531539 0
2.8720002 -0.32245886 0.47534424 0
2.8720002 -0.32691789 0.47534424 0
2.8730001 -0.33149233 0.47537309 0
2.8730001 -0.33595318 0.47537309 0
2.8740003 -0.34053305 0.47540197 0
2.8700001 0.23023519 0.4708311 0
2.8620002 0.22489953 0.47061464 0
2.8580003 0.22002563 0.47050643 0
2.8540003 0.21516618 0.47039819 0
2.8510003 0.21042579 0.47031704 0
2.8490002 0.20579898 0.47026291 0
2.8480003 0.20128047 0.47023585 0
2.8470001 0.19676553 0.47020879 0
2.8460002 0.19225419 0.47018173 0
2.8460002 0.18784207 0.47018173 0
2.8460002 0.18342997 0.47018173 0
2.8470001 0.17910986 0.47020879 0
2.8470001 0.17469592 0.47020879 0
2.8480003 0.17037041 0.47023585 0
2.8490002 0.16604125 0.47026291 0
2.8490002 0.16162373 0.47026291 0
2.8500001 0.15728918 0.47028995 0
2.8500001 0.15286985 0.47028995 0
2.8510003 0.1485299 0.47031704 0
2.8510003 0.14410876 0.47031704 0
2.8510003 0.13968763 0.47031704 0
2.8520002 0.13534045 0.47034407 0
2.8520002 0.1309175 0.47034407 0
2.8530002 0.12656491 0.47037113 0
2.8530002 0.12214018 0.47037113 0
2.8540003 0.11778219 0.47039819 0
2.8540003 0.11335564 0.47039819 0
2.8550003 0.10899222 0.47042525 0
2.8550003 0.10456388 0.47042525 0
2.8550003 0.10013552 0.47042525 0
2.8560002 0.09576489 0.47045231 0
2.8560002 0.09133473 0.47045231 0
2.8570001 0.086958691 0.47047937 0
2.8570001 0.082526729 0.47047937 0
2.8580003 0.078145295 0.47050643 0
2.8580003 0.073711544 0.47050643 0
2.8580003 0.069277778 0.47050643 0
2.8590002 0.064889103 0.47053349 0
2.8590002 0.060453545 0.47053349 0
2.8600001 0.056059469 0.47056055 0
2.8600001 0.051622104 0.47056055 0
2.8610003 0.047222618 0.47058761 0
2.8610003 0.042783443 0.47058761 0
2.8620002 0.03837854 0.47061464 0
2.8620002 0.033937562 0.47061464 0
2.8620002 0.029496592 0.47061464 0
2.8630002 0.025084469 0.4706417 0
2.8630002 0.020641688 0.4706417 0
2.8640003 0.016224168 0.47066876 0
2.8640003 0.011779584 0.47066876 0
2.8650002 0.0073566474 0.47069582 0
2.8650002 0.0029102601 0.47069582 0
2.8660002 -0.001518093 0.47072288 0
2.8660002 -0.0059662834 0.47072288 0
2.8660002 -0.01041447 0.47072288 0
2.8670001 -0.014850035 0.47074994 0
2.8670001 -0.019300032 0.47074994 0
2.8680003 -0.023741005 0.470777 0
2.8680003 -0.028192805 0.470777 0
2.8690002 -0.032639191 0.47080404 0
2.8690002 -0.037092794 0.47080404 0
2.8700001 -0.041544594 0.4708311 0
2.8700001 -0.046 0.4708311 0
2.8700001 -0.050455406 0.4708311 0
2.8710003 -0.054914422 0.47085816 0
2.8710003 -0.059371632 0.47085816 0
2.8720002 -0.063836053 0.47088522 0
2.9180002 -0.086877897 0.47212985 0
2.9050002 -0.091185391 0.47177809 0
2.8990002 -0.095584884 0.47161576 0
2.8930001 -0.099962726 0.47145343 0
2.8890002 -0.10436583 0.47134519 0
2.8860002 -0.10877974 0.471264 0
2.8840003 -0.11320989 0.47120991 0
2.8820002 -0.11763284 0.47115579 0
2.8800001 -0.12204856 0.47110167 0
2.8790002 -0.12648953 0.47107464 0
2.8780003 -0.13092691 0.47104758 0
2.8780003 -0.13539673 0.47104758 0
2.8780003 -0.13986658 0.47104758 0
2.8790002 -0.1443761 0.47107464 0
2.8800001 -0.14888921 0.47110167 0
2.8820002 -0.15344925 0.47115579 0
2.8840003 -0.1580165 0.47120991 0
2.8860002 -0.16259095 0.471264 0
2.8900001 -0.16727003 0.47137225 0
2.8940003 -0.17196354 0.47148049 0
2.9000001 -0.1767761 0.47164282 0
2.9100003 -0.18182676 0.4719134 0
2.9030001 -0.29883617 0.471724 0
2.8810003 -0.30108917 0.47112873 0
2.8700001 -0.30441356 0.4708311 0
2.8700001 -0.30886894 0.4708311 0
2.8710003 -0.3134326 0.47085816 0
2.8710003 -0.31788984 0.47085816 0
2.8720002 -0.32245886 0.47088522 0
2.8720002 -0.32691789 0.47088522 0
2.8730001 -0.33149233 0.47091228 0
2.8730001 -0.33595318 0.47091228 0
2.8740003 -0.34053305 0.47093934 0
2.8700001 0.23023519 0.46637571 0
2.8620002 0.22489953 0.46617368 0
2.8580003 0.22002563 0.46607268 0
2.8540003 0.21516618 0.46597165 0
2.8510003 0.21042579 0.46589589 0
2.8490002 0.20579898 0.46584538 0
2.8480003 0.20128047 0.46582013 0
2.8470001 0.19676553 0.46579486 0
2.8460002 0.19225419 0.46576962 0
2.8460002 0.18784207 0.46576962 0
2.8460002 0.18342997 0.46576962 0
2.8470001 0.17910986 0.46579486 0
2.8470001 0.17469592 0.46579486 0
2.8490002 0.17045879 0.46584538 0
2.8500001 0.16612785 0.46587062 0
2.8510003 0.16179329 0.46589589 0
2.8510003 0.15737216 0.46589589 0
2.8510003 0.15295105 0.46589589 0
2.8520002 0.14860927 0.46592113 0
2.8520002 0.14418632 0.46592113 0
2.8530002 0.13983914 0.46594641 0
2.8530002 0.13541441 0.46594641 0
2.8540003 0.13106182 0.46597165 0
2.8540003 0.12663527 0.46597165 0
2.8550003 0.12227727 0.46599692 0
2.8550003 0.11784892 0.46599692 0
2.8550003 0.11342058 0.46599692 0
2.8560002 0.10905536 0.46602216 0
2.8560002 0.1046252 0.46602216 0
2.8570001 0.10025457 0.46604741 0
2.8570001 0.095822603 0.46604741 0
2.8580003 0.091446579 0.46607268 0
2.8580003 0.087012812 0.46607268 0
2.8590002 0.082631364 0.46609792 0
2.8590002 0.07819581 0.46609792 0
2.8590002 0.073760241 0.46609792 0
2.8600001 0.069371566 0.46612316 0
2.8600001 0.064934194 0.46612316 0
2.8610003 0.060540128 0.46614844 0
2.8610003 0.056100961 0.46614844 0
2.8620002 0.051701467 0.46617368 0
2.8620002 0.047260497 0.46617368 0
2.8620002 0.042819519 0.46617368 0
2.8630002 0.038412813 0.46619892 0
2.8630002 0.033970032 0.46619892 0
2.8640003 0.029557925 0.46622419 0
2.8640003 0.02511334 0.46622419 0
2.8650002 0.020695809 0.46624944 0
2.8650002 0.016249422 0.46624944 0
2.8660002 0.011826485 0.46627468 0
2.8660002 0.0073782913 0.46627468 0
2.8660002 0.002930101 0.46627468 0
2.8670001 -0.0015000515 0.46629995 0
2.8670001 -0.0059500486 0.46629995 0
2.8680003 -0.01038561 0.46632519 0
2.8680003 -0.014837408 0.46632519 0
2.8690002 -0.019278385 0.46635044 0
2.8690002 -0.023731988 0.46635044 0
2.8700001 -0.028178375 0.46637571 0
2.8700001 -0.032633781 0.46637571 0
2.8710003 -0.037085578 0.46640095 0
2.8710003 -0.041542791 0.46640095 0
2.8710003 -0.046 0.46640095 0
2.8720002 -0.050459012 0.46642619 0
2.8720002 -0.054918028 0.46642619 0
2.8730001 -0.059382454 0.46645147 0
2.8730001 -0.063843273 0.46645147 0
2.9180002 -0.086877897 0.46758786 0
2.9050002 -0.091185391 0.46725956 0
2.8990002 -0.095584884 0.46710804 0
2.8930001 -0.099962726 0.46695653 0
2.8890002 -0.10436583 0.46685553 0
2.8860002 -0.10877974 0.46677977 0
2.8840003 -0.11320989 0.46672925 0
2.8820002 -0.11763284 0.46667874 0
2.8800001 -0.12204856 0.46662825 0
2.8790002 -0.12648953 0.46660298 0
2.8780003 -0.13092691 0.46657774 0
2.8780003 -0.13539673 0.46657774 0
2.8780003 -0.13986658 0.46657774 0
2.8790002 -0.1443761 0.46660298 0
2.8800001 -0.14888921 0.46662825 0
2.8820002 -0.15344925 0.46667874 0
2.8840003 -0.1580165 0.46672925 0
2.8860002 -0.16259095 0.46677977 0
2.8900001 -0.16727003 0.46688077 0
2.8940003 -0.17196354 0.46698177 0
2.9000001 -0.1767761 0.46713328 0
2.9100003 -0.18182676 0.46738583 0
2.9030001 -0.29883617 0.46720904 0
2.8810003 -0.30108917 0.4666535 0
2.8700001 -0.30441356 0.46637571 0
2.8700001 -0.30886894 0.46637571 0
2.8710003 -0.3134326 0.46640095 0
2.8710003 -0.31788984 0.46640095 0
2.8720002 -0.32245886 0.46642619 0
2.8720002 -0.32691789 0.46642619 0
2.8730001 -0.33149233 0.46645147 0
2.8730001 -0.33595318 0.46645147 0
2.8740003 -0.34053305 0.46647671 0
2.8700001 0.23023519 0.46192029 0
2.8620002 0.22489953 0.46173269 0
2.8580003 0.22002563 0.4616389 0
2.8540003 0.21516618 0.46154511 0
2.8510003 0.21042579 0.46147475 0
2.8490002 0.20579898 0.46142787 0
2.8480003 0.20128047 0.46140441 0
2.8470001 0.19676553 0.46138096 0
2.8460002 0.19225419 0.4613575 0
2.8460002 0.18784207 0.4613575 0
2.8460002 0.18342997 0.4613575 0
2.8470001 0.17910986 0.46138096 0
2.8470001 0.17469592 0.46138096 0
2.8490002 0.17045879 0.46142787 0
2.8510003 0.16621444 0.46147475 0
2.8520002 0.16187806 0.4614982 0
2.8520002 0.15745513 0.4614982 0
2.8530002 0.15311337 0.46152166 0
2.8530002 0.14868863 0.46152166 0
2.8540003 0.14434145 0.46154511 0
2.8540003 0.13991491 0.46154511 0
2.8550003 0.13556232 0.46156856 0
2.8550003 0.13113396 0.46156856 0
2.8560002 0.12677597 0.46159202 0
2.8560002 0.12234581 0.46159202 0
2.8560002 0.11791566 0.46159202 0
2.8570001 0.11355044 0.46161544 0
2.8570001 0.10911848 0.46161544 0
2.8580003 0.10474786 0.4616389 0
2.8580003 0.1003141 0.4616389 0
2.8590002 0.095938057 0.46166235 0
2.8590002 0.091502488 0.46166235 0
2.8590002 0.087066934 0.46166235 0
2.8600001 0.082683682 0.46168581 0
2.8600001 0.07824631 0.46168581 0
2.8610003 0.07385765 0.46170926 0
2.8610003 0.069418475 0.46170926 0
2.8620002 0.065024391 0.46173269 0
2.8620002 0.060583424 0.46173269 0
2.8630002 0.05618393 0.46175614 0
2.8630002 0.051741149 0.46175614 0
2.8630002 0.047298368 0.46175614 0
2.8640003 0.042891677 0.46177959 0
2.8640003 0.038447093 0.46177959 0
2.8650002 0.034034971 0.46180305 0
2.8650002 0.029588584 0.46180305 0
2.8660002 0.02517106 0.4618265 0
2.8660002 0.02072287 0.4618265 0
2.8670001 0.016299929 0.46184993 0
2.8670001 0.011849929 0.46184993 0
2.8670001 0.0073999353 0.46184993 0
2.8680003 0.0029697865 0.46187341 0
2.8680003 -0.0014820099 0.46187341 0
2.8690002 -0.0059175789 0.46189684 0
2.8690002 -0.010371178 0.46189684 0
2.8700001 -0.014812155 0.46192029 0
2.8700001 -0.019267565 0.46192029 0
2.8710003 -0.023713948 0.46194375 0
2.8710003 -0.028171159 0.46194375 0
2.8710003 -0.032628369 0.46194375 0
2.8720002 -0.037081972 0.4619672 0
2.8720002 -0.041540988 0.4619672 0
2.8730001 -0.046 0.46199065 0
2.8730001 -0.050460819 0.46199065 0
2.8740003 -0.054925244 0.46201411 0
2.8740003 -0.059387866 0.46201411 0
2.8750002 -0.063857704 0.46203756 0
2.9180002 -0.086877897 0.46304587 0
2.9050002 -0.091185391 0.46274102 0
2.8990002 -0.095584884 0.46260032 0
2.8930001 -0.099962726 0.46245962 0
2.8890002 -0.10436583 0.46236584 0
2.8860002 -0.10877974 0.46229547 0
2.8840003 -0.11320989 0.46224859 0
2.8820002 -0.11763284 0.46220168 0
2.8800001 -0.12204856 0.46215481 0
2.8790002 -0.12648953 0.46213135 0
2.8780003 -0.13092691 0.4621079 0
2.8780003 -0.13539673 0.4621079 0
2.8780003 -0.13986658 0.4621079 0
2.8790002 -0.1443761 0.46213135 0
2.8800001 -0.14888921 0.46215481 0
2.8820002 -0.15344925 0.46220168 0
2.8840003 -0.1580165 0.46224859 0
2.8860002 -0.16259095 0.46229547 0
2.8900001 -0.16727003 0.46238929 0
2.8940003 -0.17196354 0.46248308 0
2.9000001 -0.1767761 0.46262378 0
2.9100003 -0.18182676 0.46285829 0
2.9030001 -0.29883617 0.46269414 0
2.8810003 -0.30108917 0.46217823 0
2.8700001 -0.30441356 0.46192029 0
2.8700001 -0.30886894 0.46192029 0
2.8710003 -0.3134326 0.46194375 0
2.8710003 -0.31788984 0.46194375 0
2.8720002 -0.32245886 0.4619672 0
2.8720002 -0.32691789 0.4619672 0
2.8730001 -0.33149233 0.46199065 0
2.8730001 -0.33595318 0.46199065 0
2.8740003 -0.34053305 0.46201411 0
2.8700001 0.23023519 0.45746487 0
2.8620002 0.22489953 0.45729172 0
2.8580003 0.22002563 0.45720515 0
2.8540003 0.21516618 0.45711857 0
2.8510003 0.21042579 0.45705363 0
2.8490002 0.20579898 0.45701033 0
2.8480003 0.20128047 0.45698869 0
2.8470001 0.19676553 0.45696703 0
2.8460002 0.19225419 0.45694539 0
2.8460002 0.18784207 0.45694539 0
2.8460002 0.18342997 0.45694539 0
2.8470001 0.17910986 0.45696703 0
2.8470001 0.17469592 0.45696703 0
2.8490002 0.17045879 0.45701033 0
2.8510003 0.16621444 0.45705363 0
2.8530002 0.16196284 0.4570969 0
2.8550003 0.15770407 0.45714021 0
2.8550003 0.15327571 0.45714021 0
2.8560002 0.14892672 0.45716184 0
2.8560002 0.14449657 0.45716184 0
2.8570001 0.14014217 0.45718348 0
2.8570001 0.13571021 0.45718348 0
2.8570001 0.13127826 0.45718348 0
2.8580003 0.12691666 0.45720515 0
2.8580003 0.12248291 0.45720515 0
2.8590002 0.11811587 0.45722678 0
2.8590002 0.11368032 0.45722678 0
2.8600001 0.10930787 0.45724842 0
2.8600001 0.10487051 0.45724842 0
2.8600001 0.10043314 0.45724842 0
2.8610003 0.096053511 0.45727009 0
2.8610003 0.091614336 0.45727009 0
2.8620002 0.087229267 0.45729172 0
2.8620002 0.082788289 0.45729172 0
2.8630002 0.07839784 0.45731336 0
2.8630002 0.073955044 0.45731336 0
2.8640003 0.069559172 0.45733503 0
2.8640003 0.065114588 0.45733503 0
2.8640003 0.060670007 0.45733503 0
2.8650002 0.056266908 0.45735666 0
2.8650002 0.05182052 0.45735666 0
2.8660002 0.047412012 0.4573783 0
2.8660002 0.042963814 0.4573783 0
2.8670001 0.038549904 0.45739996 0
2.8670001 0.034099903 0.45739996 0
2.8680003 0.029680576 0.4574216 0
2.8680003 0.02522878 0.4574216 0
2.8680003 0.020776983 0.4574216 0
2.8690002 0.016350437 0.45744324 0
2.8690002 0.01189683 0.45744324 0
2.8700001 0.0074648708 0.45746487 0
2.8700001 0.0030094683 0.45746487 0
2.8710003 -0.0014278963 0.45748654 0
2.8710003 -0.0058851056 0.45748654 0
2.8720002 -0.010327887 0.45750818 0
2.8720002 -0.014786903 0.45750818 0
2.8720002 -0.019245917 0.45750818 0
2.8730001 -0.023695912 0.45752981 0
2.8730001 -0.028156729 0.45752981 0
2.8740003 -0.032612134 0.45755148 0
2.8740003 -0.037074756 0.45755148 0
2.8750002 -0.041535575 0.45757312 0
2.8750002 -0.046 0.45757312 0
2.8760002 -0.050466228 0.45759475 0
2.8760002 -0.05493246 0.45759475 0
2.8760002 -0.059398688 0.45759475 0
2.8770003 -0.063872129 0.45761642 0
2.9180002 -0.086877897 0.45850387 0
2.9050002 -0.091185391 0.45822248 0
2.8990002 -0.095584884 0.45809263 0
2.8930001 -0.099962726 0.45796275 0
2.8890002 -0.10436583 0.45787615 0
2.8860002 -0.10877974 0.45781124 0
2.8840003 -0.11320989 0.45776793 0
2.8820002 -0.11763284 0.45772463 0
2.8800001 -0.12204856 0.45768136 0
2.8790002 -0.12648953 0.45765969 0
2.8780003 -0.13092691 0.45763806 0
2.8780003 -0.13539673 0.45763806 0
2.8780003 -0.13986658 0.45763806 0
2.8790002 -0.1443761 0.45765969 0
2.8800001 -0.14888921 0.45768136 0
2.8820002 -0.15344925 0.45772463 0
2.8840003 -0.1580165 0.45776793 0
2.8860002 -0.16259095 0.45781124 0
2.8900001 -0.16727003 0.45789781 0
2.8940003 -0.17196354 0.45798439 0
2.9000001 -0.1767761 0.45811427 0
2.9100003 -0.18182676 0.45833072 0
2.9030001 -0.29883617 0.45817921 0
2.8810003 -0.30108917 0.45770299 0
2.8700001 -0.30441356 0.45746487 0
2.8700001 -0.30886894 0.45746487 0
2.8710003 -0.3134326 0.45748654 0
2.8710003 -0.31788984 0.45748654 0
2.8720002 -0.32245886 0.45750818 0
2.8720002 -0.32691789 0.45750818 0
2.8730001 -0.33149233 0.45752981 0
2.8730001 -0.33595318 0.45752981 0
2.8740003 -0.34053305 0.45755148 0
2.8700001 0.23023519 0.45300949 0
2.8620002 0.22489953 0.45285076 0
2.8580003 0.22002563 0.45277137 0
2.8540003 0.21516618 0.45269203 0
2.8510003 0.21042579 0.45263249 0
2.8490002 0.20579898 0.45259279 0
2.8480003 0.20128047 0.45257297 0
2.8470001 0.19676553 0.45255312 0
2.8460002 0.19225419 0.45253327 0
2.8460002 0.18784207 0.45253327 0
2.8460002 0.18342997 0.45253327 0
2.8470001 0.17910986 0.45255312 0
2.8470001 0.17469592 0.45255312 0
2.8490002 0.17045879 0.45259279 0
2.8510003 0.16621444 0.45263249 0
2.8530002 0.16196284 0.45267218 0
2.8560002 0.15778704 0.4527317 0
2.8580003 0.15351923 0.45277137 0
2.8580003 0.14908546 0.45277137 0
2.8590002 0.14472927 0.45279121 0
2.8590002 0.1402937 0.45279121 0
2.8590002 0.13585815 0.45279121 0
2.8600001 0.13149472 0.45281106 0
2.8600001 0.12705736 0.45281106 0
2.8610003 0.12268853 0.45283091 0
2.8610003 0.11824937 0.45283091 0
2.8620002 0.11387512 0.45285076 0
2.8620002 0.10943416 0.45285076 0
2.8630002 0.10505451 0.45287058 0
2.8630002 0.10061172 0.45287058 0
2.8630002 0.096168935 0.45287058 0
2.8640003 0.091782093 0.45289043 0
2.8640003 0.087337509 0.45289043 0
2.8650002 0.082945228 0.45291027 0
2.8650002 0.07849884 0.45291027 0
2.8660002 0.07410115 0.45293012 0
2.8660002 0.069652975 0.45293012 0
2.8670001 0.06524986 0.45294994 0
2.8670001 0.060799871 0.45294994 0
2.8670001 0.056349877 0.45294994 0
2.8680003 0.051939573 0.45296979 0
2.8680003 0.047487777 0.45296979 0
2.8690002 0.043072049 0.45298964 0
2.8690002 0.038618449 0.45298964 0
2.8700001 0.034197312 0.45300949 0
2.8700001 0.029741909 0.45300949 0
2.8700001 0.025286499 0.45300949 0
2.8710003 0.02085815 0.45302933 0
2.8710003 0.016400941 0.45302933 0
2.8720002 0.011967182 0.45304918 0
2.8720002 0.0075081661 0.45304918 0
2.8730001 0.0030689947 0.453069 0
2.8730001 -0.0013918243 0.453069 0
2.8740003 -0.0058364049 0.45308885 0
2.8740003 -0.010299027 0.45308885 0
2.8740003 -0.014761649 0.45308885 0
2.8750002 -0.019213449 0.4531087 0
2.8750002 -0.023677872 0.4531087 0
2.8760002 -0.028135084 0.45312852 0
2.8760002 -0.032601312 0.45312852 0
2.8770003 -0.037063934 0.45314837 0
2.8770003 -0.041531965 0.45314837 0
2.8780003 -0.046 0.45316821 0
2.8780003 -0.050469838 0.45316821 0
2.8780003 -0.054939672 0.45316821 0
2.8790002 -0.059414923 0.45318806 0
2.8790002 -0.06388656 0.45318806 0
2.9180002 -0.086877897 0.45396191 0
2.9050002 -0.091185391 0.45370394 0
2.8990002 -0.095584884 0.45358491 0
2.8930001 -0.099962726 0.45346585 0
2.8890002 -0.10436583 0.45338649 0
2.8860002 -0.10877974 0.45332694 0
2.8840003 -0.11320989 0.45328727 0
2.8820002 -0.11763284 0.45324758 0
2.8800001 -0.12204856 0.45320791 0
2.8790002 -0.12648953 0.45318806 0
2.8780003 -0.13092691 0.45316821 0
2.8780003 -0.13539673 0.45316821 0
2.8780003 -0.13986658 0.45316821 0
2.8790002 -0.1443761 0.45318806 0
2.8800001 -0.14888921 0.45320791 0
2.8820002 -0.15344925 0.45324758 0
2.8840003 -0.1580165 0.45328727 0
2.8860002 -0.16259095 0.45332694 0
2.8900001 -0.16727003 0.45340633 0
2.8940003 -0.17196354 0.4534857 0
2.9000001 -0.1767761 0.45360473 0
2.9100003 -0.18182676 0.45380315 0
2.9030001 -0.29883617 0.45366427 0
2.8810003 -0.30108917 0.45322776 0
2.8700001 -0.30441356 0.45300949 0
2.8700001 -0.30886894 0.45300949 0
2.8710003 -0.3134326 0.45302933 0
2.8710003 -0.31788984 0.45302933 0
2.8720002 -0.32245886 0.45304918 0
2.8720002 -0.32691789 0.45304918 0
2.8730001 -0.33149233 0.453069 0
2.8730001 -0.33595318 0.453069 0
2.8740003 -0.34053305 0.45308885 0
2.8700001 0.23023519 0.44855407 0
2.8620002 0.22489953 0.44840977 0
2.8580003 0.22002563 0.44833761 0
2.8540003 0.21516618 0.44826546 0
2.8510003 0.21042579 0.44821137 0
2.8490002 0.20579898 0.44817528 0
2.8480003 0.20128047 0.44815725 0
2.8470001 0.19676553 0.44813919 0
2.8460002 0.19225419 0.44812116 0
2.8460002 0.18784207 0.44812116 0
2.8460002 0.18342997 0.44812116 0
2.8470001 0.17910986 0.44813919 0
2.8470001 0.17469592 0.44813919 0
2.8490002 0.17045879 0.44817528 0
2.8510003 0.16621444 0.44821137 0
2.8530002 0.16196284 0.44824743 0
2.8560002 0.15778704 0.44830155 0
2.8590002 0.15360039 0.44835564 0
2.8620002 0.14940293 0.44840977 0
2.8620002 0.14496195 0.44840977 0
2.8630002 0.14059673 0.4484278 0
2.8630002 0.13615395 0.4484278 0
2.8640003 0.13178335 0.44844586 0
2.8640003 0.12733875 0.44844586 0
2.8640003 0.12289418 0.44844586 0
2.8650002 0.11851633 0.44846389 0
2.8650002 0.11406994 0.44846389 0
2.8660002 0.10968669 0.44848192 0
2.8660002 0.10523848 0.44848192 0
2.8670001 0.10084982 0.44849998 0
2.8670001 0.096399829 0.44849998 0
2.8670001 0.091949821 0.44849998 0
2.8680003 0.087553963 0.44851801 0
2.8680003 0.083102167 0.44851801 0
2.8690002 0.07870087 0.44853604 0
2.8690002 0.074247271 0.44853604 0
2.8700001 0.069840565 0.44855407 0
2.8700001 0.065385148 0.44855407 0
2.8710003 0.060973044 0.44857213 0
2.8710003 0.056515839 0.44857213 0
2.8710003 0.052058626 0.44857213 0
2.8720002 0.047639292 0.44859016 0
2.8720002 0.043180276 0.44859016 0
2.8730001 0.038755532 0.44860819 0
2.8730001 0.034294713 0.44860819 0
2.8740003 0.029864568 0.44862622 0
2.8740003 0.025401946 0.44862622 0
2.8750002 0.020966385 0.44864428 0
2.8750002 0.016501952 0.44864428 0
2.8750002 0.012037534 0.44864428 0
2.8760002 0.0075947493 0.44866231 0
2.8760002 0.0031285174 0.44866231 0
2.8770003 -0.0013196692 0.44868034 0
2.8770003 -0.0057877004 0.44868034 0
2.8780003 -0.010241304 0.44869837 0
2.8780003 -0.014711142 0.44869837 0
2.8790002 -0.019170158 0.44871643 0
2.8790002 -0.023641797 0.44871643 0
2.8790002 -0.028113438 0.44871643 0
2.8800001 -0.032579668 0.44873446 0
2.8800001 -0.037053112 0.44873446 0
2.8810003 -0.041524753 0.44875249 0
2.8810003 -0.046 0.44875249 0
2.8820002 -0.05047705 0.44877052 0
2.8820002 -0.054954104 0.44877052 0
2.8830001 -0.059436567 0.44878858 0
2.8830001 -0.063915424 0.44878858 0
2.9180002 -0.086877897 0.44941992 0
2.9050002 -0.091185391 0.4491854 0
2.8990002 -0.095584884 0.44907719 0
2.8930001 -0.099962726 0.44896895 0
2.8890002 -0.10436583 0.4488968 0
2.8860002 -0.10877974 0.44884267 0
2.8840003 -0.11320989 0.44880661 0
2.8820002 -0.11763284 0.44877052 0
2.8800001 -0.12204856 0.44873446 0
2.8790002 -0.12648953 0.44871643 0
2.8780003 -0.13092691 0.44869837 0
2.8780003 -0.13539673 0.44869837 0
2.8780003 -0.13986658 0.44869837 0
2.8790002 -0.1443761 0.44871643 0
2.8800001 -0.14888921 0.44873446 0
2.8820002 -0.15344925 0.44877052 0
2.8840003 -0.1580165 0.44880661 0
2.8860002 -0.16259095 0.44884267 0
2.8900001 -0.16727003 0.44891483 0
2.8940003 -0.17196354 0.44898701 0
2.9000001 -0.1767761 0.44909522 0
2.9100003 -0.18182676 0.44927561 0
2.8810003 -0.30108917 0.44875249 0
2.8700001 -0.30441356 0.44855407 0
2.8700001 -0.30886894 0.44855407 0
2.8710003 -0.3134326 0.44857213 0
2.8710003 -0.31788984 0.44857213 0
2.8720002 -0.32245886 0.44859016 0
2.8720002 -0.32691789 0.44859016 0
2.8730001 -0.33149233 0.44860819 0
2.8730001 -0.33595318 0.44860819 0
2.8740003 -0.34053305 0.44862622 0
2.8700001 0.23023519 0.44409868 0
2.8620002 0.22489953 0.4439688 0
2.8580003 0.22002563 0.44390386 0
2.8540003 0.21516618 0.44383892 0
2.8510003 0.21042579 0.44379023 0
2.8490002 0.20579898 0.44375774 0
2.8480003 0.20128047 0.44374153 0
2.8470001 0.19676553 0.44372529 0
2.8460002 0.19225419 0.44370905 0
2.8460002 0.18784207 0.44370905 0
2.8460002 0.18342997 0.44370905 0
2.8470001 0.17910986 0.44372529 0
2.8470001 0.17469592 0.44372529 0
2.8490002 0.17045879 0.44375774 0
2.8510003 0.16621444 0.44379023 0
2.8530002 0.16196284 0.44382268 0
2.8560002 0.15778704 0.44387138 0
2.8590002 0.15360039 0.44392011 0
2.8630002 0.14948229 0.44398504 0
2.8660002 0.14527221 0.44403374 0
2.8670001 0.14089978 0.44404995 0
2.8670001 0.13644978 0.44404995 0
2.8680003 0.13207196 0.4440662 0
2.8680003 0.12762015 0.4440662 0
2.8690002 0.12323689 0.44408244 0
2.8690002 0.1187833 0.44408244 0
2.8700001 0.11439462 0.44409868 0
2.8700001 0.10993922 0.44409868 0
2.8700001 0.10548382 0.44409868 0
2.8710003 0.10108794 0.44411492 0
2.8710003 0.096630722 0.44411492 0
2.8720002 0.092229426 0.44413114 0
2.8720002 0.087770417 0.44413114 0
2.8730001 0.083363712 0.44414738 0
2.8730001 0.0789029 0.44414738 0
2.8740003 0.074490786 0.44416362 0
2.8740003 0.070028171 0.44416362 0
2.8740003 0.065565541 0.44416362 0
2.8750002 0.061146203 0.44417983 0
2.8750002 0.056681786 0.44417983 0
2.8760002 0.052257035 0.44419608 0
2.8760002 0.047790814 0.44419608 0
2.8770003 0.043360662 0.44421232 0
2.8770003 0.03889263 0.44421232 0
2.8770003 0.034424599 0.44421232 0
2.8780003 0.029987227 0.44422856 0
2.8780003 0.025517393 0.44422856 0
2.8790002 0.021074612 0.44424477 0
2.8790002 0.016602967 0.44424477 0
2.8800001 0.012154777 0.44426101 0
2.8800001 0.0076813325 0.44426101 0
2.8810003 0.0032277331 0.44427726 0
2.8810003 -0.0012475178 0.44427726 0
2.8810003 -0.0057227649 0.44427726 0
2.8820002 -0.010183584 0.4442935 0
2.8820002 -0.014660638 0.4442935 0
2.8830001 -0.019126864 0.44430971 0
2.8830001 -0.023605723 0.44430971 0
2.8840003 -0.02807736 0.44432595 0
2.8840003 -0.03255802 0.44432595 0
2.8850002 -0.037035074 0.4443422 0
2.8850002 -0.041517537 0.4443422 0
2.8850002 -0.046 0.4443422 0
2.8860002 -0.050484266 0.44435841 0
2.8860002 -0.054968536 0.44435841 0
2.8870003 -0.059458215 0.44437465 0
2.8870003 -0.063944288 0.44437465 0
2.9180002 -0.086877897 0.44487792 0
2.9050002 -0.091185391 0.44466686 0
2.8990002 -0.095584884 0.44456947 0
2.8930001 -0.099962726 0.44447207 0
2.8890002 -0.10436583 0.44440711 0
2.8860002 -0.10877974 0.44435841 0
2.8840003 -0.11320989 0.44432595 0
2.8820002 -0.11763284 0.4442935 0
2.8800001 -0.12204856 0.44426101 0
2.8790002 -0.12648953 0.44424477 0
2.8780003 -0.13092691 0.44422856 0
2.8780003 -0.13539673 0.44422856 0
2.8780003 -0.13986658 0.44422856 0
2.8790002 -0.1443761 0.44424477 0
2.8800001 -0.14888921 0.44426101 0
2.8820002 -0.15344925 0.4442935 0
2.8840003 -0.1580165 0.44432595 0
2.8860002 -0.16259095 0.44435841 0
2.8900001 -0.16727003 0.44442335 0
2.8940003 -0.17196354 0.44448829 0
2.9000001 -0.1767761 0.44458568 0
2.9100003 -0.18182676 0.44474804 0
2.8810003 -0.30108917 0.44427726 0
2.8700001 -0.30441356 0.44409868 0
2.8700001 -0.30886894 0.44409868 0
2.8710003 -0.3134326 0.44411492 0
2.8710003 -0.31788984 0.44411492 0
2.8720002 -0.32245886 0.44413114 0
2.8720002 -0.32691789 0.44413114 0
2.8730001 -0.33149233 0.44414738 0
2.8730001 -0.33595318 0.44414738 0
2.8740003 -0.34053305 0.44416362 0
2.8700001 0.23023519 0.43964326 0
2.8620002 0.22489953 0.43952781 0
2.8570001 0.21991739 0.43945566 0
2.8540003 0.21516618 0.43941239 0
2.8510003 0.21042579 0.43936908 0
2.8490002 0.20579898 0.43934023 0
2.8480003 0.20128047 0.43932581 0
2.8470001 0.19676553 0.43931136 0
2.8460002 0.19225419 0.43929693 0
2.8460002 0.18784207 0.43929693 0
2.8460002 0.18342997 0.43929693 0
2.8470001 0.17910986 0.43931136 0
2.8470001 0.17469592 0.43931136 0
2.8490002 0.17045879 0.43934023 0
2.8510003 0.16621444 0.43936908 0
2.8530002 0.16196284 0.43939793 0
2.8560002 0.15778704 0.43944123 0
2.8590002 0.15360039 0.43948454 0
2.8630002 0.14948229 0.43954223 0
2.8690002 0.14550491 0.43962884 0
2.8720002 0.14127858 0.43967211 0
2.8730001 0.13689353 0.43968657 0
2.8730001 0.1324327 0.43968657 0
2.8740003 0.12804224 0.43970099 0
2.8740003 0.12357962 0.43970099 0
2.8740003 0.11911701 0.43970099 0
2.8750002 0.11471932 0.43971542 0
2.8750002 0.11025488 0.43971542 0
2.8760002 0.10585178 0.43972984 0
2.8760002 0.10138555 0.43972984 0
2.8770003 0.096977055 0.43974429 0
2.8770003 0.092509031 0.43974429 0
2.8780003 0.088095099 0.43975872 0
2.8780003 0.083625272 0.43975872 0
2.8780003 0.07915543 0.43975872 0
2.8790002 0.074734285 0.43977314 0
2.8790002 0.070262656 0.43977314 0
2.8800001 0.065836102 0.43978757 0
2.8800001 0.061362665 0.43978757 0
2.8810003 0.05693071 0.43980199 0
2.8810003 0.052455466 0.43980199 0
2.8820002 0.048018094 0.43981642 0
2.8820002 0.04354104 0.43981642 0
2.8820002 0.039063986 0.43981642 0
2.8830001 0.034619402 0.43983087 0
2.8830001 0.030140553 0.43983087 0
2.8840003 0.025690559 0.43984529 0
2.8840003 0.021209892 0.43984529 0
2.8850002 0.016754489 0.43985972 0
2.8850002 0.012272023 0.43985972 0
2.8850002 0.0077895634 0.43985972 0
2.8860002 0.0033269376 0.43987414 0
2.8860002 -0.0011573285 0.43987414 0
2.8870003 -0.0056253597 0.4398886 0
2.8870003 -0.010111429 0.4398886 0
2.8880002 -0.014584877 0.43990302 0
2.8880002 -0.019072749 0.43990302 0
2.8890002 -0.023551606 0.43991745 0
2.8890002 -0.028041286 0.43991745 0
2.8900001 -0.032525554 0.43993187 0
2.8900001 -0.037017036 0.43993187 0
2.8900001 -0.041508518 0.43993187 0
2.8910003 -0.046 0.43994629 0
2.8910003 -0.050493285 0.43994629 0
2.8920002 -0.05499018 0.43996072 0
2.8920002 -0.059485272 0.43996072 0
2.9050002 -0.091185391 0.44014832 0
2.8990002 -0.095584884 0.44006175 0
2.8930001 -0.099962726 0.43997517 0
2.8890002 -0.10436583 0.43991745 0
2.8860002 -0.10877974 0.43987414 0
2.8840003 -0.11320989 0.43984529 0
2.8820002 -0.11763284 0.43981642 0
2.8800001 -0.12204856 0.43978757 0
2.8790002 -0.12648953 0.43977314 0
2.8780003 -0.13092691 0.43975872 0
2.8780003 -0.13539673 0.43975872 0
2.8780003 -0.13986658 0.43975872 0
2.8790002 -0.1443761 0.43977314 0
2.8800001 -0.14888921 0.43978757 0
2.8820002 -0.15344925 0.43981642 0
2.8840003 -0.1580165 0.43984529 0
2.8860002 -0.16259095 0.43987414 0
2.8900001 -0.16727003 0.43993187 0
2.8940003 -0.17196354 0.4399896 0
2.9000001 -0.1767761 0.44007617 0
2.8810003 -0.30108917 0.43980199 0
2.8700001 -0.30441356 0.43964326 0
2.8700001 -0.30886894 0.43964326 0
2.8710003 -0.3134326 0.43965769 0
2.8710003 -0.31788984 0.43965769 0
2.8720002 -0.32245886 0.43967211 0
2.8720002 -0.32691789 0.43967211 0
2.8730001 -0.33149233 0.43968657 0
2.8730001 -0.33595318 0.43968657 0
2.8740003 -0.34053305 0.43970099 0
2.8700001 0.23023519 0.43518785 0
2.8620002 0.22489953 0.43508685 0
2.8570001 0.21991739 0.43502373 0
2.8540003 0.21516618 0.43498585 0
2.8510003 0.21042579 0.43494797 0
2.8490002 0.20579898 0.4349227 0
2.8480003 0.20128047 0.43491006 0
2.8470001 0.19676553 0.43489745 0
2.8460002 0.19225419 0.43488482 0
2.8460002 0.18784207 0.43488482 0
2.8460002 0.18342997 0.43488482 0
2.8470001 0.17910986 0.43489745 0
2.8470001 0.17469592 0.43489745 0
2.8490002 0.17045879 0.4349227 0
2.8510003 0.16621444 0.43494797 0
2.8530002 0.16196284 0.43497321 0
2.8560002 0.15778704 0.43501109 0
2.8590002 0.15360039 0.43504897 0
2.8630002 0.14948229 0.43509948 0
2.8690002 0.14550491 0.43517524 0
2.8770003 0.1416574 0.43527624 0
2.8810003 0.13748518 0.43532676 0
2.8810003 0.13300993 0.43532676 0
2.8820002 0.12860502 0.43533939 0
2.8820002 0.12412797 0.43533939 0
2.8830001 0.11971766 0.435352 0
2.8830001 0.1152388 0.435352 0
2.8830001 0.11075994 0.435352 0
2.8840003 0.10634243 0.43536463 0
2.8840003 0.10186177 0.43536463 0
2.8850002 0.097438827 0.43537727 0
2.8850002 0.092956364 0.43537727 0
2.8860002 0.088528007 0.43538988 0
2.8860002 0.084043741 0.43538988 0
2.8870003 0.07960999 0.43540251 0
2.8870003 0.075123936 0.43540251 0
2.8870003 0.070637852 0.43540251 0
2.8880002 0.066196874 0.43541515 0
2.8880002 0.061709005 0.43541515 0
2.8890002 0.057262611 0.43542776 0
2.8890002 0.052772935 0.43542776 0
2.8900001 0.048321132 0.43544039 0
2.8900001 0.043829646 0.43544039 0
2.8900001 0.039338168 0.43544039 0
2.8910003 0.034879159 0.43545303 0
2.8910003 0.03038587 0.43545303 0
2.8920002 0.025921438 0.43546563 0
2.8920002 0.021426354 0.43546563 0
2.8930001 0.016956512 0.43547827 0
2.8930001 0.012459617 0.43547827 0
2.8940003 0.0079843737 0.43549091 0
2.8940003 0.0034856759 0.43549091 0
2.8940003 -0.0010130219 0.43549091 0
2.8950002 -0.0054954849 0.43550351 0
2.8950002 -0.0099959895 0.43550351 0
2.8960001 -0.014483865 0.43551615 0
2.8960001 -0.018986169 0.43551615 0
2.8970003 -0.023479454 0.43552878 0
2.8970003 -0.027983563 0.43552878 0
2.8980002 -0.032482259 0.43554139 0
2.8980002 -0.036988173 0.43554139 0
2.8980002 -0.041494086 0.43554139 0
2.8990002 -0.046 0.43555403 0
2.8990002 -0.050507717 0.43555403 0
2.9000001 -0.05501904 0.43556666 0
2.9000001 -0.059528559 0.43556666 0
2.9050002 -0.091185391 0.43562979 0
2.8990002 -0.095584884 0.43555403 0
2.8930001 -0.099962726 0.43547827 0
2.8890002 -0.10436583 0.43542776 0
2.8860002 -0.10877974 0.43538988 0
2.8840003 -0.11320989 0.43536463 0
2.8820002 -0.11763284 0.43533939 0
2.8800001 -0.12204856 0.43531412 0
2.8790002 -0.12648953 0.43530148 0
2.8780003 -0.13092691 0.43528888 0
2.8780003 -0.13539673 0.43528888 0
2.8780003 -0.13986658 0.43528888 0
2.8790002 -0.1443761 0.43530148 0
2.8800001 -0.14888921 0.43531412 0
2.8820002 -0.15344925 0.43533939 0
2.8840003 -0.1580165 0.43536463 0
2.8860002 -0.16259095 0.43538988 0
2.8900001 -0.16727003 0.43544039 0
2.8940003 -0.17196354 0.43549091 0
2.9000001 -0.1767761 0.43556666 0
2.8810003 -0.30108917 0.43532676 0
2.8700001 -0.30441356 0.43518785 0
2.8700001 -0.30886894 0.43518785 0
2.8710003 -0.3134326 0.43520048 0
2.8710003 -0.31788984 0.43520048 0
2.8720002 -0.32245886 0.43521312 0
2.8720002 -0.32691789 0.43521312 0
2.8730001 -0.33149233 0.43522573 0
2.8730001 -0.33595318 0.43522573 0
2.8740003 -0.34053305 0.43523836 0
2.8700001 0.23023519 0.43073246 0
2.8620002 0.22489953 0.43064588 0
2.8570001 0.21991739 0.43059176 0
2.8540003 0.21516618 0.43055928 0
2.8510003 0.21042579 0.43052682 0
2.8490002 0.20579898 0.43050516 0
2.8480003 0.20128047 0.43049434 0
2.8470001 0.19676553 0.43048352 0
2.8460002 0.19225419 0.4304727 0
2.8460002 0.18784207 0.4304727 0
2.8460002 0.18342997 0.4304727 0
2.8470001 0.17910986 0.43048352 0
2.8470001 0.17469592 0.43048352 0
2.8490002 0.17045879 0.43050516 0
2.8510003 0.16621444 0.43052682 0
2.8530002 0.16196284 0.43054846 0
2.8560002 0.15778704 0.43058094 0
2.8590002 0.15360039 0.4306134 0
2.8630002 0.14948229 0.4306567 0
2.8690002 0.14550491 0.43072164 0
2.8770003 0.1416574 0.43080822 0
2.8900001 0.13815078 0.43094891 0
2.9050002 -0.091185391 0.43111125 0
2.8990002 -0.095584884 0.43104631 0
2.8930001 -0.099962726 0.43098137 0
2.8890002 -0.10436583 0.43093809 0
2.8860002 -0.10877974 0.43090561 0
2.8840003 -0.11320989 0.43088397 0
2.8820002 -0.11763284 0.43086234 0
2.8800001 -0.12204856 0.43084067 0
2.8790002 -0.12648953 0.43082985 0
2.8780003 -0.13092691 0.43081903 0
2.8780003 -0.13539673 0.43081903 0
2.8780003 -0.13986658 0.43081903 0
2.8790002 -0.1443761 0.43082985 0
2.8800001 -0.14888921 0.43084067 0
2.8820002 -0.15344925 0.43086234 0
2.8840003 -0.1580165 0.43088397 0
2.8860002 -0.16259095 0.43090561 0
2.8900001 -0.16727003 0.43094891 0
2.8940003 -0.17196354 0.43099219 0
2.9000001 -0.1767761 0.43105713 0
2.8810003 -0.30108917 0.43085152 0
2.8700001 -0.30441356 0.43073246 0
2.8700001 -0.30886894 0.43073246 0
2.8710003 -0.3134326 0.43074328 0
2.8710003 -0.31788984 0.43074328 0
2.8720002 -0.32245886 0.4307541 0
2.8720002 -0.32691789 0.4307541 0
2.8730001 -0.33149233 0.43076491 0
2.8730001 -0.33595318 0.43076491 0
2.8740003 -0.34053305 0.43077573 0
2.8700001 0.23023519 0.42627704 0
2.8620002 0.22489953 0.42620489 0
2.8570001 0.21991739 0.4261598 0
2.8540003 0.21516618 0.42613274 0
2.8510003 0.21042579 0.42610568 0
2.8490002 0.20579898 0.42608765 0
2.8480003 0.20128047 0.42607862 0
2.8470001 0.19676553 0.42606962 0
2.8460002 0.19225419 0.42606059 0
2.8460002 0.18784207 0.42606059 0
2.8460002 0.18342997 0.42606059 0
2.8470001 0.17910986 0.42606962 0
2.8470001 0.17469592 0.42606962 0
2.8490002 0.17045879 0.42608765 0
2.8510003 0.16621444 0.42610568 0
2.8530002 0.16196284 0.42612371 0
2.8560002 0.15778704 0.42615077 0
2.8590002 0.15360039 0.42617783 0
2.8630002 0.14948229 0.42621392 0
2.8690002 0.14550491 0.42626804 0
2.8770003 0.1416574 0.42634019 0
2.8900001 0.13815078 0.42645743 0
2.8340001 0.054980788 0.42595237 0
2.8340001 0.050590318 0.42595237 0
2.8340001 0.046199847 0.42595237 0
2.8350003 0.041845467 0.42596138 0
2.8350003 0.037453193 0.42596138 0
2.8360002 0.033093389 0.42597041 0
2.8360002 0.028699305 0.42597041 0
2.8370001 0.024334092 0.42597941 0
2.8370001 0.019938204 0.42597941 0
2.8380003 0.015567586 0.42598844 0
2.8380003 0.011169899 0.42598844 0
2.8380003 0.0067722164 0.42598844 0
2.8390002 0.0023943745 0.42599747 0
2.8390002 -0.0020051189 0.42599747 0
2.8400002 -0.0063883699 0.42600647 0
2.8400002 -0.010789663 0.42600647 0
2.8410003 -0.015178327 0.4260155 0
2.8410003 -0.019581422 0.4260155 0
2.8420002 -0.023975501 0.42602453 0
2.8420002 -0.028380401 0.42602453 0
2.8420002 -0.0327853 0.42602453 0
2.8430002 -0.037186593 0.42603353 0
2.8430002 -0.041593298 0.42603353 0
2.8440001 -0.046 0.42604256 0
2.8440001 -0.050408509 0.42604256 0
2.8450003 -0.054820623 0.42605156 0
2.8450003 -0.059230935 0.42605156 0
2.8460002 -0.063648462 0.42606059 0
2.8460002 -0.068060577 0.42606059 0
2.8460002 -0.072472692 0.42606059 0
2.8470001 -0.076897427 0.42606962 0
2.8470001 -0.081311345 0.42606962 0
2.8480003 -0.085741505 0.42607862 0
2.8480003 -0.090157226 0.42607862 0
2.8490002 -0.094592795 0.42608765 0
2.8490002 -0.099010319 0.42608765 0
2.8500001 -0.10345129 0.42609668 0
2.8500001 -0.10787062 0.42609668 0
2.8500001 -0.11228995 0.42609668 0
2.8510003 -0.11673814 0.42610568 0
2.8510003 -0.12115929 0.42610568 0
2.8520002 -0.12561288 0.42611471 0
2.8520002 -0.13003582 0.42611471 0
2.8530002 -0.13449483 0.42612371 0
2.8530002 -0.13891958 0.42612371 0
2.8540003 -0.14338401 0.42613274 0
2.8540003 -0.14781055 0.42613274 0
2.8550003 -0.15228039 0.42614177 0
2.8550003 -0.15670873 0.42614177 0
2.8860002 -0.16259095 0.42642134 0
2.8900001 -0.16727003 0.42645743 0
2.8940003 -0.17196354 0.4264935 0
2.9000001 -0.1767761 0.42654762 0
2.8810003 -0.30108917 0.42637625 0
2.8700001 -0.30441356 0.42627704 0
2.8700001 -0.30886894 0.42627704 0
2.8710003 -0.3134326 0.42628607 0
2.8710003 -0.31788984 0.42628607 0
2.8720002 -0.32245886 0.42629507 0
2.8720002 -0.32691789 0.42629507 0
2.8730001 -0.33149233 0.4263041 0
2.8730001 -0.33595318 0.4263041 0
2.8740003 -0.34053305 0.42631313 0
2.8700001 0.23023519 0.42182165 0
2.8620002 0.22489953 0.42176393 0
2.8570001 0.21991739 0.42172784 0
2.8540003 0.21516618 0.4217062 0
2.8510003 0.21042579 0.42168456 0
2.8490002 0.20579898 0.42167011 0
2.8480003 0.20128047 0.4216629 0
2.8470001 0.19676553 0.42165568 0
2.8460002 0.19225419 0.42164847 0
2.8460002 0.18784207 0.42164847 0
2.8460002 0.18342997 0.42164847 0
2.8470001 0.17910986 0.42165568 0
2.8470001 0.17469592 0.42165568 0
2.8490002 0.17045879 0.42167011 0
2.8510003 0.16621444 0.42168456 0
2.8530002 0.16196284 0.42169899 0
2.8560002 0.15778704 0.42172062 0
2.8590002 0.15360039 0.42174226 0
2.8630002 0.14948229 0.42177114 0
2.8690002 0.14550491 0.42181441 0
2.8770003 0.1416574 0.42187214 0
2.8900001 0.13815078 0.42196596 0
2.8340001 0.054980788 0.4215619 0
2.8340001 0.050590318 0.4215619 0
2.8340001 0.046199847 0.4215619 0
2.8350003 0.041845467 0.42156911 0
2.8350003 0.037453193 0.42156911 0
2.8360002 0.033093389 0.42157632 0
2.8360002 0.028699305 0.42157632 0
2.8370001 0.024334092 0.42158353 0
2.8370001 0.019938204 0.42158353 0
2.8380003 0.015567586 0.42159075 0
2.8380003 0.011169899 0.42159075 0
2.8380003 0.0067722164 0.42159075 0
2.8390002 0.0023943745 0.42159796 0
2.8390002 -0.0020051189 0.42159796 0
2.8400002 -0.0063883699 0.42160517 0
2.8400002 -0.010789663 0.42160517 0
2.8410003 -0.015178327 0.42161241 0
2.8410003 -0.019581422 0.42161241 0
2.8420002 -0.023975501 0.42161962 0
2.8420002 -0.028380401 0.42161962 0
2.8420002 -0.0327853 0.42161962 0
2.8430002 -0.037186593 0.42162684 0
2.8430002 -0.041593298 0.42162684 0
2.8440001 -0.046 0.42163405 0
2.8440001 -0.050408509 0.42163405 0
2.8450003 -0.054820623 0.42164126 0
2.8450003 -0.059230935 0.42164126 0
2.8460002 -0.063648462 0.42164847 0
2.8460002 -0.068060577 0.42164847 0
2.8460002 -0.072472692 0.42164847 0
2.8470001 -0.076897427 0.42165568 0
2.8470001 -0.081311345 0.42165568 0
2.8480003 -0.085741505 0.4216629 0
2.8480003 -0.090157226 0.4216629 0
2.8490002 -0.094592795 0.42167011 0
2.8490002 -0.099010319 0.42167011 0
2.8500001 -0.10345129 0.42167732 0
2.8500001 -0.10787062 0.42167732 0
2.8500001 -0.11228995 0.42167732 0
2.8510003 -0.11673814 0.42168456 0
2.8510003 -0.12115929 0.42168456 0
2.8520002 -0.12561288 0.42169178 0
2.8520002 -0.13003582 0.42169178 0
2.8530002 -0.13449483 0.42169899 0
2.8530002 -0.13891958 0.42169899 0
2.8540003 -0.14338401 0.4217062 0
2.8540003 -0.14781055 0.4217062 0
2.8550003 -0.15228039 0.42171341 0
2.8550003 -0.15670873 0.42171341 0
2.8550003 -0.16113709 0.42171341 0
2.8560002 -0.16561413 0.42172062 0
2.8560002 -0.17004429 0.42172062 0
2.8570001 -0.17452674 0.42172784 0
2.8570001 -0.1789587 0.42172784 0
2.8580003 -0.18344659 0.42173505 0
2.8580003 -0.18788035 0.42173505 0
2.8590002 -0.19237363 0.42174226 0
2.8590002 -0.19680919 0.42174226 0
2.8590002 -0.20124476 0.42174226 0
2.8600001 -0.20574525 0.42174947 0
2.8600001 -0.21018262 0.42174947 0
2.8610003 -0.21468854 0.42175671 0
2.8610003 -0.21912773 0.42175671 0
2.8620002 -0.22363904 0.42176393 0
2.8620002 -0.22808002 0.42176393 0
2.8630002 -0.23259674 0.42177114 0
2.8630002 -0.23703952 0.42177114 0
2.8640003 -0.24156168 0.42177835 0
2.8640003 -0.24600628 0.42177835 0
2.8640003 -0.25045085 0.42177835 0
2.8650002 -0.25498021 0.42178556 0
2.8650002 -0.25942659 0.42178556 0
2.8660002 -0.26396137 0.42179278 0
2.8660002 -0.26840955 0.42179278 0
2.8670001 -0.27294973 0.42179999 0
2.8670001 -0.27739972 0.42179999 0
