# .PCD v0.7 - Point Cloud Data file format
VERSION 0.7
FIELDS x y z intensity
SIZE 4 4 4 4
TYPE F F F F
COUNT 1 1 1 1
WIDTH 1388
HEIGHT 1
VIEWPOINT 0 0 0 1 0 0 0
POINTS 1388
DATA ascii
2.7450001 0.12319721 0.47590882 0
2.7460003 0.11903764 0.47593951 0
2.7470002 0.11487444 0.47597015 0
2.7480001 0.11070763 0.47600082 0
2.7480001 0.10647228 0.47600082 0
2.7490003 0.10230009 0.47603148 0
2.7500002 0.098124266 0.47606215 0
2.7510002 0.093944848 0.47609282 0
2.7520001 0.089761809 0.47612348 0
2.7520001 0.085519254 0.47612348 0
2.7530003 0.081330821 0.47615415 0
2.7540002 0.077138782 0.47618482 0
2.7550001 0.072943106 0.47621548 0
2.7560003 0.068743855 0.47624615 0
2.7570002 0.064540967 0.47627681 0
2.7570002 0.060289402 0.47627681 0
2.7580001 0.056081112 0.47630748 0
2.7590003 0.051869225 0.47633815 0
2.7600002 0.047653724 0.47636878 0
2.7610002 0.043434616 0.47639948 0
2.7620003 0.03921191 0.47643012 0
2.7620003 0.034951311 0.47643012 0
2.7630002 0.030723181 0.47646078 0
2.7640002 0.026491445 0.47649145 0
2.7650001 0.022256102 0.47652212 0
2.7660003 0.018017154 0.47655278 0
2.7670002 0.013774596 0.47658345 0
2.7670002 0.0095049851 0.47658345 0
2.7680001 0.0052570142 0.47661412 0
2.7690003 0.001005441 0.47664478 0
2.7700002 -0.0032497458 0.47667545 0
2.7710001 -0.0075085349 0.47670612 0
2.7720003 -0.011770934 0.47673678 0
2.7720003 -0.016049566 0.47673678 0
2.7730002 -0.020317378 0.47676745 0
2.7740002 -0.024588795 0.47679812 0
2.7750001 -0.028863823 0.47682875 0
2.7760003 -0.033142455 0.47685945 0
2.7770002 -0.037424695 0.47689009 0
2.7770002 -0.041712347 0.47689009 0
2.7780001 -0.046 0.47692075 0
2.7790003 -0.050291259 0.47695142 0
2.7800002 -0.054586127 0.47698209 0
2.7810001 -0.058884602 0.47701275 0
2.7820003 -0.06318669 0.47704342 0
2.7820003 -0.067483358 0.47704342 0
2.7320001 0.32837677 0.4713037 0
2.7060001 0.32004318 0.47055331 0
2.7070003 0.31604055 0.47058219 0
2.7080002 0.31203428 0.47061104 0
2.7090001 0.30802441 0.47063988 0
2.7100003 0.30401096 0.47066876 0
2.7100003 0.29984415 0.47066876 0
2.7110002 0.29582527 0.47069764 0
2.7120001 0.29180276 0.47072649 0
2.7130003 0.28777668 0.47075534 0
2.7140002 0.28374699 0.47078422 0
2.7140002 0.27957293 0.47078422 0
2.7150002 0.27553782 0.47081307 0
2.7160003 0.27149913 0.47084194 0
2.7170002 0.26745677 0.47087079 0
2.7180002 0.26341084 0.47089964 0
2.7180002 0.2592296 0.47089964 0
2.7190001 0.25517824 0.47092852 0
2.7200003 0.25112331 0.47095737 0
2.7210002 0.24706471 0.47098625 0
2.7220001 0.24300253 0.4710151 0
2.7220001 0.23881409 0.4710151 0
2.7230003 0.23474652 0.47104394 0
2.7240002 0.23067531 0.47107282 0
2.7250001 0.2266005 0.47110167 0
2.7260003 0.22252211 0.47113055 0
2.7260003 0.21832645 0.47113055 0
2.7270002 0.21424261 0.4711594 0
2.7280002 0.21015519 0.47118825 0
2.7290001 0.20606416 0.47121713 0
2.7300003 0.20196953 0.471246 0
2.7300003 0.19776666 0.471246 0
2.7310002 0.19366658 0.47127485 0
2.7320001 0.1895629 0.4713037 0
2.7330003 0.18545565 0.47133258 0
2.7340002 0.18134476 0.47136143 0
2.7340002 0.17713468 0.47136143 0
2.7350001 0.17301838 0.47139028 0
2.7360003 0.16889849 0.47141916 0
2.7370002 0.16477498 0.471448 0
2.7380002 0.16064787 0.47147685 0
2.7390003 0.15651716 0.47150573 0
2.7390003 0.15229806 0.47150573 0
2.7400002 0.14816192 0.47153461 0
2.7410002 0.14402217 0.47156346 0
2.7420001 0.13987882 0.47159231 0
2.7430003 0.13573188 0.47162119 0
2.7430003 0.13150555 0.47162119 0
2.7440002 0.12735318 0.47165003 0
2.7450001 0.12319721 0.47167891 0
2.7460003 0.11903764 0.47170776 0
2.7470002 0.11487444 0.47173661 0
2.7480001 0.11070763 0.47176549 0
2.7480001 0.10647228 0.47176549 0
2.7490003 0.10230009 0.47179434 0
2.7500002 0.098124266 0.47182322 0
2.7510002 0.093944848 0.47185206 0
2.7520001 0.089761809 0.47188091 0
2.7520001 0.085519254 0.47188091 0
2.7530003 0.081330821 0.47190979 0
2.7540002 0.077138782 0.47193864 0
2.7550001 0.072943106 0.47196752 0
2.7560003 0.068743855 0.47199637 0
2.7570002 0.064540967 0.47202522 0
2.7570002 0.060289402 0.47202522 0
2.7580001 0.056081112 0.47205409 0
2.7590003 0.051869225 0.47208297 0
2.7600002 0.047653724 0.47211182 0
2.7610002 0.043434616 0.47214067 0
2.7620003 0.03921191 0.47216955 0
2.7620003 0.034951311 0.47216955 0
2.7630002 0.030723181 0.4721984 0
2.7640002 0.026491445 0.47222725 0
2.7650001 0.022256102 0.47225612 0
2.7660003 0.018017154 0.47228497 0
2.7670002 0.013774596 0.47231382 0
2.7670002 0.0095049851 0.47231382 0
2.7680001 0.0052570142 0.4723427 0
2.7690003 0.001005441 0.47237158 0
2.7700002 -0.0032497458 0.47240043 0
2.7710001 -0.0075085349 0.47242928 0
2.7720003 -0.011770934 0.47245815 0
2.7720003 -0.016049566 0.47245815 0
2.7730002 -0.020317378 0.472487 0
2.7740002 -0.024588795 0.47251588 0
2.7750001 -0.028863823 0.47254473 0
2.7760003 -0.033142455 0.47257358 0
2.7770002 -0.037424695 0.47260246 0
2.7770002 -0.041712347 0.47260246 0
2.7780001 -0.046 0.47263131 0
2.7790003 -0.050291259 0.47266018 0
2.7800002 -0.054586127 0.47268903 0
2.7810001 -0.058884602 0.47271788 0
2.7820003 -0.06318669 0.47274676 0
2.7820003 -0.067483358 0.47274676 0
2.7320001 0.32837677 0.46709722 0
2.7060001 0.32004318 0.46639374 0
2.7070003 0.31604055 0.4664208 0
2.7080002 0.31203428 0.46644786 0
2.7090001 0.30802441 0.46647492 0
2.7100003 0.30401096 0.46650195 0
2.7100003 0.29984415 0.46650195 0
2.7110002 0.29582527 0.46652901 0
2.7120001 0.29180276 0.46655607 0
2.7130003 0.28777668 0.46658313 0
2.7140002 0.28374699 0.46661019 0
2.7140002 0.27957293 0.46661019 0
2.7150002 0.27553782 0.46663725 0
2.7160003 0.27149913 0.46666431 0
2.7170002 0.26745677 0.46669137 0
2.7180002 0.26341084 0.46671844 0
2.7180002 0.2592296 0.46671844 0
2.7190001 0.25517824 0.4667455 0
2.7200003 0.25112331 0.46677256 0
2.7210002 0.24706471 0.46679962 0
2.7220001 0.24300253 0.46682665 0
2.7220001 0.23881409 0.46682665 0
2.7230003 0.23474652 0.46685371 0
2.7240002 0.23067531 0.46688077 0
2.7250001 0.2266005 0.46690783 0
2.7260003 0.22252211 0.46693489 0
2.7260003 0.21832645 0.46693489 0
2.7270002 0.21424261 0.46696195 0
2.7280002 0.21015519 0.46698898 0
2.7290001 0.20606416 0.46701604 0
2.7300003 0.20196953 0.4670431 0
2.7300003 0.19776666 0.4670431 0
2.7310002 0.19366658 0.46707016 0
2.7320001 0.1895629 0.46709722 0
2.7330003 0.18545565 0.46712428 0
2.7340002 0.18134476 0.46715134 0
2.7340002 0.17713468 0.46715134 0
2.7350001 0.17301838 0.4671784 0
2.7360003 0.16889849 0.46720546 0
2.7370002 0.16477498 0.46723253 0
2.7380002 0.16064787 0.46725956 0
2.7390003 0.15651716 0.46728665 0
2.7390003 0.15229806 0.46728665 0
2.7400002 0.14816192 0.46731368 0
2.7410002 0.14402217 0.46734074 0
2.7420001 0.13987882 0.4673678 0
2.7430003 0.13573188 0.46739486 0
2.7430003 0.13150555 0.46739486 0
2.7440002 0.12735318 0.46742192 0
2.7450001 0.12319721 0.46744895 0
2.7460003 0.11903764 0.46747601 0
2.7470002 0.11487444 0.46750307 0
2.7480001 0.11070763 0.46753013 0
2.7480001 0.10647228 0.46753013 0
2.7490003 0.10230009 0.46755719 0
2.7500002 0.098124266 0.46758425 0
2.7510002 0.093944848 0.46761131 0
2.7520001 0.089761809 0.46763837 0
2.7520001 0.085519254 0.46763837 0
2.7530003 0.081330821 0.46766543 0
2.7540002 0.077138782 0.46769249 0
2.7550001 0.072943106 0.46771955 0
2.7560003 0.068743855 0.46774662 0
2.7570002 0.064540967 0.46777365 0
2.7570002 0.060289402 0.46777365 0
2.7580001 0.056081112 0.46780071 0
2.7590003 0.051869225 0.46782777 0
2.7600002 0.047653724 0.46785483 0
2.7610002 0.043434616 0.46788189 0
2.7620003 0.03921191 0.46790895 0
2.7620003 0.034951311 0.46790895 0
2.7630002 0.030723181 0.46793601 0
2.7640002 0.026491445 0.46796304 0
2.7650001 0.022256102 0.4679901 0
2.7660003 0.018017154 0.46801716 0
2.7670002 0.013774596 0.46804422 0
2.7670002 0.0095049851 0.46804422 0
2.7680001 0.0052570142 0.46807128 0
2.7690003 0.001005441 0.46809834 0
2.7700002 -0.0032497458 0.4681254 0
2.7710001 -0.0075085349 0.46815246 0
2.7720003 -0.011770934 0.46817952 0
2.7720003 -0.016049566 0.46817952 0
2.7730002 -0.020317378 0.46820658 0
2.7740002 -0.024588795 0.46823362 0
2.7750001 -0.028863823 0.46826068 0
2.7760003 -0.033142455 0.46828774 0
2.7770002 -0.037424695 0.4683148 0
2.7770002 -0.041712347 0.4683148 0
2.7780001 -0.046 0.46834186 0
2.7790003 -0.050291259 0.46836892 0
2.7800002 -0.054586127 0.46839595 0
2.7810001 -0.058884602 0.46842301 0
2.7820003 -0.06318669 0.46845007 0
2.7820003 -0.067483358 0.46845007 0
2.7320001 0.32837677 0.46289074 0
2.7060001 0.32004318 0.46223417 0
2.7070003 0.31604055 0.46225941 0
2.7080002 0.31203428 0.46228465 0
2.7090001 0.30802441 0.46230993 0
2.7100003 0.30401096 0.46233517 0
2.7100003 0.29984415 0.46233517 0
2.7110002 0.29582527 0.46236041 0
2.7120001 0.29180276 0.46238568 0
2.7130003 0.28777668 0.46241093 0
2.7140002 0.28374699 0.4624362 0
2.7140002 0.27957293 0.4624362 0
2.7150002 0.27553782 0.46246144 0
2.7160003 0.27149913 0.46248668 0
2.7170002 0.26745677 0.46251196 0
2.7180002 0.26341084 0.4625372 0
2.7180002 0.2592296 0.4625372 0
2.7190001 0.25517824 0.46256244 0
2.7200003 0.25112331 0.46258771 0
2.7210002 0.24706471 0.46261296 0
2.7220001 0.24300253 0.4626382 0
2.7220001 0.23881409 0.4626382 0
2.7230003 0.23474652 0.46266347 0
2.7240002 0.23067531 0.46268871 0
2.7250001 0.2266005 0.46271396 0
2.7260003 0.22252211 0.46273923 0
2.7260003 0.21832645 0.46273923 0
2.7270002 0.21424261 0.46276447 0
2.7280002 0.21015519 0.46278974 0
2.7290001 0.20606416 0.46281499 0
2.7300003 0.20196953 0.46284023 0
2.7300003 0.19776666 0.46284023 0
2.7310002 0.19366658 0.4628655 0
2.7320001 0.1895629 0.46289074 0
2.7330003 0.18545565 0.46291602 0
2.7340002 0.18134476 0.46294126 0
2.7340002 0.17713468 0.46294126 0
2.7350001 0.17301838 0.4629665 0
2.7360003 0.16889849 0.46299177 0
2.7370002 0.16477498 0.46301702 0
2.7380002 0.16064787 0.46304226 0
2.7390003 0.15651716 0.46306753 0
2.7390003 0.15229806 0.46306753 0
2.7400002 0.14816192 0.46309277 0
2.7410002 0.14402217 0.46311802 0
2.7420001 0.13987882 0.46314329 0
2.7430003 0.13573188 0.46316853 0
2.7430003 0.13150555 0.46316853 0
2.7440002 0.12735318 0.46319377 0
2.7450001 0.12319721 0.46321905 0
2.7460003 0.11903764 0.46324429 0
2.7470002 0.11487444 0.46326953 0
2.7480001 0.11070763 0.4632948 0
2.7480001 0.10647228 0.4632948 0
2.7490003 0.10230009 0.46332005 0
2.7500002 0.098124266 0.46334529 0
2.7510002 0.093944848 0.46337056 0
2.7520001 0.089761809 0.4633958 0
2.7520001 0.085519254 0.4633958 0
2.7530003 0.081330821 0.46342108 0
2.7540002 0.077138782 0.46344632 0
2.7550001 0.072943106 0.46347156 0
2.7560003 0.068743855 0.46349683 0
2.7570002 0.064540967 0.46352208 0
2.7570002 0.060289402 0.46352208 0
2.7580001 0.056081112 0.46354732 0
2.7590003 0.051869225 0.46357259 0
2.7600002 0.047653724 0.46359783 0
2.7610002 0.043434616 0.46362311 0
2.7620003 0.03921191 0.46364835 0
2.7620003 0.034951311 0.46364835 0
2.7630002 0.030723181 0.46367359 0
2.7640002 0.026491445 0.46369886 0
2.7650001 0.022256102 0.46372411 0
2.7660003 0.018017154 0.46374935 0
2.7670002 0.013774596 0.46377462 0
2.7670002 0.0095049851 0.46377462 0
2.7680001 0.0052570142 0.46379986 0
2.7690003 0.001005441 0.46382511 0
2.7700002 -0.0032497458 0.46385038 0
2.7710001 -0.0075085349 0.46387562 0
2.7720003 -0.011770934 0.46390089 0
2.7720003 -0.016049566 0.46390089 0
2.7730002 -0.020317378 0.46392614 0
2.7740002 -0.024588795 0.46395138 0
2.7750001 -0.028863823 0.46397662 0
2.7760003 -0.033142455 0.46400189 0
2.7770002 -0.037424695 0.46402714 0
2.7770002 -0.041712347 0.46402714 0
2.7780001 -0.046 0.46405238 0
2.7790003 -0.050291259 0.46407765 0
2.7800002 -0.054586127 0.46410289 0
2.7810001 -0.058884602 0.46412817 0
2.7820003 -0.06318669 0.46415341 0
2.7820003 -0.067483358 0.46415341 0
2.7320001 0.32837677 0.45868427 0
2.7060001 0.32004318 0.45807457 0
2.7070003 0.31604055 0.45809802 0
2.7080002 0.31203428 0.45812148 0
2.7090001 0.30802441 0.45814493 0
2.7100003 0.30401096 0.45816839 0
2.7100003 0.29984415 0.45816839 0
2.7110002 0.29582527 0.45819181 0
2.7120001 0.29180276 0.45821527 0
2.7130003 0.28777668 0.45823872 0
2.7140002 0.28374699 0.45826218 0
2.7140002 0.27957293 0.45826218 0
2.7150002 0.27553782 0.45828563 0
2.7160003 0.27149913 0.45830908 0
2.7170002 0.26745677 0.45833254 0
2.7180002 0.26341084 0.45835596 0
2.7180002 0.2592296 0.45835596 0
2.7190001 0.25517824 0.45837942 0
2.7200003 0.25112331 0.45840287 0
2.7210002 0.24706471 0.45842633 0
2.7220001 0.24300253 0.45844978 0
2.7220001 0.23881409 0.45844978 0
2.7230003 0.23474652 0.45847321 0
2.7240002 0.23067531 0.45849666 0
2.7250001 0.2266005 0.45852011 0
2.7260003 0.22252211 0.45854357 0
2.7260003 0.21832645 0.45854357 0
2.7270002 0.21424261 0.45856702 0
2.7280002 0.21015519 0.45859045 0
2.7290001 0.20606416 0.4586139 0
2.7300003 0.20196953 0.45863736 0
2.7300003 0.19776666 0.45863736 0
2.7310002 0.19366658 0.45866081 0
2.7320001 0.1895629 0.45868427 0
2.7330003 0.18545565 0.45870772 0
2.7340002 0.18134476 0.45873117 0
2.7340002 0.17713468 0.45873117 0
2.7350001 0.17301838 0.4587546 0
2.7360003 0.16889849 0.45877805 0
2.7370002 0.16477498 0.45880151 0
2.7380002 0.16064787 0.45882496 0
2.7390003 0.15651716 0.45884842 0
2.7390003 0.15229806 0.45884842 0
2.7400002 0.14816192 0.45887187 0
2.7410002 0.14402217 0.4588953 0
2.7420001 0.13987882 0.45891875 0
2.7430003 0.13573188 0.4589422 0
2.7430003 0.13150555 0.4589422 0
2.7440002 0.12735318 0.45896566 0
2.7450001 0.12319721 0.45898911 0
2.7460003 0.11903764 0.45901257 0
2.7470002 0.11487444 0.45903599 0
2.7480001 0.11070763 0.45905945 0
2.7480001 0.10647228 0.45905945 0
2.7490003 0.10230009 0.4590829 0
2.7500002 0.098124266 0.45910636 0
2.7510002 0.093944848 0.45912981 0
2.7520001 0.089761809 0.45915326 0
2.7520001 0.085519254 0.45915326 0
2.7530003 0.081330821 0.45917672 0
2.7540002 0.077138782 0.45920014 0
2.7550001 0.072943106 0.4592236 0
2.7560003 0.068743855 0.45924705 0
2.7570002 0.064540967 0.45927051 0
2.7570002 0.060289402 0.45927051 0
2.7580001 0.056081112 0.45929396 0
2.7590003 0.051869225 0.45931742 0
2.7600002 0.047653724 0.45934084 0
2.7610002 0.043434616 0.4593643 0
2.7620003 0.03921191 0.45938775 0
2.7620003 0.034951311 0.45938775 0
2.7630002 0.030723181 0.4594112 0
2.7640002 0.026491445 0.45943466 0
2.7650001 0.022256102 0.45945811 0
2.7660003 0.018017154 0.45948154 0
2.7670002 0.013774596 0.45950499 0
2.7670002 0.0095049851 0.45950499 0
2.7680001 0.0052570142 0.45952845 0
2.7690003 0.001005441 0.4595519 0
2.7700002 -0.0032497458 0.45957536 0
2.7710001 -0.0075085349 0.45959878 0
2.7720003 -0.011770934 0.45962223 0
2.7720003 -0.016049566 0.45962223 0
2.7730002 -0.020317378 0.45964569 0
2.7740002 -0.024588795 0.45966914 0
2.7750001 -0.028863823 0.4596926 0
2.7760003 -0.033142455 0.45971605 0
2.7770002 -0.037424695 0.45973951 0
2.7770002 -0.041712347 0.45973951 0
2.7780001 -0.046 0.45976293 0
2.7790003 -0.050291259 0.45978639 0
2.7800002 -0.054586127 0.45980984 0
2.7810001 -0.058884602 0.45983329 0
2.7820003 -0.06318669 0.45985675 0
2.7820003 -0.067483358 0.45985675 0
2.7320001 0.32837677 0.45447779 0
2.7060001 0.32004318 0.453915 0
2.7070003 0.31604055 0.45393664 0
2.7080002 0.31203428 0.45395827 0
2.7090001 0.30802441 0.45397994 0
2.7100003 0.30401096 0.45400158 0
2.7100003 0.29984415 0.45400158 0
2.7110002 0.29582527 0.45402324 0
2.7120001 0.29180276 0.45404488 0
2.7130003 0.28777668 0.45406651 0
2.7140002 0.28374699 0.45408815 0
2.7140002 0.27957293 0.45408815 0
2.7150002 0.27553782 0.45410982 0
2.7160003 0.27149913 0.45413145 0
2.7170002 0.26745677 0.45415309 0
2.7180002 0.26341084 0.45417476 0
2.7180002 0.2592296 0.45417476 0
2.7190001 0.25517824 0.45419639 0
2.7200003 0.25112331 0.45421803 0
2.7210002 0.24706471 0.45423967 0
2.7220001 0.24300253 0.45426133 0
2.7220001 0.23881409 0.45426133 0
2.7230003 0.23474652 0.45428297 0
2.7240002 0.23067531 0.45430461 0
2.7250001 0.2266005 0.45432627 0
2.7260003 0.22252211 0.45434791 0
2.7260003 0.21832645 0.45434791 0
2.7270002 0.21424261 0.45436954 0
2.7280002 0.21015519 0.45439121 0
2.7290001 0.20606416 0.45441285 0
2.7300003 0.20196953 0.45443448 0
2.7300003 0.19776666 0.45443448 0
2.7310002 0.19366658 0.45445615 0
2.7320001 0.1895629 0.45447779 0
2.7330003 0.18545565 0.45449942 0
2.7340002 0.18134476 0.45452106 0
2.7340002 0.17713468 0.45452106 0
2.7350001 0.17301838 0.45454273 0
2.7360003 0.16889849 0.45456436 0
2.7370002 0.16477498 0.45458603 0
2.7380002 0.16064787 0.45460767 0
2.7390003 0.15651716 0.4546293 0
2.7390003 0.15229806 0.4546293 0
2.7400002 0.14816192 0.45465094 0
2.7410002 0.14402217 0.4546726 0
2.7420001 0.13987882 0.45469424 0
2.7430003 0.13573188 0.45471588 0
2.7430003 0.13150555 0.45471588 0
2.7440002 0.12735318 0.45473754 0
2.7450001 0.12319721 0.45475918 0
2.7460003 0.11903764 0.45478082 0
2.7470002 0.11487444 0.45480245 0
2.7480001 0.11070763 0.45482412 0
2.7480001 0.10647228 0.45482412 0
2.7490003 0.10230009 0.45484576 0
2.7500002 0.098124266 0.45486739 0
2.7510002 0.093944848 0.45488906 0
2.7520001 0.089761809 0.4549107 0
2.7520001 0.085519254 0.4549107 0
2.7530003 0.081330821 0.45493233 0
2.7540002 0.077138782 0.454954 0
2.7550001 0.072943106 0.45497563 0
2.7560003 0.068743855 0.45499727 0
2.7570002 0.064540967 0.45501894 0
2.7570002 0.060289402 0.45501894 0
2.7580001 0.056081112 0.45504057 0
2.7590003 0.051869225 0.45506221 0
2.7600002 0.047653724 0.45508385 0
2.7610002 0.043434616 0.45510551 0
2.7620003 0.03921191 0.45512715 0
2.7620003 0.034951311 0.45512715 0
2.7630002 0.030723181 0.45514882 0
2.7640002 0.026491445 0.45517045 0
2.7650001 0.022256102 0.45519209 0
2.7660003 0.018017154 0.45521373 0
2.7670002 0.013774596 0.45523539 0
2.7670002 0.0095049851 0.45523539 0
2.7680001 0.0052570142 0.45525703 0
2.7690003 0.001005441 0.45527866 0
2.7700002 -0.0032497458 0.45530033 0
2.7710001 -0.0075085349 0.45532197 0
2.7720003 -0.011770934 0.4553436 0
2.7720003 -0.016049566 0.4553436 0
2.7730002 -0.020317378 0.45536527 0
2.7740002 -0.024588795 0.45538691 0
2.7750001 -0.028863823 0.45540854 0
2.7760003 -0.033142455 0.45543021 0
2.7770002 -0.037424695 0.45545185 0
2.7770002 -0.041712347 0.45545185 0
2.7780001 -0.046 0.45547348 0
2.7790003 -0.050291259 0.45549512 0
2.7800002 -0.054586127 0.45551679 0
2.7810001 -0.058884602 0.45553842 0
2.7820003 -0.06318669 0.45556009 0
2.7820003 -0.067483358 0.45556009 0
2.7320001 0.32837677 0.45027131 0
2.7060001 0.32004318 0.4497554 0
2.7070003 0.31604055 0.44977525 0
2.7080002 0.31203428 0.4497951 0
2.7090001 0.30802441 0.44981495 0
2.7100003 0.30401096 0.44983479 0
2.7100003 0.29984415 0.44983479 0
2.7110002 0.29582527 0.44985461 0
2.7120001 0.29180276 0.44987446 0
2.7130003 0.28777668 0.44989431 0
2.7140002 0.28374699 0.44991416 0
2.7140002 0.27957293 0.44991416 0
2.7150002 0.27553782 0.44993398 0
2.7160003 0.27149913 0.44995382 0
2.7170002 0.26745677 0.44997367 0
2.7180002 0.26341084 0.44999352 0
2.7180002 0.2592296 0.44999352 0
2.7190001 0.25517824 0.45001337 0
2.7200003 0.25112331 0.45003319 0
2.7210002 0.24706471 0.45005304 0
2.7220001 0.24300253 0.45007288 0
2.7220001 0.23881409 0.45007288 0
2.7230003 0.23474652 0.45009273 0
2.7240002 0.23067531 0.45011258 0
2.7250001 0.2266005 0.4501324 0
2.7260003 0.22252211 0.45015225 0
2.7260003 0.21832645 0.45015225 0
2.7270002 0.21424261 0.4501721 0
2.7280002 0.21015519 0.45019194 0
2.7290001 0.20606416 0.45021176 0
2.7300003 0.20196953 0.45023161 0
2.7300003 0.19776666 0.45023161 0
2.7310002 0.19366658 0.45025146 0
2.7320001 0.1895629 0.45027131 0
2.7330003 0.18545565 0.45029116 0
2.7340002 0.18134476 0.45031098 0
2.7340002 0.17713468 0.45031098 0
2.7350001 0.17301838 0.45033082 0
2.7360003 0.16889849 0.45035067 0
2.7370002 0.16477498 0.45037052 0
2.7380002 0.16064787 0.45039034 0
2.7390003 0.15651716 0.45041019 0
2.7390003 0.15229806 0.45041019 0
2.7400002 0.14816192 0.45043004 0
2.7410002 0.14402217 0.45044988 0
2.7420001 0.13987882 0.45046973 0
2.7430003 0.13573188 0.45048958 0
2.7430003 0.13150555 0.45048958 0
2.7440002 0.12735318 0.4505094 0
2.7450001 0.12319721 0.45052925 0
2.7460003 0.11903764 0.4505491 0
2.7470002 0.11487444 0.45056894 0
2.7480001 0.11070763 0.45058876 0
2.7480001 0.10647228 0.45058876 0
2.7490003 0.10230009 0.45060861 0
2.7500002 0.098124266 0.45062846 0
2.7510002 0.093944848 0.45064831 0
2.7520001 0.089761809 0.45066813 0
2.7520001 0.085519254 0.45066813 0
2.7530003 0.081330821 0.45068797 0
2.7540002 0.077138782 0.45070782 0
2.7550001 0.072943106 0.45072767 0
2.7560003 0.068743855 0.45074752 0
2.7570002 0.064540967 0.45076734 0
2.7570002 0.060289402 0.45076734 0
2.7580001 0.056081112 0.45078719 0
2.7590003 0.051869225 0.45080703 0
2.7600002 0.047653724 0.45082688 0
2.7610002 0.043434616 0.45084673 0
2.7620003 0.03921191 0.45086655 0
2.7620003 0.034951311 0.45086655 0
2.7630002 0.030723181 0.4508864 0
2.7640002 0.026491445 0.45090625 0
2.7650001 0.022256102 0.45092607 0
2.7660003 0.018017154 0.45094591 0
2.7670002 0.013774596 0.45096576 0
2.7670002 0.0095049851 0.45096576 0
2.7680001 0.0052570142 0.45098561 0
2.7690003 0.001005441 0.45100546 0
2.7700002 -0.0032497458 0.45102531 0
2.7710001 -0.0075085349 0.45104513 0
2.7720003 -0.011770934 0.45106497 0
2.7720003 -0.016049566 0.45106497 0
2.7730002 -0.020317378 0.45108482 0
2.7740002 -0.024588795 0.45110467 0
2.7750001 -0.028863823 0.45112449 0
2.7760003 -0.033142455 0.45114434 0
2.7770002 -0.037424695 0.45116419 0
2.7770002 -0.041712347 0.45116419 0
2.7780001 -0.046 0.45118403 0
2.7790003 -0.050291259 0.45120388 0
2.7800002 -0.054586127 0.4512237 0
2.7810001 -0.058884602 0.45124355 0
2.7820003 -0.06318669 0.4512634 0
2.7820003 -0.067483358 0.4512634 0
2.7320001 0.32837677 0.44606483 0
2.7060001 0.32004318 0.44559583 0
2.7070003 0.31604055 0.44561386 0
2.7080002 0.31203428 0.44563192 0
2.7090001 0.30802441 0.44564995 0
2.7100003 0.30401096 0.44566798 0
2.7100003 0.29984415 0.44566798 0
2.7110002 0.29582527 0.44568601 0
2.7120001 0.29180276 0.44570407 0
2.7130003 0.28777668 0.4457221 0
2.7140002 0.28374699 0.44574013 0
2.7140002 0.27957293 0.44574013 0
2.7150002 0.27553782 0.44575816 0
2.7160003 0.27149913 0.44577622 0
2.7170002 0.26745677 0.44579425 0
2.7180002 0.26341084 0.44581228 0
2.7180002 0.2592296 0.44581228 0
2.7190001 0.25517824 0.44583032 0
2.7200003 0.25112331 0.44584838 0
2.7210002 0.24706471 0.44586641 0
2.7220001 0.24300253 0.44588444 0
2.7220001 0.23881409 0.44588444 0
2.7230003 0.23474652 0.44590247 0
2.7240002 0.23067531 0.44592053 0
2.7250001 0.2266005 0.44593856 0
2.7260003 0.22252211 0.44595659 0
2.7260003 0.21832645 0.44595659 0
2.7270002 0.21424261 0.44597462 0
2.7280002 0.21015519 0.44599268 0
2.7290001 0.20606416 0.44601071 0
2.7300003 0.20196953 0.44602874 0
2.7300003 0.19776666 0.44602874 0
2.7310002 0.19366658 0.44604677 0
2.7320001 0.1895629 0.44606483 0
2.7330003 0.18545565 0.44608286 0
2.7340002 0.18134476 0.44610089 0
2.7340002 0.17713468 0.44610089 0
2.7350001 0.17301838 0.44611895 0
2.7360003 0.16889849 0.44613698 0
2.7370002 0.16477498 0.44615501 0
2.7380002 0.16064787 0.44617304 0
2.7390003 0.15651716 0.4461911 0
2.7390003 0.15229806 0.4461911 0
2.7400002 0.14816192 0.44620913 0
2.7410002 0.14402217 0.44622716 0
2.7420001 0.13987882 0.44624519 0
2.7430003 0.13573188 0.44626325 0
2.7430003 0.13150555 0.44626325 0
2.7440002 0.12735318 0.44628128 0
2.7450001 0.12319721 0.44629931 0
2.7460003 0.11903764 0.44631737 0
2.7470002 0.11487444 0.44633541 0
2.7480001 0.11070763 0.44635344 0
2.7480001 0.10647228 0.44635344 0
2.7490003 0.10230009 0.44637147 0
2.7500002 0.098124266 0.4463895 0
2.7510002 0.093944848 0.44640756 0
2.7520001 0.089761809 0.44642559 0
2.7520001 0.085519254 0.44642559 0
2.7530003 0.081330821 0.44644362 0
2.7540002 0.077138782 0.44646165 0
2.7550001 0.072943106 0.44647968 0
2.7560003 0.068743855 0.44649774 0
2.7570002 0.064540967 0.44651577 0
2.7570002 0.060289402 0.44651577 0
2.7580001 0.056081112 0.4465338 0
2.7590003 0.051869225 0.44655186 0
2.7600002 0.047653724 0.44656989 0
2.7610002 0.043434616 0.44658792 0
2.7620003 0.03921191 0.44660598 0
2.7620003 0.034951311 0.44660598 0
2.7630002 0.030723181 0.44662401 0
2.7640002 0.026491445 0.44664204 0
2.7650001 0.022256102 0.44666007 0
2.7660003 0.018017154 0.4466781 0
2.7670002 0.013774596 0.44669616 0
2.7670002 0.0095049851 0.44669616 0
2.7680001 0.0052570142 0.44671419 0
2.7690003 0.001005441 0.44673222 0
2.7700002 -0.0032497458 0.44675028 0
2.7710001 -0.0075085349 0.44676831 0
2.7720003 -0.011770934 0.44678634 0
2.7720003 -0.016049566 0.44678634 0
2.7730002 -0.020317378 0.44680437 0
2.7740002 -0.024588795 0.44682243 0
2.7750001 -0.028863823 0.44684047 0
2.7760003 -0.033142455 0.4468585 0
2.7770002 -0.037424695 0.44687653 0
2.7770002 -0.041712347 0.44687653 0
2.7780001 -0.046 0.44689459 0
2.7790003 -0.050291259 0.44691262 0
2.7800002 -0.054586127 0.44693065 0
2.7810001 -0.058884602 0.44694868 0
2.7820003 -0.06318669 0.44696674 0
2.7820003 -0.067483358 0.44696674 0
2.7320001 0.32837677 0.44185835 0
2.7060001 0.32004318 0.44143623 0
2.7070003 0.31604055 0.44145247 0
2.7080002 0.31203428 0.44146872 0
2.7090001 0.30802441 0.44148496 0
2.7100003 0.30401096 0.4415012 0
2.7100003 0.29984415 0.4415012 0
2.7110002 0.29582527 0.44151741 0
2.7120001 0.29180276 0.44153365 0
2.7130003 0.28777668 0.4415499 0
2.7140002 0.28374699 0.44156611 0
2.7140002 0.27957293 0.44156611 0
2.7150002 0.27553782 0.44158235 0
2.7160003 0.27149913 0.44159859 0
2.7170002 0.26745677 0.44161484 0
2.7180002 0.26341084 0.44163108 0
2.7180002 0.2592296 0.44163108 0
2.7190001 0.25517824 0.44164729 0
2.7200003 0.25112331 0.44166353 0
2.7210002 0.24706471 0.44167978 0
2.7220001 0.24300253 0.44169599 0
2.7220001 0.23881409 0.44169599 0
2.7230003 0.23474652 0.44171223 0
2.7240002 0.23067531 0.44172847 0
2.7250001 0.2266005 0.44174469 0
2.7260003 0.22252211 0.44176093 0
2.7260003 0.21832645 0.44176093 0
2.7270002 0.21424261 0.44177717 0
2.7280002 0.21015519 0.44179341 0
2.7290001 0.20606416 0.44180962 0
2.7300003 0.20196953 0.44182587 0
2.7300003 0.19776666 0.44182587 0
2.7310002 0.19366658 0.44184211 0
2.7320001 0.1895629 0.44185835 0
2.7330003 0.18545565 0.44187456 0
2.7340002 0.18134476 0.44189081 0
2.7340002 0.17713468 0.44189081 0
2.7350001 0.17301838 0.44190705 0
2.7360003 0.16889849 0.44192329 0
2.7370002 0.16477498 0.4419395 0
2.7380002 0.16064787 0.44195575 0
2.7390003 0.15651716 0.44197199 0
2.7390003 0.15229806 0.44197199 0
2.7400002 0.14816192 0.44198823 0
2.7410002 0.14402217 0.44200444 0
2.7420001 0.13987882 0.44202068 0
2.7430003 0.13573188 0.44203693 0
2.7430003 0.13150555 0.44203693 0
2.7440002 0.12735318 0.44205314 0
2.7450001 0.12319721 0.44206938 0
2.7460003 0.11903764 0.44208562 0
2.7470002 0.11487444 0.44210187 0
2.7480001 0.11070763 0.44211808 0
2.7480001 0.10647228 0.44211808 0
2.7490003 0.10230009 0.44213432 0
2.7500002 0.098124266 0.44215056 0
2.7510002 0.093944848 0.44216681 0
2.7520001 0.089761809 0.44218302 0
2.7520001 0.085519254 0.44218302 0
2.7530003 0.081330821 0.44219926 0
2.7540002 0.077138782 0.4422155 0
2.7550001 0.072943106 0.44223171 0
2.7560003 0.068743855 0.44224796 0
2.7570002 0.064540967 0.4422642 0
2.7570002 0.060289402 0.4422642 0
2.7580001 0.056081112 0.44228044 0
2.7590003 0.051869225 0.44229668 0
2.7600002 0.047653724 0.4423129 0
2.7610002 0.043434616 0.44232914 0
2.7620003 0.03921191 0.44234538 0
2.7620003 0.034951311 0.44234538 0
2.7630002 0.030723181 0.44236159 0
2.7640002 0.026491445 0.44237784 0
2.7650001 0.022256102 0.44239408 0
2.7660003 0.018017154 0.44241032 0
2.7670002 0.013774596 0.44242653 0
2.7670002 0.0095049851 0.44242653 0
2.7680001 0.0052570142 0.44244277 0
2.7690003 0.001005441 0.44245902 0
2.7700002 -0.0032497458 0.44247526 0
2.7710001 -0.0075085349 0.44249147 0
2.7720003 -0.011770934 0.44250771 0
2.7720003 -0.016049566 0.44250771 0
2.7730002 -0.020317378 0.44252396 0
2.7740002 -0.024588795 0.44254017 0
2.7750001 -0.028863823 0.44255641 0
2.7760003 -0.033142455 0.44257265 0
2.7770002 -0.037424695 0.4425889 0
2.7770002 -0.041712347 0.4425889 0
2.7780001 -0.046 0.44260511 0
2.7790003 -0.050291259 0.44262135 0
2.7800002 -0.054586127 0.44263759 0
2.7810001 -0.058884602 0.44265383 0
2.7820003 -0.06318669 0.44267005 0
2.7820003 -0.067483358 0.44267005 0
2.7320001 0.32837677 0.43765187 0
2.7060001 0.32004318 0.43727666 0
2.7070003 0.31604055 0.43729109 0
2.7080002 0.31203428 0.43730554 0
2.7090001 0.30802441 0.43731996 0
2.7100003 0.30401096 0.43733439 0
2.7100003 0.29984415 0.43733439 0
2.7110002 0.29582527 0.43734881 0
2.7120001 0.29180276 0.43736324 0
2.7130003 0.28777668 0.43737769 0
2.7140002 0.28374699 0.43739212 0
2.7140002 0.27957293 0.43739212 0
2.7150002 0.27553782 0.43740654 0
2.7160003 0.27149913 0.43742096 0
2.7170002 0.26745677 0.43743539 0
2.7180002 0.26341084 0.43744984 0
2.7180002 0.2592296 0.43744984 0
2.7190001 0.25517824 0.43746427 0
2.7200003 0.25112331 0.43747869 0
2.7210002 0.24706471 0.43749312 0
2.7220001 0.24300253 0.43750757 0
2.7220001 0.23881409 0.43750757 0
2.7230003 0.23474652 0.43752199 0
2.7240002 0.23067531 0.43753642 0
2.7250001 0.2266005 0.43755084 0
2.7260003 0.22252211 0.43756527 0
2.7260003 0.21832645 0.43756527 0
2.7270002 0.21424261 0.43757972 0
2.7280002 0.21015519 0.43759415 0
2.7290001 0.20606416 0.43760857 0
2.7300003 0.20196953 0.43762299 0
2.7300003 0.19776666 0.43762299 0
2.7310002 0.19366658 0.43763742 0
2.7320001 0.1895629 0.43765187 0
2.7330003 0.18545565 0.4376663 0
2.7340002 0.18134476 0.43768072 0
2.7340002 0.17713468 0.43768072 0
2.7350001 0.17301838 0.43769515 0
2.7360003 0.16889849 0.43770957 0
2.7370002 0.16477498 0.43772402 0
2.7380002 0.16064787 0.43773845 0
2.7390003 0.15651716 0.43775287 0
2.7390003 0.15229806 0.43775287 0
2.7400002 0.14816192 0.4377673 0
2.7410002 0.14402217 0.43778172 0
2.7420001 0.13987882 0.43779618 0
2.7430003 0.13573188 0.4378106 0
2.7430003 0.13150555 0.4378106 0
2.7440002 0.12735318 0.43782502 0
2.7450001 0.12319721 0.43783945 0
2.7460003 0.11903764 0.43785387 0
2.7470002 0.11487444 0.43786833 0
2.7480001 0.11070763 0.43788275 0
2.7480001 0.10647228 0.43788275 0
2.7490003 0.10230009 0.43789718 0
2.7500002 0.098124266 0.4379116 0
2.7510002 0.093944848 0.43792605 0
2.7520001 0.089761809 0.43794048 0
2.7520001 0.085519254 0.43794048 0
2.7530003 0.081330821 0.4379549 0
2.7540002 0.077138782 0.43796933 0
2.7550001 0.072943106 0.43798375 0
2.7560003 0.068743855 0.43799821 0
2.7570002 0.064540967 0.43801263 0
2.7570002 0.060289402 0.43801263 0
2.7580001 0.056081112 0.43802705 0
2.7590003 0.051869225 0.43804148 0
2.7600002 0.047653724 0.4380559 0
2.7610002 0.043434616 0.43807036 0
2.7620003 0.03921191 0.43808478 0
2.7620003 0.034951311 0.43808478 0
2.7630002 0.030723181 0.43809921 0
2.7640002 0.026491445 0.43811363 0
2.7650001 0.022256102 0.43812805 0
2.7660003 0.018017154 0.43814251 0
2.7670002 0.013774596 0.43815693 0
2.7670002 0.0095049851 0.43815693 0
2.7680001 0.0052570142 0.43817136 0
2.7690003 0.001005441 0.43818578 0
2.7700002 -0.0032497458 0.43820021 0
2.7710001 -0.0075085349 0.43821466 0
2.7720003 -0.011770934 0.43822908 0
2.7720003 -0.016049566 0.43822908 0
2.7730002 -0.020317378 0.43824351 0
2.7740002 -0.024588795 0.43825793 0
2.7750001 -0.028863823 0.43827236 0
2.7760003 -0.033142455 0.43828681 0
2.7770002 -0.037424695 0.43830124 0
2.7770002 -0.041712347 0.43830124 0
2.7780001 -0.046 0.43831566 0
2.7790003 -0.050291259 0.43833008 0
2.7800002 -0.054586127 0.43834454 0
2.7810001 -0.058884602 0.43835896 0
2.7820003 -0.06318669 0.43837339 0
2.7820003 -0.067483358 0.43837339 0
2.7320001 0.32837677 0.43344536 0
2.7060001 0.32004318 0.43311709 0
2.7070003 0.31604055 0.43312973 0
2.7080002 0.31203428 0.43314233 0
2.7090001 0.30802441 0.43315497 0
2.7100003 0.30401096 0.43316761 0
2.7100003 0.29984415 0.43316761 0
2.7110002 0.29582527 0.43318021 0
2.7120001 0.29180276 0.43319285 0
2.7130003 0.28777668 0.43320549 0
2.7140002 0.28374699 0.43321809 0
2.7140002 0.27957293 0.43321809 0
2.7150002 0.27553782 0.43323073 0
2.7160003 0.27149913 0.43324336 0
2.7170002 0.26745677 0.43325597 0
2.7180002 0.26341084 0.43326861 0
2.7180002 0.2592296 0.43326861 0
2.7190001 0.25517824 0.43328124 0
2.7200003 0.25112331 0.43329385 0
2.7210002 0.24706471 0.43330649 0
2.7220001 0.24300253 0.43331912 0
2.7220001 0.23881409 0.43331912 0
2.7230003 0.23474652 0.43333173 0
2.7240002 0.23067531 0.43334436 0
2.7250001 0.2266005 0.433357 0
2.7260003 0.22252211 0.43336964 0
2.7260003 0.21832645 0.43336964 0
2.7270002 0.21424261 0.43338224 0
2.7280002 0.21015519 0.43339488 0
2.7290001 0.20606416 0.43340749 0
2.7300003 0.20196953 0.43342012 0
2.7300003 0.19776666 0.43342012 0
2.7310002 0.19366658 0.43343276 0
2.7320001 0.1895629 0.43344536 0
2.7330003 0.18545565 0.433458 0
2.7340002 0.18134476 0.43347064 0
2.7340002 0.17713468 0.43347064 0
2.7350001 0.17301838 0.43348327 0
2.7360003 0.16889849 0.43349588 0
2.7370002 0.16477498 0.43350852 0
2.7380002 0.16064787 0.43352115 0
2.7390003 0.15651716 0.43353376 0
2.7390003 0.15229806 0.43353376 0
2.7400002 0.14816192 0.43354639 0
2.7410002 0.14402217 0.43355903 0
2.7420001 0.13987882 0.43357164 0
2.7430003 0.13573188 0.43358427 0
2.7430003 0.13150555 0.43358427 0
2.7440002 0.12735318 0.43359691 0
2.7450001 0.12319721 0.43360952 0
2.7460003 0.11903764 0.43362215 0
2.7470002 0.11487444 0.43363479 0
2.7480001 0.11070763 0.43364739 0
2.7480001 0.10647228 0.43364739 0
2.7490003 0.10230009 0.43366003 0
2.7500002 0.098124266 0.43367267 0
2.7510002 0.093944848 0.43368527 0
2.7520001 0.089761809 0.43369791 0
2.7520001 0.085519254 0.43369791 0
2.7530003 0.081330821 0.43371055 0
2.7540002 0.077138782 0.43372315 0
2.7550001 0.072943106 0.43373579 0
2.7560003 0.068743855 0.43374842 0
2.7570002 0.064540967 0.43376106 0
2.7570002 0.060289402 0.43376106 0
2.7580001 0.056081112 0.43377367 0
2.7590003 0.051869225 0.4337863 0
2.7600002 0.047653724 0.43379894 0
2.7610002 0.043434616 0.43381155 0
2.7620003 0.03921191 0.43382418 0
2.7620003 0.034951311 0.43382418 0
2.7630002 0.030723181 0.43383682 0
2.7640002 0.026491445 0.43384942 0
2.7650001 0.022256102 0.43386206 0
2.7660003 0.018017154 0.4338747 0
2.7670002 0.013774596 0.4338873 0
2.7670002 0.0095049851 0.4338873 0
2.7680001 0.0052570142 0.43389994 0
2.7690003 0.001005441 0.43391258 0
2.7700002 -0.0032497458 0.43392518 0
2.7710001 -0.0075085349 0.43393782 0
2.7720003 -0.011770934 0.43395045 0
2.7720003 -0.016049566 0.43395045 0
2.7730002 -0.020317378 0.43396306 0
2.7740002 -0.024588795 0.4339757 0
2.7750001 -0.028863823 0.43398833 0
2.7760003 -0.033142455 0.43400097 0
2.7770002 -0.037424695 0.43401358 0
2.7770002 -0.041712347 0.43401358 0
2.7780001 -0.046 0.43402621 0
2.7790003 -0.050291259 0.43403885 0
2.7800002 -0.054586127 0.43405145 0
2.7810001 -0.058884602 0.43406409 0
2.7820003 -0.06318669 0.43407673 0
2.7820003 -0.067483358 0.43407673 0
2.7320001 0.32837677 0.42923889 0
2.7060001 0.32004318 0.42895749 0
2.7070003 0.31604055 0.42896834 0
2.7080002 0.31203428 0.42897916 0
2.7090001 0.30802441 0.42898998 0
2.7100003 0.30401096 0.42900079 0
2.7100003 0.29984415 0.42900079 0
2.7110002 0.29582527 0.42901161 0
2.7120001 0.29180276 0.42902243 0
2.7130003 0.28777668 0.42903328 0
2.7140002 0.28374699 0.4290441 0
2.7140002 0.27957293 0.4290441 0
2.7150002 0.27553782 0.42905492 0
2.7160003 0.27149913 0.42906573 0
2.7170002 0.26745677 0.42907655 0
2.7180002 0.26341084 0.42908737 0
2.7180002 0.2592296 0.42908737 0
2.7190001 0.25517824 0.42909819 0
2.7200003 0.25112331 0.42910904 0
2.7210002 0.24706471 0.42911986 0
2.7220001 0.24300253 0.42913067 0
2.7220001 0.23881409 0.42913067 0
2.7230003 0.23474652 0.42914149 0
2.7240002 0.23067531 0.42915231 0
2.7250001 0.2266005 0.42916313 0
2.7260003 0.22252211 0.42917398 0
2.7260003 0.21832645 0.42917398 0
2.7270002 0.21424261 0.42918479 0
2.7280002 0.21015519 0.42919561 0
2.7290001 0.20606416 0.42920643 0
2.7300003 0.20196953 0.42921725 0
2.7300003 0.19776666 0.42921725 0
2.7310002 0.19366658 0.42922807 0
2.7320001 0.1895629 0.42923889 0
2.7330003 0.18545565 0.42924973 0
2.7340002 0.18134476 0.42926055 0
2.7340002 0.17713468 0.42926055 0
2.7350001 0.17301838 0.42927137 0
2.7360003 0.16889849 0.42928219 0
2.7370002 0.16477498 0.42929301 0
2.7380002 0.16064787 0.42930382 0
2.7390003 0.15651716 0.42931467 0
2.7390003 0.15229806 0.42931467 0
2.7400002 0.14816192 0.42932549 0
2.7410002 0.14402217 0.42933631 0
2.7420001 0.13987882 0.42934713 0
2.7430003 0.13573188 0.42935795 0
2.7430003 0.13150555 0.42935795 0
2.7440002 0.12735318 0.42936876 0
2.7450001 0.12319721 0.42937958 0
2.7460003 0.11903764 0.42939043 0
2.7470002 0.11487444 0.42940125 0
2.7480001 0.11070763 0.42941207 0
2.7480001 0.10647228 0.42941207 0
2.7490003 0.10230009 0.42942289 0
2.7500002 0.098124266 0.4294337 0
2.7510002 0.093944848 0.42944452 0
2.7520001 0.089761809 0.42945534 0
2.7520001 0.085519254 0.42945534 0
2.7530003 0.081330821 0.42946619 0
2.7540002 0.077138782 0.42947701 0
2.7550001 0.072943106 0.42948782 0
2.7560003 0.068743855 0.42949864 0
2.7570002 0.064540967 0.42950946 0
2.7570002 0.060289402 0.42950946 0
2.7580001 0.056081112 0.42952028 0
2.7590003 0.051869225 0.42953113 0
2.7600002 0.047653724 0.42954195 0
2.7610002 0.043434616 0.42955276 0
2.7620003 0.03921191 0.42956358 0
2.7620003 0.034951311 0.42956358 0
2.7630002 0.030723181 0.4295744 0
2.7640002 0.026491445 0.42958522 0
2.7650001 0.022256102 0.42959607 0
2.7660003 0.018017154 0.42960688 0
2.7670002 0.013774596 0.4296177 0
2.7670002 0.0095049851 0.4296177 0
2.7680001 0.0052570142 0.42962852 0
2.7690003 0.001005441 0.42963934 0
2.7700002 -0.0032497458 0.42965016 0
2.7710001 -0.0075085349 0.42966098 0
2.7720003 -0.011770934 0.42967182 0
2.7720003 -0.016049566 0.42967182 0
2.7730002 -0.020317378 0.42968264 0
2.7740002 -0.024588795 0.42969346 0
2.7750001 -0.028863823 0.42970428 0
2.7760003 -0.033142455 0.4297151 0
2.7770002 -0.037424695 0.42972592 0
2.7770002 -0.041712347 0.42972592 0
2.7780001 -0.046 0.42973673 0
2.7790003 -0.050291259 0.42974758 0
2.7800002 -0.054586127 0.4297584 0
2.7810001 -0.058884602 0.42976922 0
2.7820003 -0.06318669 0.42978004 0
2.7820003 -0.067483358 0.42978004 0
2.7320001 0.32837677 0.42503241 0
2.7060001 0.32004318 0.42479792 0
2.7070003 0.31604055 0.42480695 0
2.7080002 0.31203428 0.42481595 0
2.7090001 0.30802441 0.42482498 0
2.7100003 0.30401096 0.42483401 0
2.7100003 0.29984415 0.42483401 0
2.7110002 0.29582527 0.42484301 0
2.7120001 0.29180276 0.42485204 0
2.7130003 0.28777668 0.42486104 0
2.7140002 0.28374699 0.42487007 0
2.7140002 0.27957293 0.42487007 0
2.7150002 0.27553782 0.4248791 0
2.7160003 0.27149913 0.4248881 0
2.7170002 0.26745677 0.42489713 0
2.7180002 0.26341084 0.42490616 0
2.7180002 0.2592296 0.42490616 0
2.7190001 0.25517824 0.42491516 0
2.7200003 0.25112331 0.42492419 0
2.7210002 0.24706471 0.4249332 0
2.7220001 0.24300253 0.42494223 0
2.7220001 0.23881409 0.42494223 0
2.7230003 0.23474652 0.42495126 0
2.7240002 0.23067531 0.42496026 0
2.7250001 0.2266005 0.42496929 0
2.7260003 0.22252211 0.42497832 0
2.7260003 0.21832645 0.42497832 0
2.7270002 0.21424261 0.42498732 0
2.7280002 0.21015519 0.42499635 0
2.7290001 0.20606416 0.42500538 0
2.7300003 0.20196953 0.42501438 0
2.7300003 0.19776666 0.42501438 0
2.7310002 0.19366658 0.42502341 0
2.7320001 0.1895629 0.42503241 0
2.7330003 0.18545565 0.42504144 0
2.7340002 0.18134476 0.42505047 0
2.7340002 0.17713468 0.42505047 0
2.7350001 0.17301838 0.42505947 0
2.7360003 0.16889849 0.4250685 0
2.7370002 0.16477498 0.4250775 0
2.7380002 0.16064787 0.42508653 0
2.7390003 0.15651716 0.42509556 0
2.7390003 0.15229806 0.42509556 0
2.7400002 0.14816192 0.42510456 0
2.7410002 0.14402217 0.42511359 0
2.7420001 0.13987882 0.42512262 0
2.7430003 0.13573188 0.42513162 0
2.7430003 0.13150555 0.42513162 0
2.7440002 0.12735318 0.42514065 0
2.7450001 0.12319721 0.42514968 0
2.7460003 0.11903764 0.42515868 0
2.7470002 0.11487444 0.42516771 0
2.7480001 0.11070763 0.42517671 0
2.7480001 0.10647228 0.42517671 0
2.7490003 0.10230009 0.42518574 0
2.7500002 0.098124266 0.42519477 0
2.7510002 0.093944848 0.42520377 0
2.7520001 0.089761809 0.4252128 0
2.7520001 0.085519254 0.4252128 0
2.7530003 0.081330821 0.42522183 0
2.7540002 0.077138782 0.42523083 0
2.7550001 0.072943106 0.42523986 0
2.7560003 0.068743855 0.42524886 0
2.7570002 0.064540967 0.42525789 0
2.7570002 0.060289402 0.42525789 0
2.7580001 0.056081112 0.42526692 0
2.7590003 0.051869225 0.42527592 0
2.7600002 0.047653724 0.42528495 0
2.7610002 0.043434616 0.42529398 0
2.7620003 0.03921191 0.42530298 0
2.7620003 0.034951311 0.42530298 0
2.7630002 0.030723181 0.42531201 0
2.7640002 0.026491445 0.42532104 0
2.7650001 0.022256102 0.42533004 0
2.7660003 0.018017154 0.42533907 0
2.7670002 0.013774596 0.42534807 0
2.7670002 0.0095049851 0.42534807 0
2.7680001 0.0052570142 0.4253571 0
2.7690003 0.001005441 0.42536613 0
2.7700002 -0.0032497458 0.42537513 0
2.7710001 -0.0075085349 0.42538416 0
2.7720003 -0.011770934 0.42539316 0
2.7720003 -0.016049566 0.42539316 0
2.7730002 -0.020317378 0.42540219 0
2.7740002 -0.024588795 0.42541122 0
2.7750001 -0.028863823 0.42542022 0
2.7760003 -0.033142455 0.42542925 0
2.7770002 -0.037424695 0.42543828 0
2.7770002 -0.041712347 0.42543828 0
2.7780001 -0.046 0.42544729 0
2.7790003 -0.050291259 0.42545632 0
2.7800002 -0.054586127 0.42546535 0
2.7810001 -0.058884602 0.42547435 0
2.7820003 -0.06318669 0.42548338 0
2.7820003 -0.067483358 0.42548338 0
2.7320001 0.32837677 0.42082593 0
2.7060001 0.32004318 0.42063835 0
2.7070003 0.31604055 0.42064556 0
2.7080002 0.31203428 0.42065278 0
2.7090001 0.30802441 0.42065999 0
2.7100003 0.30401096 0.4206672 0
2.7100003 0.29984415 0.4206672 0
2.7110002 0.29582527 0.42067441 0
2.7120001 0.29180276 0.42068163 0
2.7130003 0.28777668 0.42068884 0
2.7140002 0.28374699 0.42069605 0
2.7140002 0.27957293 0.42069605 0
2.7150002 0.27553782 0.42070329 0
2.7160003 0.27149913 0.4207105 0
2.7170002 0.26745677 0.42071772 0
2.7180002 0.26341084 0.42072493 0
2.7180002 0.2592296 0.42072493 0
2.7190001 0.25517824 0.42073214 0
2.7200003 0.25112331 0.42073935 0
2.7210002 0.24706471 0.42074656 0
2.7220001 0.24300253 0.42075378 0
2.7220001 0.23881409 0.42075378 0
2.7230003 0.23474652 0.42076099 0
2.7240002 0.23067531 0.4207682 0
2.7250001 0.2266005 0.42077544 0
2.7260003 0.22252211 0.42078266 0
2.7260003 0.21832645 0.42078266 0
2.7270002 0.21424261 0.42078987 0
2.7280002 0.21015519 0.42079708 0
2.7290001 0.20606416 0.42080429 0
2.7300003 0.20196953 0.4208115 0
2.7300003 0.19776666 0.4208115 0
2.7310002 0.19366658 0.42081872 0
2.7320001 0.1895629 0.42082593 0
2.7330003 0.18545565 0.42083314 0
2.7340002 0.18134476 0.42084038 0
2.7340002 0.17713468 0.42084038 0
2.7350001 0.17301838 0.42084759 0
2.7360003 0.16889849 0.42085481 0
2.7370002 0.16477498 0.42086202 0
2.7380002 0.16064787 0.42086923 0
2.7390003 0.15651716 0.42087644 0
2.7390003 0.15229806 0.42087644 0
2.7400002 0.14816192 0.42088366 0
2.7410002 0.14402217 0.42089087 0
2.7420001 0.13987882 0.42089808 0
2.7430003 0.13573188 0.42090529 0
2.7430003 0.13150555 0.42090529 0
2.7440002 0.12735318 0.4209125 0
2.7450001 0.12319721 0.42091975 0
2.7460003 0.11903764 0.42092696 0
2.7470002 0.11487444 0.42093417 0
2.7480001 0.11070763 0.42094138 0
2.7480001 0.10647228 0.42094138 0
2.7490003 0.10230009 0.42094859 0
2.7500002 0.098124266 0.42095581 0
2.7510002 0.093944848 0.42096302 0
2.7520001 0.089761809 0.42097023 0
2.7520001 0.085519254 0.42097023 0
2.7530003 0.081330821 0.42097747 0
2.7540002 0.077138782 0.42098469 0
2.7550001 0.072943106 0.4209919 0
2.7560003 0.068743855 0.42099911 0
2.7570002 0.064540967 0.42100632 0
2.7570002 0.060289402 0.42100632 0
2.7580001 0.056081112 0.42101353 0
2.7590003 0.051869225 0.42102075 0
2.7600002 0.047653724 0.42102796 0
2.7610002 0.043434616 0.42103517 0
2.7620003 0.03921191 0.42104238 0
2.7620003 0.034951311 0.42104238 0
2.7630002 0.030723181 0.42104959 0
2.7640002 0.026491445 0.42105684 0
2.7650001 0.022256102 0.42106405 0
2.7660003 0.018017154 0.42107126 0
2.7670002 0.013774596 0.42107847 0
2.7670002 0.0095049851 0.42107847 0
2.7680001 0.0052570142 0.42108569 0
2.7690003 0.001005441 0.4210929 0
2.7700002 -0.0032497458 0.42110011 0
2.7710001 -0.0075085349 0.42110732 0
2.7720003 -0.011770934 0.42111453 0
2.7720003 -0.016049566 0.42111453 0
2.7730002 -0.020317378 0.42112178 0
2.7740002 -0.024588795 0.42112899 0
2.7750001 -0.028863823 0.4211362 0
2.7760003 -0.033142455 0.42114341 0
2.7770002 -0.037424695 0.42115062 0
2.7770002 -0.041712347 0.42115062 0
2.7780001 -0.046 0.42115784 0
2.7790003 -0.050291259 0.42116505 0
2.7800002 -0.054586127 0.42117226 0
2.7810001 -0.058884602 0.42117947 0
2.7820003 -0.06318669 0.42118669 0
2.7820003 -0.067483358 0.42118669 0
2.7320001 0.32837677 0.41661945 0
2.7060001 0.32004318 0.41647875 0
2.7070003 0.31604055 0.41648418 0
2.7080002 0.31203428 0.41648957 0
2.7090001 0.30802441 0.416495 0
2.7100003 0.30401096 0.41650042 0
2.7100003 0.29984415 0.41650042 0
2.7110002 0.29582527 0.41650581 0
2.7120001 0.29180276 0.41651124 0
2.7130003 0.28777668 0.41651663 0
2.7140002 0.28374699 0.41652206 0
2.7140002 0.27957293 0.41652206 0
2.7150002 0.27553782 0.41652745 0
2.7160003 0.27149913 0.41653287 0
2.7170002 0.26745677 0.4165383 0
2.7180002 0.26341084 0.41654369 0
2.7180002 0.2592296 0.41654369 0
2.7190001 0.25517824 0.41654912 0
2.7200003 0.25112331 0.41655451 0
2.7210002 0.24706471 0.41655993 0
2.7220001 0.24300253 0.41656533 0
2.7220001 0.23881409 0.41656533 0
2.7230003 0.23474652 0.41657075 0
2.7240002 0.23067531 0.41657618 0
2.7250001 0.2266005 0.41658157 0
2.7260003 0.22252211 0.416587 0
2.7260003 0.21832645 0.416587 0
2.7270002 0.21424261 0.41659239 0
2.7280002 0.21015519 0.41659781 0
2.7290001 0.20606416 0.41660321 0
2.7300003 0.20196953 0.41660863 0
2.7300003 0.19776666 0.41660863 0
2.7310002 0.19366658 0.41661406 0
2.7320001 0.1895629 0.41661945 0
2.7330003 0.18545565 0.41662487 0
2.7340002 0.18134476 0.41663027 0
2.7340002 0.17713468 0.41663027 0
2.7350001 0.17301838 0.41663569 0
2.7360003 0.16889849 0.41664112 0
2.7370002 0.16477498 0.41664651 0
2.7380002 0.16064787 0.41665193 0
2.7390003 0.15651716 0.41665733 0
2.7390003 0.15229806 0.41665733 0
2.7400002 0.14816192 0.41666275 0
2.7410002 0.14402217 0.41666815 0
2.7420001 0.13987882 0.41667357 0
2.7430003 0.13573188 0.41667899 0
2.7430003 0.13150555 0.41667899 0
2.7440002 0.12735318 0.41668439 0
2.7450001 0.12319721 0.41668981 0
2.7460003 0.11903764 0.41669521 0
2.7470002 0.11487444 0.41670063 0
2.7480001 0.11070763 0.41670603 0
2.7480001 0.10647228 0.41670603 0
2.7490003 0.10230009 0.41671145 0
2.7500002 0.098124266 0.41671687 0
2.7510002 0.093944848 0.41672227 0
2.7520001 0.089761809 0.41672769 0
2.7520001 0.085519254 0.41672769 0
2.7530003 0.081330821 0.41673309 0
2.7540002 0.077138782 0.41673851 0
2.7550001 0.072943106 0.4167439 0
2.7560003 0.068743855 0.41674933 0
2.7570002 0.064540967 0.41675475 0
2.7570002 0.060289402 0.41675475 0
2.7580001 0.056081112 0.41676015 0
2.7590003 0.051869225 0.41676557 0
2.7600002 0.047653724 0.41677096 0
2.7610002 0.043434616 0.41677639 0
2.7620003 0.03921191 0.41678181 0
2.7620003 0.034951311 0.41678181 0
2.7630002 0.030723181 0.41678721 0
2.7640002 0.026491445 0.41679263 0
2.7650001 0.022256102 0.41679803 0
2.7660003 0.018017154 0.41680345 0
2.7670002 0.013774596 0.41680884 0
2.7670002 0.0095049851 0.41680884 0
2.7680001 0.0052570142 0.41681427 0
2.7690003 0.001005441 0.41681969 0
2.7700002 -0.0032497458 0.41682509 0
2.7710001 -0.0075085349 0.41683051 0
2.7720003 -0.011770934 0.4168359 0
2.7720003 -0.016049566 0.4168359 0
2.7730002 -0.020317378 0.41684133 0
2.7740002 -0.024588795 0.41684672 0
2.7750001 -0.028863823 0.41685215 0
2.7760003 -0.033142455 0.41685757 0
2.7770002 -0.037424695 0.41686296 0
2.7770002 -0.041712347 0.41686296 0
2.7780001 -0.046 0.41686839 0
2.7790003 -0.050291259 0.41687378 0
2.7800002 -0.054586127 0.41687921 0
2.7810001 -0.058884602 0.4168846 0
2.7820003 -0.06318669 0.41689003 0
2.7820003 -0.067483358 0.41689003 0
2.7320001 0.32837677 0.41241297 0
2.7060001 0.32004318 0.41231918 0
2.7070003 0.31604055 0.41232279 0
2.7080002 0.31203428 0.4123264 0
2.7090001 0.30802441 0.41233 0
2.7100003 0.30401096 0.41233361 0
2.7100003 0.29984415 0.41233361 0
2.7110002 0.29582527 0.41233721 0
2.7120001 0.29180276 0.41234082 0
2.7130003 0.28777668 0.41234443 0
2.7140002 0.28374699 0.41234803 0
2.7140002 0.27957293 0.41234803 0
