# .PCD v0.7 - Point Cloud Data file format
VERSION 0.7
FIELDS x y z intensity
SIZE 4 4 4 4
TYPE F F F F
COUNT 1 1 1 1
WIDTH 1434
HEIGHT 1
VIEWPOINT 0 0 0 1 0 0 0
POINTS 1434
DATA ascii
3.6660004 -1.8546101 1.1286223 0
3.6620002 -1.8582789 1.1277348 0
3.6590002 -1.8624908 1.1270691 0
3.6550002 -1.8661327 1.1261817 0
3.6520002 -1.870321 1.1255161 0
3.6490002 -1.8744987 1.1248505 0
3.6470003 -1.8792303 1.1244067 0
3.6440003 -1.883388 1.1237411 0
3.6420002 -1.8881031 1.1232975 0
3.6400003 -1.8928111 1.1228536 0
3.6390002 -1.8980836 1.1226318 0
3.6380002 -1.9033525 1.1224099 0
3.6370003 -1.9086177 1.1221881 0
3.7250001 -1.8273057 1.1357148 0
3.7150002 -1.8279279 1.1335142 0
3.7060003 -1.8290536 1.1315336 0
3.6990004 -1.8312291 1.1299932 0
3.6920002 -1.8333791 1.1284527 0
3.6860003 -1.8360488 1.1271323 0
3.6800003 -1.8386968 1.1258119 0
3.6750002 -1.8418715 1.1247116 0
3.6700003 -1.8450282 1.1236113 0
3.6660004 -1.8487188 1.122731 0
3.6620002 -1.8523948 1.1218507 0
3.6580002 -1.8560567 1.1209705 0
3.6540003 -1.859704 1.1200902 0
3.6510003 -1.863896 1.1194301 0
3.6480002 -1.8680772 1.1187699 0
3.6460001 -1.8728104 1.1183296 0
3.6430004 -1.8769718 1.1176696 0
3.6410003 -1.8816888 1.1172293 0
3.6390002 -1.8863984 1.1167892 0
3.6370003 -1.8911011 1.1163492 0
3.6360002 -1.896368 1.116129 0
3.6340003 -1.9010582 1.1156889 0
3.6330001 -1.906316 1.1154689 0
3.7270002 -1.8223759 1.1301537 0
3.7160003 -1.8224841 1.1277528 0
3.7080002 -1.8241652 1.1260067 0
3.7000003 -1.8258176 1.1242607 0
3.6940002 -1.8285234 1.122951 0
3.6880002 -1.8312074 1.1216415 0
3.6820002 -1.8338697 1.1203319 0
3.6770003 -1.8370571 1.1192406 0
3.6720002 -1.8402264 1.1181493 0
3.6670003 -1.8433777 1.117058 0
3.6630003 -1.8470629 1.1161851 0
3.6590002 -1.8507335 1.115312 0
3.6550002 -1.8543899 1.1144389 0
3.6520002 -1.8585892 1.1137841 0
3.6480002 -1.8622185 1.1129111 0
3.6450002 -1.8663943 1.1122563 0
3.6430004 -1.8711221 1.1118199 0
3.6400003 -1.875278 1.111165 0
3.6380002 -1.8799896 1.1107285 0
3.6360002 -1.8846939 1.110292 0
3.6340003 -1.8893911 1.1098554 0
3.6330001 -1.8946526 1.1096371 0
3.6310003 -1.8993372 1.1092006 0
3.6300004 -1.90459 1.1089823 0
3.7300003 -1.817971 1.1248018 0
3.7200003 -1.8186384 1.1226373 0
3.7110002 -1.8198054 1.120689 0
3.7030003 -1.8214777 1.1189574 0
3.6960003 -1.8236603 1.1174423 0
3.6900003 -1.8263588 1.1161435 0
3.6840003 -1.8290356 1.1148448 0
3.6780002 -1.8316908 1.113546 0
3.6730003 -1.8348709 1.1124638 0
3.6680002 -1.838033 1.1113814 0
3.6640003 -1.8417273 1.1105156 0
3.6600003 -1.845407 1.1096498 0
3.6560001 -1.8490722 1.108784 0
3.6520002 -1.8527231 1.1079181 0
3.6490002 -1.856917 1.1072687 0
3.6460001 -1.8611 1.1066194 0
3.6430004 -1.8652723 1.10597 0
3.6400003 -1.8694338 1.1053207 0
3.6380002 -1.8741487 1.1048877 0
3.6360002 -1.8788567 1.1044548 0
3.6340003 -1.8835576 1.1040219 0
3.6320002 -1.8882509 1.1035891 0
3.6300004 -1.8929374 1.1031561 0
3.6290002 -1.8981899 1.1029396 0
3.6280003 -1.903439 1.1027231 0
3.7360003 -1.8151463 1.1200831 0
3.7240002 -1.8147782 1.1175071 0
3.7150002 -1.8159688 1.1155753 0
3.7070003 -1.8176626 1.1138581 0
3.6990004 -1.8193275 1.1121409 0
3.6920002 -1.8215029 1.1106383 0
3.6860003 -1.8241942 1.1093503 0
3.6800003 -1.8268639 1.1080625 0
3.6750002 -1.8300565 1.1069891 0
3.6700003 -1.8332312 1.1059159 0
3.6650002 -1.8363879 1.1048427 0
3.6610003 -1.8400767 1.103984 0
3.6570003 -1.8437511 1.1031255 0
3.6530004 -1.847411 1.1022668 0
3.6500003 -1.8516121 1.1016228 0
3.6470003 -1.8558023 1.100979 0
3.6430004 -1.8594226 1.1001203 0
3.6410003 -1.8641503 1.0996909 0
3.6380002 -1.8683081 1.0990471 0
3.6360002 -1.8730196 1.0986177 0
3.6340003 -1.8777241 1.0981884 0
3.6310003 -1.881853 1.0975444 0
3.6300004 -1.8871109 1.0973299 0
3.6280003 -1.8917937 1.0969005 0
3.6270003 -1.8970428 1.0966859 0
3.6260002 -1.9022881 1.0964712 0
3.7420003 -1.8122998 1.1153426 0
3.7300003 -1.8119643 1.1127884 0
3.7190003 -1.8121178 1.110447 0
3.7100003 -1.8132992 1.1085315 0
3.7020001 -1.8149838 1.1068287 0
3.6950002 -1.8171773 1.1053387 0
3.6890004 -1.8198849 1.1040616 0
3.6830003 -1.8225708 1.1027845 0
3.6780002 -1.8257779 1.1017202 0
3.6730003 -1.828967 1.100656 0
3.6680002 -1.8321381 1.0995917 0
3.6630003 -1.8352913 1.0985276 0
3.6590002 -1.8389763 1.0976762 0
3.6550002 -1.8426471 1.0968248 0
3.6510003 -1.8463035 1.0959733 0
3.6480002 -1.8505008 1.0953348 0
3.6450002 -1.8546875 1.0946962 0
3.6420002 -1.8588634 1.0940577 0
3.6390002 -1.8630283 1.0934191 0
3.6360002 -1.8671825 1.0927806 0
3.6340003 -1.8718905 1.0923549 0
3.6320002 -1.8765911 1.0919292 0
3.6300004 -1.8812847 1.0915035 0
3.6280003 -1.885971 1.0910778 0
3.6260002 -1.89065 1.0906521 0
3.6250002 -1.8958955 1.0904392 0
3.6240003 -1.9011375 1.0902264 0
3.7350004 -1.8086003 1.107837 0
3.7240002 -1.8087825 1.1055155 0
3.7150002 -1.8099891 1.103616 0
3.7070003 -1.8116974 1.1019276 0
3.6990004 -1.8133768 1.1002394 0
3.6930003 -1.8161024 1.098973 0
3.6870003 -1.8188062 1.0977068 0
3.6810002 -1.8214885 1.0964406 0
3.6760004 -1.824692 1.0953853 0
3.6710002 -1.8278775 1.0943301 0
3.6660004 -1.831045 1.0932748 0
3.6620002 -1.8347428 1.0924306 0
3.6570003 -1.8378761 1.0913755 0
3.6540003 -1.8420951 1.0907422 0
3.6500003 -1.8457497 1.0898981 0
3.6470003 -1.8499453 1.089265 0
3.6430004 -1.8535728 1.0884207 0
3.6400003 -1.8577451 1.0877876 0
3.6380002 -1.8624674 1.0873655 0
3.6350002 -1.8666198 1.0867324 0
3.6330001 -1.8713259 1.0863103 0
3.6300004 -1.8754585 1.0856773 0
3.6280003 -1.8801483 1.0852551 0
3.6270003 -1.885401 1.085044 0
3.6250002 -1.8900783 1.0846219 0
3.6240003 -1.895322 1.0844109 0
3.6220002 -1.8999865 1.0839888 0
3.7420003 -1.8062716 1.103286 0
3.7310002 -1.8064861 1.1009842 0
3.7210002 -1.8071914 1.0988919 0
3.7120004 -1.8083929 1.0970087 0
3.7050002 -1.8106295 1.095544 0
3.6970003 -1.8123052 1.09387 0
3.6910002 -1.8150271 1.0926147 0
3.6850002 -1.8177274 1.0913591 0
3.6790001 -1.8204061 1.0901037 0
3.6740003 -1.8236061 1.0890576 0
3.6690001 -1.8267881 1.0880113 0
3.6640003 -1.829952 1.0869651 0
3.6600003 -1.8336461 1.0861281 0
3.6560001 -1.8373258 1.0852911 0
3.6520002 -1.8409911 1.0844542 0
3.6480002 -1.8446422 1.0836172 0
3.6450002 -1.8488342 1.0829895 0
3.6420002 -1.8530153 1.0823618 0
3.6390002 -1.8571857 1.0817341 0
3.6360002 -1.8613453 1.0811063 0
3.6340003 -1.8660569 1.0806879 0
3.6320002 -1.8707613 1.0802693 0
3.6290002 -1.8748919 1.0796417 0
3.6270003 -1.8795801 1.0792232 0
3.6260002 -1.884831 1.0790139 0
3.6240003 -1.8895065 1.0785955 0
3.6230001 -1.8947483 1.0783862 0
3.6210003 -1.8994111 1.0779678 0
3.7520003 -1.8054923 1.0993321 0
3.7380002 -1.8041646 1.0964278 0
3.7280002 -1.8049005 1.0943534 0
3.7180002 -1.8056004 1.0922791 0
3.7100003 -1.8073286 1.0906197 0
3.7020001 -1.8090277 1.0889601 0
3.6950002 -1.8112338 1.0875081 0
3.6890004 -1.8139522 1.0862634 0
3.6830003 -1.8166488 1.0850188 0
3.6770003 -1.8193239 1.0837742 0
3.6720002 -1.8225201 1.082737 0
3.6670003 -1.8256985 1.0816997 0
3.6630003 -1.8294054 1.08087 0
3.6580002 -1.8325495 1.0798328 0
3.6550002 -1.8367757 1.0792105 0
3.6510003 -1.8404392 1.0783808 0
3.6470003 -1.8440883 1.077551 0
3.6440003 -1.8482786 1.0769287 0
3.6410003 -1.852458 1.0763065 0
3.6380002 -1.8566266 1.0756841 0
3.6350002 -1.8607844 1.0750618 0
3.6330001 -1.865494 1.0746468 0
3.6300004 -1.8696321 1.0740247 0
3.6280003 -1.8743256 1.0736097 0
3.6260002 -1.8790118 1.0731949 0
3.6250002 -1.884261 1.0729874 0
3.6230001 -1.8889346 1.0725725 0
3.6220002 -1.8941747 1.072365 0
3.6210003 -1.8994111 1.0721576 0
3.7470002 -1.8028678 1.0922575 0
3.7350004 -1.8025845 1.0897899 0
3.7250001 -1.803315 1.0877335 0
3.7150002 -1.8040096 1.0856771 0
3.7070003 -1.8057323 1.0840321 0
3.7000003 -1.8079599 1.0825926 0
3.6930003 -1.8101623 1.0811533 0
3.6870003 -1.8128771 1.0799195 0
3.6820002 -1.8161094 1.0788913 0
3.6760004 -1.8187827 1.0776575 0
3.6710002 -1.8219773 1.0766293 0
3.6670003 -1.8256985 1.0758067 0
3.6620002 -1.8288589 1.0747786 0
3.6580002 -1.8325495 1.073956 0
3.6540003 -1.8362255 1.0731335 0
3.6500003 -1.8398873 1.072311 0
3.6470003 -1.8440883 1.071694 0
3.6440003 -1.8482786 1.0710771 0
3.6400003 -1.8519007 1.0702546 0
3.6380002 -1.8566266 1.0698434 0
3.6350002 -1.8607844 1.0692264 0
3.6320002 -1.8649313 1.0686095 0
3.6300004 -1.8696321 1.0681983 0
3.6280003 -1.8743256 1.0677869 0
3.6260002 -1.8790118 1.0673758 0
3.6240003 -1.883691 1.0669645 0
3.6230001 -1.8889346 1.0667588 0
3.6210003 -1.8936012 1.0663476 0
3.6200004 -1.8988358 1.066142 0
3.7440002 -1.8012929 1.0856086 0
3.7320004 -1.8010045 1.0831627 0
3.7220004 -1.8017296 1.0811244 0
3.7130003 -1.8029488 1.0792899 0
3.7060003 -1.8052001 1.0778631 0
3.6990004 -1.8074261 1.0764363 0
3.6930003 -1.8101623 1.0752133 0
3.6860003 -1.8123397 1.0737865 0
3.6810002 -1.8155701 1.0727674 0
3.6760004 -1.8187827 1.0717481 0
3.6710002 -1.8219773 1.070729 0
3.6660004 -1.8251538 1.0697099 0
3.6620002 -1.8288589 1.0688945 0
3.6570003 -1.8320011 1.0678754 0
3.6540003 -1.8362255 1.067264 0
3.6500003 -1.8398873 1.0664486 0
3.6460001 -1.8435346 1.0656333 0
3.6430004 -1.847723 1.0650219 0
3.6400003 -1.8519007 1.0644103 0
3.6370003 -1.8560675 1.0637988 0
3.6340003 -1.8602234 1.0631872 0
3.6320002 -1.8649313 1.0627797 0
3.6300004 -1.8696321 1.062372 0
3.6280003 -1.8743256 1.0619643 0
3.6260002 -1.8790118 1.0615566 0
3.6240003 -1.883691 1.061149 0
3.6220002 -1.8883628 1.0607413 0
3.6210003 -1.8936012 1.0605376 0
3.6200004 -1.8988358 1.0603337 0
3.7540002 -1.800492 1.081597 0
3.7410002 -1.7997183 1.0789707 0
3.7300003 -1.799951 1.0767484 0
3.7210002 -1.801201 1.0749301 0
3.7130003 -1.8029488 1.073314 0
3.7050002 -1.8046679 1.0716976 0
3.6980002 -1.8068919 1.0702834 0
3.6920002 -1.8096265 1.0690713 0
3.6860003 -1.8123397 1.0678592 0
3.6800003 -1.8150309 1.0666471 0
3.6750002 -1.8182415 1.0656369 0
3.6700003 -1.8214344 1.0646267 0
3.6650002 -1.824609 1.0636166 0
3.6610003 -1.8283123 1.0628085 0
3.6570003 -1.8320011 1.0620004 0
3.6530004 -1.8356755 1.0611923 0
3.6490002 -1.8393353 1.0603842 0
3.6460001 -1.8435346 1.0597781 0
3.6430004 -1.847723 1.059172 0
3.6400003 -1.8519007 1.058566 0
3.6370003 -1.8560675 1.0579599 0
3.6340003 -1.8602234 1.0573537 0
3.6320002 -1.8649313 1.0569497 0
3.6290002 -1.8690674 1.0563437 0
3.6270003 -1.8737593 1.0559396 0
3.6260002 -1.8790118 1.0557376 0
3.6240003 -1.883691 1.0553335 0
3.6220002 -1.8883628 1.0549295 0
3.6210003 -1.8936012 1.0547274 0
3.6200004 -1.8988358 1.0545254 0
3.7520003 -1.799446 1.0751466 0
3.7400002 -1.7991934 1.0727439 0
3.7290003 -1.7994243 1.0705414 0
3.7200003 -1.8006725 1.0687394 0
3.7120004 -1.8024187 1.0671376 0
3.7040002 -1.8041358 1.0655359 0
3.6970003 -1.8063581 1.0641342 0
3.6910002 -1.8090909 1.062933 0
3.6850002 -1.811802 1.0617316 0
3.6800003 -1.8150309 1.0607305 0
3.6740003 -1.8177005 1.0595292 0
3.6700003 -1.8214344 1.0587283 0
3.6650002 -1.824609 1.0577272 0
3.6610003 -1.8283123 1.0569263 0
3.6570003 -1.8320011 1.0561254 0
3.6530004 -1.8356755 1.0553246 0
3.6490002 -1.8393353 1.0545236 0
3.6460001 -1.8435346 1.0539229 0
3.6430004 -1.847723 1.0533223 0
3.6400003 -1.8519007 1.0527216 0
3.6370003 -1.8560675 1.0521209 0
3.6340003 -1.8602234 1.0515203 0
3.6320002 -1.8649313 1.0511198 0
3.6300004 -1.8696321 1.0507194 0
3.6280003 -1.8743256 1.050319 0
3.6260002 -1.8790118 1.0499184 0
3.6240003 -1.883691 1.049518 0
3.6230001 -1.8889346 1.0493177 0
3.6210003 -1.8936012 1.0489174 0
3.6200004 -1.8988358 1.0487173 0
3.7510002 -1.7989228 1.0689018 0
3.7390003 -1.7986685 1.0665208 0
3.7280002 -1.7988975 1.0643381 0
3.7190003 -1.800144 1.0625523 0
3.7110002 -1.8018882 1.0609651 0
3.7040002 -1.8041358 1.059576 0
3.6970003 -1.8063581 1.0581871 0
3.6910002 -1.8090909 1.0569966 0
3.6850002 -1.811802 1.055806 0
3.6800003 -1.8150309 1.054814 0
3.6750002 -1.8182415 1.0538219 0
3.6700003 -1.8214344 1.0528299 0
3.6650002 -1.824609 1.0518378 0
3.6610003 -1.8283123 1.0510441 0
3.6570003 -1.8320011 1.0502504 0
3.6530004 -1.8356755 1.0494567 0
3.6500003 -1.8398873 1.0488615 0
3.6460001 -1.8435346 1.0480677 0
3.6430004 -1.847723 1.0474726 0
3.6400003 -1.8519007 1.0468773 0
3.6380002 -1.8566266 1.0464804 0
3.6350002 -1.8607844 1.0458852 0
3.6320002 -1.8649313 1.0452899 0
3.6300004 -1.8696321 1.044893 0
3.6280003 -1.8743256 1.0444963 0
3.6260002 -1.8790118 1.0440995 0
3.6240003 -1.883691 1.0437026 0
3.6230001 -1.8889346 1.0435041 0
3.6220002 -1.8941747 1.0433058 0
3.6210003 -1.8994111 1.0431073 0
3.7500002 -1.7983997 1.0626606 0
3.7380002 -1.7981435 1.0603012 0
3.7270002 -1.7983708 1.0581384 0
3.7190003 -1.800144 1.0565655 0
3.7110002 -1.8018882 1.0549926 0
3.7040002 -1.8041358 1.0536163 0
3.6970003 -1.8063581 1.05224 0
3.6910002 -1.8090909 1.0510603 0
3.6850002 -1.811802 1.0498806 0
3.6800003 -1.8150309 1.0488975 0
3.6750002 -1.8182415 1.0479144 0
3.6700003 -1.8214344 1.0469314 0
3.6660004 -1.8251538 1.046145 0
3.6620002 -1.8288589 1.0453584 0
3.6580002 -1.8325495 1.044572 0
3.6540003 -1.8362255 1.0437856 0
3.6500003 -1.8398873 1.0429991 0
3.6470003 -1.8440883 1.0424093 0
3.6440003 -1.8482786 1.0418193 0
3.6410003 -1.852458 1.0412295 0
3.6380002 -1.8566266 1.0406398 0
3.6350002 -1.8607844 1.0400499 0
3.6330001 -1.865494 1.0396566 0
3.6310003 -1.8701967 1.0392634 0
3.6290002 -1.8748919 1.0388701 0
3.6270003 -1.8795801 1.0384769 0
3.6250002 -1.884261 1.0380837 0
3.6240003 -1.8895065 1.0378871 0
3.6230001 -1.8947483 1.0376904 0
3.6210003 -1.8994111 1.0372972 0
3.7490003 -1.7978767 1.0564231 0
3.7380002 -1.7981435 1.05428 0
3.7280002 -1.7988975 1.0523319 0
3.7190003 -1.800144 1.0505787 0
3.7120004 -1.8024187 1.0492151 0
3.7050002 -1.8046679 1.0478513 0
3.6980002 -1.8068919 1.0464877 0
3.6920002 -1.8096265 1.0453187 0
3.6860003 -1.8123397 1.04415 0
3.6810002 -1.8155701 1.0431758 0
3.6760004 -1.8187827 1.0422018 0
3.6710002 -1.8219773 1.0412277 0
3.6660004 -1.8251538 1.0402538 0
3.6620002 -1.8288589 1.0394745 0
3.6580002 -1.8325495 1.0386952 0
3.6540003 -1.8362255 1.0379159 0
3.6510003 -1.8404392 1.0373316 0
3.6470003 -1.8440883 1.0365523 0
3.6440003 -1.8482786 1.0359678 0
3.6410003 -1.852458 1.0353833 0
3.6390002 -1.8571857 1.0349938 0
3.6360002 -1.8613453 1.0344093 0
3.6340003 -1.8660569 1.0340197 0
3.6320002 -1.8707613 1.03363 0
3.6300004 -1.8754585 1.0332404 0
3.6280003 -1.8801483 1.0328509 0
3.6260002 -1.884831 1.0324613 0
3.6250002 -1.8900783 1.0322664 0
3.6230001 -1.8947483 1.0318768 0
3.6220002 -1.8999865 1.031682 0
3.7500002 -1.7983997 1.050575 0
3.7390003 -1.7986685 1.048452 0
3.7290003 -1.7994243 1.0465219 0
3.7200003 -1.8006725 1.0447849 0
3.7120004 -1.8024187 1.0432408 0
3.7050002 -1.8046679 1.0418897 0
3.6990004 -1.8074261 1.0407318 0
3.6930003 -1.8101623 1.0395737 0
3.6870003 -1.8128771 1.0384156 0
3.6810002 -1.8155701 1.0372576 0
3.6760004 -1.8187827 1.0362926 0
3.6720002 -1.8225201 1.0355204 0
3.6670003 -1.8256985 1.0345554 0
3.6630003 -1.8294054 1.0337834 0
3.6590002 -1.8330977 1.0330114 0
3.6550002 -1.8367757 1.0322393 0
3.6520002 -1.8409911 1.0316603 0
3.6480002 -1.8446422 1.0308883 0
3.6460001 -1.8493897 1.0305022 0
3.6430004 -1.8535728 1.0299233 0
3.6400003 -1.8577451 1.0293443 0
3.6370003 -1.8619064 1.0287653 0
3.6350002 -1.8666198 1.0283792 0
3.6330001 -1.8713259 1.0279932 0
3.6310003 -1.8760248 1.0276072 0
3.6290002 -1.8807164 1.0272212 0
3.6270003 -1.885401 1.0268352 0
3.6260002 -1.89065 1.0266421 0
3.6250002 -1.8958955 1.0264491 0
3.6240003 -1.9011375 1.0262561 0
3.7510002 -1.7989228 1.0447235 0
3.7400002 -1.7991934 1.0426203 0
3.7300003 -1.799951 1.0407082 0
3.7210002 -1.801201 1.0389874 0
3.7130003 -1.8029488 1.0374578 0
3.7060003 -1.8052001 1.0361193 0
3.6990004 -1.8074261 1.034781 0
3.6930003 -1.8101623 1.0336337 0
3.6870003 -1.8128771 1.0324866 0
3.6820002 -1.8161094 1.0315304 0
3.6770003 -1.8193239 1.0305744 0
3.6730003 -1.8230633 1.0298096 0
3.6680002 -1.8262433 1.0288537 0
3.6640003 -1.829952 1.0280888 0
3.6600003 -1.8336461 1.027324 0
3.6570003 -1.8378761 1.0267504 0
3.6530004 -1.8415433 1.0259856 0
3.6500003 -1.8457497 1.025412 0
3.6470003 -1.8499453 1.0248383 0
3.6440003 -1.8541301 1.0242647 0
3.6410003 -1.8583043 1.0236912 0
3.6390002 -1.8630283 1.0233088 0
3.6360002 -1.8671825 1.022735 0
3.6340003 -1.8718905 1.0223527 0
3.6320002 -1.8765911 1.0219703 0
3.6300004 -1.8812847 1.021588 0
3.6290002 -1.8865409 1.0213966 0
3.6270003 -1.8912219 1.0210142 0
3.6260002 -1.8964691 1.020823 0
3.6250002 -1.9017128 1.0206318 0
3.7520003 -1.799446 1.0388684 0
3.7410002 -1.7997183 1.036785 0
3.7310002 -1.8004776 1.0348909 0
3.7220004 -1.8017296 1.0331864 0
3.7140002 -1.8034792 1.0316712 0
3.7070003 -1.8057323 1.0303453 0
3.7010002 -1.8084937 1.0292089 0
3.6950002 -1.8112338 1.0280726 0
3.6890004 -1.8139522 1.0269362 0
3.6840003 -1.8171883 1.0259892 0
3.6790001 -1.8204061 1.0250422 0
3.6740003 -1.8236061 1.0240952 0
3.6700003 -1.8273327 1.0233376 0
3.6660004 -1.831045 1.02258 0
3.6620002 -1.8347428 1.0218223 0
3.6580002 -1.8384262 1.0210648 0
3.6550002 -1.8426471 1.0204966 0
3.6510003 -1.8463035 1.0197389 0
3.6480002 -1.8505008 1.0191708 0
3.6450002 -1.8546875 1.0186026 0
3.6420002 -1.8588634 1.0180343 0
3.6400003 -1.8635894 1.0176556 0
3.6380002 -1.8683081 1.0172768 0
3.6360002 -1.8730196 1.0168979 0
3.6340003 -1.8777241 1.0165192 0
3.6320002 -1.882421 1.0161403 0
3.6300004 -1.8871109 1.0157616 0
3.6290002 -1.8923655 1.0155722 0
3.6280003 -1.8976164 1.0153828 0
3.6270003 -1.9028637 1.0151933 0
3.7540002 -1.800492 1.0331972 0
3.7430003 -1.8007681 1.0311337 0
3.7330003 -1.8015312 1.0292577 0
3.7240002 -1.8027865 1.0275693 0
3.7170002 -1.8050702 1.0262561 0
3.7090003 -1.8067966 1.0247554 0
3.7030003 -1.8095617 1.0236298 0
3.6970003 -1.8123052 1.0225042 0
3.6910002 -1.8150271 1.0213786 0
3.6860003 -1.818267 1.0204407 0
3.6810002 -1.8214885 1.0195026 0
3.6760004 -1.824692 1.0185647 0
3.6720002 -1.8284223 1.0178143 0
3.6670003 -1.8315916 1.0168763 0
3.6630003 -1.8352913 1.0161259 0
3.6600003 -1.8395265 1.0155632 0
3.6560001 -1.843199 1.0148127 0
3.6530004 -1.847411 1.0142499 0
3.6500003 -1.8516121 1.0136873 0
3.6470003 -1.8558023 1.0131245 0
3.6440003 -1.8599818 1.0125616 0
3.6420002 -1.8647113 1.0121864 0
3.6400003 -1.8694338 1.0118113 0
3.6370003 -1.8735843 1.0112485 0
3.6360002 -1.8788567 1.0110608 0
3.6340003 -1.8835576 1.0106857 0
3.6320002 -1.8882509 1.0103105 0
3.6310003 -1.8935091 1.0101229 0
3.6300004 -1.8987638 1.0099353 0
3.6290002 -1.9040145 1.0097476 0
3.7580004 -1.8025845 1.0278904 0
3.7460003 -1.8023428 1.0256609 0
3.7360003 -1.8031113 1.023803 0
3.7270002 -1.8043721 1.0221308 0
3.7190003 -1.8061309 1.0206445 0
3.7120004 -1.8083929 1.019344 0
3.7050002 -1.8106295 1.0180434 0
3.6990004 -1.8133768 1.0169287 0
3.6930003 -1.8161024 1.0158138 0
3.6880002 -1.8193456 1.0148849 0
3.6830003 -1.8225708 1.013956 0
3.6780002 -1.8257779 1.013027 0
3.6730003 -1.828967 1.0120981 0
3.6690001 -1.8326846 1.0113548 0
3.6650002 -1.8363879 1.0106117 0
3.6620002 -1.8406268 1.0100543 0
3.6580002 -1.844303 1.0093111 0
3.6550002 -1.8485185 1.0087538 0
3.6520002 -1.8527231 1.0081965 0
3.6490002 -1.856917 1.0076391 0
3.6460001 -1.8611 1.0070816 0
3.6440003 -1.8658333 1.0067101 0
3.6420002 -1.8705592 1.0063385 0
3.6390002 -1.8747133 1.0057811 0
3.6370003 -1.8794233 1.0054095 0
3.6360002 -1.8846939 1.0052238 0
3.6340003 -1.8893911 1.0048522 0
3.6330001 -1.8946526 1.0046663 0
3.6320002 -1.8999107 1.0044806 0
3.6310003 -1.9051654 1.0042948 0
3.7620003 -1.8046769 1.0225692 0
3.7490003 -1.8039176 1.0201774 0
3.7380002 -1.8041646 1.0181534 0
3.7290003 -1.8054292 1.0164975 0
3.7210002 -1.8071914 1.0150256 0
3.7140002 -1.8094571 1.0137377 0
3.7070003 -1.8116974 1.0124499 0
3.7010002 -1.8144481 1.0113459 0
3.6950002 -1.8171773 1.0102419 0
3.6890004 -1.8198849 1.009138 0
3.6850002 -1.823653 1.008402 0
3.6800003 -1.8268639 1.0074822 0
3.6760004 -1.8306013 1.0067462 0
3.6720002 -1.8343242 1.0060102 0
3.6680002 -1.838033 1.0052742 0
3.6640003 -1.8417273 1.0045383 0
3.6600003 -1.845407 1.0038023 0
3.6570003 -1.8496261 1.0032504 0
3.6540003 -1.8538344 1.0026984 0
3.6510003 -1.8580317 1.0021465 0
3.6490002 -1.8627776 1.0017785 0
3.6460001 -1.8669553 1.0012264 0
3.6440003 -1.8716848 1.0008585 0
3.6420002 -1.8764071 1.0004905 0
3.6400003 -1.8811225 1.0001225 0
3.6380002 -1.8858303 0.99975455 0
3.6370003 -1.8911011 0.99957061 0
3.6350002 -1.8957962 0.99920261 0
3.6340003 -1.9010582 0.99901867 0
3.6330001 -1.906316 0.99883461 0
3.7660003 -1.8067694 1.0172335 0
3.7520003 -1.8054923 1.0146829 0
3.7410002 -1.8057448 1.0126789 0
3.7320004 -1.8070147 1.0110393 0
3.7240002 -1.8087825 1.0095817 0
3.7170002 -1.8110534 1.0083065 0
3.7100003 -1.8132992 1.0070312 0
3.7040002 -1.8160553 1.0059381 0
3.6980002 -1.8187898 1.0048449 0
3.6930003 -1.8220422 1.003934 0
3.6880002 -1.8252764 1.003023 0
3.6830003 -1.8284926 1.0021122 0
3.6780002 -1.8316908 1.0012013 0
3.6740003 -1.8354174 1.0004725 0
3.6700003 -1.8391298 0.99974382 0
3.6670003 -1.8433777 0.99919724 0
3.6630003 -1.8470629 0.99846852 0
3.6600003 -1.8512874 0.99792194 0
3.6560001 -1.8549454 0.99719322 0
3.6530004 -1.8591466 0.99664664 0
3.6510003 -1.863896 0.99628222 0
3.6490002 -1.8686382 0.99591792 0
3.6460001 -1.8728104 0.99537134 0
3.6440003 -1.8775364 0.99500692 0
3.6420002 -1.8822551 0.99464262 0
3.6410003 -1.8875349 0.99446034 0
3.6390002 -1.892241 0.99409604 0
3.6380002 -1.8975117 0.99391389 0
3.6370003 -1.902779 0.99373162 0
3.6360002 -1.9080424 0.99354947 0
3.7580004 -1.8086418 1.0097188 0
3.7460003 -1.8083783 1.0075542 0
3.7360003 -1.8091288 1.0057504 0
3.7280002 -1.8109037 1.0043074 0
3.7200003 -1.8126497 1.0028644 0
3.7130003 -1.814901 1.0016017 0
3.7070003 -1.8176626 1.0005194 0
3.7010002 -1.8204026 0.99943709 0
3.6960003 -1.8236603 0.99853528 0
3.6900003 -1.8263588 0.99745297 0
3.6860003 -1.8301215 0.9967314 0
3.6810002 -1.833325 0.99582946 0
3.6770003 -1.8370571 0.99510801 0
3.6730003 -1.8407748 0.99438643 0
3.6690001 -1.844478 0.99366486 0
3.6650002 -1.8481667 0.99294341 0
3.6620002 -1.8523948 0.9924022 0
3.6590002 -1.8566122 0.9918611 0
3.6560001 -1.8608186 0.99132001 0
3.6540003 -1.8655735 0.99095929 0
3.6520002 -1.870321 0.99059844 0
3.6490002 -1.8744987 0.99005723 0
3.6470003 -1.8792303 0.9896965 0
3.6450002 -1.8839543 0.98933578 0
3.6430004 -1.8886714 0.98897505 0
3.6420002 -1.8939511 0.98879468 0
3.6410003 -1.8992273 0.9886142 0
3.6400003 -1.9044998 0.98843396 0
3.6390002 -1.9097685 0.98825347 0
3.7640002 -1.8117911 1.0047331 0
3.7510002 -1.8110119 1.0024116 0
3.7410002 -1.8117713 1.0006258 0
3.7320004 -1.8130251 0.99901867 0
3.7240002 -1.8147782 0.99759007 0
3.7170002 -1.8170366 0.99634004 0
3.7110002 -1.8198054 0.99526846 0
3.7050002 -1.8225527 0.99419701 0
3.6990004 -1.8252783 0.99312556 0
3.6940002 -1.8285234 0.99223268 0
3.6890004 -1.8317504 0.9913398 0
3.6840003 -1.8349593 0.99044693 0
3.6800003 -1.8386968 0.98973262 0
3.6760004 -1.8424199 0.98901832 0
3.6720002 -1.8461285 0.98830402 0
3.6690001 -1.8503746 0.98776829 0
3.6660004 -1.8546101 0.98723257 0
3.6630003 -1.8588346 0.98669684 0
3.6600003 -1.8630483 0.98616111 0
3.6570003 -1.867251 0.98562539 0
3.6550002 -1.8720042 0.98526824 0
3.6520002 -1.8761871 0.98473239 0
3.6500003 -1.880924 0.98437536 0
3.6480002 -1.8856535 0.98401809 0
3.6470003 -1.8909441 0.98383963 0
3.6460001 -1.8962309 0.98366094 0
3.6440003 -1.9009426 0.98330379 0
3.6430004 -1.9062206 0.98312533 0
3.6430004 -1.9120704 0.98312533 0
3.7570002 -1.8141721 0.9974277 0
3.7460003 -1.8144139 0.99548316 0
3.7370002 -1.8156766 0.99389219 0
3.7280002 -1.8169067 0.99230123 0
3.7210002 -1.8191724 0.99106383 0
3.7140002 -1.8214127 0.98982644 0
3.7080002 -1.8241652 0.98876584 0
3.7020001 -1.8268962 0.98770511 0
3.6970003 -1.8301467 0.98682129 0
3.6920002 -1.8333791 0.98593736 0
3.6880002 -1.8371382 0.98523033 0
3.6830003 -1.8403366 0.98434639 0
3.6800003 -1.8446133 0.98381615 0
3.6760004 -1.8483291 0.98310912 0
3.6720002 -1.8520304 0.98240197 0
3.6690001 -1.8562713 0.9818716 0
3.6660004 -1.8605013 0.98134136 0
3.6630003 -1.8647203 0.980811 0
3.6600003 -1.8689287 0.98028064 0
3.6580002 -1.873687 0.97992718 0
3.6560001 -1.8784382 0.97957361 0
3.6540003 -1.8831823 0.97922003 0
3.6520002 -1.8879191 0.97886646 0
3.6510003 -1.893217 0.97868967 0
3.6490002 -1.8979411 0.9783361 0
3.6480002 -1.90323 0.97815943 0
3.6470003 -1.908515 0.97798264 0
3.6470003 -1.914372 0.97798264 0
3.7520003 -1.817585 0.99049747 0
3.7420003 -1.8183283 0.98874772 0
3.7340002 -1.8200995 0.98734796 0
3.7260003 -1.8218421 0.9859482 0
3.7190003 -1.8240913 0.98472345 0
3.7130003 -1.8268529 0.98367369 0
3.7070003 -1.8295929 0.98262382 0
3.7020001 -1.8328524 0.98174894 0
3.6970003 -1.8360939 0.98087418 0
3.6920002 -1.8393172 0.9799993 0
3.6880002 -1.8430692 0.97929943 0
3.6840003 -1.8468068 0.97859955 0
3.6800003 -1.8505298 0.97789967 0
3.6760004 -1.8542384 0.97719979 0
3.6730003 -1.8584864 0.97667491 0
3.6690001 -1.8621678 0.97597504 0
3.6670003 -1.8669498 0.97562504 0
3.6640003 -1.8711653 0.97510016 0
3.6620002 -1.875931 0.97475016 0
3.6600003 -1.8806895 0.97440028 0
3.6580002 -1.8854406 0.97405028 0
3.6560001 -1.8901846 0.9737004 0
3.6540003 -1.8949214 0.97335052 0
3.6530004 -1.9002212 0.97317553 0
3.6520002 -1.905517 0.97300053 0
3.6520002 -1.9113829 0.97300053 0
3.6510003 -1.9166737 0.97282553 0
3.7500002 -1.8225707 0.98410475 0
3.7400002 -1.8232923 0.98237312 0
3.7320004 -1.8250456 0.98098779 0
3.7250001 -1.8273057 0.97977555 0
3.7180002 -1.8295406 0.97856343 0
3.7120004 -1.8322897 0.97752452 0
3.7060003 -1.835017 0.97648549 0
3.7010002 -1.8382657 0.97561955 0
3.6960003 -1.8414963 0.97475386 0
3.6920002 -1.8452554 0.97406113 0
3.6870003 -1.8484517 0.97319531 0
3.6840003 -1.8527304 0.9726758 0
3.6800003 -1.8564463 0.97198308 0
3.6770003 -1.8607014 0.97146368 0
3.6740003 -1.8649458 0.97094417 0
3.6710002 -1.8691794 0.97042465 0
3.6690001 -1.8739612 0.97007835 0
3.6660004 -1.878175 0.96955884 0
3.6640003 -1.8829405 0.96921253 0
3.6620002 -1.887699 0.96886611 0
3.6600003 -1.8924503 0.96851981 0
3.6590002 -1.8977623 0.96834671 0
3.6580002 -1.9030712 0.9681735 0
3.6570003 -1.9083762 0.96800041 0
3.6560001 -1.9136773 0.96782708 0
3.6560001 -1.9195507 0.96782708 0
3.7470002 -1.8270171 0.97754788 0
3.7380002 -1.8282491 0.97600567 0
3.7300003 -1.8299844 0.97463477 0
3.7230003 -1.8322283 0.97343528 0
3.7170002 -1.8349863 0.9724071 0
3.7110002 -1.8377228 0.97137892 0
3.7060003 -1.8409804 0.97052205 0
3.7010002 -1.84422 0.96966529 0
3.6960003 -1.8474417 0.96880841 0
3.6920002 -1.8511934 0.96812296 0
3.6890004 -1.8554813 0.96760893 0
3.6850002 -1.8592061 0.96692348 0
3.6820002 -1.8634703 0.96640933 0
3.6790001 -1.8677236 0.9658953 0
3.6760004 -1.8719662 0.96538126 0
3.6730003 -1.8761979 0.96486712 0
3.6710002 -1.8809799 0.96452439 0
3.6680002 -1.8851917 0.96401036 0
3.6670003 -1.890522 0.96383893 0
3.6650002 -1.8952823 0.96349621 0
3.6640003 -1.9006034 0.9633249 0
3.6630003 -1.9059211 0.96315348 0
3.6620002 -1.9112352 0.96298218 0
3.6610003 -1.9165455 0.96281075 0
3.6610003 -1.9224278 0.96281075 0
3.7370002 -1.8337345 0.96981502 0
3.7300003 -1.835991 0.96862805 0
3.7230003 -1.8382225 0.9674412 0
3.7170002 -1.8409696 0.96642375 0
3.7120004 -1.8442382 0.96557605 0
3.7070003 -1.8474885 0.96472824 0
3.7020001 -1.850721 0.96388042 0
3.6980002 -1.8544837 0.96320224 0
3.6940002 -1.858232 0.96252394 0
3.6900003 -1.8619659 0.96184576 0
3.6870003 -1.8662392 0.96133709 0
3.6840003 -1.8705015 0.96082842 0
3.6810002 -1.8747531 0.96031976 0
3.6780002 -1.8789939 0.95981109 0
3.6760004 -1.8837848 0.95947194 0
3.6740003 -1.8885684 0.95913279 0
3.6720002 -1.8933449 0.95879364 0
3.6710002 -1.8986806 0.95862412 0
3.6690001 -1.9034444 0.95828497 0
3.6680002 -1.908771 0.95811546 0
3.6680002 -1.9146659 0.95811546 0
3.6670003 -1.9199871 0.95794594 0
3.6670003 -1.9258803 0.95794594 0
3.6820002 -1.7983491 0.95456922 0
3.6800003 -1.8031979 0.95423365 0
3.6790001 -1.8085767 0.95406592 0
3.6870003 -1.8188062 0.95540798 0
3.7250001 -1.8452986 0.96178257 0
3.7190003 -1.8480387 0.96077609 0
3.7130003 -1.8507571 0.95976961 0
3.7090003 -1.8545469 0.95909858 0
3.7040002 -1.8577738 0.9582597 0
3.7000003 -1.861533 0.95758879 0
3.6960003 -1.8652776 0.95691776 0
3.6920002 -1.8690079 0.95624673 0
3.6890004 -1.8732795 0.95574343 0
3.6870003 -1.8780973 0.95540798 0
3.6840003 -1.8823489 0.95490468 0
3.6820002 -1.8871506 0.95456922 0
3.6800003 -1.8919452 0.95423365 0
3.6780002 -1.8967324 0.95389819 0
3.6760004 -1.9015126 0.95356274 0
3.6750002 -1.9068536 0.95339489 0
3.6750002 -1.9127611 0.95339489 0
3.6740003 -1.9180968 0.95322716 0
3.6740003 -1.9240025 0.95322716 0
3.6740003 -1.929908 0.95322716 0
3.6840003 -1.7816459 0.94898105 0
3.6770003 -1.7838575 0.94781935 0
3.6730003 -1.7876401 0.94715559 0
3.6690001 -1.7914081 0.94649172 0
3.6670003 -1.7962334 0.94615984 0
3.6650002 -1.8010513 0.94582796 0
3.6650002 -1.8069407 0.94582796 0
3.6660004 -1.8133714 0.9459939 0
3.6690001 -1.8208913 0.94649172 0
3.6730003 -1.828967 0.94715559 0
3.6770003 -1.8370571 0.94781935 0
3.6810002 -1.8451617 0.94848311 0
3.6860003 -1.8538308 0.94931293 0
3.6910002 -1.8625178 0.95014262 0
3.6960003 -1.8712231 0.95097244 0
3.6960003 -1.8771685 0.95097244 0
3.6940002 -1.881999 0.95064044 0
3.6910002 -1.8862631 0.95014262 0
3.6880002 -1.8905166 0.9496448 0
3.6860003 -1.895322 0.94931293 0
3.6850002 -1.9006847 0.94914687 0
3.6840003 -1.9060438 0.94898105 0
3.6830003 -1.9113992 0.94881499 0
3.6820002 -1.9167511 0.94864905 0
3.6810002 -1.9220995 0.94848311 0
3.6820002 -1.9285914 0.94864905 0
3.6830003 -1.935087 0.94881499 0
3.6900003 -1.772948 0.94404221 0
3.6810002 -1.7741421 0.94256485 0
3.6750002 -1.7768892 0.94157994 0
3.6700003 -1.7801452 0.94075918 0
3.6660004 -1.7839152 0.9401027 0
3.6630003 -1.7882047 0.93961024 0
3.6610003 -1.7930189 0.93928194 0
3.6590002 -1.7978261 0.93895364 0
3.6580002 -1.8031653 0.93878949 0
3.6580002 -1.8090421 0.93878949 0
3.6590002 -1.8154619 0.93895364 0
3.6620002 -1.8229748 0.93944609 0
3.6660004 -1.831045 0.9401027 0
3.6690001 -1.8385812 0.94059503 0
3.6730003 -1.8466787 0.94125164 0
3.6770003 -1.8547904 0.94190824 0
3.6800003 -1.8623629 0.94240069 0
3.6840003 -1.8705015 0.9430573 0
3.6880002 -1.8786546 0.9437139 0
3.6920002 -1.8868223 0.94437039 0
3.6960003 -1.8950044 0.94502711 0
3.6940002 -1.8998241 0.94469881 0
3.6930003 -1.9052014 0.94453466 0
3.6920002 -1.9105748 0.94437039 0
3.6910002 -1.9159448 0.94420636 0
3.6900003 -1.9213111 0.94404221 0
3.6910002 -1.9278176 0.94420636 0
3.6920002 -1.9343274 0.94437039 0
3.6930003 -1.940841 0.94453466 0
3.6910002 -1.7675365 0.93826997 0
3.6820002 -1.7687486 0.93680882 0
3.6750002 -1.7709818 0.93567252 0
3.6700003 -1.7742467 0.93486083 0
3.6650002 -1.7774936 0.93404901 0
3.6620002 -1.7817866 0.93356204 0
3.6590002 -1.7860688 0.93307495 0
3.6560001 -1.7903402 0.93258798 0
3.6550002 -1.795676 0.93242562 0
3.6530004 -1.8004688 0.93210101 0
3.6530004 -1.8063365 0.93210101 0
3.6540003 -1.8127472 0.93226326 0
3.6550002 -1.8191614 0.93242562 0
3.6590002 -1.827219 0.93307495 0
3.6620002 -1.8347428 0.93356204 0
3.6650002 -1.8422773 0.93404901 0
3.6690001 -1.8503746 0.93469834 0
3.6720002 -1.8579326 0.93518543 0
3.6760004 -1.8660569 0.93583488 0
3.6790001 -1.8736383 0.93632185 0
3.6830003 -1.8817898 0.93697131 0
3.6870003 -1.8899556 0.93762064 0
3.6910002 -1.8981358 0.93826997 0
3.6940002 -1.905766 0.93875706 0
3.6980002 -1.9139732 0.93940639 0
3.7010002 -1.9216269 0.93989336 0
3.7020001 -1.9281511 0.94005573 0
3.7020001 -1.9341073 0.94005573 0
3.7040002 -1.9412107 0.94038045 0
3.6950002 -1.7636853 0.93297577 0
3.6840003 -1.7638748 0.9312098 0
3.6770003 -1.7661241 0.93008614 0
3.6710002 -1.7688749 0.92912292 0
3.6660004 -1.7721326 0.92832017 0
3.6620002 -1.7759025 0.92767799 0
3.6590002 -1.7801902 0.92719638 0
3.6560001 -1.784467 0.92671478 0
3.6540003 -1.7892689 0.92639375 0
3.6520002 -1.7940633 0.9260726 0
3.6510003 -1.7993901 0.92591214 0
3.6500003 -1.804713 0.92575157 0
3.6500003 -1.8105755 0.92575157 0
3.6510003 -1.8169825 0.92591214 0
3.6540003 -1.8244864 0.92639375 0
3.6570003 -1.8320011 0.92687535 0
3.6600003 -1.8395265 0.92735696 0
3.6640003 -1.8476148 0.92799902 0
3.6670003 -1.8551638 0.92848074 0
3.6710002 -1.863279 0.92912292 0
3.6740003 -1.8708515 0.92960453 0
3.6770003 -1.8784347 0.93008614 0
3.6810002 -1.8865896 0.9307282 0
3.6840003 -1.8941963 0.9312098 0
3.6880002 -1.9023784 0.93185198 0
3.6910002 -1.9100084 0.93233359 0
3.6950002 -1.9182177 0.93297577 0
3.6980002 -1.9258713 0.93345737 0
3.7010002 -1.9335355 0.93393898 0
3.7050002 -1.9417843 0.93458116 0
3.7020001 -1.7613783 0.92814338 0
3.6890004 -1.7605577 0.92607987 0
3.6810002 -1.7623055 0.92480993 0
3.6740003 -1.7645495 0.92369878 0
3.6690001 -1.7678216 0.92290509 0
3.6640003 -1.7710756 0.92211151 0
3.6600003 -1.774842 0.92147648 0
3.6570003 -1.779126 0.92100036 0
3.6540003 -1.7833993 0.92052412 0
3.6520002 -1.7881974 0.92020655 0
3.6500003 -1.7929883 0.91988921 0
3.6490002 -1.7983114 0.91973042 0
3.6480002 -1.8036307 0.91957164 0
3.6480002 -1.8094896 0.91957164 0
3.6490002 -1.8158929 0.91973042 0
3.6510003 -1.8228467 0.92004788 0
3.6540003 -1.830356 0.92052412 0
3.6580002 -1.8384262 0.92115903 0
3.6610003 -1.8459588 0.92163527 0
3.6640003 -1.8535024 0.92211151 0
3.6670003 -1.8610568 0.92258775 0
3.6700003 -1.8686219 0.92306387 0
3.6740003 -1.8767571 0.92369878 0
3.6770003 -1.8843458 0.92417502 0
3.6800003 -1.8919452 0.92465127 0
3.6830003 -1.8995556 0.92512739 0
3.6860003 -1.9071766 0.92560363 0
3.6900003 -1.9153768 0.92623854 0
3.6930003 -1.9230212 0.92671478 0
3.6960003 -1.9306766 0.92719102 0
3.7000003 -1.9389163 0.92782593 0
3.6960003 -1.7582613 0.92124557 0
3.6860003 -1.7589937 0.9196763 0
3.6790001 -1.7612593 0.91857779 0
3.6720002 -1.7634996 0.91747928 0
3.6670003 -1.7667681 0.91669464 0
3.6630003 -1.7705472 0.91606688 0
3.6590002 -1.7743115 0.91543913 0
3.6560001 -1.7785939 0.91496837 0
3.6530004 -1.7828653 0.91449761 0
3.6510003 -1.7876617 0.91418374 0
3.6490002 -1.7924507 0.91386986 0
3.6480002 -1.7977719 0.91371298 0
3.6470003 -1.8030896 0.91355598 0
3.6470003 -1.8089466 0.91355598 0
3.6480002 -1.8153483 0.91371298 0
3.6500003 -1.8223002 0.91402686 0
3.6530004 -1.8298078 0.91449761 0
3.6560001 -1.8373258 0.91496837 0
3.6590002 -1.844855 0.91543913 0
3.6620002 -1.8523948 0.91591001 0
3.6650002 -1.8599457 0.91638076 0
3.6680002 -1.8675071 0.91685152 0
3.6710002 -1.8750796 0.9173224 0
3.6740003 -1.8826628 0.91779315 0
3.6770003 -1.8902569 0.91826391 0
3.6810002 -1.8984262 0.91889167 0
3.6840003 -1.9060438 0.91936243 0
3.6870003 -1.9136721 0.9198333 0
3.6900003 -1.9213111 0.92030406 0
3.6940002 -1.9295329 0.9209317 0
3.6970003 -1.9371955 0.92140257 0
3.7000003 -1.9448689 0.92187333 0
3.7050002 -1.7569752 0.91669643 0
3.6940002 -1.7572224 0.91499007 0
3.6840003 -1.7579511 0.9134388 0
3.6770003 -1.7602131 0.91235292 0
3.6710002 -1.7629746 0.91142201 0
3.6660004 -1.7662414 0.91064656 0
3.6620002 -1.7700186 0.91002595 0
3.6580002 -1.7737813 0.90940547 0
3.6550002 -1.7780617 0.90894008 0
3.6520002 -1.7823313 0.90847468 0
3.6500003 -1.7871259 0.9081645 0
3.6490002 -1.7924507 0.90800929 0
3.6470003 -1.7972327 0.90769899 0
3.6470003 -1.8030896 0.90769899 0
3.6470003 -1.8089466 0.90769899 0
3.6470003 -1.8148036 0.90769899 0
3.6490002 -1.8217536 0.90800929 0
3.6520002 -1.8292593 0.90847468 0
3.6550002 -1.8367757 0.90894008 0
3.6580002 -1.844303 0.90940547 0
3.6610003 -1.8518412 0.90987086 0
3.6640003 -1.8593901 0.91033614 0
3.6670003 -1.8669498 0.91080153 0
3.6700003 -1.8745204 0.91126704 0
3.6730003 -1.8821019 0.91173232 0
3.6760004 -1.8896941 0.91219771 0
3.6790001 -1.897297 0.9126631 0
3.6820002 -1.9049108 0.9131285 0
3.6850002 -1.9125357 0.91359389 0
3.6890004 -1.9207413 0.91421437 0
3.6920002 -1.9283892 0.91467977 0
3.6950002 -1.9360483 0.91514516 0
3.6980002 -1.9437181 0.91561055 0
3.7020001 -1.7554221 0.91027486 0
3.6920002 -1.7561833 0.90874159 0
3.6840003 -1.7579511 0.90751505 0
3.6770003 -1.7602131 0.90644181 0
3.6710002 -1.7629746 0.90552187 0
3.6660004 -1.7662414 0.90475523 0
3.6620002 -1.7700186 0.9041419 0
3.6580002 -1.7737813 0.90352869 0
3.6550002 -1.7780617 0.90306866 0
3.6530004 -1.7828653 0.90276206 0
3.6500003 -1.7871259 0.90230203 0
3.6490002 -1.7924507 0.90214872 0
3.6470003 -1.7972327 0.90184212 0
3.6470003 -1.8030896 0.90184212 0
3.6470003 -1.8089466 0.90184212 0
3.6470003 -1.8148036 0.90184212 0
3.6490002 -1.8217536 0.90214872 0
3.6520002 -1.8292593 0.90260869 0
3.6550002 -1.8367757 0.90306866 0
3.6580002 -1.844303 0.90352869 0
3.6610003 -1.8518412 0.9039886 0
3.6640003 -1.8593901 0.90444851 0
3.6670003 -1.8669498 0.90490854 0
3.6700003 -1.8745204 0.90536857 0
3.6730003 -1.8821019 0.90582848 0
3.6760004 -1.8896941 0.9062885 0
3.6790001 -1.897297 0.90674841 0
3.6820002 -1.9049108 0.90720832 0
3.6850002 -1.9125357 0.90766835 0
3.6880002 -1.9201713 0.90812838 0
3.6910002 -1.9278176 0.90858829 0
3.6940002 -1.9354748 0.90904832 0
3.6970003 -1.9431427 0.90950823 0
3.7130003 -1.7551408 0.90598547 0
3.7000003 -1.7543868 0.90401566 0
3.6910002 -1.7556639 0.90265197 0
3.6840003 -1.7579511 0.90159136 0
3.6770003 -1.7602131 0.9005307 0
3.6710002 -1.7629746 0.89962161 0
3.6670003 -1.7667681 0.89901549 0
3.6620002 -1.7700186 0.89825785 0
3.6590002 -1.7743115 0.89780331 0
3.6550002 -1.7780617 0.89719725 0
3.6530004 -1.7828653 0.89689422 0
3.6500003 -1.7871259 0.89643967 0
3.6490002 -1.7924507 0.89628816 0
3.6470003 -1.7972327 0.89598513 0
3.6470003 -1.8030896 0.89598513 0
3.6470003 -1.8089466 0.89598513 0
3.6470003 -1.8148036 0.89598513 0
3.6490002 -1.8217536 0.89628816 0
3.6520002 -1.8292593 0.8967427 0
3.6550002 -1.8367757 0.89719725 0
3.6580002 -1.844303 0.89765179 0
3.6610003 -1.8518412 0.89810634 0
3.6640003 -1.8593901 0.898561 0
3.6670003 -1.8669498 0.89901549 0
3.6690001 -1.8739612 0.89931852 0
3.6730003 -1.8821019 0.89992464 0
3.6760004 -1.8896941 0.90037918 0
3.6790001 -1.897297 0.90083373 0
3.6820002 -1.9049108 0.90128827 0
3.6850002 -1.9125357 0.90174282 0
3.6880002 -1.9201713 0.90219742 0
3.6910002 -1.9278176 0.90265197 0
3.6940002 -1.9354748 0.90310657 0
3.7090003 -1.7530773 0.89941061 0
3.6980002 -1.7533513 0.89776361 0
3.6900003 -1.7551445 0.89656591 0
3.6840003 -1.7579511 0.89566767 0
3.6770003 -1.7602131 0.89461964 0
3.6710002 -1.7629746 0.89372134 0
3.6670003 -1.7667681 0.89312243 0
3.6620002 -1.7700186 0.89237386 0
3.6590002 -1.7743115 0.89192474 0
3.6550002 -1.7780617 0.89132583 0
3.6530004 -1.7828653 0.8910265 0
3.6500003 -1.7871259 0.89057732 0
3.6490002 -1.7924507 0.89042753 0
3.6470003 -1.7972327 0.89012814 0
3.6470003 -1.8030896 0.89012814 0
3.6470003 -1.8089466 0.89012814 0
3.6470003 -1.8148036 0.89012814 0
3.6490002 -1.8217536 0.89042753 0
3.6520002 -1.8292593 0.89087671 0
3.6550002 -1.8367757 0.89132583 0
3.6580002 -1.844303 0.89177501 0
3.6610003 -1.8518412 0.89222419 0
3.6640003 -1.8593901 0.89267331 0
3.6670003 -1.8669498 0.89312243 0
3.6690001 -1.8739612 0.89342189 0
3.6730003 -1.8821019 0.8940208 0
3.6760004 -1.8896941 0.89446992 0
3.6790001 -1.897297 0.89491904 0
3.6820002 -1.9049108 0.89536822 0
3.6850002 -1.9125357 0.89581728 0
3.6880002 -1.9201713 0.89626652 0
3.6910002 -1.9278176 0.89671564 0
3.6940002 -1.9354748 0.89716482 0
3.7210002 -1.7532774 0.8952167 0
3.7070003 -1.7520455 0.89314592 0
3.6970003 -1.7528337 0.89166677 0
3.6900003 -1.7551445 0.89063144 0
3.6840003 -1.7579511 0.88974392 0
3.6770003 -1.7602131 0.88870859 0
3.6710002 -1.7629746 0.88782108 0
3.6670003 -1.7667681 0.88722944 0
3.6620002 -1.7700186 0.88648987 0
3.6590002 -1.7743115 0.88604611 0
3.6550002 -1.7780617 0.88545442 0
3.6530004 -1.7828653 0.88515866 0
3.6500003 -1.7871259 0.88471496 0
3.6490002 -1.7924507 0.88456696 0
3.6470003 -1.7972327 0.8842712 0
3.6470003 -1.8030896 0.8842712 0
3.6470003 -1.8089466 0.8842712 0
3.6470003 -1.8148036 0.8842712 0
3.6490002 -1.8217536 0.88456696 0
3.6520002 -1.8292593 0.88501072 0
3.6550002 -1.8367757 0.88545442 0
3.6580002 -1.844303 0.88589823 0
3.6610003 -1.8518412 0.88634193 0
3.6640003 -1.8593901 0.88678569 0
3.6660004 -1.8663925 0.8870815 0
3.6690001 -1.8739612 0.8875252 0
3.6730003 -1.8821019 0.8881169 0
3.6760004 -1.8896941 0.88856065 0
3.6790001 -1.897297 0.88900435 0
3.6820002 -1.9049108 0.88944805 0
3.6850002 -1.9125357 0.8898918 0
3.6880002 -1.9201713 0.89033556 0
3.7160003 -1.750707 0.88849568 0
3.7050002 -1.7510136 0.8868885 0
3.6970003 -1.7528337 0.88571966 0
3.6900003 -1.7551445 0.88469684 0
3.6840003 -1.7579511 0.88382018 0
3.6770003 -1.7602131 0.88279748 0
3.6710002 -1.7629746 0.88192081 0
3.6670003 -1.7667681 0.88133639 0
3.6620002 -1.7700186 0.88060582 0
3.6590002 -1.7743115 0.88016748 0
3.6550002 -1.7780617 0.87958306 0
3.6530004 -1.7828653 0.87929082 0
3.6500003 -1.7871259 0.87885261 0
3.6490002 -1.7924507 0.87870646 0
3.6470003 -1.7972327 0.87841421 0
3.6470003 -1.8030896 0.87841421 0
3.6470003 -1.8089466 0.87841421 0
3.6470003 -1.8148036 0.87841421 0
3.6490002 -1.8217536 0.87870646 0
3.6520002 -1.8292593 0.87914479 0
3.6550002 -1.8367757 0.87958306 0
3.6580002 -1.844303 0.88002139 0
3.6610003 -1.8518412 0.88045979 0
3.6640003 -1.8593901 0.880898 0
3.6660004 -1.8663925 0.8811903 0
3.6690001 -1.8739612 0.88162857 0
3.6720002 -1.8815408 0.88206691 0
3.6760004 -1.8896941 0.88265133 0
3.6790001 -1.897297 0.88308966 0
3.5020003 -1.8029598 0.85722852 0
3.4960003 -1.805146 0.85635185 0
3.4900002 -1.8073106 0.85547519 0
3.4840002 -1.8094535 0.85459852 0
3.4850001 -1.8155899 0.85474467 0
3.4880002 -1.822881 0.85518295 0
3.7140002 -1.7496789 0.88222563 0
3.7040002 -1.7504977 0.8807826 0
3.6970003 -1.7528337 0.87977242 0
3.6900003 -1.7551445 0.87876236 0
3.6840003 -1.7579511 0.87789649 0
3.6770003 -1.7602131 0.87688637 0
3.6710002 -1.7629746 0.87602055 0
3.6670003 -1.7667681 0.87544334 0
3.6620002 -1.7700186 0.87472183 0
3.6590002 -1.7743115 0.87428892 0
3.6550002 -1.7780617 0.87371171 0
3.6530004 -1.7828653 0.8734231 0
3.6500003 -1.7871259 0.87299019 0
3.6490002 -1.7924507 0.87284589 0
3.6470003 -1.7972327 0.87255722 0
3.6470003 -1.8030896 0.87255722 0
3.6470003 -1.8089466 0.87255722 0
3.6470003 -1.8148036 0.87255722 0
3.6490002 -1.8217536 0.87284589 0
3.6520002 -1.8292593 0.87327874 0
3.6550002 -1.8367757 0.87371171 0
3.6580002 -1.844303 0.87414455 0
3.6610003 -1.8518412 0.87457752 0
3.6640003 -1.8593901 0.87501043 0
3.6660004 -1.8663925 0.8752991 0
3.6690001 -1.8739612 0.87573195 0
3.5130002 -1.7979596 0.8532204 0
3.5080001 -1.8007518 0.85249889 0
3.5020003 -1.8029598 0.85163307 0
3.4960003 -1.805146 0.85076725 0
3.4900002 -1.8073106 0.84990144 0
3.4840002 -1.8094535 0.84903556 0
3.4850001 -1.8155899 0.84917986 0
3.4880002 -1.822881 0.84961283 0
3.7240002 -1.7488239 0.87767279 0
3.7120004 -1.7486508 0.87596285 0
3.7040002 -1.7504977 0.87482285 0
3.6970003 -1.7528337 0.87382531 0
3.6910002 -1.7556639 0.87297034 0
3.6840003 -1.7579511 0.8719728 0
3.6770003 -1.7602131 0.87097532 0
3.6710002 -1.7629746 0.87012029 0
3.6670003 -1.7667681 0.86955029 0
3.6620002 -1.7700186 0.86883777 0
3.6590002 -1.7743115 0.86841023 0
3.6550002 -1.7780617 0.86784029 0
3.6530004 -1.7828653 0.86755532 0
3.6500003 -1.7871259 0.86712778 0
3.6490002 -1.7924507 0.86698532 0
3.6470003 -1.7972327 0.86670029 0
3.6470003 -1.8030896 0.86670029 0
3.6470003 -1.8089466 0.86670029 0
3.6470003 -1.8148036 0.86670029 0
3.6490002 -1.8217536 0.86698532 0
3.6520002 -1.8292593 0.86741281 0
3.6550002 -1.8367757 0.86784029 0
3.6580002 -1.844303 0.86826777 0
3.6610003 -1.8518412 0.86869526 0
3.6640003 -1.8593901 0.8691228 0
3.6660004 -1.8663925 0.86940777 0
3.6690001 -1.8739612 0.86983526 0
3.5190003 -1.7957102 0.8484602 0
3.5130002 -1.7979596 0.84760517 0
3.5080001 -1.8007518 0.8468926 0
3.5020003 -1.8029598 0.84603763 0
3.4960003 -1.805146 0.84518266 0
3.4900002 -1.8073106 0.84432769 0
3.4840002 -1.8094535 0.8434726 0
3.4850001 -1.8155899 0.84361511 0
3.4880002 -1.822881 0.84404266 0
3.7200003 -1.7467748 0.87111425 0
3.7110002 -1.7481365 0.86984789 0
3.7030003 -1.749982 0.86872232 0
3.6970003 -1.7528337 0.8678782 0
3.6910002 -1.7556639 0.86703396 0
3.6840003 -1.7579511 0.86604905 0
3.6770003 -1.7602131 0.86506426 0
3.6710002 -1.7629746 0.86422002 0
3.6670003 -1.7667681 0.86365724 0
3.6620002 -1.7700186 0.86295378 0
3.6590002 -1.7743115 0.86253166 0
3.6550002 -1.7780617 0.86196887 0
3.6530004 -1.7828653 0.86168754 0
3.6500003 -1.7871259 0.86126542 0
3.6490002 -1.7924507 0.86112469 0
3.6470003 -1.7972327 0.8608433 0
3.6470003 -1.8030896 0.8608433 0
3.6470003 -1.8089466 0.8608433 0
3.6470003 -1.8148036 0.8608433 0
3.6490002 -1.8217536 0.86112469 0
3.6520002 -1.8292593 0.86154675 0
3.6550002 -1.8367757 0.86196887 0
3.6580002 -1.844303 0.862391 0
3.6610003 -1.8518412 0.86281312 0
3.6640003 -1.8593901 0.86323512 0
3.6660004 -1.8663925 0.86351657 0
3.6690001 -1.8739612 0.86393863 0
3.5190003 -1.7957102 0.84283412 0
3.5130002 -1.7979596 0.84198987 0
3.5080001 -1.8007518 0.84128642 0
3.5020003 -1.8029598 0.8404423 0
3.4960003 -1.805146 0.83959806 0
3.4900002 -1.8073106 0.83875388 0
3.4840002 -1.8094535 0.8379097 0
3.4850001 -1.8155899 0.83805037 0
3.4880002 -1.822881 0.83847249 0
3.7310002 -1.7464013 0.86665332 0
3.7190003 -1.7462624 0.86498666 0
3.7100003 -1.7476225 0.86373663 0
3.7030003 -1.749982 0.86276436 0
3.6970003 -1.7528337 0.86193103 0
3.6920002 -1.7561833 0.86123657 0
3.6840003 -1.7579511 0.86012542 0
3.6770003 -1.7602131 0.85915315 0
3.6710002 -1.7629746 0.85831976 0
3.6670003 -1.7667681 0.85776424 0
3.6620002 -1.7700186 0.85706973 0
3.6590002 -1.7743115 0.85665309 0
3.6550002 -1.7780617 0.85609746 0
3.6530004 -1.7828653 0.8558197 0
3.6500003 -1.7871259 0.85540307 0
3.6490002 -1.7924507 0.85526413 0
3.6470003 -1.7972327 0.85498631 0
3.6470003 -1.8030896 0.85498631 0
3.6470003 -1.8089466 0.85498631 0
3.6470003 -1.8148036 0.85498631 0
3.6490002 -1.8217536 0.85526413 0
3.6520002 -1.8292593 0.85568082 0
3.6550002 -1.8367757 0.85609746 0
3.6580002 -1.844303 0.85651422 0
3.6610003 -1.8518412 0.85693085 0
3.6640003 -1.8593901 0.85734755 0
3.6660004 -1.8663925 0.85762537 0
3.6690001 -1.8739612 0.858042 0
3.5190003 -1.7957102 0.83720803 0
3.5130002 -1.7979596 0.83637464 0
3.5080001 -1.8007518 0.83568019 0
3.5020003 -1.8029598 0.83484685 0
3.4960003 -1.805146 0.83401346 0
3.4900002 -1.8073106 0.83318007 0
3.4840002 -1.8094535 0.83234674 0
3.4850001 -1.8155899 0.83248562 0
3.4880002 -1.822881 0.83290231 0
3.7280002 -1.7448698 0.8602336 0
3.7180002 -1.7457501 0.8588627 0
3.7100003 -1.7476225 0.85776603 0
3.7030003 -1.749982 0.8568064 0
3.6970003 -1.7528337 0.85598385 0
3.6930003 -1.7567029 0.85543549 0
3.6840003 -1.7579511 0.85420167 0
3.6770003 -1.7602131 0.85324204 0
3.6710002 -1.7629746 0.8524195 0
3.6670003 -1.7667681 0.85187119 0
3.6620002 -1.7700186 0.85118568 0
3.6590002 -1.7743115 0.85077441 0
3.6550002 -1.7780617 0.85022604 0
3.6530004 -1.7828653 0.84995198 0
3.6500003 -1.7871259 0.84954065 0
3.6490002 -1.7924507 0.84940356 0
3.6470003 -1.7972327 0.84912938 0
3.6470003 -1.8030896 0.84912938 0
3.6470003 -1.8089466 0.84912938 0
3.6470003 -1.8148036 0.84912938 0
3.6490002 -1.8217536 0.84940356 0
3.6520002 -1.8292593 0.84981483 0
3.6550002 -1.8367757 0.85022604 0
3.6580002 -1.844303 0.85063738 0
3.6610003 -1.8518412 0.85104865 0
3.6640003 -1.8593901 0.85145986 0
3.6660004 -1.8663925 0.8517341 0
3.6690001 -1.8739612 0.85214531 0
3.5190003 -1.7957102 0.83158195 0
3.5130002 -1.7979596 0.83075941 0
3.5080001 -1.8007518 0.83007395 0
3.5020003 -1.8029598 0.82925141 0
3.4960003 -1.805146 0.82842886 0
3.4900002 -1.8073106 0.82760632 0
3.4840002 -1.8094535 0.82678378 0
3.4850001 -1.8155899 0.82692087 0
3.4880002 -1.822881 0.82733214 0
3.7380002 -1.7439536 0.85558343 0
3.7260003 -1.7438489 0.85395998 0
3.7170002 -1.7452378 0.85274243 0
3.7090003 -1.7471085 0.85166013 0
3.7040002 -1.7504977 0.85098368 0
3.6980002 -1.7533513 0.85017198 0
3.6930003 -1.7567029 0.84949553 0
3.6840003 -1.7579511 0.84827799 0
3.6770003 -1.7602131 0.84733099 0
3.6710002 -1.7629746 0.84651923 0
3.6670003 -1.7667681 0.84597814 0
3.6620002 -1.7700186 0.84530169 0
3.6590002 -1.7743115 0.84489584 0
3.6550002 -1.7780617 0.84435475 0
3.6530004 -1.7828653 0.84408414 0
3.6500003 -1.7871259 0.84367824 0
3.6490002 -1.7924507 0.84354293 0
3.6470003 -1.7972327 0.84327245 0
3.6470003 -1.8030896 0.84327245 0
3.6470003 -1.8089466 0.84327245 0
3.6470003 -1.8148036 0.84327245 0
3.6490002 -1.8217536 0.84354293 0
3.6520002 -1.8292593 0.84394884 0
3.6550002 -1.8367757 0.84435475 0
3.6580002 -1.844303 0.84476054 0
3.6610003 -1.8518412 0.84516644 0
