# .PCD v0.7 - Point Cloud Data file format
VERSION 0.7
FIELDS x y z intensity
SIZE 4 4 4 4
TYPE F F F F
COUNT 1 1 1 1
WIDTH 1458
HEIGHT 1
VIEWPOINT 0 0 0 1 0 0 0
POINTS 1458
DATA ascii
6.3030005 -2.5695477 2.267379 0
6.2960005 -2.5771902 2.2651694 0
6.2900004 -2.5852389 2.2632751 0
6.2830005 -2.5928328 2.2610657 0
6.2770004 -2.6008365 2.2591717 0
6.2700005 -2.6083817 2.2569621 0
6.2640004 -2.6163402 2.2550681 0
6.2570004 -2.6238368 2.2528584 0
6.2510004 -2.6317501 2.2509644 0
6.2440004 -2.6391978 2.2487547 0
6.2380004 -2.6470664 2.2468605 0
6.2310004 -2.6544657 2.2446511 0
6.2250004 -2.6622884 2.2427571 0
6.2180004 -2.6696391 2.2405474 0
6.2120004 -2.677417 2.2386534 0
6.2050004 -2.6847191 2.2364438 0
6.1990004 -2.692452 2.2345498 0
6.1930003 -2.7001629 2.2326555 0
6.1860003 -2.7073927 2.2304461 0
6.1800003 -2.715059 2.2285521 0
6.1740003 -2.7227035 2.2266579 0
6.1670003 -2.729861 2.2244484 0
6.1610003 -2.7374604 2.2225544 0
6.1550002 -2.7450383 2.2206602 0
6.1480002 -2.7521236 2.2184505 0
6.1420002 -2.7596562 2.2165565 0
6.1360002 -2.7671673 2.2146626 0
6.1300006 -2.7746568 2.2127688 0
6.1230001 -2.7816463 2.2105589 0
6.1170006 -2.7890911 2.2086651 0
6.1110005 -2.7965138 2.2067711 0
6.1050005 -2.8039145 2.2048771 0
6.0990005 -2.8112941 2.2029831 0
6.0920005 -2.8181646 2.2007735 0
6.0860004 -2.8254991 2.1988795 0
6.0800004 -2.8328116 2.1969855 0
6.0740004 -2.8401027 2.1950915 0
6.0680003 -2.8473721 2.1931973 0
6.0620003 -2.8546195 2.1913033 0
6.0560002 -2.8618455 2.1894095 0
6.0500002 -2.86905 2.1875153 0
6.0440001 -2.8762326 2.1856213 0
6.0380006 -2.8833942 2.1837275 0
6.0310001 -2.8900282 2.1815176 0
6.0250006 -2.8971446 2.1796238 0
6.0190005 -2.9042389 2.1777298 0
6.0130005 -2.9113116 2.1758358 0
6.0070004 -2.9183626 2.1739416 0
6.0020003 -2.9259062 2.1723633 0
5.9960003 -2.9329157 2.1704693 0
5.9900002 -2.9399037 2.1685753 0
5.9840002 -2.9468699 2.1666813 0
5.9780002 -2.9538145 2.1647873 0
5.9720001 -2.9607375 2.1628933 0
5.9660006 -2.9676392 2.1609995 0
5.9600005 -2.9745188 2.1591055 0
5.9540005 -2.9813769 2.1572115 0
5.9480004 -2.9882133 2.1553175 0
5.9430003 -2.9955602 2.153739 0
5.9370003 -3.0023551 2.151845 0
5.9310002 -3.0091283 2.149951 0
5.9250002 -3.0158801 2.148057 0
5.9190001 -3.0226099 2.146163 0
5.9140005 -3.0298595 2.1445849 0
5.9080005 -3.0365481 2.1426909 0
5.9020004 -3.043215 2.1407967 0
5.8960004 -3.0498602 2.1389027 0
5.8910003 -3.0570321 2.1373243 0
5.8850002 -3.0636358 2.1354303 0
5.8790002 -3.0702178 2.1335363 0
5.8730001 -3.0767784 2.1316423 0
5.8680005 -3.083873 2.1300642 0
5.8620005 -3.0903916 2.12817 0
5.8560004 -3.0968893 2.126276 0
5.8510003 -3.1039257 2.1246977 0
5.8450003 -3.1103816 2.1228037 0
5.8390002 -3.1168156 2.1209097 0
5.8340006 -3.1237948 2.1193314 0
5.8280005 -3.1301875 2.1174376 0
5.8230004 -3.1371284 2.1158593 0
5.8170004 -3.1434796 2.113965 0
6.4450002 -2.4012682 2.3012993 0
6.4380002 -2.4094324 2.2991025 0
6.4320002 -2.4179645 2.2972193 0
6.4250002 -2.4260798 2.2950222 0
6.4180002 -2.43417 2.2928255 0
6.4110003 -2.4422348 2.2906282 0
6.4040003 -2.4502745 2.2884312 0
6.3970003 -2.4582887 2.2862341 0
6.3900003 -2.4662776 2.2840371 0
6.3840003 -2.4746473 2.2821541 0
6.3770003 -2.4825876 2.2799568 0
6.3700004 -2.4905028 2.2777598 0
6.3630004 -2.4983928 2.2755628 0
6.3560004 -2.5062573 2.273366 0
6.3500004 -2.5145116 2.2714827 0
6.3430004 -2.5223277 2.2692857 0
6.3360004 -2.5301182 2.2670884 0
6.3300004 -2.5383039 2.2652054 0
6.3230004 -2.5460458 2.2630084 0
6.3160005 -2.5537627 2.2608113 0
6.3100004 -2.5618796 2.2589283 0
6.3030005 -2.5695477 2.256731 0
6.2960005 -2.5771902 2.254534 0
6.2900004 -2.5852389 2.252651 0
6.2830005 -2.5928328 2.2504539 0
6.2770004 -2.6008365 2.2485707 0
6.2700005 -2.6083817 2.2463737 0
6.2640004 -2.6163402 2.2444904 0
6.2570004 -2.6238368 2.2422934 0
6.2510004 -2.6317501 2.2404103 0
6.2440004 -2.6391978 2.2382133 0
6.2380004 -2.6470664 2.23633 0
6.2310004 -2.6544657 2.234133 0
6.2250004 -2.6622884 2.2322497 0
6.2180004 -2.6696391 2.2300527 0
6.2120004 -2.677417 2.2281697 0
6.2050004 -2.6847191 2.2259727 0
6.1990004 -2.692452 2.2240894 0
6.1930003 -2.7001629 2.2222061 0
6.1860003 -2.7073927 2.2200091 0
6.1800003 -2.715059 2.2181261 0
6.1740003 -2.7227035 2.2162428 0
6.1670003 -2.729861 2.2140458 0
6.1610003 -2.7374604 2.2121625 0
6.1550002 -2.7450383 2.2102792 0
6.1480002 -2.7521236 2.2080824 0
6.1420002 -2.7596562 2.2061992 0
6.1360002 -2.7671673 2.2043159 0
6.1300006 -2.7746568 2.2024329 0
6.1230001 -2.7816463 2.2002358 0
6.1170006 -2.7890911 2.1983526 0
6.1110005 -2.7965138 2.1964695 0
6.1050005 -2.8039145 2.1945863 0
6.0990005 -2.8112941 2.192703 0
6.0920005 -2.8181646 2.1905062 0
6.0860004 -2.8254991 2.188623 0
6.0800004 -2.8328116 2.1867397 0
6.0740004 -2.8401027 2.1848567 0
6.0680003 -2.8473721 2.1829734 0
6.0620003 -2.8546195 2.1810901 0
6.0560002 -2.8618455 2.1792071 0
6.0500002 -2.86905 2.1773238 0
6.0440001 -2.8762326 2.1754405 0
6.0380006 -2.8833942 2.1735575 0
6.0310001 -2.8900282 2.1713605 0
6.0250006 -2.8971446 2.1694772 0
6.0190005 -2.9042389 2.1675942 0
6.0130005 -2.9113116 2.1657109 0
6.0070004 -2.9183626 2.1638277 0
6.0020003 -2.9259062 2.1622584 0
5.9960003 -2.9329157 2.1603754 0
5.9900002 -2.9399037 2.1584921 0
5.9840002 -2.9468699 2.1566088 0
5.9780002 -2.9538145 2.1547258 0
5.9720001 -2.9607375 2.1528425 0
5.9660006 -2.9676392 2.1509595 0
5.9600005 -2.9745188 2.1490762 0
5.9540005 -2.9813769 2.147193 0
5.9480004 -2.9882133 2.1453099 0
5.9430003 -2.9955602 2.1437407 0
5.9370003 -3.0023551 2.1418574 0
5.9310002 -3.0091283 2.1399741 0
5.9250002 -3.0158801 2.1380911 0
5.9190001 -3.0226099 2.1362078 0
5.9140005 -3.0298595 2.1346385 0
5.9080005 -3.0365481 2.1327555 0
5.9020004 -3.043215 2.1308722 0
5.8960004 -3.0498602 2.128989 0
5.8910003 -3.0570321 2.1274197 0
5.8850002 -3.0636358 2.1255364 0
5.8790002 -3.0702178 2.1236532 0
5.8730001 -3.0767784 2.1217701 0
5.8680005 -3.083873 2.1202009 0
5.8620005 -3.0903916 2.1183176 0
5.8560004 -3.0968893 2.1164346 0
5.8510003 -3.1039257 2.1148653 0
5.8450003 -3.1103816 2.112982 0
5.8390002 -3.1168156 2.1110988 0
5.8340006 -3.1237948 2.1095297 0
5.8280005 -3.1301875 2.1076465 0
5.8230004 -3.1371284 2.106077 0
5.8170004 -3.1434796 2.1041939 0
6.4450002 -2.4012682 2.2903955 0
6.4380002 -2.4094324 2.2882111 0
6.4320002 -2.4179645 2.2863388 0
6.4250002 -2.4260798 2.2841544 0
6.4180002 -2.43417 2.28197 0
6.4110003 -2.4422348 2.2797856 0
6.4040003 -2.4502745 2.277601 0
6.3970003 -2.4582887 2.2754169 0
6.3900003 -2.4662776 2.2732322 0
6.3840003 -2.4746473 2.2713599 0
6.3770003 -2.4825876 2.2691755 0
6.3700004 -2.4905028 2.2669911 0
6.3630004 -2.4983928 2.2648067 0
6.3560004 -2.5062573 2.2626224 0
6.3500004 -2.5145116 2.2607501 0
6.3430004 -2.5223277 2.2585657 0
6.3360004 -2.5301182 2.2563813 0
6.3300004 -2.5383039 2.2545087 0
6.3230004 -2.5460458 2.2523243 0
6.3160005 -2.5537627 2.25014 0
6.3100004 -2.5618796 2.2482677 0
6.3030005 -2.5695477 2.2460833 0
6.2960005 -2.5771902 2.2438989 0
6.2900004 -2.5852389 2.2420263 0
6.2830005 -2.5928328 2.2398422 0
6.2770004 -2.6008365 2.2379696 0
6.2700005 -2.6083817 2.2357852 0
6.2640004 -2.6163402 2.2339129 0
6.2570004 -2.6238368 2.2317286 0
6.2510004 -2.6317501 2.2298563 0
6.2440004 -2.6391978 2.2276719 0
6.2380004 -2.6470664 2.2257993 0
6.2310004 -2.6544657 2.2236149 0
6.2250004 -2.6622884 2.2217426 0
6.2180004 -2.6696391 2.2195582 0
6.2120004 -2.677417 2.2176859 0
6.2050004 -2.6847191 2.2155015 0
6.1990004 -2.692452 2.213629 0
6.1930003 -2.7001629 2.2117567 0
6.1860003 -2.7073927 2.2095723 0
6.1800003 -2.715059 2.2077 0
6.1740003 -2.7227035 2.2058277 0
6.1670003 -2.729861 2.2036433 0
6.1610003 -2.7374604 2.2017708 0
6.1550002 -2.7450383 2.1998985 0
6.1480002 -2.7521236 2.1977141 0
6.1420002 -2.7596562 2.1958418 0
6.1360002 -2.7671673 2.1939692 0
6.1300006 -2.7746568 2.1920972 0
6.1230001 -2.7816463 2.1899126 0
6.1170006 -2.7890911 2.1880403 0
6.1110005 -2.7965138 2.186168 0
6.1050005 -2.8039145 2.1842957 0
6.0990005 -2.8112941 2.1824234 0
6.0920005 -2.8181646 2.180239 0
6.0860004 -2.8254991 2.1783664 0
6.0800004 -2.8328116 2.1764941 0
6.0740004 -2.8401027 2.1746218 0
6.0680003 -2.8473721 2.1727493 0
6.0620003 -2.8546195 2.170877 0
6.0560002 -2.8618455 2.1690047 0
6.0500002 -2.86905 2.1671324 0
6.0440001 -2.8762326 2.1652598 0
6.0380006 -2.8833942 2.1633878 0
6.0310001 -2.8900282 2.1612031 0
6.0250006 -2.8971446 2.1593308 0
6.0190005 -2.9042389 2.1574585 0
6.0130005 -2.9113116 2.1555862 0
6.0070004 -2.9183626 2.1537137 0
6.0020003 -2.9259062 2.1521535 0
5.9960003 -2.9329157 2.1502812 0
5.9900002 -2.9399037 2.1484087 0
5.9840002 -2.9468699 2.1465364 0
5.9780002 -2.9538145 2.144664 0
5.9720001 -2.9607375 2.1427917 0
5.9660006 -2.9676392 2.1409194 0
5.9600005 -2.9745188 2.1390471 0
5.9540005 -2.9813769 2.1371746 0
5.9480004 -2.9882133 2.1353023 0
5.9430003 -2.9955602 2.1337421 0
5.9370003 -3.0023551 2.1318696 0
5.9310002 -3.0091283 2.1299973 0
5.9250002 -3.0158801 2.128125 0
5.9190001 -3.0226099 2.1262524 0
5.9140005 -3.0298595 2.1246924 0
5.9080005 -3.0365481 2.1228201 0
5.9020004 -3.043215 2.1209476 0
5.8960004 -3.0498602 2.1190753 0
5.8910003 -3.0570321 2.1175151 0
5.8850002 -3.0636358 2.1156425 0
5.8790002 -3.0702178 2.1137702 0
5.8730001 -3.0767784 2.1118977 0
5.8680005 -3.083873 2.1103377 0
5.8620005 -3.0903916 2.1084654 0
5.8560004 -3.0968893 2.1065929 0
5.8510003 -3.1039257 2.1050327 0
5.8450003 -3.1103816 2.1031604 0
5.8390002 -3.1168156 2.1012878 0
5.8340006 -3.1237948 2.0997276 0
5.8280005 -3.1301875 2.0978553 0
5.8230004 -3.1371284 2.0962951 0
5.8170004 -3.1434796 2.0944226 0
6.4450002 -2.4012682 2.2794914 0
6.4380002 -2.4094324 2.2773197 0
6.4320002 -2.4179645 2.2754581 0
6.4250002 -2.4260798 2.2732863 0
6.4180002 -2.43417 2.2711148 0
6.4110003 -2.4422348 2.2689428 0
6.4040003 -2.4502745 2.2667711 0
6.3970003 -2.4582887 2.2645993 0
6.3900003 -2.4662776 2.2624276 0
6.3840003 -2.4746473 2.260566 0
6.3770003 -2.4825876 2.2583942 0
6.3700004 -2.4905028 2.2562225 0
6.3630004 -2.4983928 2.2540507 0
6.3560004 -2.5062573 2.2518787 0
6.3500004 -2.5145116 2.2500174 0
6.3430004 -2.5223277 2.2478456 0
6.3360004 -2.5301182 2.2456739 0
6.3300004 -2.5383039 2.2438123 0
6.3230004 -2.5460458 2.2416403 0
6.3160005 -2.5537627 2.2394686 0
6.3100004 -2.5618796 2.2376072 0
6.3030005 -2.5695477 2.2354352 0
6.2960005 -2.5771902 2.2332635 0
6.2900004 -2.5852389 2.2314022 0
6.2830005 -2.5928328 2.2292302 0
6.2770004 -2.6008365 2.2273688 0
6.2700005 -2.6083817 2.2251971 0
6.2640004 -2.6163402 2.2233353 0
6.2570004 -2.6238368 2.2211635 0
6.2510004 -2.6317501 2.2193022 0
6.2440004 -2.6391978 2.2171302 0
6.2380004 -2.6470664 2.2152689 0
6.2310004 -2.6544657 2.2130971 0
6.2250004 -2.6622884 2.2112355 0
6.2180004 -2.6696391 2.2090638 0
6.2120004 -2.677417 2.2072022 0
6.2050004 -2.6847191 2.2050304 0
6.1990004 -2.692452 2.2031689 0
6.1930003 -2.7001629 2.2013073 0
6.1860003 -2.7073927 2.1991355 0
6.1800003 -2.715059 2.197274 0
6.1740003 -2.7227035 2.1954124 0
6.1670003 -2.729861 2.1932406 0
6.1610003 -2.7374604 2.1913791 0
6.1550002 -2.7450383 2.1895175 0
6.1480002 -2.7521236 2.1873457 0
6.1420002 -2.7596562 2.1854842 0
6.1360002 -2.7671673 2.1836228 0
6.1300006 -2.7746568 2.1817613 0
6.1230001 -2.7816463 2.1795893 0
6.1170006 -2.7890911 2.1777279 0
6.1110005 -2.7965138 2.1758664 0
6.1050005 -2.8039145 2.1740048 0
6.0990005 -2.8112941 2.1721435 0
6.0920005 -2.8181646 2.1699715 0
6.0860004 -2.8254991 2.1681101 0
6.0800004 -2.8328116 2.1662486 0
6.0740004 -2.8401027 2.164387 0
6.0680003 -2.8473721 2.1625254 0
6.0620003 -2.8546195 2.1606638 0
6.0560002 -2.8618455 2.1588023 0
6.0500002 -2.86905 2.1569407 0
6.0440001 -2.8762326 2.1550791 0
6.0380006 -2.8833942 2.1532178 0
6.0310001 -2.8900282 2.1510458 0
6.0250006 -2.8971446 2.1491845 0
6.0190005 -2.9042389 2.1473229 0
6.0130005 -2.9113116 2.1454616 0
6.0070004 -2.9183626 2.1436 0
6.0020003 -2.9259062 2.1420486 0
5.9960003 -2.9329157 2.140187 0
5.9900002 -2.9399037 2.1383255 0
5.9840002 -2.9468699 2.1364639 0
5.9780002 -2.9538145 2.1346023 0
5.9720001 -2.9607375 2.132741 0
5.9660006 -2.9676392 2.1308794 0
5.9600005 -2.9745188 2.1290178 0
5.9540005 -2.9813769 2.1271565 0
5.9480004 -2.9882133 2.1252949 0
5.9430003 -2.9955602 2.1237435 0
5.9370003 -3.0023551 2.121882 0
5.9310002 -3.0091283 2.1200204 0
5.9250002 -3.0158801 2.1181588 0
5.9190001 -3.0226099 2.1162972 0
5.9140005 -3.0298595 2.1147461 0
5.9080005 -3.0365481 2.1128845 0
5.9020004 -3.043215 2.1110232 0
5.8960004 -3.0498602 2.1091616 0
5.8910003 -3.0570321 2.1076102 0
5.8850002 -3.0636358 2.1057487 0
5.8790002 -3.0702178 2.1038871 0
5.8730001 -3.0767784 2.1020257 0
5.8680005 -3.083873 2.1004746 0
5.8620005 -3.0903916 2.0986128 0
5.8560004 -3.0968893 2.0967515 0
5.8510003 -3.1039257 2.0952001 0
5.8450003 -3.1103816 2.0933385 0
5.8390002 -3.1168156 2.0914769 0
5.8340006 -3.1237948 2.0899258 0
5.8280005 -3.1301875 2.0880642 0
5.8230004 -3.1371284 2.086513 0
5.8170004 -3.1434796 2.0846515 0
6.4450002 -2.4012682 2.2685876 0
6.4380002 -2.4094324 2.2664285 0
6.4320002 -2.4179645 2.2645776 0
6.4250002 -2.4260798 2.2624185 0
6.4180002 -2.43417 2.2602592 0
6.4110003 -2.4422348 2.2581 0
6.4040003 -2.4502745 2.2559412 0
6.3970003 -2.4582887 2.2537818 0
6.3900003 -2.4662776 2.2516227 0
6.3840003 -2.4746473 2.2497721 0
6.3770003 -2.4825876 2.2476127 0
6.3700004 -2.4905028 2.2454536 0
6.3630004 -2.4983928 2.2432945 0
6.3560004 -2.5062573 2.2411354 0
6.3500004 -2.5145116 2.2392848 0
6.3430004 -2.5223277 2.2371256 0
6.3360004 -2.5301182 2.2349663 0
6.3300004 -2.5383039 2.2331157 0
6.3230004 -2.5460458 2.2309566 0
6.3160005 -2.5537627 2.2287974 0
6.3100004 -2.5618796 2.2269466 0
6.3030005 -2.5695477 2.2247875 0
6.2960005 -2.5771902 2.2226284 0
6.2900004 -2.5852389 2.2207775 0
6.2830005 -2.5928328 2.2186184 0
6.2770004 -2.6008365 2.2167678 0
6.2700005 -2.6083817 2.2146087 0
6.2640004 -2.6163402 2.2127578 0
6.2570004 -2.6238368 2.2105987 0
6.2510004 -2.6317501 2.2087481 0
6.2440004 -2.6391978 2.2065887 0
6.2380004 -2.6470664 2.2047381 0
6.2310004 -2.6544657 2.202579 0
6.2250004 -2.6622884 2.2007284 0
6.2180004 -2.6696391 2.1985691 0
6.2120004 -2.677417 2.1967185 0
6.2050004 -2.6847191 2.1945591 0
6.1990004 -2.692452 2.1927085 0
6.1930003 -2.7001629 2.1908579 0
6.1860003 -2.7073927 2.1886988 0
6.1800003 -2.715059 2.1868479 0
6.1740003 -2.7227035 2.1849971 0
6.1670003 -2.729861 2.1828382 0
6.1610003 -2.7374604 2.1809874 0
6.1550002 -2.7450383 2.1791368 0
6.1480002 -2.7521236 2.1769774 0
6.1420002 -2.7596562 2.1751268 0
6.1360002 -2.7671673 2.1732759 0
6.1300006 -2.7746568 2.1714256 0
6.1230001 -2.7816463 2.1692662 0
6.1170006 -2.7890911 2.1674156 0
6.1110005 -2.7965138 2.1655648 0
6.1050005 -2.8039145 2.1637142 0
6.0990005 -2.8112941 2.1618633 0
6.0920005 -2.8181646 2.1597044 0
6.0860004 -2.8254991 2.1578536 0
6.0800004 -2.8328116 2.1560028 0
6.0740004 -2.8401027 2.1541522 0
6.0680003 -2.8473721 2.1523013 0
6.0620003 -2.8546195 2.1504507 0
6.0560002 -2.8618455 2.1485999 0
6.0500002 -2.86905 2.1467493 0
6.0440001 -2.8762326 2.1448987 0
6.0380006 -2.8833942 2.143048 0
6.0310001 -2.8900282 2.1408887 0
6.0250006 -2.8971446 2.1390381 0
6.0190005 -2.9042389 2.1371872 0
6.0130005 -2.9113116 2.1353366 0
6.0070004 -2.9183626 2.133486 0
6.0020003 -2.9259062 2.1319437 0
5.9960003 -2.9329157 2.1300929 0
5.9900002 -2.9399037 2.1282423 0
5.9840002 -2.9468699 2.1263914 0
5.9780002 -2.9538145 2.1245408 0
5.9720001 -2.9607375 2.12269 0
5.9660006 -2.9676392 2.1208394 0
5.9600005 -2.9745188 2.1189888 0
5.9540005 -2.9813769 2.1171381 0
5.9480004 -2.9882133 2.1152873 0
5.9430003 -2.9955602 2.113745 0
5.9370003 -3.0023551 2.1118944 0
5.9310002 -3.0091283 2.1100435 0
5.9250002 -3.0158801 2.1081929 0
5.9190001 -3.0226099 2.1063421 0
5.9140005 -3.0298595 2.1048 0
5.9080005 -3.0365481 2.1029491 0
5.9020004 -3.043215 2.1010985 0
5.8960004 -3.0498602 2.0992479 0
5.8910003 -3.0570321 2.0977056 0
5.8850002 -3.0636358 2.0958548 0
5.8790002 -3.0702178 2.0940042 0
5.8730001 -3.0767784 2.0921533 0
5.8680005 -3.083873 2.0906112 0
5.8620005 -3.0903916 2.0887606 0
5.8560004 -3.0968893 2.0869098 0
5.8510003 -3.1039257 2.0853674 0
5.8450003 -3.1103816 2.0835168 0
5.8390002 -3.1168156 2.081666 0
5.8340006 -3.1237948 2.0801239 0
5.8280005 -3.1301875 2.0782731 0
5.8230004 -3.1371284 2.076731 0
5.8170004 -3.1434796 2.0748801 0
6.4450002 -2.4012682 2.2576835 0
6.4380002 -2.4094324 2.2555368 0
6.4320002 -2.4179645 2.2536972 0
6.4250002 -2.4260798 2.2515504 0
6.4180002 -2.43417 2.249404 0
6.4110003 -2.4422348 2.2472575 0
6.4040003 -2.4502745 2.245111 0
6.3970003 -2.4582887 2.2429645 0
6.3900003 -2.4662776 2.240818 0
6.3840003 -2.4746473 2.2389779 0
6.3770003 -2.4825876 2.2368314 0
6.3700004 -2.4905028 2.2346849 0
6.3630004 -2.4983928 2.2325385 0
6.3560004 -2.5062573 2.230392 0
6.3500004 -2.5145116 2.2285521 0
6.3430004 -2.5223277 2.2264054 0
6.3360004 -2.5301182 2.2242589 0
6.3300004 -2.5383039 2.222419 0
6.3230004 -2.5460458 2.2202725 0
6.3160005 -2.5537627 2.2181261 0
6.3100004 -2.5618796 2.2162862 0
6.3030005 -2.5695477 2.2141397 0
6.2960005 -2.5771902 2.211993 0
6.2900004 -2.5852389 2.2101531 0
6.2830005 -2.5928328 2.2080066 0
6.2770004 -2.6008365 2.2061667 0
6.2700005 -2.6083817 2.2040203 0
6.2640004 -2.6163402 2.2021804 0
6.2570004 -2.6238368 2.2000339 0
6.2510004 -2.6317501 2.198194 0
6.2440004 -2.6391978 2.1960473 0
6.2380004 -2.6470664 2.1942074 0
6.2310004 -2.6544657 2.1920609 0
6.2250004 -2.6622884 2.1902211 0
6.2180004 -2.6696391 2.1880746 0
6.2120004 -2.677417 2.1862347 0
6.2050004 -2.6847191 2.1840882 0
6.1990004 -2.692452 2.1822481 0
6.1930003 -2.7001629 2.1804085 0
6.1860003 -2.7073927 2.1782618 0
6.1800003 -2.715059 2.1764219 0
6.1740003 -2.7227035 2.174582 0
6.1670003 -2.729861 2.1724355 0
6.1610003 -2.7374604 2.1705956 0
6.1550002 -2.7450383 2.1687558 0
6.1480002 -2.7521236 2.1666093 0
6.1420002 -2.7596562 2.1647694 0
6.1360002 -2.7671673 2.1629293 0
6.1300006 -2.7746568 2.1610897 0
6.1230001 -2.7816463 2.1589429 0
6.1170006 -2.7890911 2.1571033 0
6.1110005 -2.7965138 2.1552632 0
6.1050005 -2.8039145 2.1534235 0
6.0990005 -2.8112941 2.1515837 0
6.0920005 -2.8181646 2.149437 0
6.0860004 -2.8254991 2.1475971 0
6.0800004 -2.8328116 2.1457572 0
6.0740004 -2.8401027 2.1439173 0
6.0680003 -2.8473721 2.1420774 0
6.0620003 -2.8546195 2.1402376 0
6.0560002 -2.8618455 2.1383977 0
6.0500002 -2.86905 2.1365578 0
6.0440001 -2.8762326 2.1347177 0
6.0380006 -2.8833942 2.1328781 0
6.0310001 -2.8900282 2.1307313 0
6.0250006 -2.8971446 2.1288917 0
6.0190005 -2.9042389 2.1270518 0
6.0130005 -2.9113116 2.125212 0
6.0070004 -2.9183626 2.1233721 0
6.0020003 -2.9259062 2.1218386 0
5.9960003 -2.9329157 2.1199987 0
5.9900002 -2.9399037 2.1181591 0
5.9840002 -2.9468699 2.1163189 0
5.9780002 -2.9538145 2.1144791 0
5.9720001 -2.9607375 2.1126392 0
5.9660006 -2.9676392 2.1107996 0
5.9600005 -2.9745188 2.1089597 0
5.9540005 -2.9813769 2.1071196 0
5.9480004 -2.9882133 2.1052797 0
5.9430003 -2.9955602 2.1037467 0
5.9370003 -3.0023551 2.1019065 0
5.9310002 -3.0091283 2.1000667 0
5.9250002 -3.0158801 2.0982268 0
5.9190001 -3.0226099 2.0963869 0
5.9140005 -3.0298595 2.0948539 0
5.9080005 -3.0365481 2.0930138 0
5.9020004 -3.043215 2.0911739 0
5.8960004 -3.0498602 2.0893342 0
5.8910003 -3.0570321 2.0878007 0
5.8850002 -3.0636358 2.0859609 0
5.8790002 -3.0702178 2.084121 0
5.8730001 -3.0767784 2.0822811 0
5.8680005 -3.083873 2.0807481 0
5.8620005 -3.0903916 2.078908 0
5.8560004 -3.0968893 2.0770683 0
5.8510003 -3.1039257 2.0755351 0
5.8450003 -3.1103816 2.0736949 0
5.8390002 -3.1168156 2.0718551 0
5.8340006 -3.1237948 2.070322 0
5.8280005 -3.1301875 2.0684822 0
5.8230004 -3.1371284 2.0669489 0
5.8170004 -3.1434796 2.065109 0
6.4450002 -2.4012682 2.2467794 0
6.4380002 -2.4094324 2.2446456 0
6.4320002 -2.4179645 2.2428164 0
6.4250002 -2.4260798 2.2406826 0
6.4180002 -2.43417 2.2385485 0
6.4110003 -2.4422348 2.2364147 0
6.4040003 -2.4502745 2.2342808 0
6.3970003 -2.4582887 2.232147 0
6.3900003 -2.4662776 2.2300131 0
6.3840003 -2.4746473 2.228184 0
6.3770003 -2.4825876 2.2260501 0
6.3700004 -2.4905028 2.2239163 0
6.3630004 -2.4983928 2.2217824 0
6.3560004 -2.5062573 2.2196484 0
6.3500004 -2.5145116 2.2178195 0
6.3430004 -2.5223277 2.2156854 0
6.3360004 -2.5301182 2.2135515 0
6.3300004 -2.5383039 2.2117224 0
6.3230004 -2.5460458 2.2095885 0
6.3160005 -2.5537627 2.2074547 0
6.3100004 -2.5618796 2.2056255 0
6.3030005 -2.5695477 2.2034917 0
6.2960005 -2.5771902 2.2013578 0
6.2900004 -2.5852389 2.1995287 0
6.2830005 -2.5928328 2.1973948 0
6.2770004 -2.6008365 2.1955657 0
6.2700005 -2.6083817 2.1934319 0
6.2640004 -2.6163402 2.1916027 0
6.2570004 -2.6238368 2.1894689 0
6.2510004 -2.6317501 2.1876397 0
6.2440004 -2.6391978 2.1855059 0
6.2380004 -2.6470664 2.183677 0
6.2310004 -2.6544657 2.1815429 0
6.2250004 -2.6622884 2.179714 0
6.2180004 -2.6696391 2.1775801 0
6.2120004 -2.677417 2.175751 0
6.2050004 -2.6847191 2.1736171 0
6.1990004 -2.692452 2.171788 0
6.1930003 -2.7001629 2.1699588 0
6.1860003 -2.7073927 2.167825 0
6.1800003 -2.715059 2.1659958 0
6.1740003 -2.7227035 2.1641669 0
6.1670003 -2.729861 2.1620331 0
6.1610003 -2.7374604 2.1602039 0
6.1550002 -2.7450383 2.1583748 0
6.1480002 -2.7521236 2.1562409 0
6.1420002 -2.7596562 2.1544118 0
6.1360002 -2.7671673 2.1525829 0
6.1300006 -2.7746568 2.1507537 0
6.1230001 -2.7816463 2.1486199 0
6.1170006 -2.7890911 2.146791 0
6.1110005 -2.7965138 2.1449618 0
6.1050005 -2.8039145 2.1431327 0
6.0990005 -2.8112941 2.1413035 0
6.0920005 -2.8181646 2.1391697 0
6.0860004 -2.8254991 2.1373408 0
6.0800004 -2.8328116 2.1355116 0
6.0740004 -2.8401027 2.1336825 0
6.0680003 -2.8473721 2.1318533 0
6.0620003 -2.8546195 2.1300244 0
6.0560002 -2.8618455 2.1281953 0
6.0500002 -2.86905 2.1263664 0
6.0440001 -2.8762326 2.1245372 0
6.0380006 -2.8833942 2.1227083 0
6.0310001 -2.8900282 2.1205742 0
6.0250006 -2.8971446 2.1187453 0
6.0190005 -2.9042389 2.1169162 0
6.0130005 -2.9113116 2.115087 0
6.0070004 -2.9183626 2.1132581 0
6.0020003 -2.9259062 2.1117337 0
5.9960003 -2.9329157 2.1099048 0
5.9900002 -2.9399037 2.1080756 0
5.9840002 -2.9468699 2.1062467 0
5.9780002 -2.9538145 2.1044176 0
5.9720001 -2.9607375 2.1025884 0
5.9660006 -2.9676392 2.1007595 0
5.9600005 -2.9745188 2.0989304 0
5.9540005 -2.9813769 2.0971012 0
5.9480004 -2.9882133 2.0952723 0
5.9430003 -2.9955602 2.0937481 0
5.9370003 -3.0023551 2.0919189 0
5.9310002 -3.0091283 2.0900898 0
5.9250002 -3.0158801 2.0882609 0
5.9190001 -3.0226099 2.0864317 0
5.9140005 -3.0298595 2.0849075 0
5.9080005 -3.0365481 2.0830784 0
5.9020004 -3.043215 2.0812495 0
5.8960004 -3.0498602 2.0794203 0
5.8910003 -3.0570321 2.0778961 0
5.8850002 -3.0636358 2.076067 0
5.8790002 -3.0702178 2.0742378 0
5.8730001 -3.0767784 2.0724089 0
5.8680005 -3.083873 2.0708847 0
5.8620005 -3.0903916 2.0690558 0
5.8560004 -3.0968893 2.0672266 0
5.8510003 -3.1039257 2.0657024 0
5.8450003 -3.1103816 2.0638733 0
5.8390002 -3.1168156 2.0620444 0
5.8340006 -3.1237948 2.0605202 0
5.8280005 -3.1301875 2.058691 0
5.8230004 -3.1371284 2.0571668 0
5.8170004 -3.1434796 2.0553377 0
6.4450002 -2.4012682 2.2358754 0
6.4380002 -2.4094324 2.2337542 0
6.4320002 -2.4179645 2.231936 0
6.4250002 -2.4260798 2.2298145 0
6.4180002 -2.43417 2.2276933 0
6.4110003 -2.4422348 2.2255721 0
6.4040003 -2.4502745 2.2234509 0
6.3970003 -2.4582887 2.2213295 0
6.3900003 -2.4662776 2.2192082 0
6.3840003 -2.4746473 2.2173901 0
6.3770003 -2.4825876 2.2152689 0
6.3700004 -2.4905028 2.2131474 0
6.3630004 -2.4983928 2.2110262 0
6.3560004 -2.5062573 2.208905 0
6.3500004 -2.5145116 2.2070866 0
6.3430004 -2.5223277 2.2049654 0
6.3360004 -2.5301182 2.2028441 0
6.3300004 -2.5383039 2.201026 0
6.3230004 -2.5460458 2.1989048 0
6.3160005 -2.5537627 2.1967833 0
6.3100004 -2.5618796 2.1949651 0
6.3030005 -2.5695477 2.1928439 0
6.2960005 -2.5771902 2.1907227 0
6.2900004 -2.5852389 2.1889043 0
6.2830005 -2.5928328 2.1867831 0
6.2770004 -2.6008365 2.1849649 0
6.2700005 -2.6083817 2.1828434 0
6.2640004 -2.6163402 2.1810253 0
6.2570004 -2.6238368 2.1789041 0
6.2510004 -2.6317501 2.1770859 0
6.2440004 -2.6391978 2.1749644 0
6.2380004 -2.6470664 2.1731462 0
6.2310004 -2.6544657 2.171025 0
6.2250004 -2.6622884 2.1692066 0
6.2180004 -2.6696391 2.1670854 0
6.2120004 -2.677417 2.1652672 0
6.2050004 -2.6847191 2.163146 0
6.1990004 -2.692452 2.1613276 0
6.1930003 -2.7001629 2.1595094 0
6.1860003 -2.7073927 2.1573882 0
6.1800003 -2.715059 2.15557 0
6.1740003 -2.7227035 2.1537516 0
6.1670003 -2.729861 2.1516304 0
6.1610003 -2.7374604 2.1498122 0
6.1550002 -2.7450383 2.1479938 0
6.1480002 -2.7521236 2.1458726 0
6.1420002 -2.7596562 2.1440544 0
6.1360002 -2.7671673 2.1422362 0
6.1300006 -2.7746568 2.1404181 0
6.1230001 -2.7816463 2.1382966 0
6.1170006 -2.7890911 2.1364784 0
6.1110005 -2.7965138 2.1346602 0
6.1050005 -2.8039145 2.1328421 0
6.0990005 -2.8112941 2.1310236 0
6.0920005 -2.8181646 2.1289024 0
6.0860004 -2.8254991 2.1270843 0
6.0800004 -2.8328116 2.1252661 0
6.0740004 -2.8401027 2.1234477 0
6.0680003 -2.8473721 2.1216295 0
6.0620003 -2.8546195 2.1198111 0
6.0560002 -2.8618455 2.1179929 0
6.0500002 -2.86905 2.1161747 0
6.0440001 -2.8762326 2.1143565 0
6.0380006 -2.8833942 2.1125383 0
6.0310001 -2.8900282 2.1104169 0
6.0250006 -2.8971446 2.1085987 0
6.0190005 -2.9042389 2.1067805 0
6.0130005 -2.9113116 2.1049623 0
6.0070004 -2.9183626 2.1031442 0
6.0020003 -2.9259062 2.1016288 0
5.9960003 -2.9329157 2.0998106 0
5.9900002 -2.9399037 2.0979922 0
5.9840002 -2.9468699 2.096174 0
5.9780002 -2.9538145 2.0943558 0
5.9720001 -2.9607375 2.0925376 0
5.9660006 -2.9676392 2.0907195 0
5.9600005 -2.9745188 2.0889013 0
5.9540005 -2.9813769 2.0870831 0
5.9480004 -2.9882133 2.0852647 0
5.9430003 -2.9955602 2.0837495 0
5.9370003 -3.0023551 2.0819311 0
5.9310002 -3.0091283 2.0801129 0
5.9250002 -3.0158801 2.0782948 0
5.9190001 -3.0226099 2.0764766 0
5.9140005 -3.0298595 2.0749614 0
5.9080005 -3.0365481 2.0731432 0
5.9020004 -3.043215 2.0713248 0
5.8960004 -3.0498602 2.0695066 0
5.8910003 -3.0570321 2.0679915 0
5.8850002 -3.0636358 2.0661731 0
5.8790002 -3.0702178 2.0643549 0
5.8730001 -3.0767784 2.0625367 0
5.8680005 -3.083873 2.0610216 0
5.8620005 -3.0903916 2.0592034 0
5.8560004 -3.0968893 2.057385 0
5.8510003 -3.1039257 2.0558698 0
5.8450003 -3.1103816 2.0540516 0
5.8390002 -3.1168156 2.0522332 0
5.8340006 -3.1237948 2.0507183 0
5.8280005 -3.1301875 2.0488999 0
5.8230004 -3.1371284 2.0473847 0
5.8170004 -3.1434796 2.0455666 0
6.4450002 -2.4012682 2.2249713 0
6.4380002 -2.4094324 2.2228627 0
6.4320002 -2.4179645 2.2210553 0
6.4250002 -2.4260798 2.2189467 0
6.4180002 -2.43417 2.2168381 0
6.4110003 -2.4422348 2.2147293 0
6.4040003 -2.4502745 2.2126207 0
6.3970003 -2.4582887 2.2105122 0
6.3900003 -2.4662776 2.2084033 0
6.3840003 -2.4746473 2.2065961 0
6.3770003 -2.4825876 2.2044873 0
6.3700004 -2.4905028 2.2023787 0
6.3630004 -2.4983928 2.2002702 0
6.3560004 -2.5062573 2.1981614 0
6.3500004 -2.5145116 2.1963539 0
6.3430004 -2.5223277 2.1942453 0
6.3360004 -2.5301182 2.1921368 0
6.3300004 -2.5383039 2.1903293 0
6.3230004 -2.5460458 2.1882207 0
6.3160005 -2.5537627 2.1861119 0
6.3100004 -2.5618796 2.1843045 0
6.3030005 -2.5695477 2.1821959 0
6.2960005 -2.5771902 2.1800873 0
6.2900004 -2.5852389 2.1782799 0
6.2830005 -2.5928328 2.1761713 0
6.2770004 -2.6008365 2.1743639 0
6.2700005 -2.6083817 2.172255 0
6.2640004 -2.6163402 2.1704476 0
6.2570004 -2.6238368 2.1683393 0
6.2510004 -2.6317501 2.1665318 0
6.2440004 -2.6391978 2.164423 0
6.2380004 -2.6470664 2.1626155 0
6.2310004 -2.6544657 2.160507 0
6.2250004 -2.6622884 2.1586995 0
6.2180004 -2.6696391 2.1565909 0
6.2120004 -2.677417 2.1547835 0
6.2050004 -2.6847191 2.1526749 0
6.1990004 -2.692452 2.1508675 0
6.1930003 -2.7001629 2.14906 0
6.1860003 -2.7073927 2.1469512 0
6.1800003 -2.715059 2.1451437 0
6.1740003 -2.7227035 2.1433365 0
6.1670003 -2.729861 2.141228 0
6.1610003 -2.7374604 2.1394205 0
6.1550002 -2.7450383 2.1376131 0
6.1480002 -2.7521236 2.1355042 0
6.1420002 -2.7596562 2.1336968 0
6.1360002 -2.7671673 2.1318893 0
6.1300006 -2.7746568 2.1300821 0
6.1230001 -2.7816463 2.1279733 0
6.1170006 -2.7890911 2.1261661 0
6.1110005 -2.7965138 2.1243587 0
6.1050005 -2.8039145 2.1225512 0
6.0990005 -2.8112941 2.1207438 0
6.0920005 -2.8181646 2.1186352 0
6.0860004 -2.8254991 2.1168277 0
6.0800004 -2.8328116 2.1150203 0
6.0740004 -2.8401027 2.1132128 0
6.0680003 -2.8473721 2.1114054 0
6.0620003 -2.8546195 2.1095979 0
6.0560002 -2.8618455 2.1077905 0
6.0500002 -2.86905 2.1059833 0
6.0440001 -2.8762326 2.1041758 0
6.0380006 -2.8833942 2.1023686 0
6.0310001 -2.8900282 2.1002598 0
6.0250006 -2.8971446 2.0984523 0
6.0190005 -2.9042389 2.0966449 0
6.0130005 -2.9113116 2.0948377 0
6.0070004 -2.9183626 2.0930302 0
6.0020003 -2.9259062 2.0915239 0
5.9960003 -2.9329157 2.0897164 0
5.9900002 -2.9399037 2.087909 0
5.9840002 -2.9468699 2.0861015 0
5.9780002 -2.9538145 2.0842941 0
5.9720001 -2.9607375 2.0824866 0
5.9660006 -2.9676392 2.0806794 0
5.9600005 -2.9745188 2.078872 0
5.9540005 -2.9813769 2.0770645 0
5.9480004 -2.9882133 2.0752573 0
5.9430003 -2.9955602 2.073751 0
5.9370003 -3.0023551 2.0719435 0
5.9310002 -3.0091283 2.0701361 0
5.9250002 -3.0158801 2.0683286 0
5.9190001 -3.0226099 2.0665214 0
5.9140005 -3.0298595 2.0650153 0
5.9080005 -3.0365481 2.0632079 0
5.9020004 -3.043215 2.0614004 0
5.8960004 -3.0498602 2.059593 0
5.8910003 -3.0570321 2.0580866 0
5.8850002 -3.0636358 2.0562792 0
5.8790002 -3.0702178 2.054472 0
5.8730001 -3.0767784 2.0526645 0
5.8680005 -3.083873 2.0511584 0
5.8620005 -3.0903916 2.049351 0
5.8560004 -3.0968893 2.0475435 0
5.8510003 -3.1039257 2.0460372 0
5.8450003 -3.1103816 2.0442297 0
5.8390002 -3.1168156 2.0424225 0
5.8340006 -3.1237948 2.0409164 0
5.8280005 -3.1301875 2.039109 0
5.8230004 -3.1371284 2.0376027 0
5.8170004 -3.1434796 2.0357952 0
6.4450002 -2.4012682 2.2140675 0
6.4380002 -2.4094324 2.2119713 0
6.4320002 -2.4179645 2.2101748 0
6.4250002 -2.4260798 2.2080789 0
6.4180002 -2.43417 2.2059827 0
6.4110003 -2.4422348 2.2038867 0
6.4040003 -2.4502745 2.2017906 0
6.3970003 -2.4582887 2.1996946 0
6.3900003 -2.4662776 2.1975987 0
6.3840003 -2.4746473 2.195802 0
6.3770003 -2.4825876 2.193706 0
6.3700004 -2.4905028 2.1916099 0
6.3630004 -2.4983928 2.1895139 0
6.3560004 -2.5062573 2.187418 0
6.3500004 -2.5145116 2.1856215 0
6.3430004 -2.5223277 2.1835253 0
6.3360004 -2.5301182 2.1814294 0
6.3300004 -2.5383039 2.1796327 0
6.3230004 -2.5460458 2.1775367 0
6.3160005 -2.5537627 2.1754405 0
6.3100004 -2.5618796 2.1736441 0
6.3030005 -2.5695477 2.1715481 0
6.2960005 -2.5771902 2.1694522 0
6.2900004 -2.5852389 2.1676555 0
6.2830005 -2.5928328 2.1655595 0
6.2770004 -2.6008365 2.1637628 0
6.2700005 -2.6083817 2.1616669 0
6.2640004 -2.6163402 2.1598701 0
6.2570004 -2.6238368 2.1577742 0
6.2510004 -2.6317501 2.1559775 0
6.2440004 -2.6391978 2.1538815 0
6.2380004 -2.6470664 2.1520851 0
6.2310004 -2.6544657 2.1499889 0
6.2250004 -2.6622884 2.1481924 0
6.2180004 -2.6696391 2.1460962 0
6.2120004 -2.677417 2.1442997 0
6.2050004 -2.6847191 2.1422038 0
6.1990004 -2.692452 2.1404071 0
6.1930003 -2.7001629 2.1386106 0
6.1860003 -2.7073927 2.1365144 0
6.1800003 -2.715059 2.1347179 0
6.1740003 -2.7227035 2.1329212 0
6.1670003 -2.729861 2.1308253 0
6.1610003 -2.7374604 2.1290288 0
6.1550002 -2.7450383 2.1272321 0
6.1480002 -2.7521236 2.1251361 0
6.1420002 -2.7596562 2.1233394 0
6.1360002 -2.7671673 2.1215429 0
6.1300006 -2.7746568 2.1197462 0
6.1230001 -2.7816463 2.1176503 0
6.1170006 -2.7890911 2.1158538 0
6.1110005 -2.7965138 2.1140571 0
6.1050005 -2.8039145 2.1122606 0
6.0990005 -2.8112941 2.1104639 0
6.0920005 -2.8181646 2.1083679 0
6.0860004 -2.8254991 2.1065712 0
6.0800004 -2.8328116 2.1047747 0
6.0740004 -2.8401027 2.102978 0
6.0680003 -2.8473721 2.1011815 0
6.0620003 -2.8546195 2.0993848 0
6.0560002 -2.8618455 2.0975883 0
6.0500002 -2.86905 2.0957916 0
6.0440001 -2.8762326 2.0939951 0
6.0380006 -2.8833942 2.0921986 0
6.0310001 -2.8900282 2.0901024 0
6.0250006 -2.8971446 2.088306 0
6.0190005 -2.9042389 2.0865095 0
6.0130005 -2.9113116 2.0847127 0
6.0070004 -2.9183626 2.0829163 0
6.0020003 -2.9259062 2.081419 0
5.9960003 -2.9329157 2.0796223 0
5.9900002 -2.9399037 2.0778258 0
5.9840002 -2.9468699 2.0760291 0
5.9780002 -2.9538145 2.0742326 0
5.9720001 -2.9607375 2.0724361 0
5.9660006 -2.9676392 2.0706394 0
5.9600005 -2.9745188 2.0688429 0
5.9540005 -2.9813769 2.0670462 0
5.9480004 -2.9882133 2.0652497 0
5.9430003 -2.9955602 2.0637524 0
5.9370003 -3.0023551 2.0619559 0
5.9310002 -3.0091283 2.0601592 0
5.9250002 -3.0158801 2.0583627 0
5.9190001 -3.0226099 2.056566 0
5.9140005 -3.0298595 2.055069 0
5.9080005 -3.0365481 2.0532725 0
5.9020004 -3.043215 2.0514758 0
5.8960004 -3.0498602 2.0496793 0
5.8910003 -3.0570321 2.048182 0
5.8850002 -3.0636358 2.0463853 0
5.8790002 -3.0702178 2.0445888 0
5.8730001 -3.0767784 2.0427921 0
5.8680005 -3.083873 2.0412951 0
5.8620005 -3.0903916 2.0394986 0
5.8560004 -3.0968893 2.0377018 0
5.8510003 -3.1039257 2.0362048 0
5.8450003 -3.1103816 2.0344081 0
5.8390002 -3.1168156 2.0326116 0
5.8340006 -3.1237948 2.0311143 0
5.8280005 -3.1301875 2.0293179 0
5.8230004 -3.1371284 2.0278206 0
5.8170004 -3.1434796 2.0260241 0
6.4450002 -2.4012682 2.2031634 0
6.4380002 -2.4094324 2.2010798 0
6.4320002 -2.4179645 2.1992943 0
6.4250002 -2.4260798 2.1972108 0
6.4180002 -2.43417 2.1951275 0
6.4110003 -2.4422348 2.1930439 0
6.4040003 -2.4502745 2.1909606 0
6.3970003 -2.4582887 2.1888773 0
6.3900003 -2.4662776 2.1867938 0
6.3840003 -2.4746473 2.185008 0
6.3770003 -2.4825876 2.1829247 0
6.3700004 -2.4905028 2.1808412 0
6.3630004 -2.4983928 2.1787579 0
6.3560004 -2.5062573 2.1766746 0
6.3500004 -2.5145116 2.1748888 0
6.3430004 -2.5223277 2.1728053 0
6.3360004 -2.5301182 2.170722 0
6.3300004 -2.5383039 2.1689363 0
6.3230004 -2.5460458 2.1668527 0
6.3160005 -2.5537627 2.1647694 0
6.3100004 -2.5618796 2.1629837 0
6.3030005 -2.5695477 2.1609001 0
6.2960005 -2.5771902 2.1588168 0
6.2900004 -2.5852389 2.1570311 0
6.2830005 -2.5928328 2.1549478 0
6.2770004 -2.6008365 2.153162 0
6.2700005 -2.6083817 2.1510785 0
6.2640004 -2.6163402 2.1492927 0
6.2570004 -2.6238368 2.1472092 0
6.2510004 -2.6317501 2.1454234 0
6.2440004 -2.6391978 2.1433401 0
6.2380004 -2.6470664 2.1415544 0
6.2310004 -2.6544657 2.1394711 0
6.2250004 -2.6622884 2.1376853 0
6.2180004 -2.6696391 2.1356018 0
6.2120004 -2.677417 2.133816 0
6.2050004 -2.6847191 2.1317327 0
6.1990004 -2.692452 2.1299467 0
6.1930003 -2.7001629 2.128161 0
6.1860003 -2.7073927 2.1260777 0
6.1800003 -2.715059 2.1242919 0
6.1740003 -2.7227035 2.1225061 0
6.1670003 -2.729861 2.1204228 0
6.1610003 -2.7374604 2.1186368 0
6.1550002 -2.7450383 2.1168511 0
6.1480002 -2.7521236 2.1147678 0
6.1420002 -2.7596562 2.112982 0
6.1360002 -2.7671673 2.1111963 0
6.1300006 -2.7746568 2.1094105 0
6.1230001 -2.7816463 2.107327 0
6.1170006 -2.7890911 2.1055412 0
6.1110005 -2.7965138 2.1037555 0
6.1050005 -2.8039145 2.1019697 0
6.0990005 -2.8112941 2.100184 0
6.0920005 -2.8181646 2.0981007 0
6.0860004 -2.8254991 2.0963149 0
6.0800004 -2.8328116 2.0945292 0
6.0740004 -2.8401027 2.0927432 0
6.0680003 -2.8473721 2.0909574 0
6.0620003 -2.8546195 2.0891716 0
6.0560002 -2.8618455 2.0873859 0
6.0500002 -2.86905 2.0856001 0
6.0440001 -2.8762326 2.0838144 0
6.0380006 -2.8833942 2.0820286 0
6.0310001 -2.8900282 2.0799451 0
6.0250006 -2.8971446 2.0781596 0
6.0190005 -2.9042389 2.0763738 0
6.0130005 -2.9113116 2.0745881 0
6.0070004 -2.9183626 2.0728021 0
6.0020003 -2.9259062 2.0713141 0
5.9960003 -2.9329157 2.0695283 0
5.9900002 -2.9399037 2.0677426 0
5.9840002 -2.9468699 2.0659568 0
5.9780002 -2.9538145 2.0641708 0
5.9720001 -2.9607375 2.0623851 0
5.9660006 -2.9676392 2.0605996 0
5.9600005 -2.9745188 2.0588138 0
5.9540005 -2.9813769 2.0570278 0
5.9480004 -2.9882133 2.0552421 0
5.9430003 -2.9955602 2.0537539 0
5.9370003 -3.0023551 2.0519681 0
5.9310002 -3.0091283 2.0501823 0
5.9250002 -3.0158801 2.0483966 0
5.9190001 -3.0226099 2.0466108 0
5.9140005 -3.0298595 2.0451229 0
5.9080005 -3.0365481 2.0433371 0
5.9020004 -3.043215 2.0415514 0
5.8960004 -3.0498602 2.0397654 0
5.8910003 -3.0570321 2.0382771 0
5.8850002 -3.0636358 2.0364914 0
5.8790002 -3.0702178 2.0347056 0
5.8730001 -3.0767784 2.0329199 0
5.8680005 -3.083873 2.0314319 0
5.8620005 -3.0903916 2.0296462 0
5.8560004 -3.0968893 2.0278604 0
5.8510003 -3.1039257 2.0263722 0
5.8450003 -3.1103816 2.0245864 0
5.8390002 -3.1168156 2.0228004 0
5.8340006 -3.1237948 2.0213127 0
5.8280005 -3.1301875 2.0195267 0
5.8230004 -3.1371284 2.0180385 0
5.8170004 -3.1434796 2.0162528 0
6.4450002 -2.4012682 2.1922593 0
6.4380002 -2.4094324 2.1901884 0
6.4320002 -2.4179645 2.1884136 0
6.4250002 -2.4260798 2.186343 0
6.4180002 -2.43417 2.1842721 0
6.4110003 -2.4422348 2.1822014 0
6.4040003 -2.4502745 2.1801305 0
6.3970003 -2.4582887 2.1780598 0
6.3900003 -2.4662776 2.1759892 0
6.3840003 -2.4746473 2.1742141 0
6.3770003 -2.4825876 2.1721432 0
6.3700004 -2.4905028 2.1700726 0
6.3630004 -2.4983928 2.1680019 0
6.3560004 -2.5062573 2.165931 0
6.3500004 -2.5145116 2.164156 0
6.3430004 -2.5223277 2.1620853 0
6.3360004 -2.5301182 2.1600144 0
6.3300004 -2.5383039 2.1582396 0
6.3230004 -2.5460458 2.1561689 0
6.3160005 -2.5537627 2.154098 0
6.3100004 -2.5618796 2.152323 0
6.3030005 -2.5695477 2.1502523 0
6.2960005 -2.5771902 2.1481817 0
6.2900004 -2.5852389 2.1464067 0
6.2830005 -2.5928328 2.1443357 0
6.2770004 -2.6008365 2.142561 0
6.2700005 -2.6083817 2.1404901 0
6.2640004 -2.6163402 2.138715 0
6.2570004 -2.6238368 2.1366444 0
6.2510004 -2.6317501 2.1348693 0
6.2440004 -2.6391978 2.1327987 0
6.2380004 -2.6470664 2.1310236 0
6.2310004 -2.6544657 2.128953 0
6.2250004 -2.6622884 2.127178 0
6.2180004 -2.6696391 2.1251073 0
6.2120004 -2.677417 2.1233323 0
6.2050004 -2.6847191 2.1212614 0
6.1990004 -2.692452 2.1194866 0
6.1930003 -2.7001629 2.1177115 0
6.1860003 -2.7073927 2.1156409 0
6.1800003 -2.715059 2.1138659 0
6.1740003 -2.7227035 2.1120908 0
6.1670003 -2.729861 2.1100202 0
6.1610003 -2.7374604 2.1082451 0
6.1550002 -2.7450383 2.1064701 0
6.1480002 -2.7521236 2.1043994 0
6.1420002 -2.7596562 2.1026244 0
6.1360002 -2.7671673 2.1008494 0
6.1300006 -2.7746568 2.0990748 0
6.1230001 -2.7816463 2.0970039 0
6.1170006 -2.7890911 2.0952289 0
6.1110005 -2.7965138 2.0934541 0
6.1050005 -2.8039145 2.0916791 0
6.0990005 -2.8112941 2.0899041 0
6.0920005 -2.8181646 2.0878334 0
6.0860004 -2.8254991 2.0860584 0
6.0800004 -2.8328116 2.0842834 0
6.0740004 -2.8401027 2.0825086 0
6.0680003 -2.8473721 2.0807335 0
6.0620003 -2.8546195 2.0789585 0
6.0560002 -2.8618455 2.0771837 0
6.0500002 -2.86905 2.0754087 0
6.0440001 -2.8762326 2.0736337 0
6.0380006 -2.8833942 2.0718589 0
6.0310001 -2.8900282 2.069788 0
6.0250006 -2.8971446 2.0680132 0
6.0190005 -2.9042389 2.0662382 0
6.0130005 -2.9113116 2.0644631 0
6.0070004 -2.9183626 2.0626881 0
6.0020003 -2.9259062 2.0612092 0
5.9960003 -2.9329157 2.0594342 0
5.9900002 -2.9399037 2.0576591 0
5.9840002 -2.9468699 2.0558841 0
5.9780002 -2.9538145 2.0541093 0
5.9720001 -2.9607375 2.0523343 0
5.9660006 -2.9676392 2.0505595 0
5.9600005 -2.9745188 2.0487845 0
5.9540005 -2.9813769 2.0470097 0
5.9480004 -2.9882133 2.0452347 0
5.9430003 -2.9955602 2.0437555 0
5.9370003 -3.0023551 2.0419805 0
5.9310002 -3.0091283 2.0402055 0
5.9250002 -3.0158801 2.0384307 0
5.9190001 -3.0226099 2.0366557 0
5.9140005 -3.0298595 2.0351765 0
5.9080005 -3.0365481 2.0334017 0
5.9020004 -3.043215 2.0316267 0
5.8960004 -3.0498602 2.0298517 0
5.8910003 -3.0570321 2.0283725 0
5.8850002 -3.0636358 2.0265977 0
5.8790002 -3.0702178 2.0248227 0
5.8730001 -3.0767784 2.0230477 0
5.8680005 -3.083873 2.0215688 0
5.8620005 -3.0903916 2.0197937 0
5.8560004 -3.0968893 2.0180187 0
5.8510003 -3.1039257 2.0165396 0
5.8450003 -3.1103816 2.0147645 0
5.8390002 -3.1168156 2.0129898 0
5.8340006 -3.1237948 2.0115106 0
5.8280005 -3.1301875 2.0097358 0
5.8230004 -3.1371284 2.0082567 0
5.8170004 -3.1434796 2.0064816 0
6.4450002 -2.4012682 2.1813552 0
6.4380002 -2.4094324 2.1792972 0
6.4320002 -2.4179645 2.1775329 0
6.4250002 -2.4260798 2.1754749 0
6.4180002 -2.43417 2.1734169 0
6.4110003 -2.4422348 2.1713586 0
6.4040003 -2.4502745 2.1693006 0
6.3970003 -2.4582887 2.1672423 0
6.3900003 -2.4662776 2.1651843 0
6.3840003 -2.4746473 2.16342 0
6.3770003 -2.4825876 2.1613619 0
6.3700004 -2.4905028 2.1593039 0
6.3630004 -2.4983928 2.1572456 0
6.3560004 -2.5062573 2.1551876 0
6.3500004 -2.5145116 2.1534233 0
6.3430004 -2.5223277 2.1513653 0
6.3360004 -2.5301182 2.149307 0
6.3300004 -2.5383039 2.147543 0
6.3230004 -2.5460458 2.1454849 0
6.3160005 -2.5537627 2.1434267 0
6.3100004 -2.5618796 2.1416626 0
6.3030005 -2.5695477 2.1396046 0
6.2960005 -2.5771902 2.1375463 0
6.2900004 -2.5852389 2.1357822 0
6.2830005 -2.5928328 2.133724 0
6.2770004 -2.6008365 2.1319599 0
6.2700005 -2.6083817 2.1299016 0
6.2640004 -2.6163402 2.1281376 0
6.2570004 -2.6238368 2.1260796 0
6.2510004 -2.6317501 2.1243155 0
6.2440004 -2.6391978 2.1222572 0
6.2380004 -2.6470664 2.1204932 0
6.2310004 -2.6544657 2.1184349 0
6.2250004 -2.6622884 2.1166708 0
6.2180004 -2.6696391 2.1146126 0
6.2120004 -2.677417 2.1128485 0
6.2050004 -2.6847191 2.1107903 0
6.1990004 -2.692452 2.1090262 0
6.1930003 -2.7001629 2.1072621 0
6.1860003 -2.7073927 2.1052041 0
6.1800003 -2.715059 2.1034398 0
6.1740003 -2.7227035 2.1016757 0
6.1670003 -2.729861 2.0996177 0
6.1610003 -2.7374604 2.0978534 0
6.1550002 -2.7450383 2.0960894 0
6.1480002 -2.7521236 2.0940311 0
6.1420002 -2.7596562 2.092267 0
6.1360002 -2.7671673 2.090503 0
6.1300006 -2.7746568 2.0887389 0
6.1230001 -2.7816463 2.0866807 0
6.1170006 -2.7890911 2.0849166 0
6.1110005 -2.7965138 2.0831525 0
6.1050005 -2.8039145 2.0813882 0
6.0990005 -2.8112941 2.0796242 0
6.0920005 -2.8181646 2.0775661 0
6.0860004 -2.8254991 2.0758018 0
6.0800004 -2.8328116 2.0740378 0
6.0740004 -2.8401027 2.0722737 0
6.0680003 -2.8473721 2.0705094 0
6.0620003 -2.8546195 2.0687454 0
6.0560002 -2.8618455 2.0669813 0
6.0500002 -2.86905 2.065217 0
6.0440001 -2.8762326 2.063453 0
6.0380006 -2.8833942 2.0616889 0
6.0310001 -2.8900282 2.0596309 0
6.0250006 -2.8971446 2.0578666 0
6.0190005 -2.9042389 2.0561025 0
6.0130005 -2.9113116 2.0543385 0
6.0070004 -2.9183626 2.0525744 0
6.0020003 -2.9259062 2.0511041 0
5.9960003 -2.9329157 2.04934 0
5.9900002 -2.9399037 2.047576 0
5.9840002 -2.9468699 2.0458117 0
5.9780002 -2.9538145 2.0440476 0
5.9720001 -2.9607375 2.0422835 0
5.9660006 -2.9676392 2.0405195 0
5.9600005 -2.9745188 2.0387554 0
5.9540005 -2.9813769 2.0369911 0
5.9480004 -2.9882133 2.0352271 0
5.9430003 -2.9955602 2.033757 0
5.9370003 -3.0023551 2.0319927 0
5.9310002 -3.0091283 2.0302286 0
5.9250002 -3.0158801 2.0284646 0
5.9190001 -3.0226099 2.0267003 0
5.9140005 -3.0298595 2.0252304 0
5.9080005 -3.0365481 2.0234663 0
5.9020004 -3.043215 2.0217021 0
5.8960004 -3.0498602 2.019938 0
5.8910003 -3.0570321 2.0184679 0
5.8850002 -3.0636358 2.0167036 0
5.8790002 -3.0702178 2.0149395 0
5.8730001 -3.0767784 2.0131755 0
5.8680005 -3.083873 2.0117054 0
5.8620005 -3.0903916 2.0099413 0
5.8560004 -3.0968893 2.0081773 0
5.8510003 -3.1039257 2.0067072 0
5.8450003 -3.1103816 2.0049429 0
5.8390002 -3.1168156 2.0031788 0
5.8340006 -3.1237948 2.0017087 0
5.8280005 -3.1301875 1.9999447 0
5.8230004 -3.1371284 1.9984745 0
5.8170004 -3.1434796 1.9967104 0
6.4450002 -2.4012682 2.1704514 0
6.4380002 -2.4094324 2.1684058 0
6.4320002 -2.4179645 2.1666524 0
6.4250002 -2.4260798 2.1646068 0
6.4180002 -2.43417 2.1625614 0
6.4110003 -2.4422348 2.160516 0
6.4040003 -2.4502745 2.1584704 0
6.3970003 -2.4582887 2.156425 0
6.3900003 -2.4662776 2.1543794 0
6.3840003 -2.4746473 2.152626 0
6.3770003 -2.4825876 2.1505806 0
6.3700004 -2.4905028 2.148535 0
6.3630004 -2.4983928 2.1464896 0
6.3560004 -2.5062573 2.144444 0
6.3500004 -2.5145116 2.1426907 0
6.3430004 -2.5223277 2.1406453 0
6.3360004 -2.5301182 2.1385999 0
6.3300004 -2.5383039 2.1368463 0
6.3230004 -2.5460458 2.1348009 0
6.3160005 -2.5537627 2.1327555 0
6.3100004 -2.5618796 2.1310019 0
6.3030005 -2.5695477 2.1289566 0
6.2960005 -2.5771902 2.1269109 0
6.2900004 -2.5852389 2.1251578 0
6.2830005 -2.5928328 2.1231122 0
6.2770004 -2.6008365 2.1213589 0
6.2700005 -2.6083817 2.1193135 0
6.2640004 -2.6163402 2.1175601 0
6.2570004 -2.6238368 2.1155145 0
6.2510004 -2.6317501 2.1137612 0
6.2440004 -2.6391978 2.1117158 0
6.2380004 -2.6470664 2.1099625 0
6.2310004 -2.6544657 2.1079171 0
6.2250004 -2.6622884 2.1061635 0
6.2180004 -2.6696391 2.1041181 0
6.2120004 -2.677417 2.1023648 0
6.2050004 -2.6847191 2.1003191 0
6.1990004 -2.692452 2.0985661 0
6.1930003 -2.7001629 2.0968127 0
6.1860003 -2.7073927 2.0947671 0
6.1800003 -2.715059 2.0930138 0
6.1740003 -2.7227035 2.0912604 0
6.1670003 -2.729861 2.089215 0
6.1610003 -2.7374604 2.0874617 0
6.1550002 -2.7450383 2.0857084 0
6.1480002 -2.7521236 2.083663 0
6.1420002 -2.7596562 2.0819097 0
6.1360002 -2.7671673 2.0801563 0
6.1300006 -2.7746568 2.078403 0
6.1230001 -2.7816463 2.0763576 0
6.1170006 -2.7890911 2.0746043 0
6.1110005 -2.7965138 2.0728509 0
6.1050005 -2.8039145 2.0710976 0
6.0990005 -2.8112941 2.0693443 0
6.0920005 -2.8181646 2.0672989 0
6.0860004 -2.8254991 2.0655456 0
6.0800004 -2.8328116 2.0637922 0
6.0740004 -2.8401027 2.0620389 0
6.0680003 -2.8473721 2.0602856 0
6.0620003 -2.8546195 2.0585322 0
6.0560002 -2.8618455 2.0567789 0
6.0500002 -2.86905 2.0550256 0
6.0440001 -2.8762326 2.0532722 0
6.0380006 -2.8833942 2.0515192 0
6.0310001 -2.8900282 2.0494735 0
6.0250006 -2.8971446 2.0477202 0
6.0190005 -2.9042389 2.0459671 0
6.0130005 -2.9113116 2.0442138 0
6.0070004 -2.9183626 2.0424604 0
6.0020003 -2.9259062 2.0409992 0
5.9960003 -2.9329157 2.0392458 0
5.9900002 -2.9399037 2.0374925 0
5.9840002 -2.9468699 2.0357394 0
5.9780002 -2.9538145 2.0339859 0
5.9720001 -2.9607375 2.0322328 0
5.9660006 -2.9676392 2.0304794 0
5.9600005 -2.9745188 2.0287263 0
5.9540005 -2.9813769 2.0269728 0
5.9480004 -2.9882133 2.0252197 0
5.9430003 -2.9955602 2.0237584 0
5.9370003 -3.0023551 2.0220051 0
5.9310002 -3.0091283 2.0202518 0
5.9250002 -3.0158801 2.0184984 0
5.9190001 -3.0226099 2.0167451 0
5.9140005 -3.0298595 2.0152843 0
5.9080005 -3.0365481 2.013531 0
5.9020004 -3.043215 2.0117776 0
5.8960004 -3.0498602 2.0100243 0
5.8910003 -3.0570321 2.0085633 0
5.8850002 -3.0636358 2.0068097 0
5.8790002 -3.0702178 2.0050566 0
5.8730001 -3.0767784 2.0033033 0
5.8680005 -3.083873 2.0018423 0
5.8620005 -3.0903916 2.0000889 0
5.8560004 -3.0968893 1.9983357 0
5.8510003 -3.1039257 1.9968745 0
5.8450003 -3.1103816 1.9951212 0
5.8390002 -3.1168156 1.9933679 0
5.8340006 -3.1237948 1.991907 0
5.8280005 -3.1301875 1.9901536 0
5.8230004 -3.1371284 1.9886925 0
5.8170004 -3.1434796 1.9869392 0
6.4450002 -2.4012682 2.1595473 0
6.4380002 -2.4094324 2.1575143 0
6.4320002 -2.4179645 2.155772 0
6.4250002 -2.4260798 2.153739 0
6.4180002 -2.43417 2.1517062 0
6.4110003 -2.4422348 2.1496732 0
6.4040003 -2.4502745 2.1476405 0
6.3970003 -2.4582887 2.1456075 0
6.3900003 -2.4662776 2.1435745 0
6.3840003 -2.4746473 2.1418321 0
6.3770003 -2.4825876 2.1397994 0
6.3700004 -2.4905028 2.1377664 0
6.3630004 -2.4983928 2.1357334 0
6.3560004 -2.5062573 2.1337006 0
6.3500004 -2.5145116 2.1319582 0
6.3430004 -2.5223277 2.1299253 0
6.3360004 -2.5301182 2.1278923 0
6.3300004 -2.5383039 2.1261499 0
6.3230004 -2.5460458 2.1241169 0
6.3160005 -2.5537627 2.1220841 0
6.3100004 -2.5618796 2.1203415 0
6.3030005 -2.5695477 2.1183088 0
6.2960005 -2.5771902 2.1162758 0
6.2900004 -2.5852389 2.1145332 0
6.2830005 -2.5928328 2.1125004 0
6.2770004 -2.6008365 2.1107581 0
6.2700005 -2.6083817 2.1087251 0
6.2640004 -2.6163402 2.1069825 0
6.2570004 -2.6238368 2.1049497 0
6.2510004 -2.6317501 2.1032071 0
6.2440004 -2.6391978 2.1011744 0
6.2380004 -2.6470664 2.0994318 0
6.2310004 -2.6544657 2.097399 0
6.2250004 -2.6622884 2.0956564 0
6.2180004 -2.6696391 2.0936236 0
6.2120004 -2.677417 2.091881 0
6.2050004 -2.6847191 2.0898483 0
6.1990004 -2.692452 2.0881057 0
6.1930003 -2.7001629 2.0863633 0
6.1860003 -2.7073927 2.0843303 0
6.1800003 -2.715059 2.0825877 0
6.1740003 -2.7227035 2.0808454 0
6.1670003 -2.729861 2.0788126 0
6.1610003 -2.7374604 2.07707 0
6.1550002 -2.7450383 2.0753274 0
6.1480002 -2.7521236 2.0732946 0
6.1420002 -2.7596562 2.071552 0
6.1360002 -2.7671673 2.0698097 0
6.1300006 -2.7746568 2.0680673 0
6.1230001 -2.7816463 2.0660343 0
6.1170006 -2.7890911 2.064292 0
