# .PCD v0.7 - Point Cloud Data file format
VERSION 0.7
FIELDS x y z intensity
SIZE 4 4 4 4
TYPE F F F F
COUNT 1 1 1 1
WIDTH 1418
HEIGHT 1
VIEWPOINT 0 0 0 1 0 0 0
POINTS 1418
DATA ascii
4.7030001 -1.7924019 0.45057073 0
4.6980004 -1.7981256 0.45051661 0
4.6940002 -1.8042405 0.45047334 0
4.6890001 -1.8099296 0.45041922 0
4.6850004 -1.8160139 0.45037591 0
4.6800003 -1.8216687 0.45032179 0
4.6760001 -1.8277223 0.45027852 0
4.6710005 -1.8333431 0.4502244 0
4.6670003 -1.839366 0.45018113 0
4.6620002 -1.8449523 0.45012701 0
4.6580005 -1.8509446 0.4500837 0
4.6530004 -1.8564968 0.45002958 0
4.6490002 -1.8624582 0.44998631 0
4.6440005 -1.8679763 0.44993219 0
4.6400003 -1.8739071 0.44988889 0
4.6350002 -1.8793906 0.44983476 0
4.6310005 -1.885291 0.44979149 0
4.6270003 -1.8911768 0.44974819 0
4.6220002 -1.8966098 0.4496941 0
4.6180005 -1.9024652 0.44965079 0
4.6130004 -1.9078639 0.44959667 0
4.6090002 -1.9136883 0.4495534 0
4.6050005 -1.9194986 0.4495101 0
4.6000004 -1.9248468 0.44945598 0
4.5960002 -1.9306262 0.4494127 0
4.5920005 -1.9363911 0.4493694 0
4.5870004 -1.9416888 0.44931528 0
4.5830002 -1.947423 0.44927198 0
4.5790005 -1.9531431 0.4492287 0
4.5750003 -1.9588485 0.4491854 0
4.5700002 -1.9640794 0.44913131 0
4.5660005 -1.9697543 0.44908801 0
4.5620003 -1.9754146 0.4490447 0
4.5570002 -1.980595 0.44899058 0
4.5530005 -1.9862249 0.44894731 0
4.5490003 -1.99184 0.44890401 0
4.5450001 -1.9974408 0.4488607 0
4.5400004 -2.0025547 0.44880661 0
4.5360003 -2.0081248 0.44876331 0
4.5320001 -2.0136805 0.44872004 0
4.5280004 -2.0192218 0.44867674 0
4.5240002 -2.0247486 0.44863343 0
4.5200005 -2.030261 0.44859016 0
4.5150003 -2.0352757 0.44853604 0
4.5110002 -2.0407574 0.44849274 0
4.5070004 -2.0462251 0.44844946 0
4.5030003 -2.0516779 0.44840616 0
4.4990001 -2.0571163 0.44836289 0
4.4950004 -2.0625403 0.44831958 0
4.4900002 -2.0674558 0.44826546 0
4.4860001 -2.072849 0.44822216 0
4.4820004 -2.0782282 0.44817889 0
4.4780002 -2.0835927 0.44813558 0
4.4740005 -2.0889428 0.44809231 0
4.4700003 -2.0942783 0.44804901 0
4.4660001 -2.0995994 0.44800571 0
4.4620004 -2.1049066 0.44796243 0
4.4580002 -2.1101987 0.44791913 0
4.4540005 -2.1154768 0.44787586 0
4.4500003 -2.1207402 0.44783255 0
4.4460001 -2.1259892 0.44778925 0
4.4420004 -2.1312239 0.44774598 0
4.4380002 -2.1364441 0.44770268 0
4.4340005 -2.1416502 0.4476594 0
4.4300003 -2.1468413 0.4476161 0
4.4260001 -2.1520183 0.4475728 0
4.4220004 -2.1571808 0.44752952 0
4.4180002 -2.1623287 0.44748622 0
4.4140005 -2.1674626 0.44744295 0
4.4100003 -2.1725817 0.44739965 0
4.4060001 -2.1776865 0.44735634 0
4.4020004 -2.1827767 0.44731307 0
4.3980002 -2.1878526 0.44726977 0
4.3940001 -2.1929142 0.44722646 0
4.3900003 -2.1979613 0.44718319 0
4.3860002 -2.2029939 0.44713989 0
4.382 -2.2080121 0.44709659 0
4.3780003 -2.2130158 0.44705331 0
4.3740001 -2.2180052 0.44701001 0
4.3710003 -2.2235284 0.44697756 0
4.3670001 -2.2284908 0.44693425 0
4.3630004 -2.2334387 0.44689098 0
4.3590002 -2.2383721 0.44684768 0
4.355 -2.2432909 0.44680437 0
4.3510003 -2.2481954 0.4467611 0
4.3470001 -2.2530856 0.4467178 0
4.3440003 -2.2585225 0.44668534 0
4.3400002 -2.2633855 0.44664204 0
4.336 -2.268234 0.44659874 0
4.3320003 -2.2730682 0.44655547 0
4.3280001 -2.2778881 0.44651216 0
4.3250003 -2.2832634 0.44647971 0
4.3210001 -2.2880561 0.44643641 0
4.3170004 -2.2928343 0.44639313 0
5.1450005 -1.2185926 0.44679537 0
5.1390004 -1.2256582 0.44674125 0
5.1340003 -1.2329527 0.44669616 0
5.1280003 -1.2399768 0.44664204 0
5.1230001 -1.2472334 0.44659695 0
5.1170001 -1.254216 0.44654283 0
5.1120005 -1.2614349 0.44649774 0
5.1060004 -1.268376 0.44644362 0
5.1010003 -1.2755568 0.44639853 0
5.0950003 -1.2824564 0.44634441 0
5.0900002 -1.2895994 0.44629931 0
5.0850005 -1.2967246 0.44625422 0
5.0790005 -1.3035629 0.4462001 0
5.0740004 -1.31065 0.44615501 0
5.0680003 -1.3174467 0.44610089 0
5.0630002 -1.3244959 0.4460558 0
5.0580001 -1.3315272 0.44601071 0
5.0520005 -1.3382628 0.44595659 0
5.0470004 -1.345256 0.4459115 0
5.0420003 -1.3522314 0.44586641 0
5.0360003 -1.3589054 0.44581228 0
5.0310001 -1.3658428 0.44576719 0
5.0260005 -1.3727623 0.4457221 0
5.0210004 -1.3796637 0.44567701 0
5.0150003 -1.3862566 0.44562289 0
5.0100002 -1.3931201 0.4455778 0
5.0050001 -1.3999654 0.44553268 0
5.0000005 -1.406793 0.44548762 0
4.9950004 -1.4136024 0.4454425 0
4.9890003 -1.4200943 0.44538841 0
4.9840002 -1.4268657 0.44534329 0
4.9790001 -1.433619 0.44529819 0
4.9740005 -1.4403546 0.4452531 0
4.9690003 -1.447072 0.44520801 0
4.9640002 -1.4537714 0.44516292 0
4.9580002 -1.4601424 0.4451088 0
4.9530005 -1.4668039 0.44506371 0
4.9480004 -1.4734473 0.44501862 0
4.9430003 -1.4800726 0.44497353 0
4.9380002 -1.4866799 0.44492841 0
4.9330001 -1.4932692 0.44488332 0
4.9280005 -1.4998406 0.44483823 0
4.9230003 -1.5063939 0.44479313 0
4.9180002 -1.5129291 0.44474804 0
4.9130001 -1.5194461 0.44470295 0
4.9080005 -1.5259453 0.44465786 0
4.9030004 -1.5324265 0.44461274 0
4.8980002 -1.5388894 0.44456765 0
4.8930001 -1.5453343 0.44452256 0
4.8880005 -1.5517614 0.44447747 0
4.8830004 -1.5581703 0.44443238 0
4.8780003 -1.5645611 0.44438729 0
4.8730001 -1.5709341 0.4443422 0
4.8680005 -1.577289 0.44429708 0
4.8630004 -1.5836257 0.44425198 0
4.8580003 -1.5899444 0.44420689 0
4.8540001 -1.5965931 0.44417083 0
4.8490005 -1.6028777 0.44412574 0
4.8440003 -1.6091442 0.44408062 0
4.8390002 -1.6153924 0.44403553 0
4.8340001 -1.6216228 0.44399044 0
4.8290005 -1.6278353 0.44394535 0
4.8240004 -1.6340295 0.44390026 0
4.8200002 -1.6405663 0.44386417 0
4.8150005 -1.6467266 0.44381908 0
4.8100004 -1.6528685 0.44377398 0
4.8050003 -1.6589924 0.44372889 0
4.8010001 -1.6654662 0.4436928 0
4.7960005 -1.6715559 0.44364771 0
4.7910004 -1.6776276 0.44360262 0
4.7860003 -1.6836811 0.44355753 0
4.7820005 -1.690092 0.44352144 0
4.7770004 -1.6961112 0.44347635 0
4.7720003 -1.7021124 0.44343126 0
4.7670002 -1.7080956 0.44338617 0
4.7630005 -1.7144433 0.44335008 0
4.7580004 -1.7203923 0.44330499 0
4.7530003 -1.7263231 0.44325989 0
4.7490001 -1.7326237 0.44322383 0
4.7440004 -1.7385205 0.44317871 0
4.7390003 -1.7443991 0.44313362 0
4.7350001 -1.7506529 0.44309756 0
4.7300005 -1.7564973 0.44305247 0
4.7260003 -1.7627203 0.44301638 0
4.7210002 -1.7685305 0.44297129 0
4.7160001 -1.7743224 0.4429262 0
4.7120004 -1.7804987 0.44289011 0
4.7070003 -1.7862566 0.44284502 0
4.7030001 -1.7924019 0.44280896 0
4.6980004 -1.7981256 0.44276386 0
4.6940002 -1.8042405 0.44272777 0
4.6890001 -1.8099296 0.44268268 0
4.6850004 -1.8160139 0.44264659 0
4.6800003 -1.8216687 0.4426015 0
4.6760001 -1.8277223 0.44256544 0
4.6710005 -1.8333431 0.44252035 0
4.6670003 -1.839366 0.44248426 0
4.6620002 -1.8449523 0.44243917 0
4.6580005 -1.8509446 0.44240308 0
4.6530004 -1.8564968 0.44235799 0
4.6490002 -1.8624582 0.44232193 0
4.6440005 -1.8679763 0.44227684 0
4.6400003 -1.8739071 0.44224074 0
4.6350002 -1.8793906 0.44219565 0
4.6310005 -1.885291 0.44215959 0
4.6270003 -1.8911768 0.4421235 0
4.6220002 -1.8966098 0.44207841 0
4.6180005 -1.9024652 0.44204232 0
4.6130004 -1.9078639 0.44199723 0
4.6090002 -1.9136883 0.44196117 0
4.6050005 -1.9194986 0.44192508 0
4.6000004 -1.9248468 0.44187999 0
4.5960002 -1.9306262 0.4418439 0
4.5920005 -1.9363911 0.44180784 0
4.5870004 -1.9416888 0.44176275 0
4.5830002 -1.947423 0.44172665 0
4.5790005 -1.9531431 0.44169059 0
4.5750003 -1.9588485 0.4416545 0
4.5700002 -1.9640794 0.44160941 0
4.5660005 -1.9697543 0.44157335 0
4.5620003 -1.9754146 0.44153726 0
4.5570002 -1.980595 0.44149217 0
4.5530005 -1.9862249 0.44145608 0
4.5490003 -1.99184 0.44142002 0
4.5450001 -1.9974408 0.44138393 0
4.5410004 -2.0030272 0.44134787 0
4.5360003 -2.0081248 0.44130278 0
4.5320001 -2.0136805 0.44126669 0
4.5280004 -2.0192218 0.44123062 0
4.5240002 -2.0247486 0.44119453 0
4.5200005 -2.030261 0.44115847 0
4.5150003 -2.0352757 0.44111335 0
4.5110002 -2.0407574 0.44107729 0
4.5070004 -2.0462251 0.44104123 0
4.5030003 -2.0516779 0.44100514 0
4.4990001 -2.0571163 0.44096905 0
4.4950004 -2.0625403 0.44093299 0
4.4900002 -2.0674558 0.4408879 0
4.4860001 -2.072849 0.44085181 0
4.4820004 -2.0782282 0.44081575 0
4.4780002 -2.0835927 0.44077966 0
4.4740005 -2.0889428 0.4407436 0
4.4700003 -2.0942783 0.4407075 0
4.4660001 -2.0995994 0.44067144 0
4.4620004 -2.1049066 0.44063535 0
4.4580002 -2.1101987 0.44059929 0
4.4540005 -2.1154768 0.4405632 0
4.4500003 -2.1207402 0.44052714 0
4.4460001 -2.1259892 0.44049105 0
4.4420004 -2.1312239 0.44045499 0
4.4380002 -2.1364441 0.4404189 0
4.4340005 -2.1416502 0.44038284 0
4.4300003 -2.1468413 0.44034675 0
4.4260001 -2.1520183 0.44031069 0
4.4220004 -2.1571808 0.4402746 0
4.4180002 -2.1623287 0.44023854 0
4.4140005 -2.1674626 0.44020244 0
4.4100003 -2.1725817 0.44016635 0
4.4060001 -2.1776865 0.44013029 0
4.4020004 -2.1827767 0.44009423 0
4.3980002 -2.1878526 0.44005814 0
4.3940001 -2.1929142 0.44002205 0
4.3900003 -2.1979613 0.43998599 0
4.3860002 -2.2029939 0.43994993 0
4.382 -2.2080121 0.43991384 0
4.3780003 -2.2130158 0.43987775 0
4.3740001 -2.2180052 0.43984169 0
4.3710003 -2.2235284 0.43981463 0
4.3670001 -2.2284908 0.43977857 0
4.3630004 -2.2334387 0.43974248 0
4.3590002 -2.2383721 0.43970639 0
4.355 -2.2432909 0.43967032 0
4.3510003 -2.2481954 0.43963423 0
4.3470001 -2.2530856 0.43959817 0
4.3440003 -2.2585225 0.43957111 0
4.3400002 -2.2633855 0.43953502 0
4.336 -2.268234 0.43949896 0
4.3320003 -2.2730682 0.43946287 0
4.3280001 -2.2778881 0.43942681 0
4.3250003 -2.2832634 0.43939975 0
4.3210001 -2.2880561 0.43936369 0
4.3170004 -2.2928343 0.4393276 0
5.1450005 -1.2185926 0.4382363 0
5.1390004 -1.2256582 0.43819299 0
5.1340003 -1.2329527 0.43815693 0
5.1280003 -1.2399768 0.43811363 0
5.1230001 -1.2472334 0.43807757 0
5.1170001 -1.254216 0.43803427 0
5.1120005 -1.2614349 0.43799821 0
5.1060004 -1.268376 0.4379549 0
5.1010003 -1.2755568 0.43791881 0
5.0950003 -1.2824564 0.43787554 0
5.0900002 -1.2895994 0.43783945 0
5.0850005 -1.2967246 0.43780339 0
5.0790005 -1.3035629 0.43776008 0
5.0740004 -1.31065 0.43772402 0
5.0680003 -1.3174467 0.43768072 0
5.0630002 -1.3244959 0.43764466 0
5.0580001 -1.3315272 0.43760857 0
5.0520005 -1.3382628 0.43756527 0
5.0470004 -1.345256 0.43752921 0
5.0420003 -1.3522314 0.43749312 0
5.0360003 -1.3589054 0.43744984 0
5.0310001 -1.3658428 0.43741375 0
5.0260005 -1.3727623 0.43737769 0
5.0210004 -1.3796637 0.4373416 0
5.0150003 -1.3862566 0.4372983 0
5.0100002 -1.3931201 0.43726224 0
5.0050001 -1.3999654 0.43722618 0
5.0000005 -1.406793 0.43719009 0
4.9950004 -1.4136024 0.437154 0
4.9890003 -1.4200943 0.43711072 0
4.9840002 -1.4268657 0.43707463 0
4.9790001 -1.433619 0.43703857 0
4.9740005 -1.4403546 0.43700248 0
4.9690003 -1.447072 0.43696642 0
4.9640002 -1.4537714 0.43693033 0
4.9580002 -1.4601424 0.43688706 0
4.9530005 -1.4668039 0.43685097 0
4.9480004 -1.4734473 0.4368149 0
4.9430003 -1.4800726 0.43677881 0
4.9380002 -1.4866799 0.43674275 0
4.9330001 -1.4932692 0.43670666 0
4.9280005 -1.4998406 0.4366706 0
4.9230003 -1.5063939 0.43663451 0
4.9180002 -1.5129291 0.43659842 0
4.9130001 -1.5194461 0.43656236 0
4.9080005 -1.5259453 0.4365263 0
4.9030004 -1.5324265 0.43649021 0
4.8980002 -1.5388894 0.43645412 0
4.8930001 -1.5453343 0.43641806 0
4.8880005 -1.5517614 0.436382 0
4.8830004 -1.5581703 0.43634591 0
4.8780003 -1.5645611 0.43630981 0
4.8730001 -1.5709341 0.43627375 0
4.8680005 -1.577289 0.43623769 0
4.8630004 -1.5836257 0.4362016 0
4.8580003 -1.5899444 0.43616551 0
4.8540001 -1.5965931 0.43613666 0
4.8490005 -1.6028777 0.4361006 0
4.8440003 -1.6091442 0.43606451 0
4.8390002 -1.6153924 0.43602842 0
4.8340001 -1.6216228 0.43599236 0
4.8290005 -1.6278353 0.43595627 0
4.8240004 -1.6340295 0.43592021 0
4.8200002 -1.6405663 0.43589133 0
4.8150005 -1.6467266 0.43585527 0
4.8100004 -1.6528685 0.43581921 0
4.8050003 -1.6589924 0.43578312 0
4.8010001 -1.6654662 0.43575424 0
4.7960005 -1.6715559 0.43571818 0
4.7910004 -1.6776276 0.43568212 0
4.7860003 -1.6836811 0.43564603 0
4.7820005 -1.690092 0.43561718 0
4.7770004 -1.6961112 0.43558109 0
4.7720003 -1.7021124 0.43554503 0
4.7670002 -1.7080956 0.43550894 0
4.7630005 -1.7144433 0.43548009 0
4.7580004 -1.7203923 0.435444 0
4.7530003 -1.7263231 0.43540794 0
4.7490001 -1.7326237 0.43537906 0
4.7440004 -1.7385205 0.435343 0
4.7390003 -1.7443991 0.43530691 0
4.7350001 -1.7506529 0.43527806 0
4.7300005 -1.7564973 0.43524197 0
4.7260003 -1.7627203 0.43521312 0
4.7210002 -1.7685305 0.43517703 0
4.7160001 -1.7743224 0.43514097 0
4.7120004 -1.7804987 0.43511209 0
4.7070003 -1.7862566 0.43507603 0
4.7030001 -1.7924019 0.43504715 0
4.6980004 -1.7981256 0.43501109 0
4.6940002 -1.8042405 0.43498221 0
4.6890001 -1.8099296 0.43494615 0
4.6850004 -1.8160139 0.4349173 0
4.6800003 -1.8216687 0.43488121 0
4.6760001 -1.8277223 0.43485236 0
4.6710005 -1.8333431 0.43481627 0
4.6670003 -1.839366 0.43478742 0
4.6620002 -1.8449523 0.43475133 0
4.6580005 -1.8509446 0.43472248 0
4.6530004 -1.8564968 0.43468639 0
4.6490002 -1.8624582 0.43465754 0
4.6440005 -1.8679763 0.43462145 0
4.6400003 -1.8739071 0.4345926 0
4.6350002 -1.8793906 0.43455651 0
4.6310005 -1.885291 0.43452767 0
4.6270003 -1.8911768 0.43449882 0
4.6220002 -1.8966098 0.43446273 0
4.6180005 -1.9024652 0.43443388 0
4.6130004 -1.9078639 0.43439779 0
4.6090002 -1.9136883 0.43436894 0
4.6050005 -1.9194986 0.43434006 0
4.6000004 -1.9248468 0.434304 0
4.5960002 -1.9306262 0.43427512 0
4.5920005 -1.9363911 0.43424627 0
4.5870004 -1.9416888 0.43421018 0
4.5830002 -1.947423 0.43418133 0
4.5790005 -1.9531431 0.43415248 0
4.5750003 -1.9588485 0.43412361 0
4.5700002 -1.9640794 0.43408754 0
4.5660005 -1.9697543 0.43405867 0
4.5620003 -1.9754146 0.43402982 0
4.5570002 -1.980595 0.43399373 0
4.5530005 -1.9862249 0.43396488 0
4.5490003 -1.99184 0.433936 0
4.5450001 -1.9974408 0.43390715 0
4.5410004 -2.0030272 0.4338783 0
4.5360003 -2.0081248 0.43384221 0
4.5320001 -2.0136805 0.43381336 0
4.5280004 -2.0192218 0.43378448 0
4.5240002 -2.0247486 0.43375564 0
4.5200005 -2.030261 0.43372679 0
4.5150003 -2.0352757 0.4336907 0
4.5110002 -2.0407574 0.43366185 0
4.5070004 -2.0462251 0.43363297 0
4.5030003 -2.0516779 0.43360412 0
4.4990001 -2.0571163 0.43357524 0
4.4950004 -2.0625403 0.43354639 0
4.4900002 -2.0674558 0.4335103 0
4.4860001 -2.072849 0.43348145 0
4.4820004 -2.0782282 0.43345261 0
4.4780002 -2.0835927 0.43342373 0
4.4740005 -2.0889428 0.43339488 0
4.4700003 -2.0942783 0.433366 0
4.4660001 -2.0995994 0.43333715 0
4.4620004 -2.1049066 0.4333083 0
4.4580002 -2.1101987 0.43327942 0
4.4540005 -2.1154768 0.43325058 0
4.4500003 -2.1207402 0.4332217 0
4.4460001 -2.1259892 0.43319285 0
4.4420004 -2.1312239 0.433164 0
4.4380002 -2.1364441 0.43313512 0
4.4340005 -2.1416502 0.43310627 0
4.4300003 -2.1468413 0.43307739 0
4.4260001 -2.1520183 0.43304855 0
4.4220004 -2.1571808 0.43301967 0
4.4180002 -2.1623287 0.43299082 0
4.4140005 -2.1674626 0.43296197 0
4.4100003 -2.1725817 0.43293309 0
4.4060001 -2.1776865 0.43290424 0
4.4020004 -2.1827767 0.43287537 0
4.3980002 -2.1878526 0.43284652 0
4.3940001 -2.1929142 0.43281767 0
4.3900003 -2.1979613 0.43278879 0
4.3860002 -2.2029939 0.43275994 0
4.382 -2.2080121 0.43273106 0
4.3780003 -2.2130158 0.43270221 0
4.3740001 -2.2180052 0.43267334 0
4.3710003 -2.2235284 0.4326517 0
4.3670001 -2.2284908 0.43262285 0
4.3630004 -2.2334387 0.43259397 0
4.3590002 -2.2383721 0.43256512 0
4.355 -2.2432909 0.43253624 0
4.3510003 -2.2481954 0.4325074 0
4.3470001 -2.2530856 0.43247855 0
4.3440003 -2.2585225 0.43245688 0
4.3400002 -2.2633855 0.43242803 0
4.336 -2.268234 0.43239918 0
4.3320003 -2.2730682 0.43237031 0
4.3280001 -2.2778881 0.43234146 0
4.3250003 -2.2832634 0.43231979 0
4.3210001 -2.2880561 0.43229094 0
4.3170004 -2.2928343 0.43226209 0
5.1450005 -1.2185926 0.42967722 0
5.1390004 -1.2256582 0.42964476 0
5.1340003 -1.2329527 0.4296177 0
5.1280003 -1.2399768 0.42958522 0
5.1230001 -1.2472334 0.42955816 0
5.1170001 -1.254216 0.4295257 0
5.1120005 -1.2614349 0.42949864 0
5.1060004 -1.268376 0.42946619 0
5.1010003 -1.2755568 0.42943913 0
5.0950003 -1.2824564 0.42940664 0
5.0900002 -1.2895994 0.42937958 0
5.0850005 -1.2967246 0.42935255 0
5.0790005 -1.3035629 0.42932007 0
5.0740004 -1.31065 0.42929301 0
5.0680003 -1.3174467 0.42926055 0
5.0630002 -1.3244959 0.42923349 0
5.0580001 -1.3315272 0.42920643 0
5.0520005 -1.3382628 0.42917398 0
5.0470004 -1.345256 0.42914692 0
5.0420003 -1.3522314 0.42911986 0
5.0360003 -1.3589054 0.42908737 0
5.0310001 -1.3658428 0.42906031 0
5.0260005 -1.3727623 0.42903328 0
5.0210004 -1.3796637 0.42900622 0
5.0150003 -1.3862566 0.42897373 0
5.0100002 -1.3931201 0.42894667 0
5.0050001 -1.3999654 0.42891961 0
5.0000005 -1.406793 0.42889255 0
4.9950004 -1.4136024 0.42886552 0
4.9890003 -1.4200943 0.42883304 0
4.9840002 -1.4268657 0.42880598 0
4.9790001 -1.433619 0.42877892 0
4.9740005 -1.4403546 0.42875189 0
4.9690003 -1.447072 0.42872483 0
4.9640002 -1.4537714 0.42869776 0
4.9580002 -1.4601424 0.42866528 0
4.9530005 -1.4668039 0.42863822 0
4.9480004 -1.4734473 0.42861116 0
4.9430003 -1.4800726 0.42858413 0
4.9380002 -1.4866799 0.42855707 0
4.9330001 -1.4932692 0.42853001 0
4.9280005 -1.4998406 0.42850295 0
4.9230003 -1.5063939 0.42847589 0
4.9180002 -1.5129291 0.42844883 0
4.9130001 -1.5194461 0.42842177 0
4.9080005 -1.5259453 0.42839471 0
4.9030004 -1.5324265 0.42836767 0
4.8980002 -1.5388894 0.42834061 0
4.8930001 -1.5453343 0.42831355 0
4.8880005 -1.5517614 0.42828649 0
4.8830004 -1.5581703 0.42825943 0
4.8780003 -1.5645611 0.42823237 0
4.8730001 -1.5709341 0.42820531 0
4.8680005 -1.577289 0.42817825 0
4.8630004 -1.5836257 0.42815119 0
4.8580003 -1.5899444 0.42812413 0
4.8540001 -1.5965931 0.42810249 0
4.8490005 -1.6028777 0.42807543 0
4.8440003 -1.6091442 0.42804837 0
4.8390002 -1.6153924 0.42802134 0
4.8340001 -1.6216228 0.42799428 0
4.8290005 -1.6278353 0.42796722 0
4.8240004 -1.6340295 0.42794016 0
4.8200002 -1.6405663 0.42791852 0
4.8150005 -1.6467266 0.42789146 0
4.8100004 -1.6528685 0.4278644 0
4.8050003 -1.6589924 0.42783734 0
4.8010001 -1.6654662 0.42781571 0
4.7960005 -1.6715559 0.42778865 0
4.7910004 -1.6776276 0.42776158 0
4.7860003 -1.6836811 0.42773452 0
4.7820005 -1.690092 0.42771289 0
4.7770004 -1.6961112 0.42768583 0
4.7720003 -1.7021124 0.42765877 0
4.7670002 -1.7080956 0.42763171 0
4.7630005 -1.7144433 0.42761007 0
4.7580004 -1.7203923 0.42758301 0
4.7530003 -1.7263231 0.42755595 0
4.7490001 -1.7326237 0.42753431 0
4.7440004 -1.7385205 0.42750725 0
4.7390003 -1.7443991 0.42748019 0
4.7350001 -1.7506529 0.42745852 0
4.7300005 -1.7564973 0.42743149 0
4.7260003 -1.7627203 0.42740983 0
4.7210002 -1.7685305 0.42738277 0
4.7160001 -1.7743224 0.42735571 0
4.7120004 -1.7804987 0.42733407 0
4.7070003 -1.7862566 0.42730701 0
4.7030001 -1.7924019 0.42728537 0
4.6980004 -1.7981256 0.42725831 0
4.6940002 -1.8042405 0.42723668 0
4.6890001 -1.8099296 0.42720962 0
4.6850004 -1.8160139 0.42718798 0
4.6800003 -1.8216687 0.42716092 0
4.6760001 -1.8277223 0.42713925 0
4.6710005 -1.8333431 0.42711222 0
4.6670003 -1.839366 0.42709056 0
4.6620002 -1.8449523 0.42706349 0
4.6580005 -1.8509446 0.42704186 0
4.6530004 -1.8564968 0.4270148 0
4.6490002 -1.8624582 0.42699316 0
4.6440005 -1.8679763 0.4269661 0
4.6400003 -1.8739071 0.42694446 0
4.6350002 -1.8793906 0.4269174 0
4.6310005 -1.885291 0.42689574 0
4.6270003 -1.8911768 0.4268741 0
4.6220002 -1.8966098 0.42684704 0
4.6180005 -1.9024652 0.4268254 0
4.6130004 -1.9078639 0.42679834 0
4.6090002 -1.9136883 0.42677671 0
4.6050005 -1.9194986 0.42675507 0
4.6000004 -1.9248468 0.42672801 0
4.5960002 -1.9306262 0.42670634 0
4.5920005 -1.9363911 0.42668471 0
4.5870004 -1.9416888 0.42665765 0
4.5830002 -1.947423 0.42663601 0
4.5790005 -1.9531431 0.42661434 0
4.5750003 -1.9588485 0.42659271 0
4.5700002 -1.9640794 0.42656565 0
4.5660005 -1.9697543 0.42654401 0
4.5620003 -1.9754146 0.42652237 0
4.5570002 -1.980595 0.42649531 0
4.5530005 -1.9862249 0.42647368 0
4.5490003 -1.99184 0.42645201 0
4.5450001 -1.9974408 0.42643037 0
4.5410004 -2.0030272 0.42640871 0
4.5360003 -2.0081248 0.42638168 0
4.5320001 -2.0136805 0.42636001 0
4.5280004 -2.0192218 0.42633837 0
4.5240002 -2.0247486 0.42631674 0
4.5200005 -2.030261 0.42629507 0
4.5150003 -2.0352757 0.42626804 0
4.5110002 -2.0407574 0.42624637 0
4.5070004 -2.0462251 0.42622474 0
4.5030003 -2.0516779 0.4262031 0
4.4990001 -2.0571163 0.42618144 0
4.4950004 -2.0625403 0.4261598 0
4.4900002 -2.0674558 0.42613274 0
4.4860001 -2.072849 0.4261111 0
4.4820004 -2.0782282 0.42608944 0
4.4780002 -2.0835927 0.4260678 0
4.4740005 -2.0889428 0.42604616 0
4.4700003 -2.0942783 0.42602453 0
4.4660001 -2.0995994 0.42600286 0
4.4620004 -2.1049066 0.42598122 0
4.4580002 -2.1101987 0.42595959 0
4.4540005 -2.1154768 0.42593792 0
4.4500003 -2.1207402 0.42591628 0
4.4460001 -2.1259892 0.42589465 0
4.4420004 -2.1312239 0.42587298 0
4.4380002 -2.1364441 0.42585135 0
4.4340005 -2.1416502 0.42582971 0
4.4300003 -2.1468413 0.42580804 0
4.4260001 -2.1520183 0.42578641 0
4.4220004 -2.1571808 0.42576477 0
4.4180002 -2.1623287 0.42574313 0
4.4140005 -2.1674626 0.42572147 0
4.4100003 -2.1725817 0.42569983 0
4.4060001 -2.1776865 0.42567819 0
4.4020004 -2.1827767 0.42565653 0
4.3980002 -2.1878526 0.42563489 0
4.3940001 -2.1929142 0.42561325 0
4.3900003 -2.1979613 0.42559159 0
4.3860002 -2.2029939 0.42556995 0
4.382 -2.2080121 0.42554832 0
4.3780003 -2.2130158 0.42552665 0
4.3740001 -2.2180052 0.42550501 0
4.3710003 -2.2235284 0.42548877 0
4.3670001 -2.2284908 0.42546713 0
4.3630004 -2.2334387 0.4254455 0
4.3590002 -2.2383721 0.42542386 0
4.355 -2.2432909 0.42540219 0
4.3510003 -2.2481954 0.42538056 0
4.3470001 -2.2530856 0.42535892 0
4.3440003 -2.2585225 0.42534268 0
4.3400002 -2.2633855 0.42532104 0
4.336 -2.268234 0.42529938 0
4.3320003 -2.2730682 0.42527774 0
4.3280001 -2.2778881 0.4252561 0
4.3250003 -2.2832634 0.42523986 0
4.3210001 -2.2880561 0.42521822 0
4.3170004 -2.2928343 0.42519656 0
5.1450005 -1.2185926 0.42111814 0
5.1390004 -1.2256582 0.4210965 0
5.1340003 -1.2329527 0.42107847 0
5.1280003 -1.2399768 0.42105684 0
5.1230001 -1.2472334 0.42103878 0
5.1170001 -1.254216 0.42101714 0
5.1120005 -1.2614349 0.42099911 0
5.1060004 -1.268376 0.42097747 0
5.1010003 -1.2755568 0.42095941 0
5.0950003 -1.2824564 0.42093778 0
5.0900002 -1.2895994 0.42091975 0
5.0850005 -1.2967246 0.42090169 0
5.0790005 -1.3035629 0.42088005 0
5.0740004 -1.31065 0.42086202 0
5.0680003 -1.3174467 0.42084038 0
5.0630002 -1.3244959 0.42082232 0
5.0580001 -1.3315272 0.42080429 0
5.0520005 -1.3382628 0.42078266 0
5.0470004 -1.345256 0.4207646 0
5.0420003 -1.3522314 0.42074656 0
5.0360003 -1.3589054 0.42072493 0
5.0310001 -1.3658428 0.4207069 0
5.0260005 -1.3727623 0.42068884 0
5.0210004 -1.3796637 0.42067081 0
5.0150003 -1.3862566 0.42064917 0
5.0100002 -1.3931201 0.42063111 0
5.0050001 -1.3999654 0.42061308 0
5.0000005 -1.406793 0.42059505 0
4.9950004 -1.4136024 0.42057702 0
4.9890003 -1.4200943 0.42055535 0
4.9840002 -1.4268657 0.42053732 0
4.9790001 -1.433619 0.42051929 0
4.9740005 -1.4403546 0.42050126 0
4.9690003 -1.447072 0.4204832 0
4.9640002 -1.4537714 0.42046517 0
4.9580002 -1.4601424 0.42044353 0
4.9530005 -1.4668039 0.4204255 0
4.9480004 -1.4734473 0.42040744 0
4.9430003 -1.4800726 0.42038941 0
4.9380002 -1.4866799 0.42037138 0
4.9330001 -1.4932692 0.42035335 0
4.9280005 -1.4998406 0.42033529 0
4.9230003 -1.5063939 0.42031726 0
4.9180002 -1.5129291 0.42029923 0
4.9130001 -1.5194461 0.42028117 0
4.9080005 -1.5259453 0.42026314 0
4.9030004 -1.5324265 0.42024511 0
4.8980002 -1.5388894 0.42022708 0
4.8930001 -1.5453343 0.42020902 0
4.8880005 -1.5517614 0.42019099 0
4.8830004 -1.5581703 0.42017296 0
4.8780003 -1.5645611 0.42015493 0
4.8730001 -1.5709341 0.42013687 0
4.8680005 -1.577289 0.42011884 0
4.8630004 -1.5836257 0.42010081 0
4.8580003 -1.5899444 0.42008278 0
4.8540001 -1.5965931 0.42006832 0
4.8490005 -1.6028777 0.42005029 0
4.8440003 -1.6091442 0.42003226 0
4.8390002 -1.6153924 0.42001423 0
4.8340001 -1.6216228 0.41999617 0
4.8290005 -1.6278353 0.41997814 0
4.8240004 -1.6340295 0.41996011 0
4.8200002 -1.6405663 0.41994569 0
4.8150005 -1.6467266 0.41992766 0
4.8100004 -1.6528685 0.4199096 0
4.8050003 -1.6589924 0.41989157 0
4.8010001 -1.6654662 0.41987714 0
4.7960005 -1.6715559 0.41985911 0
4.7910004 -1.6776276 0.41984105 0
4.7860003 -1.6836811 0.41982302 0
4.7820005 -1.690092 0.4198086 0
4.7770004 -1.6961112 0.41979057 0
4.7720003 -1.7021124 0.41977251 0
4.7670002 -1.7080956 0.41975448 0
4.7630005 -1.7144433 0.41974005 0
4.7580004 -1.7203923 0.41972202 0
4.7530003 -1.7263231 0.41970396 0
4.7490001 -1.7326237 0.41968954 0
4.7440004 -1.7385205 0.41967151 0
4.7390003 -1.7443991 0.41965348 0
4.7350001 -1.7506529 0.41963902 0
4.7300005 -1.7564973 0.41962099 0
4.7260003 -1.7627203 0.41960657 0
4.7210002 -1.7685305 0.41958854 0
4.7160001 -1.7743224 0.41957048 0
4.7120004 -1.7804987 0.41955605 0
4.7070003 -1.7862566 0.41953802 0
4.7030001 -1.7924019 0.4195236 0
4.6980004 -1.7981256 0.41950554 0
4.6940002 -1.8042405 0.41949111 0
4.6890001 -1.8099296 0.41947308 0
4.6850004 -1.8160139 0.41945866 0
4.6800003 -1.8216687 0.41944063 0
4.6760001 -1.8277223 0.41942617 0
4.6710005 -1.8333431 0.41940814 0
4.6670003 -1.839366 0.41939372 0
4.6620002 -1.8449523 0.41937569 0
4.6580005 -1.8509446 0.41936123 0
4.6530004 -1.8564968 0.4193432 0
4.6490002 -1.8624582 0.41932878 0
4.6440005 -1.8679763 0.41931075 0
4.6400003 -1.8739071 0.41929629 0
4.6350002 -1.8793906 0.41927826 0
4.6310005 -1.885291 0.41926384 0
4.6270003 -1.8911768 0.41924942 0
4.6220002 -1.8966098 0.41923136 0
4.6180005 -1.9024652 0.41921693 0
4.6130004 -1.9078639 0.4191989 0
4.6090002 -1.9136883 0.41918448 0
4.6050005 -1.9194986 0.41917005 0
4.6000004 -1.9248468 0.41915199 0
4.5960002 -1.9306262 0.41913757 0
4.5920005 -1.9363911 0.41912314 0
4.5870004 -1.9416888 0.41910511 0
4.5830002 -1.947423 0.41909069 0
4.5790005 -1.9531431 0.41907623 0
4.5750003 -1.9588485 0.41906181 0
4.5700002 -1.9640794 0.41904378 0
4.5660005 -1.9697543 0.41902936 0
4.5620003 -1.9754146 0.4190149 0
4.5570002 -1.980595 0.41899687 0
4.5530005 -1.9862249 0.41898245 0
4.5490003 -1.99184 0.41896802 0
4.5450001 -1.9974408 0.4189536 0
4.5410004 -2.0030272 0.41893914 0
4.5360003 -2.0081248 0.41892111 0
4.5320001 -2.0136805 0.41890669 0
4.5280004 -2.0192218 0.41889226 0
4.5240002 -2.0247486 0.41887781 0
4.5200005 -2.030261 0.41886339 0
4.5150003 -2.0352757 0.41884536 0
4.5110002 -2.0407574 0.41883093 0
4.5070004 -2.0462251 0.41881651 0
4.5030003 -2.0516779 0.41880205 0
4.4990001 -2.0571163 0.41878763 0
4.4950004 -2.0625403 0.4187732 0
4.4900002 -2.0674558 0.41875517 0
4.4860001 -2.072849 0.41874075 0
4.4820004 -2.0782282 0.4187263 0
4.4780002 -2.0835927 0.41871187 0
4.4740005 -2.0889428 0.41869745 0
4.4700003 -2.0942783 0.41868302 0
4.4660001 -2.0995994 0.41866857 0
4.4620004 -2.1049066 0.41865414 0
4.4580002 -2.1101987 0.41863972 0
4.4540005 -2.1154768 0.4186253 0
4.4500003 -2.1207402 0.41861087 0
4.4460001 -2.1259892 0.41859642 0
4.4420004 -2.1312239 0.41858199 0
4.4380002 -2.1364441 0.41856757 0
4.4340005 -2.1416502 0.41855314 0
4.4300003 -2.1468413 0.41853872 0
4.4260001 -2.1520183 0.41852427 0
4.4220004 -2.1571808 0.41850984 0
4.4180002 -2.1623287 0.41849542 0
4.4140005 -2.1674626 0.41848099 0
4.4100003 -2.1725817 0.41846657 0
4.4060001 -2.1776865 0.41845211 0
4.4020004 -2.1827767 0.41843769 0
4.3980002 -2.1878526 0.41842327 0
4.3940001 -2.1929142 0.41840884 0
4.3900003 -2.1979613 0.41839442 0
4.3860002 -2.2029939 0.41837996 0
4.382 -2.2080121 0.41836554 0
4.3780003 -2.2130158 0.41835111 0
4.3740001 -2.2180052 0.41833669 0
4.3710003 -2.2235284 0.41832587 0
4.3670001 -2.2284908 0.41831142 0
4.3630004 -2.2334387 0.41829699 0
4.3590002 -2.2383721 0.41828257 0
4.355 -2.2432909 0.41826814 0
4.3510003 -2.2481954 0.41825372 0
4.3470001 -2.2530856 0.41823927 0
4.3440003 -2.2585225 0.41822845 0
4.3400002 -2.2633855 0.41821402 0
4.336 -2.268234 0.4181996 0
4.3320003 -2.2730682 0.41818517 0
4.3280001 -2.2778881 0.41817072 0
4.3250003 -2.2832634 0.4181599 0
4.3210001 -2.2880561 0.41814548 0
4.3170004 -2.2928343 0.41813105 0
5.1450005 -1.2185926 0.41255909 0
5.1390004 -1.2256582 0.41254827 0
5.1340003 -1.2329527 0.41253924 0
5.1280003 -1.2399768 0.41252843 0
5.1230001 -1.2472334 0.4125194 0
5.1170001 -1.254216 0.41250858 0
5.1120005 -1.2614349 0.41249955 0
5.1060004 -1.268376 0.41248873 0
5.1010003 -1.2755568 0.41247973 0
5.0950003 -1.2824564 0.41246888 0
5.0900002 -1.2895994 0.41245988 0
5.0850005 -1.2967246 0.41245085 0
5.0790005 -1.3035629 0.41244003 0
5.0740004 -1.31065 0.412431 0
5.0680003 -1.3174467 0.41242018 0
5.0630002 -1.3244959 0.41241118 0
5.0580001 -1.3315272 0.41240215 0
5.0520005 -1.3382628 0.41239133 0
5.0470004 -1.345256 0.4123823 0
5.0420003 -1.3522314 0.4123733 0
5.0360003 -1.3589054 0.41236246 0
5.0310001 -1.3658428 0.41235346 0
5.0260005 -1.3727623 0.41234443 0
5.0210004 -1.3796637 0.41233543 0
5.0150003 -1.3862566 0.41232458 0
5.0100002 -1.3931201 0.41231558 0
5.0050001 -1.3999654 0.41230655 0
5.0000005 -1.406793 0.41229755 0
4.9950004 -1.4136024 0.41228852 0
4.9890003 -1.4200943 0.4122777 0
4.9840002 -1.4268657 0.41226867 0
4.9790001 -1.433619 0.41225964 0
4.9740005 -1.4403546 0.41225064 0
4.9690003 -1.447072 0.41224161 0
4.9640002 -1.4537714 0.41223261 0
4.9580002 -1.4601424 0.41222176 0
4.9530005 -1.4668039 0.41221276 0
4.9480004 -1.4734473 0.41220373 0
4.9430003 -1.4800726 0.41219473 0
4.9380002 -1.4866799 0.4121857 0
4.9330001 -1.4932692 0.41217667 0
4.9280005 -1.4998406 0.41216767 0
4.9230003 -1.5063939 0.41215864 0
4.9180002 -1.5129291 0.41214961 0
4.9130001 -1.5194461 0.41214061 0
4.9080005 -1.5259453 0.41213158 0
4.9030004 -1.5324265 0.41212255 0
4.8980002 -1.5388894 0.41211355 0
4.8930001 -1.5453343 0.41210452 0
4.8880005 -1.5517614 0.41209552 0
4.8830004 -1.5581703 0.41208649 0
4.8780003 -1.5645611 0.41207746 0
4.8730001 -1.5709341 0.41206846 0
4.8680005 -1.577289 0.41205943 0
4.8630004 -1.5836257 0.4120504 0
4.8580003 -1.5899444 0.4120414 0
4.8540001 -1.5965931 0.41203418 0
4.8490005 -1.6028777 0.41202515 0
4.8440003 -1.6091442 0.41201612 0
4.8390002 -1.6153924 0.41200712 0
4.8340001 -1.6216228 0.41199809 0
4.8290005 -1.6278353 0.41198909 0
4.8240004 -1.6340295 0.41198006 0
4.8200002 -1.6405663 0.41197285 0
4.8150005 -1.6467266 0.41196382 0
4.8100004 -1.6528685 0.41195482 0
4.8050003 -1.6589924 0.41194579 0
4.8010001 -1.6654662 0.41193858 0
4.7960005 -1.6715559 0.41192955 0
4.7910004 -1.6776276 0.41192055 0
4.7860003 -1.6836811 0.41191152 0
4.7820005 -1.690092 0.41190431 0
4.7770004 -1.6961112 0.41189528 0
4.7720003 -1.7021124 0.41188627 0
4.7670002 -1.7080956 0.41187724 0
4.7630005 -1.7144433 0.41187003 0
4.7580004 -1.7203923 0.411861 0
4.7530003 -1.7263231 0.411852 0
4.7490001 -1.7326237 0.41184479 0
4.7440004 -1.7385205 0.41183576 0
4.7390003 -1.7443991 0.41182673 0
4.7350001 -1.7506529 0.41181952 0
4.7300005 -1.7564973 0.41181052 0
4.7260003 -1.7627203 0.41180328 0
4.7210002 -1.7685305 0.41179428 0
4.7160001 -1.7743224 0.41178524 0
4.7120004 -1.7804987 0.41177803 0
4.7070003 -1.7862566 0.411769 0
4.7030001 -1.7924019 0.41176179 0
4.6980004 -1.7981256 0.41175279 0
4.6940002 -1.8042405 0.41174558 0
4.6890001 -1.8099296 0.41173655 0
4.6850004 -1.8160139 0.41172934 0
4.6800003 -1.8216687 0.41172031 0
4.6760001 -1.8277223 0.41171309 0
4.6710005 -1.8333431 0.41170409 0
4.6670003 -1.839366 0.41169685 0
4.6620002 -1.8449523 0.41168785 0
4.6580005 -1.8509446 0.41168064 0
4.6530004 -1.8564968 0.41167161 0
4.6490002 -1.8624582 0.4116644 0
4.6440005 -1.8679763 0.41165537 0
4.6400003 -1.8739071 0.41164815 0
4.6350002 -1.8793906 0.41163915 0
4.6310005 -1.885291 0.41163194 0
4.6270003 -1.8911768 0.4116247 0
4.6220002 -1.8966098 0.4116157 0
4.6180005 -1.9024652 0.41160849 0
4.6130004 -1.9078639 0.41159946 0
4.6090002 -1.9136883 0.41159225 0
4.6050005 -1.9194986 0.41158503 0
4.6000004 -1.9248468 0.411576 0
4.5960002 -1.9306262 0.41156879 0
4.5920005 -1.9363911 0.41156158 0
4.5870004 -1.9416888 0.41155255 0
4.5830002 -1.947423 0.41154534 0
4.5790005 -1.9531431 0.41153812 0
4.5750003 -1.9588485 0.41153091 0
4.5700002 -1.9640794 0.41152188 0
4.5660005 -1.9697543 0.41151467 0
4.5620003 -1.9754146 0.41150746 0
4.5570002 -1.980595 0.41149846 0
4.5530005 -1.9862249 0.41149122 0
4.5490003 -1.99184 0.411484 0
4.5450001 -1.9974408 0.41147679 0
4.5410004 -2.0030272 0.41146958 0
4.5360003 -2.0081248 0.41146058 0
4.5320001 -2.0136805 0.41145334 0
4.5280004 -2.0192218 0.41144612 0
4.5240002 -2.0247486 0.41143891 0
4.5200005 -2.030261 0.4114317 0
4.5150003 -2.0352757 0.4114227 0
4.5110002 -2.0407574 0.41141546 0
4.5070004 -2.0462251 0.41140825 0
4.5030003 -2.0516779 0.41140103 0
4.4990001 -2.0571163 0.41139382 0
4.4950004 -2.0625403 0.41138661 0
4.4900002 -2.0674558 0.41137758 0
4.4860001 -2.072849 0.41137037 0
4.4820004 -2.0782282 0.41136315 0
4.4780002 -2.0835927 0.41135594 0
4.4740005 -2.0889428 0.41134873 0
4.4700003 -2.0942783 0.41134152 0
4.4660001 -2.0995994 0.41133431 0
4.4620004 -2.1049066 0.41132709 0
4.4580002 -2.1101987 0.41131988 0
4.4540005 -2.1154768 0.41131264 0
4.4500003 -2.1207402 0.41130543 0
4.4460001 -2.1259892 0.41129822 0
4.4420004 -2.1312239 0.411291 0
4.4380002 -2.1364441 0.41128379 0
4.4340005 -2.1416502 0.41127658 0
4.4300003 -2.1468413 0.41126937 0
4.4260001 -2.1520183 0.41126215 0
4.4220004 -2.1571808 0.41125494 0
4.4180002 -2.1623287 0.41124773 0
4.4140005 -2.1674626 0.41124049 0
4.4100003 -2.1725817 0.41123328 0
4.4060001 -2.1776865 0.41122606 0
4.4020004 -2.1827767 0.41121885 0
4.3980002 -2.1878526 0.41121164 0
4.3940001 -2.1929142 0.41120443 0
4.3900003 -2.1979613 0.41119722 0
4.3860002 -2.2029939 0.41119 0
4.382 -2.2080121 0.41118279 0
4.3780003 -2.2130158 0.41117555 0
4.3740001 -2.2180052 0.41116834 0
4.3710003 -2.2235284 0.41116294 0
4.3670001 -2.2284908 0.41115573 0
4.3630004 -2.2334387 0.41114852 0
4.3590002 -2.2383721 0.41114128 0
4.355 -2.2432909 0.41113406 0
4.3510003 -2.2481954 0.41112685 0
4.3470001 -2.2530856 0.41111964 0
4.3440003 -2.2585225 0.41111425 0
4.3400002 -2.2633855 0.411107 0
4.336 -2.268234 0.41109979 0
4.3320003 -2.2730682 0.41109258 0
4.3280001 -2.2778881 0.41108537 0
4.3250003 -2.2832634 0.41107997 0
4.3210001 -2.2880561 0.41107276 0
4.3170004 -2.2928343 0.41106552 0
5.1450005 -1.2185926 0.40400001 0
5.1390004 -1.2256582 0.40400001 0
5.1340003 -1.2329527 0.40400001 0
5.1280003 -1.2399768 0.40400001 0
5.1230001 -1.2472334 0.40400001 0
5.1170001 -1.254216 0.40400001 0
5.1120005 -1.2614349 0.40400001 0
5.1060004 -1.268376 0.40400001 0
5.1010003 -1.2755568 0.40400001 0
5.0950003 -1.2824564 0.40400001 0
5.0900002 -1.2895994 0.40400001 0
5.0850005 -1.2967246 0.40400001 0
5.0790005 -1.3035629 0.40400001 0
5.0740004 -1.31065 0.40400001 0
5.0680003 -1.3174467 0.40400001 0
5.0630002 -1.3244959 0.40400001 0
5.0580001 -1.3315272 0.40400001 0
5.0520005 -1.3382628 0.40400001 0
5.0470004 -1.345256 0.40400001 0
5.0420003 -1.3522314 0.40400001 0
5.0360003 -1.3589054 0.40400001 0
5.0310001 -1.3658428 0.40400001 0
5.0260005 -1.3727623 0.40400001 0
5.0210004 -1.3796637 0.40400001 0
5.0150003 -1.3862566 0.40400001 0
5.0100002 -1.3931201 0.40400001 0
5.0050001 -1.3999654 0.40400001 0
5.0000005 -1.406793 0.40400001 0
4.9950004 -1.4136024 0.40400001 0
4.9890003 -1.4200943 0.40400001 0
4.9840002 -1.4268657 0.40400001 0
4.9790001 -1.433619 0.40400001 0
4.9740005 -1.4403546 0.40400001 0
4.9690003 -1.447072 0.40400001 0
4.9640002 -1.4537714 0.40400001 0
4.9580002 -1.4601424 0.40400001 0
4.9530005 -1.4668039 0.40400001 0
4.9480004 -1.4734473 0.40400001 0
4.9430003 -1.4800726 0.40400001 0
4.9380002 -1.4866799 0.40400001 0
4.9330001 -1.4932692 0.40400001 0
4.9280005 -1.4998406 0.40400001 0
4.9230003 -1.5063939 0.40400001 0
4.9180002 -1.5129291 0.40400001 0
4.9130001 -1.5194461 0.40400001 0
4.9080005 -1.5259453 0.40400001 0
4.9030004 -1.5324265 0.40400001 0
4.8980002 -1.5388894 0.40400001 0
4.8930001 -1.5453343 0.40400001 0
4.8880005 -1.5517614 0.40400001 0
4.8830004 -1.5581703 0.40400001 0
4.8780003 -1.5645611 0.40400001 0
4.8730001 -1.5709341 0.40400001 0
4.8680005 -1.577289 0.40400001 0
4.8630004 -1.5836257 0.40400001 0
4.8580003 -1.5899444 0.40400001 0
4.8540001 -1.5965931 0.40400001 0
4.8490005 -1.6028777 0.40400001 0
4.8440003 -1.6091442 0.40400001 0
4.8390002 -1.6153924 0.40400001 0
4.8340001 -1.6216228 0.40400001 0
4.8290005 -1.6278353 0.40400001 0
4.8240004 -1.6340295 0.40400001 0
4.8200002 -1.6405663 0.40400001 0
4.8150005 -1.6467266 0.40400001 0
4.8100004 -1.6528685 0.40400001 0
4.8050003 -1.6589924 0.40400001 0
4.8010001 -1.6654662 0.40400001 0
4.7960005 -1.6715559 0.40400001 0
4.7910004 -1.6776276 0.40400001 0
4.7860003 -1.6836811 0.40400001 0
4.7820005 -1.690092 0.40400001 0
4.7770004 -1.6961112 0.40400001 0
4.7720003 -1.7021124 0.40400001 0
4.7670002 -1.7080956 0.40400001 0
4.7630005 -1.7144433 0.40400001 0
4.7580004 -1.7203923 0.40400001 0
4.7530003 -1.7263231 0.40400001 0
4.7490001 -1.7326237 0.40400001 0
4.7440004 -1.7385205 0.40400001 0
4.7390003 -1.7443991 0.40400001 0
4.7350001 -1.7506529 0.40400001 0
4.7300005 -1.7564973 0.40400001 0
4.7260003 -1.7627203 0.40400001 0
4.7210002 -1.7685305 0.40400001 0
4.7160001 -1.7743224 0.40400001 0
4.7120004 -1.7804987 0.40400001 0
4.7070003 -1.7862566 0.40400001 0
4.7030001 -1.7924019 0.40400001 0
4.6980004 -1.7981256 0.40400001 0
4.6940002 -1.8042405 0.40400001 0
4.6890001 -1.8099296 0.40400001 0
4.6850004 -1.8160139 0.40400001 0
4.6800003 -1.8216687 0.40400001 0
4.6760001 -1.8277223 0.40400001 0
4.6710005 -1.8333431 0.40400001 0
4.6670003 -1.839366 0.40400001 0
4.6620002 -1.8449523 0.40400001 0
4.6580005 -1.8509446 0.40400001 0
4.6530004 -1.8564968 0.40400001 0
4.6490002 -1.8624582 0.40400001 0
4.6440005 -1.8679763 0.40400001 0
4.6400003 -1.8739071 0.40400001 0
4.6350002 -1.8793906 0.40400001 0
4.6310005 -1.885291 0.40400001 0
4.6270003 -1.8911768 0.40400001 0
4.6220002 -1.8966098 0.40400001 0
4.6180005 -1.9024652 0.40400001 0
4.6130004 -1.9078639 0.40400001 0
4.6090002 -1.9136883 0.40400001 0
4.6050005 -1.9194986 0.40400001 0
4.6000004 -1.9248468 0.40400001 0
4.5960002 -1.9306262 0.40400001 0
4.5920005 -1.9363911 0.40400001 0
4.5870004 -1.9416888 0.40400001 0
4.5830002 -1.947423 0.40400001 0
4.5790005 -1.9531431 0.40400001 0
4.5750003 -1.9588485 0.40400001 0
4.5700002 -1.9640794 0.40400001 0
4.5660005 -1.9697543 0.40400001 0
4.5620003 -1.9754146 0.40400001 0
4.5570002 -1.980595 0.40400001 0
4.5530005 -1.9862249 0.40400001 0
4.5490003 -1.99184 0.40400001 0
4.5450001 -1.9974408 0.40400001 0
4.5410004 -2.0030272 0.40400001 0
4.5360003 -2.0081248 0.40400001 0
4.5320001 -2.0136805 0.40400001 0
4.5280004 -2.0192218 0.40400001 0
4.5240002 -2.0247486 0.40400001 0
4.5200005 -2.030261 0.40400001 0
4.5150003 -2.0352757 0.40400001 0
4.5110002 -2.0407574 0.40400001 0
4.5070004 -2.0462251 0.40400001 0
4.5030003 -2.0516779 0.40400001 0
4.4990001 -2.0571163 0.40400001 0
4.4950004 -2.0625403 0.40400001 0
4.4910002 -2.06795 0.40400001 0
4.4860001 -2.072849 0.40400001 0
4.4820004 -2.0782282 0.40400001 0
4.4780002 -2.0835927 0.40400001 0
4.4740005 -2.0889428 0.40400001 0
4.4700003 -2.0942783 0.40400001 0
4.4660001 -2.0995994 0.40400001 0
4.4620004 -2.1049066 0.40400001 0
4.4580002 -2.1101987 0.40400001 0
4.4540005 -2.1154768 0.40400001 0
4.4500003 -2.1207402 0.40400001 0
4.4460001 -2.1259892 0.40400001 0
4.4420004 -2.1312239 0.40400001 0
4.4380002 -2.1364441 0.40400001 0
4.4340005 -2.1416502 0.40400001 0
4.4300003 -2.1468413 0.40400001 0
4.4260001 -2.1520183 0.40400001 0
4.4220004 -2.1571808 0.40400001 0
4.4180002 -2.1623287 0.40400001 0
4.4140005 -2.1674626 0.40400001 0
4.4100003 -2.1725817 0.40400001 0
4.4060001 -2.1776865 0.40400001 0
4.4020004 -2.1827767 0.40400001 0
4.3980002 -2.1878526 0.40400001 0
4.3940001 -2.1929142 0.40400001 0
4.3900003 -2.1979613 0.40400001 0
4.3860002 -2.2029939 0.40400001 0
4.382 -2.2080121 0.40400001 0
4.3780003 -2.2130158 0.40400001 0
4.3740001 -2.2180052 0.40400001 0
4.3710003 -2.2235284 0.40400001 0
4.3670001 -2.2284908 0.40400001 0
4.3630004 -2.2334387 0.40400001 0
4.3590002 -2.2383721 0.40400001 0
4.355 -2.2432909 0.40400001 0
4.3510003 -2.2481954 0.40400001 0
4.3470001 -2.2530856 0.40400001 0
4.3440003 -2.2585225 0.40400001 0
4.3400002 -2.2633855 0.40400001 0
4.336 -2.268234 0.40400001 0
4.3320003 -2.2730682 0.40400001 0
4.3280001 -2.2778881 0.40400001 0
4.3250003 -2.2832634 0.40400001 0
4.3210001 -2.2880561 0.40400001 0
4.3170004 -2.2928343 0.40400001 0
5.1450005 -1.2185926 0.39544094 0
5.1390004 -1.2256582 0.39545175 0
5.1340003 -1.2329527 0.39546078 0
5.1280003 -1.2399768 0.3954716 0
5.1230001 -1.2472334 0.39548063 0
5.1170001 -1.254216 0.39549145 0
5.1120005 -1.2614349 0.39550048 0
5.1060004 -1.268376 0.3955113 0
5.1010003 -1.2755568 0.3955203 0
5.0950003 -1.2824564 0.39553115 0
5.0900002 -1.2895994 0.39554015 0
5.0850005 -1.2967246 0.39554918 0
5.0790005 -1.3035629 0.39556 0
5.0740004 -1.31065 0.39556903 0
5.0680003 -1.3174467 0.39557984 0
5.0630002 -1.3244959 0.39558885 0
5.0580001 -1.3315272 0.39559788 0
5.0520005 -1.3382628 0.39560869 0
5.0470004 -1.345256 0.39561772 0
5.0420003 -1.3522314 0.39562672 0
5.0360003 -1.3589054 0.39563757 0
5.0310001 -1.3658428 0.39564657 0
5.0260005 -1.3727623 0.3956556 0
5.0210004 -1.3796637 0.3956646 0
5.0150003 -1.3862566 0.39567545 0
5.0100002 -1.3931201 0.39568445 0
5.0050001 -1.3999654 0.39569348 0
5.0000005 -1.406793 0.39570248 0
4.9950004 -1.4136024 0.39571151 0
4.9890003 -1.4200943 0.39572233 0
4.9840002 -1.4268657 0.39573136 0
4.9790001 -1.433619 0.39574039 0
4.9740005 -1.4403546 0.39574939 0
4.9690003 -1.447072 0.39575842 0
4.9640002 -1.4537714 0.39576742 0
4.9580002 -1.4601424 0.39577827 0
4.9530005 -1.4668039 0.39578727 0
4.9480004 -1.4734473 0.3957963 0
4.9430003 -1.4800726 0.3958053 0
4.9380002 -1.4866799 0.39581433 0
4.9330001 -1.4932692 0.39582336 0
4.9280005 -1.4998406 0.39583236 0
4.9230003 -1.5063939 0.39584139 0
4.9180002 -1.5129291 0.39585042 0
4.9130001 -1.5194461 0.39585942 0
4.9080005 -1.5259453 0.39586845 0
4.9030004 -1.5324265 0.39587748 0
4.8980002 -1.5388894 0.39588648 0
4.8930001 -1.5453343 0.39589551 0
4.8880005 -1.5517614 0.39590451 0
4.8830004 -1.5581703 0.39591354 0
4.8780003 -1.5645611 0.39592257 0
4.8730001 -1.5709341 0.39593157 0
4.8680005 -1.577289 0.3959406 0
4.8630004 -1.5836257 0.39594963 0
4.8580003 -1.5899444 0.39595863 0
4.8540001 -1.5965931 0.39596584 0
4.8490005 -1.6028777 0.39597487 0
4.8440003 -1.6091442 0.3959839 0
4.8390002 -1.6153924 0.3959929 0
4.8340001 -1.6216228 0.39600194 0
4.8290005 -1.6278353 0.39601094 0
4.8240004 -1.6340295 0.39601997 0
4.8200002 -1.6405663 0.39602718 0
4.8150005 -1.6467266 0.39603621 0
4.8100004 -1.6528685 0.39604521 0
4.8050003 -1.6589924 0.39605424 0
4.8010001 -1.6654662 0.39606145 0
4.7960005 -1.6715559 0.39607048 0
4.7910004 -1.6776276 0.39607948 0
4.7860003 -1.6836811 0.39608851 0
4.7820005 -1.690092 0.39609572 0
4.7770004 -1.6961112 0.39610475 0
4.7720003 -1.7021124 0.39611375 0
4.7670002 -1.7080956 0.39612278 0
4.7630005 -1.7144433 0.39613 0
4.7580004 -1.7203923 0.39613903 0
4.7530003 -1.7263231 0.39614803 0
4.7490001 -1.7326237 0.39615524 0
4.7440004 -1.7385205 0.39616427 0
4.7390003 -1.7443991 0.3961733 0
4.7350001 -1.7506529 0.39618051 0
4.7300005 -1.7564973 0.39618951 0
4.7260003 -1.7627203 0.39619675 0
4.7210002 -1.7685305 0.39620575 0
4.7160001 -1.7743224 0.39621478 0
4.7120004 -1.7804987 0.396222 0
4.7070003 -1.7862566 0.39623103 0
4.7030001 -1.7924019 0.39623824 0
4.6980004 -1.7981256 0.39624724 0
4.6940002 -1.8042405 0.39625445 0
4.6890001 -1.8099296 0.39626348 0
4.6850004 -1.8160139 0.39627069 0
4.6800003 -1.8216687 0.39627972 0
4.6760001 -1.8277223 0.39628693 0
4.6710005 -1.8333431 0.39629593 0
4.6670003 -1.839366 0.39630318 0
4.6620002 -1.8449523 0.39631218 0
4.6580005 -1.8509446 0.39631939 0
4.6530004 -1.8564968 0.39632842 0
4.6490002 -1.8624582 0.39633563 0
4.6440005 -1.8679763 0.39634466 0
4.6400003 -1.8739071 0.39635187 0
4.6350002 -1.8793906 0.39636087 0
4.6310005 -1.885291 0.39636809 0
4.6270003 -1.8911768 0.39637533 0
4.6220002 -1.8966098 0.39638433 0
4.6180005 -1.9024652 0.39639154 0
4.6130004 -1.9078639 0.39640057 0
4.6090002 -1.9136883 0.39640778 0
4.6050005 -1.9194986 0.396415 0
4.6000004 -1.9248468 0.39642403 0
4.5960002 -1.9306262 0.39643124 0
4.5920005 -1.9363911 0.39643845 0
4.5870004 -1.9416888 0.39644748 0
4.5830002 -1.947423 0.39645469 0
4.5790005 -1.9531431 0.3964619 0
4.5750003 -1.9588485 0.39646912 0
4.5700002 -1.9640794 0.39647815 0
4.5660005 -1.9697543 0.39648536 0
4.5620003 -1.9754146 0.39649257 0
4.5570002 -1.980595 0.39650157 0
4.5530005 -1.9862249 0.39650881 0
4.5490003 -1.99184 0.39651603 0
4.5450001 -1.9974408 0.39652324 0
4.5410004 -2.0030272 0.39653045 0
4.5360003 -2.0081248 0.39653945 0
4.5320001 -2.0136805 0.39654669 0
4.5280004 -2.0192218 0.3965539 0
4.5240002 -2.0247486 0.39656112 0
4.5200005 -2.030261 0.39656833 0
4.5150003 -2.0352757 0.39657733 0
4.5110002 -2.0407574 0.39658457 0
4.5070004 -2.0462251 0.39659178 0
4.5030003 -2.0516779 0.39659899 0
4.4990001 -2.0571163 0.39660621 0
4.4950004 -2.0625403 0.39661342 0
4.4910002 -2.06795 0.39662063 0
4.4860001 -2.072849 0.39662966 0
4.4820004 -2.0782282 0.39663687 0
4.4780002 -2.0835927 0.39664409 0
4.4740005 -2.0889428 0.3966513 0
4.4700003 -2.0942783 0.39665851 0
4.4660001 -2.0995994 0.39666572 0
4.4620004 -2.1049066 0.39667293 0
4.4580002 -2.1101987 0.39668015 0
4.4540005 -2.1154768 0.39668739 0
4.4500003 -2.1207402 0.3966946 0
4.4460001 -2.1259892 0.39670181 0
4.4420004 -2.1312239 0.39670902 0
4.4380002 -2.1364441 0.39671624 0
4.4340005 -2.1416502 0.39672345 0
4.4300003 -2.1468413 0.39673066 0
4.4260001 -2.1520183 0.39673787 0
4.4220004 -2.1571808 0.39674509 0
4.4180002 -2.1623287 0.3967523 0
4.4140005 -2.1674626 0.39675954 0
4.4100003 -2.1725817 0.39676675 0
4.4060001 -2.1776865 0.39677396 0
4.4020004 -2.1827767 0.39678118 0
4.3980002 -2.1878526 0.39678839 0
4.3940001 -2.1929142 0.3967956 0
4.3900003 -2.1979613 0.39680281 0
4.3860002 -2.2029939 0.39681002 0
4.382 -2.2080121 0.39681724 0
4.3780003 -2.2130158 0.39682448 0
4.3740001 -2.2180052 0.39683169 0
4.3710003 -2.2235284 0.39683709 0
4.3670001 -2.2284908 0.3968443 0
4.3630004 -2.2334387 0.39685151 0
4.3590002 -2.2383721 0.39685875 0
4.355 -2.2432909 0.39686596 0
4.3510003 -2.2481954 0.39687318 0
4.3470001 -2.2530856 0.39688039 0
4.3440003 -2.2585225 0.39688578 0
4.3400002 -2.2633855 0.39689302 0
4.336 -2.268234 0.39690024 0
4.3320003 -2.2730682 0.39690745 0
4.3280001 -2.2778881 0.39691466 0
4.3250003 -2.2832634 0.39692006 0
4.3210001 -2.2880561 0.39692727 0
4.3170004 -2.2928343 0.39693451 0
5.1450005 -1.2185926 0.38688189 0
5.1390004 -1.2256582 0.38690352 0
5.1340003 -1.2329527 0.38692155 0
5.1280003 -1.2399768 0.38694319 0
5.1230001 -1.2472334 0.38696125 0
5.1170001 -1.254216 0.38698289 0
5.1120005 -1.2614349 0.38700092 0
5.1060004 -1.268376 0.38702255 0
5.1010003 -1.2755568 0.38704062 0
5.0950003 -1.2824564 0.38706225 0
5.0900002 -1.2895994 0.38708028 0
5.0850005 -1.2967246 0.38709834 0
5.0790005 -1.3035629 0.38711998 0
5.0740004 -1.31065 0.38713801 0
5.0680003 -1.3174467 0.38715965 0
5.0630002 -1.3244959 0.38717771 0
5.0580001 -1.3315272 0.38719574 0
5.0520005 -1.3382628 0.38721737 0
5.0470004 -1.345256 0.38723543 0
5.0420003 -1.3522314 0.38725346 0
5.0360003 -1.3589054 0.3872751 0
5.0310001 -1.3658428 0.38729313 0
5.0260005 -1.3727623 0.38731119 0
5.0210004 -1.3796637 0.38732922 0
5.0150003 -1.3862566 0.38735086 0
5.0100002 -1.3931201 0.38736892 0
5.0050001 -1.3999654 0.38738695 0
5.0000005 -1.406793 0.38740498 0
4.9950004 -1.4136024 0.38742301 0
4.9890003 -1.4200943 0.38744467 0
4.9840002 -1.4268657 0.38746271 0
4.9790001 -1.433619 0.38748074 0
4.9740005 -1.4403546 0.38749877 0
4.9690003 -1.447072 0.38751683 0
4.9640002 -1.4537714 0.38753486 0
4.9580002 -1.4601424 0.38755649 0
4.9530005 -1.4668039 0.38757452 0
4.9480004 -1.4734473 0.38759258 0
4.9430003 -1.4800726 0.38761061 0
4.9380002 -1.4866799 0.38762864 0
4.9330001 -1.4932692 0.38764668 0
4.9280005 -1.4998406 0.38766474 0
4.9230003 -1.5063939 0.38768277 0
4.9180002 -1.5129291 0.3877008 0
4.9130001 -1.5194461 0.38771886 0
4.9080005 -1.5259453 0.38773689 0
4.9030004 -1.5324265 0.38775492 0
4.8980002 -1.5388894 0.38777295 0
4.8930001 -1.5453343 0.38779101 0
4.8880005 -1.5517614 0.38780904 0
