# .PCD v0.7 - Point Cloud Data file format
VERSION 0.7
FIELDS x y z intensity
SIZE 4 4 4 4
TYPE F F F F
COUNT 1 1 1 1
WIDTH 1420
HEIGHT 1
VIEWPOINT 0 0 0 1 0 0 0
POINTS 1420
DATA ascii
4.244 0.39776567 0.55654448 0
4.2520003 0.39174095 0.55686194 0
4.2600002 0.38568738 0.55717939 0
4.2670002 0.37949491 0.55745721 0
4.2750001 0.37338543 0.55777466 0
4.283 0.36724705 0.55809212 0
4.2910004 0.36107984 0.55840957 0
4.2980003 0.35478094 0.55868739 0
4.1150002 0.30245966 0.55142528 0
4.1090002 0.29520658 0.55118716 0
4.105 0.2881555 0.55102843 0
4.1030002 0.2812956 0.55094904 0
4.1010003 0.27444291 0.5508697 0
4.1010003 0.26776701 0.5508697 0
4.1010003 0.26109111 0.5508697 0
4.1030002 0.25457758 0.55094904 0
4.105 0.2480568 0.55102843 0
4.1080003 0.24160638 0.55114746 0
4.1129999 0.23529667 0.55134588 0
4.119 0.22904286 0.55158401 0
4.1270003 0.22291175 0.55190146 0
4.1340003 0.21668136 0.55217922 0
3.9120002 0.055359591 0.54336941 0
3.9060004 0.048862275 0.54313135 0
3.9010003 0.04241186 0.54293293 0
3.8980002 0.036026377 0.5428139 0
3.8950002 0.02965172 0.54269481 0
3.8940003 0.023327563 0.54265511 0
3.8930004 0.017007027 0.54261547 0
3.8930004 0.01070632 0.54261547 0
3.8930004 0.0044056177 0.54261547 0
3.8950002 -0.001869835 0.54269481 0
3.8970003 -0.0081524923 0.5427742 0
3.9000003 -0.014433354 0.54289329 0
3.9040003 -0.020717824 0.54305196 0
3.9090002 -0.027011311 0.54325038 0
4.1030002 -0.099436015 0.55094904 0
4.0970001 -0.10601811 0.55071098 0
4.0929999 -0.11261463 0.55055225 0
4.0890002 -0.11919673 0.55039346 0
4.0870004 -0.12580769 0.55031413 0
4.086 -0.13243489 0.55027443 0
4.085 -0.13905847 0.55023474 0
4.085 -0.14570549 0.55023474 0
4.086 -0.15238139 0.55027443 0
4.0870004 -0.1590609 0.55031413 0
4.0900002 -0.16580893 0.55043316 0
4.0929999 -0.17256781 0.55055225 0
4.098 -0.17940967 0.55075061 0
4.204 0.45490313 0.54809546 0
4.197 0.44713229 0.54783028 0
4.191 0.43951482 0.54760301 0
4.1990004 0.43368673 0.54790604 0
4.2060003 0.42770529 0.54817116 0
4.2140002 0.4218213 0.54847419 0
4.2210002 0.41578755 0.54873937 0
4.2290001 0.40984762 0.54904246 0
4.237 0.40387878 0.54934549 0
4.244 0.39776567 0.54961061 0
4.2520003 0.39174095 0.54991364 0
4.2600002 0.38568738 0.55021667 0
4.2670002 0.37949491 0.55048186 0
4.2750001 0.37338543 0.55078495 0
4.283 0.36724705 0.55108798 0
4.2910004 0.36107984 0.55139101 0
4.2980003 0.35478094 0.55165613 0
4.1150002 0.30245966 0.54472411 0
4.1090002 0.29520658 0.54449683 0
4.105 0.2881555 0.54434532 0
4.1030002 0.2812956 0.54426956 0
4.1010003 0.27444291 0.5441938 0
4.1010003 0.26776701 0.5441938 0
4.1010003 0.26109111 0.5441938 0
4.1030002 0.25457758 0.54426956 0
4.105 0.2480568 0.54434532 0
4.1080003 0.24160638 0.54445899 0
4.1129999 0.23529667 0.54464835 0
4.119 0.22904286 0.54487562 0
4.1270003 0.22291175 0.54517865 0
3.9190001 0.055561613 0.53729963 0
3.9110003 0.048997555 0.5369966 0
3.9060004 0.042538125 0.53680718 0
3.9020002 0.036120173 0.53665566 0
3.9000003 0.029759947 0.53657991 0
3.8980002 0.023406934 0.53650415 0
3.8970003 0.017079171 0.5364663 0
3.8970003 0.010771256 0.5364663 0
3.8980002 0.0044777691 0.53650415 0
3.8990002 -0.0018193275 0.53654206 0
3.9010003 -0.0081092045 0.53661782 0
3.9040003 -0.014397282 0.53673148 0
3.9090002 -0.020681748 0.53692085 0
3.9150002 -0.026978843 0.53714812 0
4.1080003 -0.099508166 0.54445899 0
4.1010003 -0.10608305 0.5441938 0
4.0970001 -0.11268678 0.54404229 0
4.0929999 -0.11927611 0.54389071 0
4.0910001 -0.12589428 0.54381502 0
4.0890002 -0.13250522 0.5437392 0
4.0880003 -0.13913423 0.54370135 0
4.0880003 -0.14578667 0.54370135 0
4.0890002 -0.15246798 0.5437392 0
4.0910001 -0.15918356 0.54381502 0
4.0929999 -0.16590634 0.54389071 0
4.0970001 -0.17270491 0.54404229 0
4.1010003 -0.17951789 0.5441938 0
4.204 0.45490313 0.54123378 0
4.197 0.44713229 0.54098117 0
4.191 0.43951482 0.54076475 0
4.1990004 0.43368673 0.54105335 0
4.2060003 0.42770529 0.5413059 0
4.2140002 0.4218213 0.54159451 0
4.2210002 0.41578755 0.54184705 0
4.2290001 0.40984762 0.54213566 0
4.237 0.40387878 0.54242426 0
4.244 0.39776567 0.54267681 0
4.2520003 0.39174095 0.54296541 0
4.2600002 0.38568738 0.54325402 0
4.2670002 0.37949491 0.54350656 0
4.2750001 0.37338543 0.54379517 0
4.283 0.36724705 0.54408377 0
4.2910004 0.36107984 0.54437238 0
4.2980003 0.35478094 0.54462492 0
4.1150002 0.30245966 0.53802299 0
4.1090002 0.29520658 0.53780651 0
4.105 0.2881555 0.53766221 0
4.1030002 0.2812956 0.53759003 0
4.1010003 0.27444291 0.53751791 0
4.1010003 0.26776701 0.53751791 0
4.1010003 0.26109111 0.53751791 0
4.1030002 0.25457758 0.53759003 0
4.105 0.2480568 0.53766221 0
4.1080003 0.24160638 0.53777045 0
4.1129999 0.23529667 0.53795081 0
4.119 0.22904286 0.53816724 0
3.9200003 0.049241077 0.5309881 0
3.9130003 0.042714898 0.53073561 0
3.9090002 0.036284316 0.53059125 0
3.9060004 0.029889818 0.53048307 0
3.9040003 0.023525987 0.53041089 0
3.9030004 0.017187405 0.53037483 0
3.9020002 0.010852426 0.53033876 0
3.9030004 0.0045499243 0.53037483 0
3.9050002 -0.0017435662 0.53044701 0
3.9070003 -0.0080442652 0.53051913 0
3.9110003 -0.014334146 0.53066343 0
3.9160004 -0.020631241 0.53084379 0
4.1070004 -0.10618046 0.53773439 0
4.1020002 -0.11277698 0.53755397 0
4.098 -0.1193753 0.53740966 0
4.0950003 -0.12598085 0.53730142 0
4.0929999 -0.13259903 0.5372293 0
4.092 -0.13923524 0.53719318 0
4.0929999 -0.14592196 0.5372293 0
4.0929999 -0.15258342 0.5372293 0
4.0950003 -0.15930621 0.53730142 0
4.098 -0.16606869 0.53740966 0
4.1020002 -0.17287627 0.53755397 0
4.1080003 -0.17977042 0.53777045 0
4.204 0.45490313 0.53437203 0
4.197 0.44713229 0.53413212 0
4.191 0.43951482 0.53392649 0
4.1990004 0.43368673 0.53420067 0
4.2060003 0.42770529 0.53444064 0
4.2140002 0.4218213 0.53471482 0
4.2210002 0.41578755 0.53495467 0
4.2290001 0.40984762 0.53522885 0
4.237 0.40387878 0.53550303 0
4.244 0.39776567 0.53574294 0
4.2520003 0.39174095 0.53601712 0
4.2600002 0.38568738 0.5362913 0
4.2670002 0.37949491 0.53653121 0
4.2750001 0.37338543 0.53680539 0
4.283 0.36724705 0.53707957 0
4.2910004 0.36107984 0.53735375 0
4.2980003 0.35478094 0.53759366 0
4.1150002 0.30245966 0.53132182 0
4.1090002 0.29520658 0.53111619 0
4.105 0.2881555 0.5309791 0
4.1030002 0.2812956 0.53091055 0
4.1010003 0.27444291 0.53084201 0
4.1010003 0.26776701 0.53084201 0
4.1010003 0.26109111 0.53084201 0
4.1030002 0.25457758 0.53091055 0
4.105 0.2480568 0.5309791 0
4.1080003 0.24160638 0.53108191 0
4.1129999 0.23529667 0.53125328 0
3.9330003 0.049592819 0.52508426 0
3.9230003 0.042967428 0.52474153 0
3.9170003 0.036471914 0.52453589 0
3.9130003 0.030041341 0.5243988 0
3.9110003 0.023664881 0.52433026 0
3.9100003 0.01731367 0.52429599 0
3.9090002 0.010966066 0.52426171 0
3.9100003 0.0046509355 0.52429599 0
3.9120002 -0.00165518 0.52436453 0
3.9150002 -0.0079576857 0.52446735 0
3.9190001 -0.014261995 0.52460444 0
4.1150002 -0.10631032 0.53132182 0
4.1080003 -0.11288521 0.53108191 0
4.1040001 -0.11949436 0.53094482 0
4.1010003 -0.12611073 0.53084201 0
4.099 -0.13273972 0.53077346 0
4.098 -0.13938676 0.53073919 0
4.098 -0.14605723 0.53073919 0
4.099 -0.15275659 0.53077346 0
4.1010003 -0.1594902 0.53084201 0
4.105 -0.16629598 0.5309791 0
4.1090002 -0.17311616 0.53111619 0
4.204 0.45490313 0.52751034 0
4.197 0.44713229 0.52728307 0
4.191 0.43951482 0.52708828 0
4.1990004 0.43368673 0.52734804 0
4.2060003 0.42770529 0.52757531 0
4.2140002 0.4218213 0.52783507 0
4.2210002 0.41578755 0.52806234 0
4.2290001 0.40984762 0.5283221 0
4.237 0.40387878 0.52858186 0
4.244 0.39776567 0.52880913 0
4.2520003 0.39174095 0.52906889 0
4.2600002 0.38568738 0.52932858 0
4.2670002 0.37949491 0.52955592 0
4.2750001 0.37338543 0.52981567 0
4.283 0.36724705 0.53007537 0
4.2910004 0.36107984 0.53033513 0
4.2980003 0.35478094 0.5305624 0
4.1150002 0.30245966 0.52462065 0
4.1090002 0.29520658 0.52442586 0
4.105 0.2881555 0.52429599 0
4.1030002 0.2812956 0.52423102 0
4.1010003 0.27444291 0.52416611 0
4.1010003 0.26776701 0.52416611 0
4.1010003 0.26109111 0.52416611 0
4.1030002 0.25457758 0.52423102 0
4.105 0.2480568 0.52429599 0
4.1080003 0.24160638 0.52439338 0
4.1129999 0.23529667 0.52455574 0
3.9350002 0.049646933 0.5187763 0
3.9300003 0.0431442 0.51861399 0
3.9240003 0.036636066 0.51841915 0
3.9190001 0.030171212 0.51825684 0
3.9160004 0.023764085 0.51815945 0
3.9150002 0.01740386 0.51812696 0
3.9140003 0.01104724 0.51809448 0
3.9160004 0.0047375187 0.51815945 0
3.9180002 -0.0015794188 0.51822436 0
3.9220002 -0.0078819282 0.51835424 0
3.9280002 -0.01418082 0.51854903 0
4.1270003 -0.10650514 0.52501029 0
4.118 -0.11306559 0.52471805 0
4.112 -0.11965309 0.52452326 0
4.1090002 -0.1262839 0.52442586 0
4.1059999 -0.13290387 0.52432847 0
4.1059999 -0.13958879 0.52432847 0
4.105 -0.14624664 0.52429599 0
4.1070004 -0.15298748 0.5243609 0
4.1090002 -0.15973552 0.52442586 0
4.1129999 -0.16655572 0.52455574 0
4.204 0.45490313 0.52064866 0
4.197 0.44713229 0.52043402 0
4.191 0.43951482 0.52025002 0
4.1990004 0.43368673 0.52049536 0
4.2060003 0.42770529 0.52070999 0
4.2140002 0.4218213 0.52095532 0
4.2210002 0.41578755 0.52116996 0
4.2290001 0.40984762 0.52141529 0
4.237 0.40387878 0.52166063 0
4.244 0.39776567 0.52187526 0
4.2520003 0.39174095 0.52212059 0
4.2600002 0.38568738 0.52236593 0
4.2670002 0.37949491 0.52258056 0
4.2750001 0.37338543 0.5228259 0
4.283 0.36724705 0.52307117 0
4.2910004 0.36107984 0.5233165 0
4.2980003 0.35478094 0.5235312 0
4.1150002 0.30245966 0.51791954 0
4.1090002 0.29520658 0.51773554 0
4.105 0.2881555 0.51761287 0
4.1030002 0.2812956 0.51755154 0
4.1010003 0.27444291 0.51749021 0
4.1010003 0.26776701 0.51749021 0
4.1010003 0.26109111 0.51749021 0
4.1030002 0.25457758 0.51755154 0
4.105 0.2480568 0.51761287 0
4.1080003 0.24160638 0.51770484 0
3.9590003 0.088814825 0.51313585 0
3.9540002 0.082214683 0.51298249 0
3.9490004 0.075632602 0.51282918 0
3.9430003 0.069036067 0.51264518 0
3.9380002 0.062491853 0.51249188 0
3.9330003 0.055965673 0.51233852 0
3.9270003 0.049430471 0.51215458 0
3.9220002 0.042942178 0.51200122 0
3.9170003 0.036471914 0.51184791 0
3.9130003 0.030041341 0.51172525 0
3.9100003 0.023645032 0.51163328 0
3.9090002 0.017295625 0.51160258 0
3.9090002 0.010966066 0.51160258 0
3.9090002 0.0046365038 0.51160258 0
3.9120002 -0.00165518 0.51169455 0
3.9150002 -0.0079576857 0.51178658 0
3.9200003 -0.014252976 0.51193988 0
4.1290002 -0.10653761 0.51834881 0
4.1240001 -0.11317381 0.51819551 0
4.118 -0.11977215 0.51801151 0
4.1140003 -0.12639213 0.51788884 0
4.1110001 -0.13302112 0.51779687 0
4.1100001 -0.1396898 0.51776618 0
4.1100001 -0.14638193 0.51776618 0
4.112 -0.15313178 0.51782751 0
4.1150002 -0.15991952 0.51791954 0
4.1200004 -0.166783 0.51807284 0
4.204 0.45490313 0.51378697 0
4.197 0.44713229 0.51358497 0
4.191 0.43951482 0.51341182 0
4.1990004 0.43368673 0.51364267 0
4.2060003 0.42770529 0.51384473 0
4.2140002 0.4218213 0.51407564 0
4.2210002 0.41578755 0.51427764 0
4.2290001 0.40984762 0.51450855 0
4.237 0.40387878 0.51473939 0
4.244 0.39776567 0.51494145 0
4.2520003 0.39174095 0.5151723 0
4.2600002 0.38568738 0.51540321 0
4.2670002 0.37949491 0.51560521 0
4.2750001 0.37338543 0.51583612 0
4.283 0.36724705 0.51606703 0
4.2910004 0.36107984 0.51629788 0
4.2980003 0.35478094 0.51649994 0
4.1150002 0.30245966 0.51121837 0
4.1090002 0.29520658 0.51104522 0
4.105 0.2881555 0.51092976 0
4.1030002 0.2812956 0.51087207 0
4.1010003 0.27444291 0.51081431 0
4.1010003 0.26776701 0.51081431 0
4.1010003 0.26109111 0.51081431 0
4.1030002 0.25457758 0.51087207 0
4.105 0.2480568 0.51092976 0
4.1080003 0.24160638 0.51101637 0
4.0410004 0.19700363 0.50908267 0
4.0360003 0.19011129 0.50893837 0
4.0300002 0.18317382 0.50876522 0
4.0240002 0.17625803 0.50859201 0
4.0190001 0.16942342 0.50844771 0
4.013 0.16254909 0.50827456 0
4.0080004 0.15575235 0.50813025 0
4.0020003 0.14891951 0.5079571 0
3.9970002 0.14216064 0.5078128 0
3.9910002 0.1353693 0.50763965 0
3.9860003 0.12864833 0.50749528 0
3.9800003 0.12189846 0.50732213 0
3.9750004 0.11521536 0.50717783 0
3.9700003 0.1085503 0.50703353 0
3.9640002 0.10186176 0.50686038 0
3.9590003 0.095234573 0.50671607 0
3.9540002 0.088625416 0.50657177 0
3.9480002 0.081998214 0.50639862 0
3.9430003 0.075426951 0.50625432 0
3.9380002 0.068873718 0.50611001 0
3.9320002 0.062307861 0.5059368 0
3.9270003 0.055792507 0.5057925 0
3.9220002 0.049295191 0.5056482 0
3.9160004 0.042790655 0.50547504 0
3.9110003 0.036331218 0.50533074 0
3.9080002 0.029933106 0.50524414 0
3.9060004 0.023565669 0.50518644 0
3.9050002 0.017223481 0.50515759 0
3.9050002 0.010901131 0.50515759 0
3.9050002 0.0045787804 0.50515759 0
3.9070003 -0.0017183125 0.50521529 0
3.9100003 -0.0080117993 0.50530189 0
3.9140003 -0.014307089 0.50541735 0
3.9210002 -0.020595165 0.50561935 0
4.138 -0.086455807 0.51188219 0
4.132 -0.093122683 0.51170903 0
4.1270003 -0.099782348 0.51156473 0
4.1220002 -0.10642397 0.51142037 0
4.1160002 -0.11302951 0.51124722 0
4.1110001 -0.11963326 0.51110291 0
4.1070004 -0.12624061 0.51098752 0
4.105 -0.13288042 0.51092976 0
4.1040001 -0.13953827 0.51090091 0
4.1040001 -0.1462196 0.51090091 0
4.105 -0.15292975 0.51092976 0
4.1080003 -0.15970485 0.51101637 0
4.112 -0.16652325 0.51113176 0
4.204 0.45490313 0.50692528 0
4.197 0.44713229 0.50673592 0
4.191 0.43951482 0.50657356 0
4.1990004 0.43368673 0.50679004 0
4.2060003 0.42770529 0.50697941 0
4.2140002 0.4218213 0.50719589 0
4.2210002 0.41578755 0.50738525 0
4.2290001 0.40984762 0.50760174 0
4.237 0.40387878 0.50781822 0
4.244 0.39776567 0.50800759 0
4.2520003 0.39174095 0.50822407 0
4.2600002 0.38568738 0.50844049 0
4.2670002 0.37949491 0.50862992 0
4.2750001 0.37338543 0.5088464 0
4.283 0.36724705 0.50906283 0
4.2910004 0.36107984 0.50927931 0
4.2980003 0.35478094 0.50946867 0
4.1150002 0.30245966 0.5045172 0
4.1090002 0.29520658 0.50435489 0
4.105 0.2881555 0.50424665 0
4.1030002 0.2812956 0.50419253 0
4.1010003 0.27444291 0.50413841 0
4.1010003 0.26776701 0.50413841 0
4.1010003 0.26109111 0.50413841 0
4.1030002 0.25457758 0.50419253 0
4.105 0.2480568 0.50424665 0
4.1080003 0.24160638 0.50432783 0
4.0480003 0.2106314 0.50270438 0
4.0420003 0.20363985 0.50254208 0
4.0360003 0.19666994 0.50237972 0
4.0310001 0.18978658 0.50224441 0
4.0250001 0.18285817 0.50208211 0
4.02 0.17601271 0.50194681 0
4.0139999 0.16912577 0.50178444 0
4.0090003 0.1623182 0.50164914 0
4.0030003 0.15547276 0.50148684 0
3.9980004 0.14870307 0.50135154 0
3.9920003 0.14189909 0.50118923 0
3.9870002 0.13516729 0.50105393 0
3.9810002 0.1284048 0.50089157 0
3.9760003 0.12171087 0.50075626 0
3.9710002 0.11503497 0.50062102 0
3.9650002 0.10833381 0.50045866 0
3.9600003 0.10169582 0.50032336 0
3.9550002 0.095075831 0.50018811 0
3.9490004 0.088436022 0.50002575 0
3.9440002 0.081853926 0.49989045 0
3.9390004 0.075289875 0.49975517 0
3.9330003 0.068711385 0.49959284 0
3.9280002 0.062185202 0.49945754 0
3.9230003 0.055677067 0.49932227 0
3.9180002 0.049186956 0.49918696 0
3.9130003 0.042714898 0.49905169 0
3.9080002 0.036260869 0.49891639 0
3.9050002 0.029868174 0.49883524 0
3.9030004 0.023506146 0.49878111 0
3.9020002 0.01716936 0.49875405 0
3.9020002 0.010852426 0.49875405 0
3.9030004 0.0045499243 0.49878111 0
3.9040003 -0.0017561913 0.49880818 0
3.9070003 -0.0080442652 0.49888936 0
3.9110003 -0.014334146 0.49899757 0
3.9160004 -0.020631241 0.49913287 0
4.1490002 -0.066287428 0.50543714 0
4.1430001 -0.073006615 0.50527483 0
4.138 -0.079713181 0.50513953 0
4.132 -0.086390868 0.50497723 0
4.1270003 -0.093059555 0.50484192 0
4.1220002 -0.099710196 0.50470662 0
4.1160002 -0.10632657 0.50454426 0
4.1110001 -0.11293933 0.50440902 0
4.1059999 -0.11953405 0.50427371 0
4.1030002 -0.12615402 0.50419253 0
4.1010003 -0.13278663 0.50413841 0
4.1000004 -0.13943727 0.50411135 0
4.1000004 -0.14611135 0.50411135 0
4.1010003 -0.15281431 0.50413841 0
4.1030002 -0.15955153 0.50419253 0
4.1070004 -0.16636091 0.50430077 0
4.1129999 -0.17325327 0.50446308 0
4.204 0.45490313 0.5000636 0
4.197 0.44713229 0.49988684 0
4.191 0.43951482 0.49973533 0
4.1990004 0.43368673 0.49993736 0
4.2060003 0.42770529 0.50011414 0
4.2140002 0.4218213 0.50031614 0
4.2210002 0.41578755 0.50049293 0
4.2290001 0.40984762 0.50069499 0
4.237 0.40387878 0.50089699 0
4.244 0.39776567 0.50107378 0
4.2520003 0.39174095 0.50127578 0
4.2600002 0.38568738 0.50147784 0
4.2670002 0.37949491 0.50165457 0
4.2750001 0.37338543 0.50185663 0
4.283 0.36724705 0.50205863 0
4.2910004 0.36107984 0.50226068 0
4.2980003 0.35478094 0.50243741 0
4.1150002 0.30245966 0.49781609 0
4.1090002 0.29520658 0.49766457 0
4.105 0.2881555 0.49756354 0
4.1030002 0.2812956 0.49751306 0
4.1010003 0.27444291 0.49746254 0
4.1010003 0.26776701 0.49746254 0
4.1010003 0.26109111 0.49746254 0
4.1030002 0.25457758 0.49751306 0
4.105 0.2480568 0.49756354 0
4.0500002 0.217356 0.4961746 0
4.0440001 0.21035001 0.49602309 0
4.039 0.20343421 0.49589682 0
4.033 0.19646969 0.4957453 0
4.0280004 0.18959178 0.49561906 0
4.0220003 0.18266876 0.49546751 0
4.0170002 0.17582873 0.49534124 0
4.0110002 0.16894719 0.49518973 0
4.006 0.16214503 0.49506348 0
4 0.155305 0.49491194 0
3.9950004 0.14854072 0.49478567 0
3.9890003 0.14174217 0.49463415 0
3.9840002 0.13501576 0.49450791 0
3.9790003 0.1283074 0.49438164 0
3.9730003 0.12157017 0.49423012 0
3.9680002 0.11489969 0.49410385 0
3.9630003 0.10824725 0.49397758 0
3.9570003 0.10157135 0.49382606 0
3.9520004 0.094956785 0.49369979 0
3.9470003 0.088360265 0.49357352 0
3.9410002 0.081745684 0.493422 0
3.9360003 0.075187057 0.49329573 0
3.9310002 0.068646446 0.49316949 0
3.9260004 0.062123876 0.49304321 0
3.9200003 0.055590484 0.49289167 0
3.9150002 0.04910579 0.49276543 0
3.9100003 0.04263914 0.49263915 0
3.9060004 0.036213975 0.49253815 0
3.9030004 0.029824886 0.4924624 0
3.9010003 0.023466457 0.49241188 0
3.9000003 0.017133292 0.49238661 0
3.9000003 0.01081996 0.49238661 0
3.9010003 0.0045210607 0.49241188 0
3.9020002 -0.0017814487 0.49243712 0
3.9050002 -0.0080659129 0.49251288 0
3.9080002 -0.014361203 0.49258864 0
3.9130003 -0.020652886 0.49271491 0
4.1500001 -0.059528563 0.49869996 0
4.145 -0.066265784 0.49857366 0
4.1389999 -0.072977751 0.49842215 0
4.1340003 -0.079677105 0.4982959 0
4.1290002 -0.086358406 0.49816963 0
4.1230001 -0.093009055 0.49801812 0
4.118 -0.099652469 0.49789184 0
4.1129999 -0.10627785 0.49776557 0
4.1070004 -0.11286718 0.49761406 0
4.1030002 -0.11947452 0.49751306 0
4.1000004 -0.12608908 0.4974373 0
4.098 -0.13271627 0.49738678 0
4.0970001 -0.1393615 0.49736151 0
4.0970001 -0.14603019 0.49736151 0
4.098 -0.15272772 0.49738678 0
4.1000004 -0.15945955 0.4974373 0
4.1040001 -0.16626351 0.4975383 0
4.1090002 -0.17311616 0.49766457 0
4.204 0.45490313 0.49320194 0
4.197 0.44713229 0.49303779 0
4.191 0.43951482 0.49289709 0
4.1990004 0.43368673 0.4930847 0
4.2060003 0.42770529 0.49324885 0
4.2140002 0.4218213 0.49343643 0
4.2210002 0.41578755 0.49360058 0
4.2290001 0.40984762 0.49378818 0
4.237 0.40387878 0.49397576 0
4.244 0.39776567 0.49413991 0
4.2520003 0.39174095 0.49432752 0
4.2600002 0.38568738 0.49451512 0
4.2670002 0.37949491 0.49467924 0
4.2750001 0.37338543 0.49486685 0
4.283 0.36724705 0.49505445 0
4.2910004 0.36107984 0.49524206 0
4.2980003 0.35478094 0.49540621 0
4.1150002 0.30245966 0.49111491 0
4.1090002 0.29520658 0.49097425 0
4.105 0.2881555 0.49088043 0
4.1030002 0.2812956 0.49083352 0
4.1010003 0.27444291 0.49078664 0
4.1010003 0.26776701 0.49078664 0
4.1010003 0.26109111 0.49078664 0
4.1030002 0.25457758 0.49083352 0
4.105 0.2480568 0.49088043 0
4.0480003 0.21721169 0.48954383 0
4.0420003 0.21020931 0.48940313 0
4.0370002 0.20329712 0.48928589 0
4.0310001 0.19633624 0.48914516 0
4.026 0.18946192 0.48902792 0
4.02 0.1825425 0.48888722 0
4.0150003 0.17570607 0.48876998 0
4.0090003 0.16882814 0.48862928 0
4.0040002 0.16202959 0.48851204 0
3.9990003 0.15524907 0.4883948 0
3.9930003 0.14843249 0.4882541 0
3.9880002 0.14168985 0.48813683 0
3.9820004 0.13491474 0.48799616 0
3.9770002 0.12820999 0.48787892 0
3.9720004 0.12152328 0.48776165 0
3.9660003 0.11480951 0.48762095 0
3.9610002 0.10816066 0.48750371 0
3.9560003 0.10152987 0.48738647 0
3.9510002 0.094917104 0.48726922 0
3.9450002 0.088284492 0.4871285 0
3.9400003 0.081709623 0.48701128 0
3.9350002 0.07515277 0.48689401 0
3.9300003 0.068613976 0.48677677 0
3.9250002 0.062093209 0.48665953 0
3.9190001 0.055561613 0.48651883 0
3.9140003 0.049078729 0.48640159 0
3.9090002 0.042613875 0.48628432 0
3.9050002 0.036190521 0.48619053 0
3.9020002 0.029803235 0.48612019 0
3.9000003 0.023446623 0.48607329 0
3.8990002 0.017115247 0.48604983 0
3.8990002 0.010803726 0.48604983 0
3.9000003 0.0045066327 0.48607329 0
3.9010003 -0.00179407 0.48609674 0
3.9040003 -0.0080767348 0.48616707 0
3.9070003 -0.014370222 0.48623744 0
3.9120002 -0.020660102 0.48635468 0
3.9190001 -0.026957197 0.48651883 0
4.1530004 -0.052769691 0.492006 0
4.1480002 -0.059521347 0.49188876 0
4.1420002 -0.066249549 0.49174806 0
4.1370001 -0.072963327 0.49163082 0
4.132 -0.07965906 0.49151358 0
4.1259999 -0.086325936 0.49137288 0
4.1210003 -0.092983797 0.49125564 0
4.1160002 -0.099623606 0.4911384 0
4.1100001 -0.10622916 0.49099767 0
4.105 -0.1128311 0.49088043 0
4.1010003 -0.11943483 0.49078664 0
4.098 -0.12604579 0.49071628 0
4.0960002 -0.13266937 0.4906694 0
4.0960002 -0.13933626 0.4906694 0
4.0960002 -0.14600313 0.4906694 0
4.0960002 -0.15267 0.4906694 0
4.098 -0.15939821 0.49071628 0
4.1020002 -0.16619857 0.4908101 0
4.1059999 -0.17301336 0.49090388 0
4.204 0.45490313 0.48634025 0
4.197 0.44713229 0.48618874 0
4.191 0.43951482 0.48605886 0
4.1990004 0.43368673 0.48623204 0
4.2060003 0.42770529 0.48638356 0
4.2140002 0.4218213 0.48655671 0
4.2210002 0.41578755 0.48670822 0
4.2290001 0.40984762 0.48688141 0
4.237 0.40387878 0.48705456 0
4.244 0.39776567 0.48720607 0
4.2520003 0.39174095 0.48737925 0
4.2600002 0.38568738 0.4875524 0
4.2670002 0.37949491 0.48770392 0
4.2750001 0.37338543 0.4878771 0
4.283 0.36724705 0.48805025 0
4.2910004 0.36107984 0.48822343 0
4.2980003 0.35478094 0.48837495 0
4.1150002 0.30245966 0.4844138 0
4.1090002 0.29520658 0.48428392 0
4.105 0.2881555 0.48419732 0
4.1030002 0.2812956 0.48415405 0
4.1010003 0.27444291 0.48411074 0
4.1010003 0.26776701 0.48411074 0
4.1010003 0.26109111 0.48411074 0
4.1030002 0.25457758 0.48415405 0
4.105 0.2480568 0.48419732 0
4.053 0.22416177 0.48307174 0
4.0469999 0.21713954 0.48294187 0
4.0410004 0.21013898 0.48281199 0
4.0360003 0.20322856 0.48270378 0
4.0300002 0.19626947 0.4825739 0
4.0250001 0.18939699 0.48246568 0
4.0190001 0.18247937 0.48233581 0
4.0139999 0.17564473 0.48222756 0
4.0090003 0.16882814 0.48211935 0
4.0030003 0.16197187 0.48198947 0
3.9980004 0.15519316 0.48188123 0
3.9920003 0.14837839 0.48175138 0
3.9870002 0.14163753 0.48164314 0
3.9820004 0.13491474 0.4815349 0
3.9760003 0.12816128 0.48140502 0
3.9710002 0.12147637 0.48129681 0
3.9660003 0.11480951 0.4811886 0
3.9610002 0.10816066 0.48108035 0
3.9550002 0.10148837 0.48095047 0
3.9500003 0.094877422 0.48084223 0
3.9450002 0.088284492 0.48073402 0
3.9400003 0.081709623 0.48062581 0
3.9340003 0.075118512 0.48049593 0
3.9290004 0.068581507 0.48038769 0
3.9240003 0.06206255 0.48027945 0
3.9190001 0.055561613 0.48017123 0
3.9140003 0.049078729 0.48006299 0
3.9090002 0.042613875 0.47995478 0
3.9050002 0.036190521 0.47986817 0
3.9020002 0.029803235 0.47980326 0
3.9000003 0.023446623 0.47975996 0
3.8990002 0.017115247 0.4797383 0
3.8990002 0.010803726 0.4797383 0
3.9000003 0.0045066327 0.47975996 0
3.9010003 -0.00179407 0.4797816 0
3.9040003 -0.0080767348 0.47984654 0
3.9070003 -0.014370222 0.47991148 0
3.9120002 -0.020660102 0.48001969 0
3.9190001 -0.026957197 0.48017123 0
4.152 -0.052767888 0.48521468 0
4.1470003 -0.059517741 0.48510647 0
4.1410003 -0.06624414 0.48497659 0
4.1360002 -0.072956108 0.48486835 0
4.131 -0.079650044 0.48476011 0
4.125 -0.08631511 0.48463023 0
4.1200004 -0.092971161 0.48452201 0
4.1150002 -0.099609181 0.4844138 0
4.1100001 -0.10622916 0.48430556 0
4.1040001 -0.11281306 0.48417568 0
4.1000004 -0.119415 0.48408911 0
4.0970001 -0.12602414 0.48402417 0
4.0960002 -0.13266937 0.48400253 0
4.0950003 -0.139311 0.48398086 0
4.0950003 -0.14597607 0.48398086 0
4.0960002 -0.15267 0.48400253 0
4.098 -0.15939821 0.4840458 0
4.1010003 -0.1661661 0.48411074 0
4.105 -0.17297909 0.48419732 0
4.204 0.45490313 0.47947857 0
4.197 0.44713229 0.47933966 0
4.191 0.43951482 0.47922063 0
4.1990004 0.43368673 0.47937936 0
4.2060003 0.42770529 0.47951823 0
4.2140002 0.4218213 0.47967699 0
4.2210002 0.41578755 0.47981587 0
4.2290001 0.40984762 0.47997463 0
4.237 0.40387878 0.48013335 0
4.244 0.39776567 0.48027223 0
4.2520003 0.39174095 0.48043096 0
4.2600002 0.38568738 0.48058972 0
4.2670002 0.37949491 0.4807286 0
4.2750001 0.37338543 0.48088735 0
4.283 0.36724705 0.48104608 0
4.2910004 0.36107984 0.48120481 0
4.2980003 0.35478094 0.48134369 0
4.1150002 0.30245966 0.47771263 0
4.1090002 0.29520658 0.4775936 0
4.105 0.2881555 0.47751421 0
4.1030002 0.2812956 0.47747454 0
4.1010003 0.27444291 0.47743484 0
4.1010003 0.26776701 0.47743484 0
4.1010003 0.26109111 0.47743484 0
4.1030002 0.25457758 0.47747454 0
4.105 0.2480568 0.47751421 0
4.053 0.22416177 0.47648245 0
4.0480003 0.21721169 0.47638324 0
4.0420003 0.21020931 0.47626418 0
4.0370002 0.20329712 0.47616497 0
4.0310001 0.19633624 0.47604591 0
4.026 0.18946192 0.47594672 0
4.02 0.1825425 0.47582766 0
4.0150003 0.17570607 0.47572845 0
4.0090003 0.16882814 0.47560939 0
4.0040002 0.16202959 0.47551018 0
3.9990003 0.15524907 0.47541097 0
3.9930003 0.14843249 0.47529194 0
3.9880002 0.14168985 0.47519273 0
3.9830003 0.13496526 0.47509351 0
3.9770002 0.12820999 0.47497445 0
3.9720004 0.12152328 0.47487524 0
3.9670002 0.11485459 0.47477603 0
3.9610002 0.10816066 0.474657 0
3.9560003 0.10152987 0.47455776 0
3.9510002 0.094917104 0.47445858 0
3.9460003 0.088322386 0.47435936 0
3.9400003 0.081709623 0.4742403 0
3.9350002 0.07515277 0.47414109 0
3.9300003 0.068613976 0.47404188 0
3.9250002 0.062093209 0.47394267 0
3.9200003 0.055590484 0.47384346 0
3.9150002 0.04910579 0.47374427 0
3.9090002 0.042613875 0.47362521 0
3.9050002 0.036190521 0.47354585 0
3.9020002 0.029803235 0.4734863 0
3.9000003 0.023446623 0.47344664 0
3.8990002 0.017115247 0.47342679 0
3.8990002 0.010803726 0.47342679 0
3.9000003 0.0045066327 0.47344664 0
3.9010003 -0.00179407 0.47346646 0
3.9040003 -0.0080767348 0.473526 0
3.9070003 -0.014370222 0.47358552 0
3.9120002 -0.020660102 0.47368473 0
3.9190001 -0.026957197 0.47382361 0
4.152 -0.052767888 0.47844678 0
4.1470003 -0.059517741 0.47834757 0
4.1420002 -0.066249549 0.47824836 0
4.1360002 -0.072956108 0.47812933 0
4.131 -0.079650044 0.47803012 0
4.1259999 -0.086325936 0.4779309 0
4.1200004 -0.092971161 0.47781184 0
4.1150002 -0.099609181 0.47771263 0
4.1100001 -0.10622916 0.47761342 0
4.1040001 -0.11281306 0.47749439 0
4.1000004 -0.119415 0.47741503 0
4.0970001 -0.12602414 0.47735548 0
4.0960002 -0.13266937 0.47733563 0
4.0950003 -0.139311 0.47731578 0
4.0950003 -0.14597607 0.47731578 0
4.0960002 -0.15267 0.47733563 0
4.098 -0.15939821 0.47737533 0
4.1010003 -0.1661661 0.47743484 0
4.105 -0.17297909 0.47751421 0
4.204 0.45490313 0.47261688 0
4.197 0.44713229 0.47249061 0
4.191 0.43951482 0.47238237 0
4.1990004 0.43368673 0.4725267 0
4.2060003 0.42770529 0.47265297 0
4.2140002 0.4218213 0.47279724 0
4.2210002 0.41578755 0.47292352 0
4.2290001 0.40984762 0.47306782 0
4.237 0.40387878 0.47321212 0
4.244 0.39776567 0.4733384 0
4.2520003 0.39174095 0.47348273 0
4.2600002 0.38568738 0.47362703 0
4.2670002 0.37949491 0.47375327 0
4.2750001 0.37338543 0.47389758 0
4.283 0.36724705 0.47404188 0
4.2910004 0.36107984 0.47418618 0
4.2980003 0.35478094 0.47431245 0
4.1150002 0.30245966 0.47101149 0
4.1090002 0.29520658 0.47090325 0
4.105 0.2881555 0.4708311 0
4.1030002 0.2812956 0.47079504 0
4.1010003 0.27444291 0.47075897 0
4.1010003 0.26776701 0.47075897 0
4.1010003 0.26109111 0.47075897 0
4.1030002 0.25457758 0.47079504 0
4.105 0.2480568 0.4708311 0
4.0490003 0.21728384 0.46982098 0
4.0440001 0.21035001 0.46973079 0
4.0380001 0.20336565 0.46962255 0
4.033 0.19646969 0.46953237 0
4.027 0.18952684 0.46942413 0
4.0220003 0.18266876 0.46933395 0
4.0170002 0.17582873 0.46924376 0
4.0110002 0.16894719 0.46913552 0
4.006 0.16214503 0.46904534 0
4 0.155305 0.4689371 0
3.9950004 0.14854072 0.46884692 0
3.9900002 0.14179446 0.46875674 0
3.9840002 0.13501576 0.46864849 0
3.9790003 0.1283074 0.46855831 0
3.9740002 0.12161706 0.46846813 0
3.9690003 0.11494479 0.46837795 0
3.9630003 0.10824725 0.46826971 0
3.9580002 0.10161284 0.46817952 0
3.9530003 0.094996482 0.46808931 0
3.9480002 0.088398144 0.46799913 0
3.9420002 0.081781775 0.46789092 0
3.9370003 0.07522133 0.46780071 0
3.9320002 0.068678901 0.46771052 0
3.9270003 0.062154535 0.46762031 0
3.9220002 0.055648196 0.46753013 0
3.9150002 0.04910579 0.46740389 0
3.9090002 0.042613875 0.46729565 0
3.9050002 0.036190521 0.4672235 0
3.9020002 0.029803235 0.46716937 0
3.9000003 0.023446623 0.46713331 0
3.8990002 0.017115247 0.46711525 0
3.8990002 0.010803726 0.46711525 0
3.9000003 0.0045066327 0.46713331 0
3.9010003 -0.00179407 0.46715134 0
3.9040003 -0.0080767348 0.46720546 0
3.9070003 -0.014370222 0.46725959 0
3.9120002 -0.020660102 0.46734977 0
3.9190001 -0.026957197 0.46747601 0
4.1530004 -0.052769691 0.47169694 0
4.1480002 -0.059521347 0.47160673 0
4.1430001 -0.066254966 0.47151655 0
4.1370001 -0.072963327 0.47140834 0
4.132 -0.07965906 0.47131813 0
4.1270003 -0.086336762 0.47122794 0
4.1220002 -0.092996418 0.47113776 0
4.1160002 -0.099623606 0.47102952 0
4.1100001 -0.10622916 0.47092131 0
4.1040001 -0.11281306 0.47081307 0
4.1000004 -0.119415 0.47074091 0
4.0970001 -0.12602414 0.47068679 0
4.0960002 -0.13266937 0.47066876 0
4.0950003 -0.139311 0.47065073 0
4.0950003 -0.14597607 0.47065073 0
4.0960002 -0.15267 0.47066876 0
4.098 -0.15939821 0.47070485 0
4.1010003 -0.1661661 0.47075897 0
4.105 -0.17297909 0.4708311 0
4.112 -0.17991473 0.47095737 0
4.204 0.45490313 0.46575519 0
4.197 0.44713229 0.46564156 0
4.191 0.43951482 0.46554413 0
4.1990004 0.43368673 0.46567401 0
4.2060003 0.42770529 0.46578765 0
4.2140002 0.4218213 0.46591753 0
4.2210002 0.41578755 0.46603116 0
4.2290001 0.40984762 0.46616104 0
4.237 0.40387878 0.46629092 0
4.244 0.39776567 0.46640456 0
4.2520003 0.39174095 0.46653444 0
4.2600002 0.38568738 0.46666431 0
4.2670002 0.37949491 0.46677795 0
4.2750001 0.37338543 0.46690783 0
4.283 0.36724705 0.46703771 0
4.2910004 0.36107984 0.46716756 0
4.2980003 0.35478094 0.46728122 0
4.1150002 0.30245966 0.46431035 0
4.1090002 0.29520658 0.46421292 0
4.105 0.2881555 0.46414798 0
4.1030002 0.2812956 0.46411553 0
4.1010003 0.27444291 0.46408308 0
4.1010003 0.26776701 0.46408308 0
4.1010003 0.26109111 0.46408308 0
4.1030002 0.25457758 0.46411553 0
4.105 0.2480568 0.46414798 0
4.052 0.2175003 0.46328759 0
4.046 0.2104907 0.46319017 0
4.0410004 0.20357132 0.46310902 0
4.0350003 0.19660319 0.46301159 0
4.0300002 0.18972166 0.46293044 0
4.0250001 0.18285817 0.46284926 0
4.0190001 0.17595138 0.46275187 0
4.0139999 0.16912577 0.46267068 0
4.0080004 0.16226049 0.46257329 0
4.0030003 0.15547276 0.46249211 0
3.9980004 0.14870307 0.46241093 0
3.9920003 0.14189909 0.46231353 0
3.9870002 0.13516729 0.46223235 0
3.9820004 0.12845351 0.46215117 0
3.9770002 0.12175778 0.46207002 0
3.9710002 0.11503497 0.46197259 0
3.9660003 0.10837713 0.46189144 0
3.9610002 0.10173729 0.46181026 0
3.9560003 0.095115513 0.46172911 0
3.9510002 0.088511765 0.46164793 0
3.9450002 0.081890002 0.4615505 0
3.9400003 0.075324133 0.46146935 0
3.9350002 0.068776309 0.46138817 0
3.9300003 0.062246528 0.46130699 0
3.9230003 0.055677067 0.46119335 0
3.9150002 0.04910579 0.46106347 0
3.9090002 0.042613875 0.46096608 0
3.9050002 0.036190521 0.46090114 0
3.9020002 0.029803235 0.46085244 0
3.9000003 0.023446623 0.46081996 0
3.8990002 0.017115247 0.46080375 0
3.8990002 0.010803726 0.46080375 0
3.9000003 0.0045066327 0.46081996 0
3.9010003 -0.00179407 0.4608362 0
3.9040003 -0.0080767348 0.4608849 0
3.9070003 -0.014370222 0.46093363 0
3.9120002 -0.020660102 0.46101478 0
3.9190001 -0.026957197 0.46112841 0
4.151 -0.059532169 0.46489477 0
4.145 -0.066265784 0.46479738 0
4.1400003 -0.072984971 0.4647162 0
4.1350002 -0.07968612 0.46463501 0
4.1290002 -0.086358406 0.46453762 0
4.1240001 -0.093021676 0.46445644 0
4.119 -0.099666901 0.46437529 0
4.1100001 -0.10622916 0.46422917 0
4.1040001 -0.11281306 0.46413177 0
4.1000004 -0.119415 0.46406683 0
4.0970001 -0.12602414 0.46401814 0
4.0960002 -0.13266937 0.46400189 0
4.0950003 -0.139311 0.46398565 0
4.0950003 -0.14597607 0.46398565 0
4.0960002 -0.15267 0.46400189 0
4.098 -0.15939821 0.46403435 0
4.1010003 -0.1661661 0.46408308 0
4.105 -0.17297909 0.46414798 0
4.112 -0.17991473 0.46426165 0
4.204 0.45490313 0.45889351 0
4.197 0.44713229 0.45879251 0
4.191 0.43951482 0.4587059 0
4.1990004 0.43368673 0.45882136 0
4.2060003 0.42770529 0.45892236 0
4.2140002 0.4218213 0.45903781 0
4.2210002 0.41578755 0.45913881 0
4.2290001 0.40984762 0.45925426 0
4.237 0.40387878 0.45936972 0
4.244 0.39776567 0.45947072 0
4.2520003 0.39174095 0.45958617 0
4.2600002 0.38568738 0.4597016 0
4.2670002 0.37949491 0.45980263 0
4.2750001 0.37338543 0.45991808 0
4.283 0.36724705 0.46003351 0
4.2910004 0.36107984 0.46014896 0
4.1090002 0.29520658 0.4575226 0
4.105 0.2881555 0.45746487 0
4.1030002 0.2812956 0.45743603 0
4.1010003 0.27444291 0.45740718 0
4.1010003 0.26776701 0.45740718 0
4.1010003 0.26109111 0.45740718 0
4.1030002 0.25457758 0.45743603 0
4.105 0.2480568 0.45746487 0
4.0510001 0.21084246 0.45668566 0
4.046 0.20391402 0.45661348 0
4.04 0.19693689 0.45652691 0
4.0350003 0.19004636 0.45645475 0
4.0290003 0.1831107 0.45636818 0
4.0240002 0.17625803 0.45629603 0
4.0180001 0.16936389 0.45620945 0
4.013 0.16254909 0.4561373 0
4.0080004 0.15575235 0.45606515 0
4.0020003 0.14891951 0.45597854 0
3.9970002 0.14216064 0.45590639 0
3.9920003 0.13541982 0.45583424 0
3.9860003 0.12864833 0.45574766 0
3.9810002 0.12194537 0.45567551 0
3.9760003 0.11526047 0.45560336 0
3.9710002 0.10859357 0.45553121 0
3.9650002 0.10190324 0.45544463 0
3.9600003 0.09527427 0.45537248 0
3.9550002 0.088663295 0.45530033 0
3.9500003 0.08207038 0.45522818 0
3.9450002 0.075495496 0.45515603 0
3.9400003 0.068938658 0.45508385 0
3.9340003 0.062369194 0.45499727 0
3.9230003 0.055677067 0.45483854 0
3.9150002 0.04910579 0.45472309 0
3.9090002 0.042613875 0.45463651 0
3.9050002 0.036190521 0.45457879 0
3.9020002 0.029803235 0.45453551 0
3.9000003 0.023446623 0.45450664 0
3.8990002 0.017115247 0.45449221 0
3.8990002 0.010803726 0.45449221 0
3.9000003 0.0045066327 0.45450664 0
3.9010003 -0.00179407 0.45452106 0
3.9040003 -0.0080767348 0.45456436 0
3.9070003 -0.014370222 0.45460767 0
3.9120002 -0.020660102 0.45467982 0
3.9190001 -0.026957197 0.45478082 0
4.1490002 -0.066287428 0.45809984 0
4.1440001 -0.073013835 0.45802769 0
4.1389999 -0.079722196 0.45795554 0
4.1330004 -0.086401701 0.45786893 0
4.1280003 -0.093072176 0.45779678 0
4.119 -0.099666901 0.4576669 0
4.1100001 -0.10622916 0.45753706 0
4.1040001 -0.11281306 0.45745045 0
4.1000004 -0.119415 0.45739275 0
4.0970001 -0.12602414 0.45734945 0
4.0960002 -0.13266937 0.45733503 0
4.0950003 -0.139311 0.45732057 0
4.0950003 -0.14597607 0.45732057 0
4.0960002 -0.15267 0.45733503 0
4.098 -0.15939821 0.45736387 0
4.1010003 -0.1661661 0.45740718 0
4.105 -0.17297909 0.45746487 0
4.112 -0.17991473 0.4575659 0
4.204 0.45490313 0.45203182 0
4.197 0.44713229 0.45194343 0
4.191 0.43951482 0.45186767 0
4.1990004 0.43368673 0.4519687 0
4.2060003 0.42770529 0.45205706 0
4.2140002 0.4218213 0.45215809 0
4.2210002 0.41578755 0.45224649 0
4.2290001 0.40984762 0.45234749 0
4.237 0.40387878 0.45244849 0
4.1090002 0.29520658 0.45083228 0
4.105 0.2881555 0.45078179 0
4.1030002 0.2812956 0.45075652 0
4.1010003 0.27444291 0.45073128 0
4.1010003 0.26776701 0.45073128 0
4.1010003 0.26109111 0.45073128 0
4.1030002 0.25457758 0.45075652 0
4.105 0.2480568 0.45078179 0
4.0139999 0.15608785 0.44963276 0
4.0090003 0.14929831 0.44956961 0
4.0030003 0.14247452 0.44949386 0
3.9980004 0.13572286 0.44943073 0
3.9930003 0.12898923 0.44936758 0
3.9880002 0.12227365 0.44930446 0
3.9820004 0.11553103 0.4492287 0
3.9770002 0.10885333 0.44916558 0
3.9720004 0.10219367 0.44910243 0
3.9230003 0.055677067 0.44848374 0
3.9150002 0.04910579 0.44838271 0
3.9090002 0.042613875 0.44830695 0
3.9050002 0.036190521 0.44825643 0
3.9020002 0.029803235 0.44821855 0
3.9000003 0.023446623 0.44819331 0
3.8990002 0.017115247 0.44818068 0
3.8990002 0.010803726 0.44818068 0
3.9000003 0.0045066327 0.44819331 0
3.9010003 -0.00179407 0.44820595 0
3.9040003 -0.0080767348 0.44824383 0
3.9070003 -0.014370222 0.44828171 0
3.9120002 -0.020660102 0.44834483 0
3.9190001 -0.026957197 0.44843322 0
4.119 -0.099666901 0.45095855 0
4.1100001 -0.10622916 0.45084491 0
4.1040001 -0.11281306 0.45076916 0
4.1000004 -0.119415 0.45071864 0
4.0970001 -0.12602414 0.45068076 0
4.0960002 -0.13266937 0.45066816 0
4.0950003 -0.139311 0.45065552 0
4.0950003 -0.14597607 0.45065552 0
4.0960002 -0.15267 0.45066816 0
4.098 -0.15939821 0.4506934 0
4.1010003 -0.1661661 0.45073128 0
4.105 -0.17297909 0.45078179 0
4.112 -0.17991473 0.45087016 0
4.204 0.45490313 0.44517013 0
4.197 0.44713229 0.44509438 0
4.191 0.43951482 0.44502944 0
4.1990004 0.43368673 0.44511601 0
4.2060003 0.42770529 0.44519177 0
4.2140002 0.4218213 0.44527835 0
4.1090002 0.29520658 0.44414195 0
4.105 0.2881555 0.44409868 0
4.1030002 0.2812956 0.44407701 0
4.1010003 0.27444291 0.44405538 0
4.1010003 0.26776701 0.44405538 0
4.1010003 0.26109111 0.44405538 0
4.1030002 0.25457758 0.44407701 0
4.105 0.2480568 0.44409868 0
4.007 0.13617741 0.44303805 0
4.0020003 0.12942757 0.44298393 0
3.9960003 0.12264885 0.44291899 0
3.9230003 0.055677067 0.4421289 0
3.9150002 0.04910579 0.44204232 0
3.9090002 0.042613875 0.44197738 0
3.9050002 0.036190521 0.44193411 0
3.9020002 0.029803235 0.44190162 0
3.9000003 0.023446623 0.44187999 0
3.8990002 0.017115247 0.44186917 0
3.8990002 0.010803726 0.44186917 0
3.9000003 0.0045066327 0.44187999 0
3.9010003 -0.00179407 0.44189081 0
3.9040003 -0.0080767348 0.44192329 0
3.9070003 -0.014370222 0.44195575 0
3.9120002 -0.020660102 0.44200987 0
3.9190001 -0.026957197 0.44208562 0
4.119 -0.099666901 0.4442502 0
4.1100001 -0.10622916 0.44415277 0
4.1040001 -0.11281306 0.44408786 0
4.1000004 -0.119415 0.44404456 0
4.0970001 -0.12602414 0.44401208 0
4.0960002 -0.13266937 0.44400126 0
4.0950003 -0.139311 0.44399044 0
4.0950003 -0.14597607 0.44399044 0
4.0960002 -0.15267 0.44400126 0
4.098 -0.15939821 0.44402292 0
4.1010003 -0.1661661 0.44405538 0
4.105 -0.17297909 0.44409868 0
4.112 -0.17991473 0.44417444 0
4.204 0.45490313 0.43830845 0
4.197 0.44713229 0.4382453 0
4.191 0.43951482 0.43819121 0
4.1990004 0.43368673 0.43826336 0
4.2060003 0.42770529 0.43832648 0
4.2140002 0.4218213 0.43839863 0
4.1090002 0.29520658 0.43745163 0
4.105 0.2881555 0.43741557 0
4.1030002 0.2812956 0.43739751 0
4.1010003 0.27444291 0.43737948 0
4.1010003 0.26776701 0.43737948 0
4.1010003 0.26109111 0.43737948 0
4.1030002 0.25457758 0.43739751 0
3.9230003 0.055677067 0.43577409 0
3.9150002 0.04910579 0.43570194 0
3.9090002 0.042613875 0.43564782 0
3.9050002 0.036190521 0.43561175 0
3.9020002 0.029803235 0.43558469 0
3.9000003 0.023446623 0.43556666 0
3.8990002 0.017115247 0.43555763 0
3.8990002 0.010803726 0.43555763 0
3.9000003 0.0045066327 0.43556666 0
3.9010003 -0.00179407 0.43557566 0
3.9040003 -0.0080767348 0.43560272 0
3.9070003 -0.014370222 0.43562979 0
3.9120002 -0.020660102 0.43567488 0
3.9190001 -0.026957197 0.43573803 0
4.119 -0.099666901 0.43754184 0
4.1100001 -0.10622916 0.43746066 0
4.1040001 -0.11281306 0.43740654 0
4.1000004 -0.119415 0.43737048 0
4.0970001 -0.12602414 0.43734342 0
4.0960002 -0.13266937 0.43733439 0
4.0950003 -0.139311 0.43732536 0
4.0950003 -0.14597607 0.43732536 0
4.0960002 -0.15267 0.43733439 0
4.098 -0.15939821 0.43735242 0
4.1010003 -0.1661661 0.43737948 0
4.105 -0.17297909 0.43741557 0
4.112 -0.17991473 0.43747869 0
4.204 0.45490313 0.43144676 0
4.197 0.44713229 0.43139625 0
4.191 0.43951482 0.43135297 0
4.1990004 0.43368673 0.43141067 0
4.2060003 0.42770529 0.43146119 0
4.105 0.2881555 0.43073246 0
4.1030002 0.2812956 0.43071803 0
4.1010003 0.27444291 0.43070358 0
3.9150002 0.04910579 0.42936155 0
3.9090002 0.042613875 0.42931828 0
3.9050002 0.036190521 0.4292894 0
3.9020002 0.029803235 0.42926776 0
3.9000003 0.023446623 0.42925334 0
3.8990002 0.017115247 0.42924613 0
3.8990002 0.010803726 0.42924613 0
3.9000003 0.0045066327 0.42925334 0
3.9010003 -0.00179407 0.42926055 0
3.9040003 -0.0080767348 0.42928219 0
3.9070003 -0.014370222 0.42930382 0
3.9120002 -0.020660102 0.42933992 0
3.9190001 -0.026957197 0.42939043 0
4.1100001 -0.10622916 0.43076852 0
4.1040001 -0.11281306 0.43072525 0
4.1000004 -0.119415 0.43069637 0
4.0970001 -0.12602414 0.43067473 0
4.0960002 -0.13266937 0.43066752 0
4.0950003 -0.139311 0.43066031 0
4.0950003 -0.14597607 0.43066031 0
4.0960002 -0.15267 0.43066752 0
4.098 -0.15939821 0.43068194 0
4.1010003 -0.1661661 0.43070358 0
4.105 -0.17297909 0.43073246 0
4.112 -0.17991473 0.43078297 0
4.204 0.45490313 0.42458507 0
4.197 0.44713229 0.4245472 0
4.191 0.43951482 0.42451471 0
4.1849999 0.43191898 0.42448226 0
3.9880002 0.14168985 0.4234162 0
3.9950004 0.13557133 0.42345408 0
4.0030003 0.12947626 0.42349738 0
3.9150002 0.04910579 0.42302117 0
3.9090002 0.042613875 0.42298871 0
3.9050002 0.036190521 0.42296705 0
3.9020002 0.029803235 0.42295083 0
3.9000003 0.023446623 0.42294002 0
3.8990002 0.017115247 0.42293459 0
3.8990002 0.010803726 0.42293459 0
3.9000003 0.0045066327 0.42294002 0
3.9010003 -0.00179407 0.42294541 0
3.9040003 -0.0080767348 0.42296165 0
3.9070003 -0.014370222 0.42297789 0
3.9120002 -0.020660102 0.42300493 0
3.9190001 -0.026957197 0.4230428 0
4.1100001 -0.10622916 0.42407641 0
4.1040001 -0.11281306 0.42404392 0
4.1000004 -0.119415 0.42402229 0
4.0970001 -0.12602414 0.42400604 0
4.0960002 -0.13266937 0.42400065 0
4.0950003 -0.139311 0.42399523 0
4.0950003 -0.14597607 0.42399523 0
4.0960002 -0.15267 0.42400065 0
4.098 -0.15939821 0.42401147 0
4.1010003 -0.1661661 0.42402768 0
4.105 -0.17297909 0.42404935 0
4.112 -0.17991473 0.42408723 0
4.204 0.45490313 0.41772339 0
4.197 0.44713229 0.41769814 0
4.191 0.43951482 0.41767648 0
4.1849999 0.43191898 0.41765484 0
3.9880002 0.14168985 0.41694415 0
3.9950004 0.13557133 0.41696939 0
4.0030003 0.12947626 0.41699827 0
3.9150002 0.04910579 0.41668078 0
3.9090002 0.042613875 0.41665915 0
3.9050002 0.036190521 0.41664472 0
3.9020002 0.029803235 0.41663387 0
3.9000003 0.023446623 0.41662666 0
3.8990002 0.017115247 0.41662306 0
3.8990002 0.010803726 0.41662306 0
3.9000003 0.0045066327 0.41662666 0
3.9010003 -0.00179407 0.41663027 0
3.9040003 -0.0080767348 0.41664112 0
3.9070003 -0.014370222 0.41665193 0
3.9120002 -0.020660102 0.41666996 0
3.9190001 -0.026957197 0.41669521 0
4.1100001 -0.10622916 0.41738427 0
4.1040001 -0.11281306 0.41736263 0
4.1000004 -0.119415 0.41734821 0
4.0970001 -0.12602414 0.41733736 0
4.0960002 -0.13266937 0.41733375 0
4.0950003 -0.139311 0.41733015 0
4.0950003 -0.14597607 0.41733015 0
4.0960002 -0.15267 0.41733375 0
4.098 -0.15939821 0.41734099 0
4.1010003 -0.1661661 0.41735181 0
4.105 -0.17297909 0.41736624 0
4.112 -0.17991473 0.41739148 0
4.204 0.45490313 0.4108617 0
4.197 0.44713229 0.41084906 0
4.191 0.43951482 0.41083825 0
4.1849999 0.43191898 0.41082743 0
4.1790004 0.42434478 0.41081661 0
3.9910002 0.1871891 0.41047749 0
3.9860003 0.18039598 0.41046846 0
3.9800003 0.17355955 0.41045764 0
3.9800003 0.14772899 0.41045764 0
3.9880002 0.14168985 0.41047207 0
3.9950004 0.13557133 0.4104847 0
4.0030003 0.12947626 0.41049913 0
3.9150002 0.04910579 0.4103404 0
3.9090002 0.042613875 0.41032958 0
3.9050002 0.036190521 0.41032237 0
3.9020002 0.029803235 0.41031694 0
3.9000003 0.023446623 0.41031334 0
3.8990002 0.017115247 0.41031155 0
3.8990002 0.010803726 0.41031155 0
3.9000003 0.0045066327 0.41031334 0
3.9010003 -0.00179407 0.41031516 0
3.9040003 -0.0080767348 0.41032055 0
3.9070003 -0.014370222 0.41032597 0
3.9120002 -0.020660102 0.41033497 0
3.9190001 -0.026957197 0.41034761 0
4.1100001 -0.10622916 0.41069216 0
4.1040001 -0.11281306 0.41068131 0
4.1000004 -0.119415 0.4106741 0
4.0970001 -0.12602414 0.4106687 0
4.0960002 -0.13266937 0.41066688 0
4.0950003 -0.139311 0.41066509 0
4.0950003 -0.14597607 0.41066509 0
4.0960002 -0.15267 0.41066688 0
4.098 -0.15939821 0.41067049 0
4.1010003 -0.1661661 0.41067591 0
4.105 -0.17297909 0.41068313 0
4.112 -0.17991473 0.41069576 0
4.204 0.45490313 0.40400001 0
4.197 0.44713229 0.40400001 0
4.191 0.43951482 0.40400001 0
4.1849999 0.43191898 0.40400001 0
4.1790004 0.42434478 0.40400001 0
3.9970002 0.19406703 0.40400001 0
3.9910002 0.1871891 0.40400001 0
3.9860003 0.18039598 0.40400001 0
3.9800003 0.17355955 0.40400001 0
3.9800003 0.14772899 0.40400001 0
3.9880002 0.14168985 0.40400001 0
3.9950004 0.13557133 0.40400001 0
4.0030003 0.12947626 0.40400001 0
3.9150002 0.04910579 0.40400001 0
3.9090002 0.042613875 0.40400001 0
3.9050002 0.036190521 0.40400001 0
3.9020002 0.029803235 0.40400001 0
3.9000003 0.023446623 0.40400001 0
3.8990002 0.017115247 0.40400001 0
3.8990002 0.010803726 0.40400001 0
3.9000003 0.0045066327 0.40400001 0
3.9010003 -0.00179407 0.40400001 0
3.9040003 -0.0080767348 0.40400001 0
3.9070003 -0.014370222 0.40400001 0
3.9120002 -0.020660102 0.40400001 0
3.9190001 -0.026957197 0.40400001 0
4.1100001 -0.10622916 0.40400001 0
4.1040001 -0.11281306 0.40400001 0
4.1000004 -0.119415 0.40400001 0
4.0970001 -0.12602414 0.40400001 0
4.0960002 -0.13266937 0.40400001 0
4.0950003 -0.139311 0.40400001 0
4.0950003 -0.14597607 0.40400001 0
4.0960002 -0.15267 0.40400001 0
4.098 -0.15939821 0.40400001 0
4.1010003 -0.1661661 0.40400001 0
4.105 -0.17297909 0.40400001 0
4.112 -0.17991473 0.40400001 0
4.204 0.45490313 0.39713833 0
4.197 0.44713229 0.39715096 0
4.191 0.43951482 0.39716178 0
4.1849999 0.43191898 0.3971726 0
4.1790004 0.42434478 0.39718342 0
3.9970002 0.19406703 0.39751172 0
3.9910002 0.1871891 0.39752254 0
3.9860003 0.18039598 0.39753157 0
3.9800003 0.17355955 0.39754239 0
3.9880002 0.14168985 0.39752796 0
3.9950004 0.13557133 0.39751533 0
3.9150002 0.04910579 0.39765963 0
3.9090002 0.042613875 0.39767045 0
3.9050002 0.036190521 0.39767766 0
3.9020002 0.029803235 0.39768308 0
3.9000003 0.023446623 0.39768669 0
3.8990002 0.017115247 0.39768848 0
3.8990002 0.010803726 0.39768848 0
3.9000003 0.0045066327 0.39768669 0
3.9010003 -0.00179407 0.39768487 0
3.9040003 -0.0080767348 0.39767948 0
3.9070003 -0.014370222 0.39767405 0
3.9120002 -0.020660102 0.39766505 0
3.9190001 -0.026957197 0.39765242 0
4.1100001 -0.10622916 0.39730787 0
4.1040001 -0.11281306 0.39731872 0
4.1000004 -0.119415 0.39732593 0
4.0970001 -0.12602414 0.39733133 0
4.0960002 -0.13266937 0.39733315 0
4.0950003 -0.139311 0.39733493 0
4.0950003 -0.14597607 0.39733493 0
4.0960002 -0.15267 0.39733315 0
4.098 -0.15939821 0.39732954 0
4.1010003 -0.1661661 0.39732412 0
4.105 -0.17297909 0.3973169 0
4.112 -0.17991473 0.39730427 0
4.204 0.45490313 0.39027664 0
4.197 0.44713229 0.39030188 0
4.191 0.43951482 0.39032355 0
4.1849999 0.43191898 0.39034519 0
4.1790004 0.42434478 0.39036682 0
3.9970002 0.19406703 0.39102343 0
3.9910002 0.1871891 0.39104506 0
3.9860003 0.18039598 0.39106309 0
3.9800003 0.17355955 0.39108476 0
3.9880002 0.14168985 0.39105588 0
3.9150002 0.04910579 0.39131925 0
3.9090002 0.042613875 0.39134088 0
3.9050002 0.036190521 0.39135531 0
3.9020002 0.029803235 0.39136615 0
3.9000003 0.023446623 0.39137337 0
3.8990002 0.017115247 0.39137697 0
3.8990002 0.010803726 0.39137697 0
3.9000003 0.0045066327 0.39137337 0
3.9010003 -0.00179407 0.39136976 0
3.9040003 -0.0080767348 0.39135891 0
3.9070003 -0.014370222 0.39134809 0
3.9120002 -0.020660102 0.39133006 0
3.9190001 -0.026957197 0.39130482 0
4.1100001 -0.10622916 0.39061576 0
4.1040001 -0.11281306 0.3906374 0
4.1000004 -0.119415 0.39065182 0
4.0970001 -0.12602414 0.39066267 0
4.0960002 -0.13266937 0.39066628 0
4.0950003 -0.139311 0.39066988 0
4.0950003 -0.14597607 0.39066988 0
4.0960002 -0.15267 0.39066628 0
