# .PCD v0.7 - Point Cloud Data file format
VERSION 0.7
FIELDS x y z intensity
SIZE 4 4 4 4
TYPE F F F F
COUNT 1 1 1 1
WIDTH 691
HEIGHT 1
VIEWPOINT 0 0 0 1 0 0 0
POINTS 691
DATA ascii
4.7290001 -0.78001642 0.30248711 0
4.7280002 -0.78765374 0.30251056 0
4.7260003 -0.79511434 0.30255744 0
4.7250004 -0.80274266 0.30258089 0
4.7240005 -0.81036741 0.30260435 0
4.7230005 -0.81798851 0.3026278 0
4.7210002 -0.82542551 0.30267471 0
4.7200003 -0.83303761 0.30269814 0
4.7190003 -0.84064609 0.30272159 0
4.7180004 -0.84825093 0.30274504 0
4.7160001 -0.85566455 0.30279195 0
4.7150002 -0.86326039 0.30281538 0
4.7140002 -0.87085265 0.30283886 0
4.7130003 -0.87844127 0.30286229 0
4.7110004 -0.88583153 0.3029092 0
4.7100005 -0.8934111 0.30293262 0
4.7090001 -0.90098703 0.3029561 0
4.7080002 -0.90855944 0.30297953 0
4.7060003 -0.91592622 0.30302644 0
4.7300005 -0.77237558 0.29465315 0
4.7290001 -0.78001642 0.29467842 0
4.7280002 -0.78765374 0.29470366 0
4.7260003 -0.79511434 0.29475418 0
4.7250004 -0.80274266 0.29477942 0
4.7240005 -0.81036741 0.29480469 0
4.7230005 -0.81798851 0.29482993 0
4.7210002 -0.82542551 0.29488045 0
4.7200003 -0.83303761 0.29490569 0
4.7190003 -0.84064609 0.29493093 0
4.7180004 -0.84825093 0.29495621 0
4.7160001 -0.85566455 0.29500669 0
4.7150002 -0.86326039 0.29503196 0
4.7140002 -0.87085265 0.29505721 0
4.7130003 -0.87844127 0.29508245 0
4.7110004 -0.88583153 0.29513296 0
4.7100005 -0.8934111 0.29515821 0
4.7090001 -0.90098703 0.29518348 0
4.7080002 -0.90855944 0.29520875 0
4.7060003 -0.91592622 0.29525924 0
4.7050004 -0.92348957 0.29528448 0
4.7300005 -0.77237558 0.28684267 0
4.7290001 -0.78001642 0.28686973 0
4.7280002 -0.78765374 0.2868968 0
4.7260003 -0.79511434 0.28695089 0
4.7250004 -0.80274266 0.28697795 0
4.7240005 -0.81036741 0.28700501 0
4.7230005 -0.81798851 0.28703207 0
4.7210002 -0.82542551 0.28708619 0
4.7200003 -0.83303761 0.28711325 0
4.7190003 -0.84064609 0.28714031 0
4.7180004 -0.84825093 0.28716737 0
4.7160001 -0.85566455 0.28722149 0
4.7150002 -0.86326039 0.28724855 0
4.7140002 -0.87085265 0.28727558 0
4.7130003 -0.87844127 0.28730264 0
4.7110004 -0.88583153 0.28735673 0
4.7100005 -0.8934111 0.28738379 0
4.7090001 -0.90098703 0.28741086 0
4.7080002 -0.90855944 0.28743792 0
4.7060003 -0.91592622 0.28749204 0
4.7050004 -0.92348957 0.2875191 0
4.7300005 -0.77237558 0.27903217 0
4.7290001 -0.78001642 0.27906105 0
4.7280002 -0.78765374 0.2790899 0
4.7260003 -0.79511434 0.27914762 0
4.7250004 -0.80274266 0.27917647 0
4.7240005 -0.81036741 0.27920532 0
4.7230005 -0.81798851 0.2792342 0
4.7210002 -0.82542551 0.27929193 0
4.7200003 -0.83303761 0.27932078 0
4.7190003 -0.84064609 0.27934965 0
4.7180004 -0.84825093 0.2793785 0
4.7160001 -0.85566455 0.27943623 0
4.7150002 -0.86326039 0.27946511 0
4.7140002 -0.87085265 0.27949396 0
4.7130003 -0.87844127 0.27952281 0
4.7110004 -0.88583153 0.27958053 0
4.7100005 -0.8934111 0.27960938 0
4.7090001 -0.90098703 0.27963826 0
4.7080002 -0.90855944 0.27966714 0
4.7060003 -0.91592622 0.27972484 0
4.7050004 -0.92348957 0.27975368 0
4.7300005 -0.77237558 0.2712217 0
4.7290001 -0.78001642 0.27125236 0
4.7280002 -0.78765374 0.27128303 0
4.7260003 -0.79511434 0.27134436 0
4.7250004 -0.80274266 0.271375 0
4.7240005 -0.81036741 0.2714057 0
4.7230005 -0.81798851 0.27143633 0
4.7210002 -0.82542551 0.27149767 0
4.7200003 -0.83303761 0.27152833 0
4.7190003 -0.84064609 0.271559 0
4.7180004 -0.84825093 0.27158967 0
4.7160001 -0.85566455 0.271651 0
4.7150002 -0.86326039 0.27168167 0
4.7140002 -0.87085265 0.2717123 0
4.7130003 -0.87844127 0.271743 0
4.7110004 -0.88583153 0.27180433 0
4.7100005 -0.8934111 0.27183497 0
4.7090001 -0.90098703 0.27186567 0
4.7080002 -0.90855944 0.2718963 0
4.7060003 -0.91592622 0.27195764 0
4.7050004 -0.92348957 0.2719883 0
4.7300005 -0.77237558 0.26341119 0
4.7290001 -0.78001642 0.26344368 0
4.7280002 -0.78765374 0.26347613 0
4.7260003 -0.79511434 0.26354107 0
4.7250004 -0.80274266 0.26357353 0
4.7240005 -0.81036741 0.26360601 0
4.7230005 -0.81798851 0.26363847 0
4.7210002 -0.82542551 0.26370341 0
4.7200003 -0.83303761 0.26373589 0
4.7190003 -0.84064609 0.26376837 0
4.7180004 -0.84825093 0.2638008 0
4.7160001 -0.85566455 0.26386577 0
4.7150002 -0.86326039 0.26389825 0
4.7140002 -0.87085265 0.26393071 0
4.7130003 -0.87844127 0.26396316 0
4.7110004 -0.88583153 0.2640281 0
4.7100005 -0.8934111 0.26406056 0
4.7090001 -0.90098703 0.26409304 0
4.7080002 -0.90855944 0.26412553 0
4.7060003 -0.91592622 0.26419044 0
4.7050004 -0.92348957 0.26422292 0
4.7300005 -0.77237558 0.25560069 0
4.7290001 -0.78001642 0.25563499 0
4.7280002 -0.78765374 0.25566924 0
4.7260003 -0.79511434 0.25573781 0
4.7250004 -0.80274266 0.25577205 0
4.7240005 -0.81036741 0.25580633 0
4.7230005 -0.81798851 0.2558406 0
4.7210002 -0.82542551 0.25590917 0
4.7200003 -0.83303761 0.25594342 0
4.7190003 -0.84064609 0.25597769 0
4.7180004 -0.84825093 0.25601196 0
4.7160001 -0.85566455 0.25608054 0
4.7150002 -0.86326039 0.25611478 0
4.7140002 -0.87085265 0.25614905 0
4.7130003 -0.87844127 0.25618333 0
4.7110004 -0.88583153 0.25625187 0
4.7100005 -0.8934111 0.25628614 0
4.7090001 -0.90098703 0.25632042 0
4.7080002 -0.90855944 0.25635469 0
4.7060003 -0.91592622 0.25642323 0
4.7050004 -0.92348957 0.25645751 0
4.7300005 -0.77237558 0.24779022 0
4.7290001 -0.78001642 0.24782631 0
4.7280002 -0.78765374 0.24786238 0
4.7260003 -0.79511434 0.24793452 0
4.7250004 -0.80274266 0.2479706 0
4.7240005 -0.81036741 0.24800667 0
4.7230005 -0.81798851 0.24804275 0
4.7210002 -0.82542551 0.24811491 0
4.7200003 -0.83303761 0.24815099 0
4.7190003 -0.84064609 0.24818705 0
4.7180004 -0.84825093 0.24822313 0
4.7160001 -0.85566455 0.24829529 0
4.7150002 -0.86326039 0.24833137 0
4.7140002 -0.87085265 0.24836744 0
4.7130003 -0.87844127 0.24840352 0
4.7110004 -0.88583153 0.24847566 0
4.7100005 -0.8934111 0.24851173 0
4.7090001 -0.90098703 0.24854782 0
4.7080002 -0.90855944 0.2485839 0
4.7060003 -0.91592622 0.24865605 0
4.7050004 -0.92348957 0.24869213 0
4.7300005 -0.77237558 0.23997973 0
4.7290001 -0.78001642 0.24001762 0
4.7280002 -0.78765374 0.2400555 0
4.7260003 -0.79511434 0.24013124 0
4.7250004 -0.80274266 0.24016914 0
4.7240005 -0.81036741 0.240207 0
4.7230005 -0.81798851 0.24024488 0
4.7210002 -0.82542551 0.24032065 0
4.7200003 -0.83303761 0.24035853 0
4.7190003 -0.84064609 0.24039641 0
4.7180004 -0.84825093 0.24043429 0
4.7160001 -0.85566455 0.24051006 0
4.7150002 -0.86326039 0.24054794 0
4.7140002 -0.87085265 0.24058582 0
4.7130003 -0.87844127 0.24062368 0
4.7110004 -0.88583153 0.24069946 0
4.7100005 -0.8934111 0.24073732 0
4.7090001 -0.90098703 0.24077523 0
4.7080002 -0.90855944 0.24081309 0
4.7060003 -0.91592622 0.24088885 0
4.7050004 -0.92348957 0.24092673 0
4.7300005 -0.77237558 0.23216923 0
4.7290001 -0.78001642 0.23220894 0
4.7280002 -0.78765374 0.2322486 0
4.7260003 -0.79511434 0.23232798 0
4.7250004 -0.80274266 0.23236765 0
4.7240005 -0.81036741 0.23240735 0
4.7230005 -0.81798851 0.23244701 0
4.7210002 -0.82542551 0.23252639 0
4.7200003 -0.83303761 0.23256609 0
4.7190003 -0.84064609 0.23260576 0
4.7180004 -0.84825093 0.23264544 0
4.7160001 -0.85566455 0.23272483 0
4.7150002 -0.86326039 0.23276451 0
4.7140002 -0.87085265 0.23280418 0
4.7130003 -0.87844127 0.23284388 0
4.7110004 -0.88583153 0.23292322 0
4.7100005 -0.8934111 0.23296291 0
4.7090001 -0.90098703 0.2330026 0
4.7080002 -0.90855944 0.23304228 0
4.7060003 -0.91592622 0.23312166 0
4.7050004 -0.92348957 0.23316133 0
4.7300005 -0.77237558 0.22435874 0
4.7290001 -0.78001642 0.22440025 0
4.7280002 -0.78765374 0.22444174 0
4.7260003 -0.79511434 0.22452471 0
4.7250004 -0.80274266 0.22456619 0
4.7240005 -0.81036741 0.22460766 0
4.7230005 -0.81798851 0.22464916 0
4.7210002 -0.82542551 0.22473215 0
4.7200003 -0.83303761 0.22477363 0
4.7190003 -0.84064609 0.22481512 0
4.7180004 -0.84825093 0.22485659 0
4.7160001 -0.85566455 0.22493958 0
4.7150002 -0.86326039 0.22498107 0
4.7140002 -0.87085265 0.22502257 0
4.7130003 -0.87844127 0.22506404 0
4.7110004 -0.88583153 0.22514701 0
4.7100005 -0.8934111 0.22518849 0
4.7090001 -0.90098703 0.22522999 0
4.7080002 -0.90855944 0.22527149 0
4.7060003 -0.91592622 0.22535446 0
4.7050004 -0.92348957 0.22539593 0
4.7300005 -0.77237558 0.21654825 0
4.7290001 -0.78001642 0.21659157 0
4.7280002 -0.78765374 0.21663485 0
4.7260003 -0.79511434 0.21672143 0
4.7250004 -0.80274266 0.21676472 0
4.7240005 -0.81036741 0.21680801 0
4.7230005 -0.81798851 0.21685128 0
4.7210002 -0.82542551 0.21693788 0
4.7200003 -0.83303761 0.21698117 0
4.7190003 -0.84064609 0.21702446 0
4.7180004 -0.84825093 0.21706776 0
4.7160001 -0.85566455 0.21715435 0
4.7150002 -0.86326039 0.21719764 0
4.7140002 -0.87085265 0.21724093 0
4.7130003 -0.87844127 0.2172842 0
4.7110004 -0.88583153 0.21737079 0
4.7100005 -0.8934111 0.21741408 0
4.7090001 -0.90098703 0.21745738 0
4.7080002 -0.90855944 0.21750069 0
4.7060003 -0.91592622 0.21758725 0
4.7050004 -0.92348957 0.21763055 0
4.7300005 -0.77237558 0.20873778 0
4.7290001 -0.78001642 0.20878288 0
4.7280002 -0.78765374 0.20882796 0
4.7260003 -0.79511434 0.20891814 0
4.7250004 -0.80274266 0.20896325 0
4.7240005 -0.81036741 0.20900834 0
4.7230005 -0.81798851 0.20905343 0
4.7210002 -0.82542551 0.20914364 0
4.7200003 -0.83303761 0.20918871 0
4.7190003 -0.84064609 0.20923382 0
4.7180004 -0.84825093 0.20927891 0
4.7160001 -0.85566455 0.20936911 0
4.7150002 -0.86326039 0.20941421 0
4.7140002 -0.87085265 0.20945929 0
4.7130003 -0.87844127 0.2095044 0
4.7110004 -0.88583153 0.20959458 0
4.7100005 -0.8934111 0.20963967 0
4.7090001 -0.90098703 0.20968479 0
4.7080002 -0.90855944 0.20972987 0
4.7060003 -0.91592622 0.20982005 0
4.7050004 -0.92348957 0.20986515 0
4.7300005 -0.77237558 0.20092727 0
4.7290001 -0.78001642 0.2009742 0
4.7280002 -0.78765374 0.20102109 0
4.7260003 -0.79511434 0.20111488 0
4.7250004 -0.80274266 0.20116179 0
4.7240005 -0.81036741 0.20120867 0
4.7230005 -0.81798851 0.20125557 0
4.7210002 -0.82542551 0.20134938 0
4.7200003 -0.83303761 0.20139627 0
4.7190003 -0.84064609 0.20144317 0
4.7180004 -0.84825093 0.20149007 0
4.7160001 -0.85566455 0.20158388 0
4.7150002 -0.86326039 0.20163077 0
4.7140002 -0.87085265 0.20167768 0
4.7130003 -0.87844127 0.20172456 0
4.7110004 -0.88583153 0.20181836 0
4.7100005 -0.8934111 0.20186526 0
4.7090001 -0.90098703 0.20191218 0
4.7080002 -0.90855944 0.20195906 0
4.7060003 -0.91592622 0.20205285 0
4.7050004 -0.92348957 0.20209976 0
4.7300005 -0.77237558 0.19311678 0
4.7290001 -0.78001642 0.1931655 0
4.7280002 -0.78765374 0.19321421 0
4.7260003 -0.79511434 0.19331162 0
4.7250004 -0.80274266 0.1933603 0
4.7240005 -0.81036741 0.19340901 0
4.7230005 -0.81798851 0.19345771 0
4.7210002 -0.82542551 0.19355513 0
4.7200003 -0.83303761 0.19360381 0
4.7190003 -0.84064609 0.19365253 0
4.7180004 -0.84825093 0.19370122 0
4.7160001 -0.85566455 0.19379865 0
4.7150002 -0.86326039 0.19384734 0
4.7140002 -0.87085265 0.19389604 0
4.7130003 -0.87844127 0.19394474 0
4.7110004 -0.88583153 0.19404213 0
4.7100005 -0.8934111 0.19409084 0
4.7090001 -0.90098703 0.19413956 0
4.7080002 -0.90855944 0.19418827 0
4.7060003 -0.91592622 0.19428566 0
4.7050004 -0.92348957 0.19433436 0
4.7300005 -0.77237558 0.1853063 0
4.7290001 -0.78001642 0.18535683 0
4.7280002 -0.78765374 0.18540731 0
4.7260003 -0.79511434 0.18550833 0
4.7250004 -0.80274266 0.18555884 0
4.7240005 -0.81036741 0.18560934 0
4.7230005 -0.81798851 0.18565984 0
4.7210002 -0.82542551 0.18576086 0
4.7200003 -0.83303761 0.18581137 0
4.7190003 -0.84064609 0.18586187 0
4.7180004 -0.84825093 0.18591239 0
4.7160001 -0.85566455 0.1860134 0
4.7150002 -0.86326039 0.18606392 0
4.7140002 -0.87085265 0.1861144 0
4.7130003 -0.87844127 0.18616492 0
4.7110004 -0.88583153 0.18626593 0
4.7100005 -0.8934111 0.18631643 0
4.7090001 -0.90098703 0.18636695 0
4.7080002 -0.90855944 0.18641746 0
4.7060003 -0.91592622 0.18651846 0
4.7050004 -0.92348957 0.18656896 0
4.7300005 -0.77237558 0.17749579 0
4.7290001 -0.78001642 0.17754814 0
4.7280002 -0.78765374 0.17760044 0
4.7260003 -0.79511434 0.17770505 0
4.7250004 -0.80274266 0.17775735 0
4.7240005 -0.81036741 0.17780967 0
4.7230005 -0.81798851 0.17786197 0
4.7210002 -0.82542551 0.17796661 0
4.7200003 -0.83303761 0.17801891 0
4.7190003 -0.84064609 0.17807123 0
4.7180004 -0.84825093 0.17812353 0
4.7160001 -0.85566455 0.17822817 0
4.7150002 -0.86326039 0.17828047 0
4.7140002 -0.87085265 0.17833279 0
4.7130003 -0.87844127 0.17838509 0
4.7110004 -0.88583153 0.1784897 0
4.7100005 -0.8934111 0.178542 0
4.7090001 -0.90098703 0.17859435 0
4.7080002 -0.90855944 0.17864665 0
4.7060003 -0.91592622 0.17875126 0
4.7050004 -0.92348957 0.17880356 0
4.7300005 -0.77237558 0.16968532 0
4.7290001 -0.78001642 0.16973945 0
4.7280002 -0.78765374 0.16979358 0
4.7260003 -0.79511434 0.16990179 0
4.7250004 -0.80274266 0.16995588 0
4.7240005 -0.81036741 0.17000999 0
4.7230005 -0.81798851 0.17006411 0
4.7210002 -0.82542551 0.17017235 0
4.7200003 -0.83303761 0.17022647 0
4.7190003 -0.84064609 0.17028058 0
4.7180004 -0.84825093 0.1703347 0
4.7160001 -0.85566455 0.17044294 0
4.7150002 -0.86326039 0.17049706 0
4.7140002 -0.87085265 0.17055117 0
4.7130003 -0.87844127 0.17060527 0
4.7110004 -0.88583153 0.17071347 0
4.7100005 -0.8934111 0.17076759 0
4.7090001 -0.90098703 0.17082173 0
4.7080002 -0.90855944 0.17087583 0
4.7060003 -0.91592622 0.17098406 0
4.7050004 -0.92348957 0.17103818 0
4.7300005 -0.77237558 0.16187483 0
4.7290001 -0.78001642 0.16193075 0
4.7280002 -0.78765374 0.16198668 0
4.7260003 -0.79511434 0.16209851 0
4.7250004 -0.80274266 0.16215442 0
4.7240005 -0.81036741 0.16221035 0
4.7230005 -0.81798851 0.16226624 0
4.7210002 -0.82542551 0.1623781 0
4.7200003 -0.83303761 0.16243403 0
4.7190003 -0.84064609 0.16248994 0
4.7180004 -0.84825093 0.16254583 0
4.7160001 -0.85566455 0.16265769 0
4.7150002 -0.86326039 0.16271362 0
4.7140002 -0.87085265 0.16276953 0
4.7130003 -0.87844127 0.16282545 0
4.7110004 -0.88583153 0.16293728 0
4.7100005 -0.8934111 0.16299318 0
4.7090001 -0.90098703 0.16304913 0
4.7080002 -0.90855944 0.16310504 0
4.7060003 -0.91592622 0.16321686 0
4.7050004 -0.92348957 0.16327277 0
4.7300005 -0.77237558 0.15406433 0
4.7290001 -0.78001642 0.15412208 0
4.7280002 -0.78765374 0.1541798 0
4.7260003 -0.79511434 0.15429524 0
4.7250004 -0.80274266 0.15435295 0
4.7240005 -0.81036741 0.15441066 0
4.7230005 -0.81798851 0.15446839 0
4.7210002 -0.82542551 0.15458384 0
4.7200003 -0.83303761 0.15464157 0
4.7190003 -0.84064609 0.15469928 0
4.7180004 -0.84825093 0.15475701 0
4.7160001 -0.85566455 0.15487246 0
4.7150002 -0.86326039 0.15493019 0
4.7140002 -0.87085265 0.1549879 0
4.7130003 -0.87844127 0.15504561 0
4.7110004 -0.88583153 0.15516105 0
4.7100005 -0.8934111 0.15521877 0
4.7090001 -0.90098703 0.15527652 0
4.7080002 -0.90855944 0.15533423 0
4.7060003 -0.91592622 0.15544967 0
4.7050004 -0.92348957 0.15550739 0
4.7300005 -0.77237558 0.14625385 0
4.7290001 -0.78001642 0.1463134 0
4.7280002 -0.78765374 0.14637291 0
4.7260003 -0.79511434 0.14649194 0
4.7250004 -0.80274266 0.14655149 0
4.7240005 -0.81036741 0.14661101 0
4.7230005 -0.81798851 0.14667052 0
4.7210002 -0.82542551 0.14678958 0
4.7200003 -0.83303761 0.1468491 0
4.7190003 -0.84064609 0.14690864 0
4.7180004 -0.84825093 0.14696816 0
4.7160001 -0.85566455 0.14708725 0
4.7150002 -0.86326039 0.14714673 0
4.7140002 -0.87085265 0.14720628 0
4.7130003 -0.87844127 0.14726579 0
4.7110004 -0.88583153 0.14738482 0
4.7100005 -0.8934111 0.14744437 0
4.7090001 -0.90098703 0.14750388 0
4.7080002 -0.90855944 0.14756343 0
4.7060003 -0.91592622 0.14768246 0
4.7050004 -0.92348957 0.147742 0
4.7300005 -0.77237558 0.13844335 0
4.7290001 -0.78001642 0.13850471 0
4.7280002 -0.78765374 0.13856602 0
4.7260003 -0.79511434 0.13868868 0
4.7250004 -0.80274266 0.13875002 0
4.7240005 -0.81036741 0.13881135 0
4.7230005 -0.81798851 0.13887265 0
4.7210002 -0.82542551 0.13899535 0
4.7200003 -0.83303761 0.13905665 0
4.7190003 -0.84064609 0.13911799 0
4.7180004 -0.84825093 0.13917932 0
4.7160001 -0.85566455 0.13930199 0
4.7150002 -0.86326039 0.13936332 0
4.7140002 -0.87085265 0.13942462 0
4.7130003 -0.87844127 0.13948596 0
4.7110004 -0.88583153 0.13960862 0
4.7100005 -0.8934111 0.13966995 0
4.7090001 -0.90098703 0.13973132 0
4.7080002 -0.90855944 0.13979262 0
4.7060003 -0.91592622 0.13991529 0
4.7050004 -0.92348957 0.13997659 0
4.7300005 -0.77237558 0.13063285 0
4.7290001 -0.78001642 0.13069603 0
4.7280002 -0.78765374 0.13075915 0
4.7260003 -0.79511434 0.13088542 0
4.7250004 -0.80274266 0.13094851 0
4.7240005 -0.81036741 0.13101166 0
4.7230005 -0.81798851 0.13107482 0
4.7210002 -0.82542551 0.13120109 0
4.7200003 -0.83303761 0.13126421 0
4.7190003 -0.84064609 0.13132733 0
4.7180004 -0.84825093 0.13139048 0
4.7160001 -0.85566455 0.13151675 0
4.7150002 -0.86326039 0.13157988 0
4.7140002 -0.87085265 0.131643 0
4.7130003 -0.87844127 0.13170615 0
4.7110004 -0.88583153 0.13183239 0
4.7100005 -0.8934111 0.13189551 0
4.7090001 -0.90098703 0.13195869 0
4.7080002 -0.90855944 0.13202181 0
4.7060003 -0.91592622 0.13214809 0
4.7050004 -0.92348957 0.13221118 0
4.7300005 -0.77237558 0.12282237 0
4.7290001 -0.78001642 0.12288734 0
4.7280002 -0.78765374 0.12295228 0
4.7260003 -0.79511434 0.12308213 0
4.7250004 -0.80274266 0.12314707 0
4.7240005 -0.81036741 0.12321198 0
4.7230005 -0.81798851 0.12327692 0
4.7210002 -0.82542551 0.12340683 0
4.7200003 -0.83303761 0.12347177 0
4.7190003 -0.84064609 0.12353671 0
4.7180004 -0.84825093 0.12360162 0
4.7160001 -0.85566455 0.12373149 0
4.7150002 -0.86326039 0.12379646 0
4.7140002 -0.87085265 0.1238614 0
4.7130003 -0.87844127 0.12392631 0
4.7110004 -0.88583153 0.12405619 0
4.7100005 -0.8934111 0.1241211 0
4.7090001 -0.90098703 0.1241861 0
4.7080002 -0.90855944 0.12425101 0
4.7060003 -0.91592622 0.12438089 0
4.7050004 -0.92348957 0.1244458 0
4.7300005 -0.77237558 0.11501187 0
4.7290001 -0.78001642 0.11507866 0
4.7280002 -0.78765374 0.11514539 0
4.7260003 -0.79511434 0.11527884 0
4.7250004 -0.80274266 0.1153456 0
4.7240005 -0.81036741 0.11541235 0
4.7230005 -0.81798851 0.11547905 0
4.7210002 -0.82542551 0.11561257 0
4.7200003 -0.83303761 0.11567929 0
4.7190003 -0.84064609 0.11574605 0
4.7180004 -0.84825093 0.11581278 0
4.7160001 -0.85566455 0.11594629 0
4.7150002 -0.86326039 0.11601302 0
4.7140002 -0.87085265 0.11607975 0
4.7130003 -0.87844127 0.1161465 0
4.7110004 -0.88583153 0.11627996 0
4.7100005 -0.8934111 0.11634669 0
4.7090001 -0.90098703 0.11641347 0
4.7080002 -0.90855944 0.11648023 0
4.7060003 -0.91592622 0.11661369 0
4.7050004 -0.92348957 0.11668041 0
4.7300005 -0.77237558 0.1072014 0
4.7290001 -0.78001642 0.10726997 0
4.7280002 -0.78765374 0.10733849 0
4.7260003 -0.79511434 0.10747561 0
4.7250004 -0.80274266 0.10754412 0
4.7240005 -0.81036741 0.10761267 0
4.7230005 -0.81798851 0.10768121 0
4.7210002 -0.82542551 0.10781834 0
4.7200003 -0.83303761 0.10788685 0
4.7190003 -0.84064609 0.1079554 0
4.7180004 -0.84825093 0.10802394 0
4.7160001 -0.85566455 0.10816106 0
4.7150002 -0.86326039 0.10822958 0
4.7140002 -0.87085265 0.10829812 0
4.7130003 -0.87844127 0.10836667 0
4.7110004 -0.88583153 0.10850376 0
4.7100005 -0.8934111 0.1085723 0
4.7090001 -0.90098703 0.10864085 0
4.7080002 -0.90855944 0.10870939 0
4.7060003 -0.91592622 0.10884649 0
4.7050004 -0.92348957 0.10891503 0
4.7300005 -0.77237558 0.099390924 0
4.7290001 -0.78001642 0.099461287 0
4.7280002 -0.78765374 0.099531621 0
4.7260003 -0.79511434 0.099672318 0
4.7250004 -0.80274266 0.099742651 0
4.7240005 -0.81036741 0.099812984 0
4.7230005 -0.81798851 0.099883348 0
4.7210002 -0.82542551 0.10002407 0
4.7200003 -0.83303761 0.10009441 0
4.7190003 -0.84064609 0.10016474 0
4.7180004 -0.84825093 0.1002351 0
4.7160001 -0.85566455 0.1003758 0
4.7150002 -0.86326039 0.10044616 0
4.7140002 -0.87085265 0.1005165 0
4.7130003 -0.87844127 0.10058686 0
4.7110004 -0.88583153 0.10072753 0
4.7100005 -0.8934111 0.10079789 0
4.7090001 -0.90098703 0.10086825 0
4.7080002 -0.90855944 0.10093859 0
4.7060003 -0.91592622 0.10107929 0
4.7050004 -0.92348957 0.10114962 0
4.7300005 -0.77237558 0.091580421 0
4.7290001 -0.78001642 0.091652602 0
4.7280002 -0.78765374 0.091724753 0
4.7260003 -0.79511434 0.091869026 0
4.7250004 -0.80274266 0.091941178 0
4.7240005 -0.81036741 0.092013329 0
4.7230005 -0.81798851 0.092085481 0
4.7210002 -0.82542551 0.092229813 0
4.7200003 -0.83303761 0.092301965 0
4.7190003 -0.84064609 0.092374086 0
4.7180004 -0.84825093 0.092446238 0
4.7160001 -0.85566455 0.09259057 0
4.7150002 -0.86326039 0.092662722 0
4.7140002 -0.87085265 0.092734873 0
4.7130003 -0.87844127 0.092807025 0
4.7110004 -0.88583153 0.092951298 0
4.7100005 -0.8934111 0.093023449 0
4.7090001 -0.90098703 0.09309563 0
4.7080002 -0.90855944 0.093167782 0
4.7060003 -0.91592622 0.093312085 0
4.7050004 -0.92348957 0.093384236 0
4.7300005 -0.77237558 0.083769917 0
4.7290001 -0.78001642 0.083843917 0
4.7280002 -0.78765374 0.083917856 0
4.7260003 -0.79511434 0.084065765 0
4.7250004 -0.80274266 0.084139705 0
4.7240005 -0.81036741 0.084213674 0
4.7230005 -0.81798851 0.084287614 0
4.7210002 -0.82542551 0.084435552 0
4.7200003 -0.83303761 0.084509492 0
4.7190003 -0.84064609 0.084583461 0
4.7180004 -0.84825093 0.084657401 0
4.7160001 -0.85566455 0.08480534 0
4.7150002 -0.86326039 0.084879279 0
4.7140002 -0.87085265 0.084953249 0
4.7130003 -0.87844127 0.085027188 0
4.7110004 -0.88583153 0.085175097 0
4.7100005 -0.8934111 0.085249037 0
4.7090001 -0.90098703 0.085323036 0
4.7080002 -0.90855944 0.085396975 0
4.7060003 -0.91592622 0.085544884 0
4.7050004 -0.92348957 0.085618854 0
4.7300005 -0.77237558 0.075959444 0
4.7290001 -0.78001642 0.076035231 0
4.7280002 -0.78765374 0.076110989 0
4.7260003 -0.79511434 0.076262474 0
4.7250004 -0.80274266 0.076338261 0
4.7240005 -0.81036741 0.076413989 0
4.7230005 -0.81798851 0.076489747 0
4.7210002 -0.82542551 0.076641291 0
4.7200003 -0.83303761 0.076717049 0
4.7190003 -0.84064609 0.076792806 0
4.7180004 -0.84825093 0.076868564 0
4.7160001 -0.85566455 0.077020109 0
4.7150002 -0.86326039 0.077095866 0
4.7140002 -0.87085265 0.077171624 0
4.7130003 -0.87844127 0.077247351 0
4.7110004 -0.88583153 0.077398896 0
4.7100005 -0.8934111 0.077474624 0
4.7090001 -0.90098703 0.077550441 0
4.7080002 -0.90855944 0.077626169 0
4.7060003 -0.91592622 0.077777684 0
4.7050004 -0.92348957 0.077853441 0
4.7300005 -0.77237558 0.068148941 0
4.7290001 -0.78001642 0.068226546 0
4.7280002 -0.78765374 0.068304092 0
4.7260003 -0.79511434 0.068459213 0
4.7250004 -0.80274266 0.068536788 0
4.7240005 -0.81036741 0.068614304 0
4.7230005 -0.81798851 0.06869188 0
4.7210002 -0.82542551 0.06884703 0
4.7200003 -0.83303761 0.068924606 0
4.7190003 -0.84064609 0.069002151 0
4.7180004 -0.84825093 0.069079727 0
4.7160001 -0.85566455 0.069234878 0
4.7150002 -0.86326039 0.069312423 0
4.7140002 -0.87085265 0.069389999 0
4.7130003 -0.87844127 0.069467545 0
4.7110004 -0.88583153 0.069622666 0
4.7100005 -0.8934111 0.069700211 0
4.7090001 -0.90098703 0.069777817 0
4.7080002 -0.90855944 0.069855362 0
4.7060003 -0.91592622 0.070010483 0
4.7050004 -0.92348957 0.070088029 0
4.7300005 -0.77237558 0.060338438 0
4.7290001 -0.78001642 0.060417861 0
4.7280002 -0.78765374 0.060497195 0
4.7260003 -0.79511434 0.060655951 0
4.7250004 -0.80274266 0.060735285 0
4.7240005 -0.81036741 0.060814679 0
4.7230005 -0.81798851 0.060894012 0
4.7210002 -0.82542551 0.061052769 0
4.7200003 -0.83303761 0.061132163 0
4.7190003 -0.84064609 0.061211497 0
4.7180004 -0.84825093 0.06129086 0
4.7160001 -0.85566455 0.061449647 0
4.7150002 -0.86326039 0.061529011 0
4.7140002 -0.87085265 0.061608344 0
4.7130003 -0.87844127 0.061687738 0
4.7110004 -0.88583153 0.061846435 0
4.7100005 -0.8934111 0.061925799 0
4.7090001 -0.90098703 0.062005192 0
4.7080002 -0.90855944 0.062084556 0
4.7060003 -0.91592622 0.062243313 0
4.7050004 -0.92348957 0.062322646 0
4.7300005 -0.77237558 0.052527964 0
4.7290001 -0.78001642 0.052609175 0
4.7280002 -0.78765374 0.052690327 0
4.7260003 -0.79511434 0.05285266 0
4.7250004 -0.80274266 0.052933812 0
4.7240005 -0.81036741 0.053014994 0
4.7230005 -0.81798851 0.053096175 0
4.7210002 -0.82542551 0.053258538 0
4.7200003 -0.83303761 0.05333969 0
4.7190003 -0.84064609 0.053420871 0
4.7180004 -0.84825093 0.053502023 0
4.7160001 -0.85566455 0.053664386 0
4.7150002 -0.86326039 0.053745568 0
4.7140002 -0.87085265 0.05382672 0
4.7130003 -0.87844127 0.053907901 0
4.7110004 -0.88583153 0.054070234 0
4.7100005 -0.8934111 0.054151416 0
4.7090001 -0.90098703 0.054232597 0
4.7080002 -0.90855944 0.054313779 0
4.7060003 -0.91592622 0.054476112 0
4.7050004 -0.92348957 0.054557264 0
