# .PCD v0.7 - Point Cloud Data file format
VERSION 0.7
FIELDS x y z intensity
SIZE 4 4 4 4
TYPE F F F F
COUNT 1 1 1 1
WIDTH 1375
HEIGHT 1
VIEWPOINT 0 0 0 1 0 0 0
POINTS 1375
DATA ascii
4.5480003 -0.58471817 1.0399867 0
4.5420003 -0.59141028 1.0390668 0
4.5370002 -0.59821421 1.0383002 0
4.5450001 -0.61423564 1.0395267 0
4.5800004 -0.64919347 1.044893 0
4.5840001 -0.65731776 1.0455064 0
4.5380001 -0.54609859 1.0309893 0
4.5410004 -0.55393076 1.031444 0
4.5440001 -0.56177372 1.0318984 0
4.5480003 -0.56975377 1.0325046 0
4.5510001 -0.57762015 1.032959 0
4.5480003 -0.58471817 1.0325046 0
4.5420003 -0.59141028 1.0315953 0
4.5370002 -0.59821421 1.0308378 0
4.5450001 -0.61423564 1.0320499 0
4.5800004 -0.64919347 1.0373532 0
4.5840001 -0.65731776 1.0379592 0
4.5380001 -0.54609859 1.0235251 0
4.5410004 -0.55393076 1.0239743 0
4.5440001 -0.56177372 1.0244235 0
4.5480003 -0.56975377 1.0250224 0
4.5510001 -0.57762015 1.0254714 0
4.5480003 -0.58471817 1.0250224 0
4.5420003 -0.59141028 1.024124 0
4.5370002 -0.59821421 1.0233754 0
4.5450001 -0.61423564 1.0245732 0
4.5800004 -0.64919347 1.0298133 0
4.5840001 -0.65731776 1.0304121 0
4.5380001 -0.54609859 1.0160609 0
4.5410004 -0.55393076 1.0165048 0
4.5440001 -0.56177372 1.0169485 0
4.5480003 -0.56975377 1.0175401 0
4.5510001 -0.57762015 1.0179838 0
4.5480003 -0.58471817 1.0175401 0
4.5430002 -0.59154195 1.0168005 0
4.5370002 -0.59821421 1.0159131 0
4.5450001 -0.61423564 1.0170963 0
4.5800004 -0.64919347 1.0222733 0
4.5840001 -0.65731776 1.0228649 0
4.5380001 -0.54609859 1.0085968 0
4.5410004 -0.55393076 1.0090352 0
4.5440001 -0.56177372 1.0094734 0
4.5480003 -0.56975377 1.0100579 0
4.5510001 -0.57762015 1.0104963 0
4.5480003 -0.58471817 1.0100579 0
4.5430002 -0.59154195 1.0093274 0
4.5370002 -0.59821421 1.0084507 0
4.5450001 -0.61423564 1.0096196 0
4.5800004 -0.64919347 1.0147334 0
4.5840001 -0.65731776 1.0153178 0
4.5380001 -0.54609859 1.0011327 0
4.5410004 -0.55393076 1.0015656 0
4.5440001 -0.56177372 1.0019985 0
4.5480003 -0.56975377 1.0025758 0
4.5510001 -0.57762015 1.0030086 0
4.5480003 -0.58471817 1.0025758 0
4.5430002 -0.59154195 1.0018542 0
4.5370002 -0.59821421 1.0009884 0
4.5450001 -0.61423564 1.0021428 0
4.5800004 -0.64919347 1.0071934 0
4.5840001 -0.65731776 1.0077707 0
4.5380001 -0.54609859 0.99366856 0
4.5410004 -0.55393076 0.99409604 0
4.5440001 -0.56177372 0.99452353 0
4.5480003 -0.56975377 0.99509358 0
4.5510001 -0.57762015 0.99552107 0
4.5480003 -0.58471817 0.99509358 0
4.5430002 -0.59154195 0.99438095 0
4.5370002 -0.59821421 0.99352598 0
4.5450001 -0.61423564 0.99466598 0
4.5800004 -0.64919347 0.99965358 0
4.5840001 -0.65731776 1.0002235 0
4.5380001 -0.54609859 0.98620439 0
4.5410004 -0.55393076 0.98662651 0
4.5440001 -0.56177372 0.98704851 0
4.5480003 -0.56975377 0.98761129 0
4.5510001 -0.57762015 0.98803341 0
4.5480003 -0.58471817 0.98761129 0
4.5430002 -0.59154195 0.98690784 0
4.5370002 -0.59821421 0.9860636 0
4.5450001 -0.61423564 0.98718917 0
4.5800004 -0.64919347 0.99211371 0
4.5840001 -0.65731776 0.99267638 0
4.5380001 -0.54609859 0.97874022 0
4.5410004 -0.55393076 0.97915697 0
4.5440001 -0.56177372 0.97957361 0
4.5480003 -0.56975377 0.98012912 0
4.5510001 -0.57762015 0.98054588 0
4.5480003 -0.58471817 0.98012912 0
4.5430002 -0.59154195 0.97943473 0
4.5370002 -0.59821421 0.97860134 0
4.5450001 -0.61423564 0.97971249 0
4.5800004 -0.64919347 0.98457372 0
4.5840001 -0.65731776 0.98512924 0
4.5380001 -0.54609859 0.97127604 0
4.5410004 -0.55393076 0.97168732 0
4.5440001 -0.56177372 0.97209859 0
4.5480003 -0.56975377 0.97264695 0
4.5510001 -0.57762015 0.97305822 0
4.5480003 -0.58471817 0.97264695 0
4.5430002 -0.59154195 0.9719615 0
4.5370002 -0.59821421 0.97113895 0
4.5450001 -0.61423564 0.97223568 0
4.5800004 -0.64919347 0.97703385 0
4.5840001 -0.65731776 0.97758222 0
4.5380001 -0.54609859 0.96381187 0
4.5410004 -0.55393076 0.96421778 0
4.5440001 -0.56177372 0.96462357 0
4.5480003 -0.56975377 0.96516478 0
4.5510001 -0.57762015 0.96557057 0
4.5480003 -0.58471817 0.96516478 0
4.5430002 -0.59154195 0.96448827 0
4.5370002 -0.59821421 0.96367657 0
4.5450001 -0.61423564 0.96475887 0
4.5800004 -0.64919347 0.96949387 0
4.5840001 -0.65731776 0.97003496 0
4.5380001 -0.54609859 0.9563477 0
4.5410004 -0.55393076 0.95674825 0
4.5440001 -0.56177372 0.95714867 0
4.5480003 -0.56975377 0.95768261 0
4.5510001 -0.57762015 0.95808303 0
4.5480003 -0.58471817 0.95768261 0
4.5430002 -0.59154195 0.95701516 0
4.5370002 -0.59821421 0.95621419 0
4.5450001 -0.61423564 0.95728207 0
4.5800004 -0.64919347 0.961954 0
4.5840001 -0.65731776 0.96248782 0
4.5380001 -0.54609859 0.94888353 0
4.5410004 -0.55393076 0.94927859 0
4.5440001 -0.56177372 0.94967365 0
4.5480003 -0.56975377 0.95020032 0
4.5510001 -0.57762015 0.95059538 0
4.5480003 -0.58471817 0.95020032 0
4.5430002 -0.59154195 0.94954193 0
4.5370002 -0.59821421 0.94875193 0
4.5450001 -0.61423564 0.94980526 0
4.5800004 -0.64919347 0.95441401 0
4.5840001 -0.65731776 0.9549408 0
4.5380001 -0.54609859 0.94141936 0
4.5410004 -0.55393076 0.94180906 0
4.5440001 -0.56177372 0.94219863 0
4.5480003 -0.56975377 0.94271815 0
4.5510001 -0.57762015 0.94310772 0
4.5480003 -0.58471817 0.94271815 0
4.5430002 -0.59154195 0.94206882 0
4.5370002 -0.59821421 0.94128954 0
4.5450001 -0.61423564 0.94232857 0
4.5800004 -0.64919347 0.94687414 0
4.5840001 -0.65731776 0.94739354 0
4.5380001 -0.54609859 0.93395519 0
4.5410004 -0.55393076 0.93433952 0
4.5440001 -0.56177372 0.93472362 0
4.5480003 -0.56975377 0.93523598 0
4.5510001 -0.57762015 0.93562019 0
4.5480003 -0.58471817 0.93523598 0
4.5430002 -0.59154195 0.93459558 0
4.5370002 -0.59821421 0.93382716 0
4.5450001 -0.61423564 0.93485177 0
4.5800004 -0.64919347 0.93933427 0
4.5840001 -0.65731776 0.93984652 0
4.5380001 -0.54609859 0.92649114 0
4.5410004 -0.55393076 0.92686987 0
4.5440001 -0.56177372 0.92724872 0
4.5480003 -0.56975377 0.92775381 0
4.5510001 -0.57762015 0.92813253 0
4.5480003 -0.58471817 0.92775381 0
4.5430002 -0.59154195 0.92712247 0
4.5370002 -0.59821421 0.92636478 0
4.5450001 -0.61423564 0.92737496 0
4.5800004 -0.64919347 0.93179429 0
4.5840001 -0.65731776 0.93229938 0
4.5380001 -0.54609859 0.91902697 0
4.5410004 -0.55393076 0.91940033 0
4.5440001 -0.56177372 0.9197737 0
4.5480003 -0.56975377 0.92027152 0
4.5510001 -0.57762015 0.920645 0
4.5480003 -0.58471817 0.92027152 0
4.5430002 -0.59154195 0.91964924 0
4.5370002 -0.59821421 0.91890252 0
4.5450001 -0.61423564 0.91989815 0
4.5800004 -0.64919347 0.92425442 0
4.5840001 -0.65731776 0.92475224 0
4.5380001 -0.54609859 0.9115628 0
4.5410004 -0.55393076 0.9119308 0
4.5440001 -0.56177372 0.91229868 0
4.5480003 -0.56975377 0.91278934 0
4.5510001 -0.57762015 0.91315734 0
4.5480003 -0.58471817 0.91278934 0
4.5430002 -0.59154195 0.91217601 0
4.5370002 -0.59821421 0.91144013 0
4.5450001 -0.61423564 0.91242135 0
4.5800004 -0.64919347 0.91671443 0
4.5840001 -0.65731776 0.9172051 0
4.5380001 -0.54609859 0.90409863 0
4.5410004 -0.55393076 0.90446126 0
4.5440001 -0.56177372 0.90482378 0
4.5480003 -0.56975377 0.90530717 0
4.5510001 -0.57762015 0.90566969 0
4.5480003 -0.58471817 0.90530717 0
4.5430002 -0.59154195 0.9047029 0
4.5370002 -0.59821421 0.90397775 0
4.5450001 -0.61423564 0.90494454 0
4.5800004 -0.64919347 0.90917456 0
4.5840001 -0.65731776 0.90965796 0
4.5380001 -0.54609859 0.89663446 0
4.5410004 -0.55393076 0.89699167 0
4.5440001 -0.56177372 0.89734876 0
4.5480003 -0.56975377 0.897825 0
4.5510001 -0.57762015 0.89818215 0
4.5480003 -0.58471817 0.897825 0
4.5430002 -0.59154195 0.89722973 0
4.5370002 -0.59821421 0.89651537 0
4.5450001 -0.61423564 0.89746785 0
4.5800004 -0.64919347 0.90163457 0
4.5840001 -0.65731776 0.90211082 0
4.5380001 -0.54609859 0.88917029 0
4.5410004 -0.55393076 0.88952208 0
4.5440001 -0.56177372 0.8898738 0
4.5480003 -0.56975377 0.89034283 0
4.5510001 -0.57762015 0.8906945 0
4.5480003 -0.58471817 0.89034283 0
4.5430002 -0.59154195 0.88975656 0
4.5370002 -0.59821421 0.88905305 0
4.5450001 -0.61423564 0.88999104 0
4.5800004 -0.64919347 0.89409471 0
4.5840001 -0.65731776 0.89456367 0
4.5380001 -0.54609859 0.88170612 0
4.5410004 -0.55393076 0.88205248 0
4.5440001 -0.56177372 0.88239884 0
4.5480003 -0.56975377 0.8828606 0
4.5510001 -0.57762015 0.8832069 0
4.5480003 -0.58471817 0.8828606 0
4.5430002 -0.59154195 0.88228333 0
4.5370002 -0.59821421 0.88159072 0
4.5450001 -0.61423564 0.88251424 0
4.5800004 -0.64919347 0.88655484 0
4.5840001 -0.65731776 0.88701653 0
4.5380001 -0.54609859 0.87424195 0
4.5410004 -0.55393076 0.87458295 0
4.5440001 -0.56177372 0.87492383 0
4.5480003 -0.56975377 0.87537837 0
4.5510001 -0.57762015 0.87571931 0
4.5480003 -0.58471817 0.87537837 0
4.5430002 -0.59154195 0.87481022 0
4.5370002 -0.59821421 0.87412834 0
4.5450001 -0.61423564 0.87503743 0
4.5800004 -0.64919347 0.87901491 0
4.5840001 -0.65731776 0.87946939 0
4.5380001 -0.54609859 0.86677778 0
4.5410004 -0.55393076 0.86711335 0
4.5440001 -0.56177372 0.86744881 0
4.5480003 -0.56975377 0.8678962 0
4.5510001 -0.57762015 0.86823165 0
4.5480003 -0.58471817 0.8678962 0
4.5430002 -0.59154195 0.86733699 0
4.5370002 -0.59821421 0.86666602 0
4.5450001 -0.61423564 0.86756063 0
4.5800004 -0.64919347 0.87147498 0
4.5840001 -0.65731776 0.87192225 0
4.5380001 -0.54609859 0.85931367 0
4.5410004 -0.55393076 0.85964382 0
4.5440001 -0.56177372 0.85997385 0
4.5480003 -0.56975377 0.86041403 0
4.5510001 -0.57762015 0.86074412 0
4.5480003 -0.58471817 0.86041403 0
4.5430002 -0.59154195 0.85986388 0
4.5370002 -0.59821421 0.85920364 0
4.5450001 -0.61423564 0.86008388 0
4.5800004 -0.64919347 0.86393499 0
4.5840001 -0.65731776 0.86437511 0
4.5380001 -0.54609859 0.8518495 0
4.5410004 -0.55393076 0.85217422 0
4.5440001 -0.56177372 0.85249889 0
4.5480003 -0.56975377 0.85293186 0
4.5510001 -0.57762015 0.85325646 0
4.5480003 -0.58471817 0.85293186 0
4.5430002 -0.59154195 0.85239065 0
4.5370002 -0.59821421 0.85174131 0
4.5450001 -0.61423564 0.85260713 0
4.5800004 -0.64919347 0.85639513 0
4.5840001 -0.65731776 0.85682803 0
4.5380001 -0.54609859 0.84438533 0
4.5410004 -0.55393076 0.84470463 0
4.5440001 -0.56177372 0.84502387 0
4.5480003 -0.56975377 0.84544957 0
4.5510001 -0.57762015 0.84576887 0
4.5480003 -0.58471817 0.84544957 0
4.5430002 -0.59154195 0.84491748 0
4.5370002 -0.59821421 0.84427893 0
4.5450001 -0.61423564 0.84513032 0
4.5800004 -0.64919347 0.84885526 0
4.5840001 -0.65731776 0.84928089 0
4.5380001 -0.54609859 0.83692122 0
4.5410004 -0.55393076 0.83723509 0
4.5440001 -0.56177372 0.83754891 0
4.5480003 -0.56975377 0.8379674 0
4.5510001 -0.57762015 0.83828127 0
4.5480003 -0.58471817 0.8379674 0
4.5430002 -0.59154195 0.83744431 0
4.5370002 -0.59821421 0.83681655 0
4.5450001 -0.61423564 0.83765352 0
4.5800004 -0.64919347 0.84131527 0
4.5840001 -0.65731776 0.84173375 0
4.5380001 -0.54609859 0.82945704 0
4.5410004 -0.55393076 0.8297655 0
4.5440001 -0.56177372 0.83007395 0
4.5480003 -0.56975377 0.83048522 0
4.5510001 -0.57762015 0.83079362 0
4.5480003 -0.58471817 0.83048522 0
4.5430002 -0.59154195 0.82997108 0
4.5370002 -0.59821421 0.82935423 0
4.5450001 -0.61423564 0.83017671 0
4.5800004 -0.64919347 0.8337754 0
4.5840001 -0.65731776 0.83418661 0
4.5380001 -0.54609859 0.82199287 0
4.5410004 -0.55393076 0.8222959 0
4.5440001 -0.56177372 0.82259893 0
4.5480003 -0.56975377 0.82300305 0
4.5510001 -0.57762015 0.82330602 0
4.5480003 -0.58471817 0.82300305 0
4.5430002 -0.59154195 0.82249796 0
4.5370002 -0.59821421 0.82189184 0
4.5330005 -0.6051355 0.82148784 0
4.5450001 -0.61423564 0.82269996 0
4.5800004 -0.64919347 0.82623541 0
4.5840001 -0.65731776 0.82663947 0
4.5380001 -0.54609859 0.8145287 0
4.5410004 -0.55393076 0.81482637 0
4.5440001 -0.56177372 0.81512398 0
4.5480003 -0.56975377 0.81552082 0
4.5510001 -0.57762015 0.81581843 0
4.5480003 -0.58471817 0.81552082 0
4.5430002 -0.59154195 0.81502473 0
4.5370002 -0.59821421 0.81442952 0
4.5330005 -0.6051355 0.81403267 0
4.5450001 -0.61423564 0.81522322 0
4.5800004 -0.64919347 0.81869555 0
4.5840001 -0.65731776 0.81909233 0
4.5380001 -0.54609859 0.80706453 0
4.5410004 -0.55393076 0.80735683 0
4.5440001 -0.56177372 0.80764902 0
4.5480003 -0.56975377 0.80803865 0
4.5510001 -0.57762015 0.80833083 0
4.5480003 -0.58471817 0.80803865 0
4.5430002 -0.59154195 0.80755162 0
4.5370002 -0.59821421 0.80696714 0
4.5330005 -0.6051355 0.80657756 0
4.5450001 -0.61423564 0.80774641 0
4.5800004 -0.64919347 0.81115562 0
4.5840001 -0.65731776 0.81154525 0
4.5380001 -0.54609859 0.79960036 0
4.5410004 -0.55393076 0.79988718 0
4.5440001 -0.56177372 0.800174 0
4.5480003 -0.56975377 0.80055642 0
4.5510001 -0.57762015 0.80084324 0
4.5480003 -0.58471817 0.80055642 0
4.5430002 -0.59154195 0.80007839 0
4.5370002 -0.59821421 0.79950476 0
4.5330005 -0.6051355 0.79912245 0
4.5450001 -0.61423564 0.8002696 0
4.5800004 -0.64919347 0.80361569 0
4.5840001 -0.65731776 0.80399811 0
4.5380001 -0.54609859 0.79213619 0
4.5410004 -0.55393076 0.79241765 0
4.5440001 -0.56177372 0.79269904 0
4.5480003 -0.56975377 0.79307425 0
4.5510001 -0.57762015 0.79335558 0
4.5480003 -0.58471817 0.79307425 0
4.5430002 -0.59154195 0.79260522 0
4.5370002 -0.59821421 0.79204249 0
4.5330005 -0.6051355 0.79166728 0
4.5450001 -0.61423564 0.7927928 0
4.5800004 -0.64919347 0.79607582 0
4.5840001 -0.65731776 0.79645097 0
4.5380001 -0.54609859 0.78467208 0
4.5410004 -0.55393076 0.78494811 0
4.5440001 -0.56177372 0.78522408 0
4.5480003 -0.56975377 0.78559208 0
4.5510001 -0.57762015 0.78586805 0
4.5480003 -0.58471817 0.78559208 0
4.5430002 -0.59154195 0.78513205 0
4.5370002 -0.59821421 0.78458011 0
4.5330005 -0.6051355 0.78421211 0
4.5450001 -0.61423564 0.78531605 0
4.5800004 -0.64919347 0.78853583 0
4.5840001 -0.65731776 0.78890383 0
4.5380001 -0.54609859 0.77720791 0
4.5410004 -0.55393076 0.77747852 0
4.5440001 -0.56177372 0.77774906 0
4.5480003 -0.56975377 0.77810985 0
4.5510001 -0.57762015 0.77838039 0
4.5480003 -0.58471817 0.77810985 0
4.5430002 -0.59154195 0.77765888 0
4.5370002 -0.59821421 0.77711773 0
4.5330005 -0.6051355 0.776757 0
4.5450001 -0.61423564 0.77783924 0
4.5800004 -0.64919347 0.78099597 0
4.5840001 -0.65731776 0.78135669 0
4.5380001 -0.54609859 0.76974374 0
4.5410004 -0.55393076 0.77000892 0
4.5440001 -0.56177372 0.77027404 0
4.5480003 -0.56975377 0.77062762 0
4.5510001 -0.57762015 0.7708928 0
4.5480003 -0.58471817 0.77062762 0
4.5430002 -0.59154195 0.77018571 0
4.5370002 -0.59821421 0.76965535 0
4.5330005 -0.6051355 0.76930189 0
4.5450001 -0.61423564 0.7703625 0
4.5800004 -0.64919347 0.77345598 0
4.5840001 -0.65731776 0.77380955 0
4.5380001 -0.54609859 0.76227963 0
4.5410004 -0.55393076 0.76253939 0
4.5440001 -0.56177372 0.76279914 0
4.5480003 -0.56975377 0.76314545 0
4.5510001 -0.57762015 0.7634052 0
4.5480003 -0.58471817 0.76314545 0
4.5430002 -0.59154195 0.76271254 0
4.5370002 -0.59821421 0.76219302 0
4.5330005 -0.6051355 0.76184672 0
4.5450001 -0.61423564 0.76288569 0
4.5800004 -0.64919347 0.76591611 0
4.5840001 -0.65731776 0.76626241 0
4.5380001 -0.54609859 0.75481546 0
4.5410004 -0.55393076 0.75506985 0
4.5440001 -0.56177372 0.75532413 0
4.5480003 -0.56975377 0.75566328 0
4.5510001 -0.57762015 0.75591755 0
4.5480003 -0.58471817 0.75566328 0
4.5430002 -0.59154195 0.75523937 0
4.5370002 -0.59821421 0.7547307 0
4.5330005 -0.6051355 0.75439155 0
4.5450001 -0.61423564 0.75540888 0
4.5800004 -0.64919347 0.75837624 0
4.5840001 -0.65731776 0.75871527 0
4.5380001 -0.54609859 0.74735129 0
4.5410004 -0.55393076 0.7476002 0
4.5440001 -0.56177372 0.74784917 0
4.5480003 -0.56975377 0.7481811 0
4.5510001 -0.57762015 0.74842995 0
4.5480003 -0.58471817 0.7481811 0
4.5430002 -0.59154195 0.74776614 0
4.5370002 -0.59821421 0.74726832 0
4.5330005 -0.6051355 0.74693644 0
4.5450001 -0.61423564 0.74793208 0
4.5800004 -0.64919347 0.75083625 0
4.5840001 -0.65731776 0.75116813 0
4.5380001 -0.54609859 0.73988712 0
4.5410004 -0.55393076 0.74013066 0
4.5440001 -0.56177372 0.74037415 0
4.5480003 -0.56975377 0.74069881 0
4.5510001 -0.57762015 0.74094236 0
4.5480003 -0.58471817 0.74069881 0
4.5430002 -0.59154195 0.74029303 0
4.5370002 -0.59821421 0.73980594 0
4.5330005 -0.6051355 0.73948133 0
4.5450001 -0.61423564 0.74045533 0
4.5800004 -0.64919347 0.74329633 0
4.5840001 -0.65731776 0.74362099 0
4.5380001 -0.54609859 0.73242295 0
4.5410004 -0.55393076 0.73266113 0
4.5440001 -0.56177372 0.73289919 0
4.5480003 -0.56975377 0.73321664 0
4.5510001 -0.57762015 0.7334547 0
4.5480003 -0.58471817 0.73321664 0
4.5430002 -0.59154195 0.7328198 0
4.5370002 -0.59821421 0.73234361 0
4.5330005 -0.6051355 0.73202616 0
4.5450001 -0.61423564 0.73297858 0
4.5800004 -0.64919347 0.7357564 0
4.5840001 -0.65731776 0.73607385 0
4.5380001 -0.54609859 0.72495884 0
4.5410004 -0.55393076 0.72519153 0
4.5440001 -0.56177372 0.72542417 0
4.5480003 -0.56975377 0.72573447 0
4.5510001 -0.57762015 0.72596717 0
4.5480003 -0.58471817 0.72573447 0
4.5430002 -0.59154195 0.72534662 0
4.5370002 -0.59821421 0.72488129 0
4.5330005 -0.6051355 0.72457099 0
4.5450001 -0.61423564 0.72550178 0
4.5800004 -0.64919347 0.72821653 0
4.5840001 -0.65731776 0.72852671 0
4.5380001 -0.54609859 0.71749467 0
4.5410004 -0.55393076 0.71772194 0
4.5440001 -0.56177372 0.71794921 0
4.5480003 -0.56975377 0.7182523 0
4.5510001 -0.57762015 0.71847951 0
4.5480003 -0.58471817 0.7182523 0
4.5430002 -0.59154195 0.71787345 0
4.5370002 -0.59821421 0.71741891 0
4.5330005 -0.6051355 0.71711588 0
4.5450001 -0.61423564 0.71802497 0
4.5800004 -0.64919347 0.7206766 0
4.5840001 -0.65731776 0.72097957 0
4.5380001 -0.54609859 0.7100305 0
4.5410004 -0.55393076 0.7102524 0
4.5440001 -0.56177372 0.71047425 0
4.5480003 -0.56975377 0.71077007 0
4.5510001 -0.57762015 0.71099192 0
4.5480003 -0.58471817 0.71077007 0
4.5430002 -0.59154195 0.71040028 0
4.5370002 -0.59821421 0.70995653 0
4.5330005 -0.6051355 0.70966077 0
4.5450001 -0.61423564 0.71054816 0
4.5800004 -0.64919347 0.71313667 0
4.5840001 -0.65731776 0.71343249 0
4.5380001 -0.54609859 0.70256639 0
4.5410004 -0.55393076 0.70278281 0
4.5440001 -0.56177372 0.70299923 0
4.5480003 -0.56975377 0.7032879 0
4.5510001 -0.57762015 0.70350432 0
4.5480003 -0.58471817 0.7032879 0
4.5430002 -0.59154195 0.70292711 0
4.5370002 -0.59821421 0.7024942 0
4.5330005 -0.6051355 0.7022056 0
4.5450001 -0.61423564 0.70307142 0
4.5800004 -0.64919347 0.70559675 0
4.5840001 -0.65731776 0.70588535 0
4.5380001 -0.54609859 0.69510221 0
4.5410004 -0.55393076 0.69531322 0
4.5440001 -0.56177372 0.69552428 0
4.5480003 -0.56975377 0.69580567 0
4.5510001 -0.57762015 0.69601673 0
4.5480003 -0.58471817 0.69580567 0
4.5430002 -0.59154195 0.69545394 0
4.5370002 -0.59821421 0.69503182 0
4.5330005 -0.6051355 0.69475043 0
4.5450001 -0.61423564 0.69559461 0
4.5800004 -0.64919347 0.69805682 0
4.5840001 -0.65731776 0.69833821 0
4.5380001 -0.54609859 0.68763804 0
4.5410004 -0.55393076 0.68784368 0
4.5440001 -0.56177372 0.68804932 0
4.5480003 -0.56975377 0.6883235 0
4.5510001 -0.57762015 0.68852913 0
4.5480003 -0.58471817 0.6883235 0
4.5430002 -0.59154195 0.68798077 0
4.5370002 -0.59821421 0.6875695 0
4.5330005 -0.6051355 0.68729532 0
4.5450001 -0.61423564 0.68811786 0
4.5800004 -0.64919347 0.69051695 0
4.5840001 -0.65731776 0.69079113 0
4.5380001 -0.54609859 0.68017387 0
4.5410004 -0.55393076 0.68037415 0
4.5440001 -0.56177372 0.6805743 0
4.5480003 -0.56975377 0.68084133 0
4.5510001 -0.57762015 0.68104148 0
4.5480003 -0.58471817 0.68084133 0
4.5430002 -0.59154195 0.68050754 0
4.5370002 -0.59821421 0.68010712 0
4.5330005 -0.6051355 0.67984021 0
4.5450001 -0.61423564 0.68064106 0
4.5800004 -0.64919347 0.68297696 0
4.5840001 -0.65731776 0.68324393 0
4.5380001 -0.54609859 0.6727097 0
4.5410004 -0.55393076 0.67290449 0
4.5440001 -0.56177372 0.67309934 0
4.5480003 -0.56975377 0.6733591 0
4.5510001 -0.57762015 0.67355388 0
4.5480003 -0.58471817 0.6733591 0
4.5430002 -0.59154195 0.67303443 0
4.5370002 -0.59821421 0.67264479 0
4.5330005 -0.6051355 0.67238504 0
4.5450001 -0.61423564 0.67316425 0
4.5800004 -0.64919347 0.67543709 0
4.5840001 -0.65731776 0.67569679 0
4.5380001 -0.54609859 0.66524553 0
4.5410004 -0.55393076 0.66543496 0
4.5440001 -0.56177372 0.66562438 0
4.5480003 -0.56975377 0.66587687 0
4.5510001 -0.57762015 0.66606629 0
4.5480003 -0.58471817 0.66587687 0
4.5430002 -0.59154195 0.6655612 0
4.5370002 -0.59821421 0.66518241 0
4.5330005 -0.6051355 0.66492987 0
4.5450001 -0.61423564 0.66568744 0
4.5800004 -0.64919347 0.66789716 0
4.5840001 -0.65731776 0.66814971 0
4.5380001 -0.54609859 0.65778136 0
4.5410004 -0.55393076 0.65796542 0
4.5440001 -0.56177372 0.65814936 0
4.5480003 -0.56975377 0.65839469 0
4.5510001 -0.57762015 0.65857863 0
4.5480003 -0.58471817 0.65839469 0
4.5430002 -0.59154195 0.65808803 0
4.5370002 -0.59821421 0.65772009 0
4.5330005 -0.6051355 0.65747476 0
4.5450001 -0.61423564 0.65821069 0
4.5800004 -0.64919347 0.66035724 0
4.5840001 -0.65731776 0.66060257 0
4.5380001 -0.54609859 0.65031725 0
4.5410004 -0.55393076 0.65049583 0
4.5440001 -0.56177372 0.6506744 0
4.5480003 -0.56975377 0.65091252 0
4.5510001 -0.57762015 0.6510911 0
4.5480003 -0.58471817 0.65091252 0
4.5430002 -0.59154195 0.65061486 0
4.5370002 -0.59821421 0.65025771 0
4.5330005 -0.6051355 0.65001965 0
4.5450001 -0.61423564 0.65073395 0
4.5800004 -0.64919347 0.65281731 0
4.5840001 -0.65731776 0.65305543 0
4.5380001 -0.54609859 0.64285308 0
4.5410004 -0.55393076 0.64302623 0
4.5440001 -0.56177372 0.64319944 0
4.5480003 -0.56975377 0.64343029 0
4.5510001 -0.57762015 0.64360344 0
4.5480003 -0.58471817 0.64343029 0
4.5430002 -0.59154195 0.64314169 0
4.5370002 -0.59821421 0.64279532 0
4.5330005 -0.6051355 0.64256448 0
4.5450001 -0.61423564 0.64325714 0
4.5800004 -0.64919347 0.64527738 0
4.5840001 -0.65731776 0.64550829 0
4.5380001 -0.54609859 0.63538891 0
4.5410004 -0.55393076 0.6355567 0
4.5440001 -0.56177372 0.63572443 0
4.5480003 -0.56975377 0.63594812 0
4.5510001 -0.57762015 0.63611585 0
4.5480003 -0.58471817 0.63594812 0
4.5430002 -0.59154195 0.63566852 0
4.5370002 -0.59821421 0.635333 0
4.5330005 -0.6051355 0.63510936 0
4.5450001 -0.61423564 0.63578033 0
4.5800004 -0.64919347 0.63773751 0
4.5840001 -0.65731776 0.63796115 0
4.5380001 -0.54609859 0.62792474 0
4.5410004 -0.55393076 0.6280871 0
4.5440001 -0.56177372 0.62824941 0
4.5480003 -0.56975377 0.62846589 0
4.5510001 -0.57762015 0.62862825 0
4.5480003 -0.58471817 0.62846589 0
4.5430002 -0.59154195 0.62819535 0
4.5370002 -0.59821421 0.62787068 0
4.5330005 -0.6051355 0.62765419 0
4.5450001 -0.61423564 0.62830353 0
4.5800004 -0.64919347 0.63019758 0
4.5840001 -0.65731776 0.63041401 0
4.5380001 -0.54609859 0.62046063 0
4.5410004 -0.55393076 0.62061751 0
4.5440001 -0.56177372 0.62077445 0
4.5480003 -0.56975377 0.62098372 0
4.5510001 -0.57762015 0.6211406 0
4.5480003 -0.58471817 0.62098372 0
4.5430002 -0.59154195 0.62072217 0
4.5370002 -0.59821421 0.6204083 0
4.5330005 -0.6051355 0.62019908 0
4.5450001 -0.61423564 0.62082678 0
4.5800004 -0.64919347 0.62265766 0
4.5840001 -0.65731776 0.62286687 0
4.5380001 -0.54609859 0.61299646 0
4.5410004 -0.55393076 0.61314797 0
4.5440001 -0.56177372 0.61329949 0
4.5480003 -0.56975377 0.61350155 0
4.5510001 -0.57762015 0.613653 0
4.5480003 -0.58471817 0.61350155 0
4.5430002 -0.59154195 0.613249 0
4.5370002 -0.59821421 0.61294591 0
4.5330005 -0.6051355 0.61274391 0
4.5450001 -0.61423564 0.61334997 0
4.5800004 -0.64919347 0.61511773 0
4.5840001 -0.65731776 0.61531973 0
4.5380001 -0.54609859 0.60553229 0
4.5410004 -0.55393076 0.60567844 0
4.5440001 -0.56177372 0.60582447 0
4.5480003 -0.56975377 0.60601932 0
4.5510001 -0.57762015 0.60616541 0
4.5480003 -0.58471817 0.60601932 0
4.5430002 -0.59154195 0.60577583 0
4.5370002 -0.59821421 0.60548359 0
4.5330005 -0.6051355 0.6052888 0
4.5450001 -0.61423564 0.60587323 0
4.5800004 -0.64919347 0.6075778 0
4.5840001 -0.65731776 0.60777259 0
4.5380001 -0.54609859 0.59806812 0
4.5410004 -0.55393076 0.59820884 0
4.5440001 -0.56177372 0.59834951 0
4.5480003 -0.56975377 0.59853715 0
4.5510001 -0.57762015 0.59867781 0
4.5480003 -0.58471817 0.59853715 0
4.5430002 -0.59154195 0.5983026 0
4.5370002 -0.59821421 0.59802127 0
4.5330005 -0.6051355 0.59783363 0
4.5450001 -0.61423564 0.59839642 0
4.5800004 -0.64919347 0.60003793 0
4.5840001 -0.65731776 0.60022545 0
4.5380001 -0.54609859 0.59060395 0
4.5410004 -0.55393076 0.59073925 0
4.5440001 -0.56177372 0.59087455 0
4.5480003 -0.56975377 0.59105492 0
4.5510001 -0.57762015 0.59119022 0
4.5480003 -0.58471817 0.59105492 0
4.5430002 -0.59154195 0.59082943 0
4.5370002 -0.59821421 0.59055889 0
4.5330005 -0.6051355 0.59037852 0
4.5450001 -0.61423564 0.59091961 0
4.5800004 -0.64919347 0.59249794 0
4.5840001 -0.65731776 0.59267831 0
4.5380001 -0.54609859 0.58313978 0
4.5410004 -0.55393076 0.58326972 0
4.5440001 -0.56177372 0.58339953 0
4.5480003 -0.56975377 0.58357275 0
4.5510001 -0.57762015 0.58370256 0
4.5480003 -0.58471817 0.58357275 0
4.5430002 -0.59154195 0.58335626 0
4.5370002 -0.59821421 0.5830965 0
4.5330005 -0.6051355 0.58292335 0
4.5450001 -0.61423564 0.58344281 0
4.5800004 -0.64919347 0.58495808 0
4.5840001 -0.65731776 0.58513123 0
4.5380001 -0.54609859 0.57567567 0
4.5410004 -0.55393076 0.57580012 0
4.5440001 -0.56177372 0.57592458 0
4.5480003 -0.56975377 0.57609057 0
4.5510001 -0.57762015 0.57621497 0
4.5480003 -0.58471817 0.57609057 0
4.5430002 -0.59154195 0.57588309 0
4.5370002 -0.59821421 0.57563418 0
4.5330005 -0.6051355 0.57546824 0
4.5450001 -0.61423564 0.57596606 0
4.5800004 -0.64919347 0.57741815 0
4.5840001 -0.65731776 0.57758409 0
4.5380001 -0.54609859 0.5682115 0
4.5410004 -0.55393076 0.56833053 0
4.5440001 -0.56177372 0.56844962 0
4.5480003 -0.56975377 0.56860834 0
4.5510001 -0.57762015 0.56872737 0
4.5480003 -0.58471817 0.56860834 0
4.5430002 -0.59154195 0.56840992 0
4.5370002 -0.59821421 0.5681718 0
4.5330005 -0.6051355 0.56801307 0
4.5450001 -0.61423564 0.56848931 0
4.5800004 -0.64919347 0.56987822 0
4.5840001 -0.65731776 0.57003695 0
4.5380001 -0.54609859 0.56074733 0
4.5410004 -0.55393076 0.56086099 0
4.5440001 -0.56177372 0.5609746 0
4.5480003 -0.56975377 0.56112611 0
4.5510001 -0.57762015 0.56123978 0
4.5480003 -0.58471817 0.56112611 0
4.5430002 -0.59154195 0.56093675 0
4.5370002 -0.59821421 0.56070948 0
4.5330005 -0.6051355 0.56055796 0
4.5450001 -0.61423564 0.56101251 0
4.5800004 -0.64919347 0.56233829 0
4.5840001 -0.65731776 0.56248981 0
4.5380001 -0.54609859 0.55328321 0
4.5410004 -0.55393076 0.5533914 0
4.5440001 -0.56177372 0.55349964 0
4.5480003 -0.56975377 0.55364394 0
4.5510001 -0.57762015 0.55375218 0
4.5480003 -0.58471817 0.55364394 0
4.5430002 -0.59154195 0.55346358 0
4.5370002 -0.59821421 0.55324709 0
4.5330005 -0.6051355 0.55310279 0
4.5450001 -0.61423564 0.5535357 0
4.5800004 -0.64919347 0.55479836 0
4.5840001 -0.65731776 0.55494267 0
4.5380001 -0.54609859 0.54581904 0
4.5410004 -0.55393076 0.54592186 0
4.5440001 -0.56177372 0.54602468 0
4.5480003 -0.56975377 0.54616177 0
4.5510001 -0.57762015 0.54626453 0
4.5480003 -0.58471817 0.54616177 0
4.5430002 -0.59154195 0.54599041 0
4.5370002 -0.59821421 0.54578477 0
4.5330005 -0.6051355 0.54564768 0
4.5450001 -0.61423564 0.54605889 0
4.5800004 -0.64919347 0.5472585 0
4.5840001 -0.65731776 0.54739559 0
4.5380001 -0.54609859 0.53835487 0
4.5410004 -0.55393076 0.53845227 0
4.5440001 -0.56177372 0.53854966 0
4.5480003 -0.56975377 0.53867954 0
4.5510001 -0.57762015 0.53877693 0
4.5480003 -0.58471817 0.53867954 0
4.5430002 -0.59154195 0.53851724 0
4.5370002 -0.59821421 0.53832239 0
4.5330005 -0.6051355 0.53819251 0
4.5450001 -0.61423564 0.53858215 0
4.5800004 -0.64919347 0.53971857 0
4.5840001 -0.65731776 0.53984839 0
4.5380001 -0.54609859 0.5308907 0
4.5410004 -0.55393076 0.53098273 0
4.5440001 -0.56177372 0.5310747 0
4.5480003 -0.56975377 0.53119737 0
4.5510001 -0.57762015 0.53128934 0
4.5480003 -0.58471817 0.53119737 0
4.5430002 -0.59154195 0.53104401 0
4.5370002 -0.59821421 0.53086007 0
4.5330005 -0.6051355 0.5307374 0
4.5440001 -0.61409855 0.5310747 0
4.5800004 -0.64919347 0.53217864 0
4.5840001 -0.65731776 0.53230131 0
4.5380001 -0.54609859 0.52342653 0
4.5410004 -0.55393076 0.52351314 0
4.5440001 -0.56177372 0.52359974 0
4.5480003 -0.56975377 0.52371514 0
4.5510001 -0.57762015 0.52380174 0
4.5480003 -0.58471817 0.52371514 0
4.5430002 -0.59154195 0.52357084 0
4.5370002 -0.59821421 0.52339768 0
4.5330005 -0.6051355 0.52328223 0
4.5440001 -0.61409855 0.52359974 0
4.5800004 -0.64919347 0.52463871 0
4.5840001 -0.65731776 0.52475417 0
4.5380001 -0.54609859 0.51596236 0
4.5410004 -0.55393076 0.51604354 0
4.5440001 -0.56177372 0.51612473 0
4.5480003 -0.56975377 0.51623297 0
4.5510001 -0.57762015 0.51631415 0
4.5480003 -0.58471817 0.51623297 0
4.5430002 -0.59154195 0.51609766 0
4.5370002 -0.59821421 0.5159353 0
4.5330005 -0.6051355 0.51582712 0
4.5440001 -0.61409855 0.51612473 0
4.5800004 -0.64919347 0.51709878 0
4.5840001 -0.65731776 0.51720703 0
4.5380001 -0.54609859 0.50849825 0
4.5410004 -0.55393076 0.50857401 0
4.5440001 -0.56177372 0.50864977 0
4.5480003 -0.56975377 0.5087508 0
4.5510001 -0.57762015 0.50882649 0
4.5480003 -0.58471817 0.5087508 0
4.5430002 -0.59154195 0.50862449 0
4.5370002 -0.59821421 0.50847298 0
4.5330005 -0.6051355 0.50837195 0
4.5440001 -0.61409855 0.50864977 0
4.5800004 -0.64919347 0.50955886 0
4.5840001 -0.65731776 0.50965989 0
4.5380001 -0.54609859 0.50103408 0
4.5410004 -0.55393076 0.50110441 0
4.5440001 -0.56177372 0.50117475 0
4.5480003 -0.56975377 0.50126857 0
4.5510001 -0.57762015 0.5013389 0
4.5480003 -0.58471817 0.50126857 0
4.5430002 -0.59154195 0.50115132 0
4.5370002 -0.59821421 0.50101066 0
4.5330005 -0.6051355 0.50091684 0
4.5440001 -0.61409855 0.50117475 0
4.5800004 -0.64919347 0.50201893 0
4.5840001 -0.65731776 0.50211275 0
4.5380001 -0.54609859 0.49356991 0
4.5410004 -0.55393076 0.49363485 0
4.5440001 -0.56177372 0.49369979 0
4.5480003 -0.56975377 0.49378636 0
4.5510001 -0.57762015 0.4938513 0
4.5480003 -0.58471817 0.49378636 0
4.5430002 -0.59154195 0.49367815 0
4.5370002 -0.59821421 0.49354827 0
4.5330005 -0.6051355 0.4934617 0
4.5440001 -0.61409855 0.49369979 0
4.5800004 -0.64919347 0.49447903 0
4.5840001 -0.65731776 0.49456561 0
4.5380001 -0.54609859 0.48610574 0
4.5410004 -0.55393076 0.48616529 0
4.5440001 -0.56177372 0.4862248 0
4.5480003 -0.56975377 0.48630416 0
4.5510001 -0.57762015 0.48636371 0
4.5480003 -0.58471817 0.48630416 0
4.5430002 -0.59154195 0.48620498 0
4.5370002 -0.59821421 0.48608592 0
4.5330005 -0.6051355 0.48600656 0
4.5440001 -0.61409855 0.4862248 0
4.5800004 -0.64919347 0.48693913 0
4.5840001 -0.65731776 0.48701847 0
4.5380001 -0.54609859 0.4786416 0
4.5410004 -0.55393076 0.47869572 0
4.5440001 -0.56177372 0.47874981 0
4.5480003 -0.56975377 0.47882199 0
4.5510001 -0.57762015 0.47887608 0
4.5480003 -0.58471817 0.47882199 0
4.5430002 -0.59154195 0.47873178 0
4.5370002 -0.59821421 0.47862357 0
4.5330005 -0.6051355 0.47855142 0
4.5440001 -0.61409855 0.47874981 0
4.5800004 -0.64919347 0.4793992 0
4.5840001 -0.65731776 0.47947136 0
4.5380001 -0.54609859 0.47117743 0
4.5410004 -0.55393076 0.47122616 0
4.5440001 -0.56177372 0.47127485 0
4.5480003 -0.56975377 0.47133979 0
4.5510001 -0.57762015 0.47138849 0
4.5480003 -0.58471817 0.47133979 0
4.5430002 -0.59154195 0.47125861 0
4.5370002 -0.59821421 0.47116122 0
4.5330005 -0.6051355 0.47109628 0
4.5440001 -0.61409855 0.47127485 0
4.5800004 -0.64919347 0.47185928 0
4.5840001 -0.65731776 0.47192422 0
4.5380001 -0.54609859 0.46371329 0
4.5410004 -0.55393076 0.46375656 0
4.5440001 -0.56177372 0.46379986 0
4.5480003 -0.56975377 0.46385759 0
4.5510001 -0.57762015 0.46390086 0
4.5480003 -0.58471817 0.46385759 0
4.5430002 -0.59154195 0.46378544 0
4.5370002 -0.59821421 0.46369886 0
4.5330005 -0.6051355 0.46364114 0
4.5440001 -0.61409855 0.46379986 0
4.5800004 -0.64919347 0.46431935 0
4.5840001 -0.65731776 0.46437708 0
4.5380001 -0.54609859 0.45624912 0
4.5410004 -0.55393076 0.456287 0
4.5440001 -0.56177372 0.45632488 0
4.5480003 -0.56975377 0.45637539 0
4.5510001 -0.57762015 0.45641327 0
4.5480003 -0.58471817 0.45637539 0
4.5430002 -0.59154195 0.45631227 0
4.5370002 -0.59821421 0.45623648 0
4.5330005 -0.6051355 0.456186 0
4.5440001 -0.61409855 0.45632488 0
4.5800004 -0.64919347 0.45677945 0
4.5840001 -0.65731776 0.45682994 0
4.5380001 -0.54609859 0.44878495 0
4.5410004 -0.55393076 0.44881743 0
4.5440001 -0.56177372 0.44884992 0
4.5480003 -0.56975377 0.44889319 0
4.5510001 -0.57762015 0.44892567 0
4.5480003 -0.58471817 0.44889319 0
4.5430002 -0.59154195 0.44883907 0
4.5370002 -0.59821421 0.44877413 0
4.5330005 -0.6051355 0.44873086 0
4.5440001 -0.61409855 0.44884992 0
4.5800004 -0.64919347 0.44923952 0
4.5840001 -0.65731776 0.44928282 0
4.5380001 -0.54609859 0.44132081 0
4.5410004 -0.55393076 0.44134787 0
4.5440001 -0.56177372 0.44137493 0
4.5480003 -0.56975377 0.44141099 0
4.5510001 -0.57762015 0.44143805 0
4.5480003 -0.58471817 0.44141099 0
4.5430002 -0.59154195 0.4413659 0
4.5370002 -0.59821421 0.44131178 0
4.5330005 -0.6051355 0.44127572 0
4.5440001 -0.61409855 0.44137493 0
4.5800004 -0.64919347 0.44169959 0
4.5840001 -0.65731776 0.44173568 0
4.5380001 -0.54609859 0.43385664 0
4.5410004 -0.55393076 0.4338783 0
4.5440001 -0.56177372 0.43389994 0
4.5480003 -0.56975377 0.43392879 0
4.5510001 -0.57762015 0.43395045 0
4.5480003 -0.58471817 0.43392879 0
4.5430002 -0.59154195 0.43389273 0
4.5370002 -0.59821421 0.43384942 0
4.5330005 -0.6051355 0.43382058 0
4.5440001 -0.61409855 0.43389994 0
4.5800004 -0.64919347 0.4341597 0
4.5840001 -0.65731776 0.43418854 0
4.5380001 -0.54609859 0.4263925 0
4.5410004 -0.55393076 0.42640871 0
4.5440001 -0.56177372 0.42642495 0
4.5480003 -0.56975377 0.42644662 0
4.5510001 -0.57762015 0.42646283 0
4.5480003 -0.58471817 0.42644662 0
4.5430002 -0.59154195 0.42641956 0
4.5370002 -0.59821421 0.42638707 0
4.5330005 -0.6051355 0.42636544 0
4.5440001 -0.61409855 0.42642495 0
4.5800004 -0.64919347 0.42661977 0
4.5840001 -0.65731776 0.4266414 0
4.5380001 -0.54609859 0.41892833 0
4.5410004 -0.55393076 0.41893914 0
4.5440001 -0.56177372 0.41894996 0
4.5480003 -0.56975377 0.41896442 0
4.5510001 -0.57762015 0.41897523 0
4.5480003 -0.58471817 0.41896442 0
4.5430002 -0.59154195 0.41894636 0
4.5370002 -0.59821421 0.41892472 0
4.5330005 -0.6051355 0.41891029 0
4.5440001 -0.61409855 0.41894996 0
4.5800004 -0.64919347 0.41907984 0
4.5840001 -0.65731776 0.41909429 0
4.5380001 -0.54609859 0.41146418 0
4.5410004 -0.55393076 0.41146958 0
4.5440001 -0.56177372 0.411475 0
4.5480003 -0.56975377 0.41148221 0
4.5510001 -0.57762015 0.41148761 0
4.5480003 -0.58471817 0.41148221 0
4.5430002 -0.59154195 0.41147318 0
4.5370002 -0.59821421 0.41146237 0
4.5330005 -0.6051355 0.41145515 0
4.5440001 -0.61409855 0.411475 0
4.5800004 -0.64919347 0.41153994 0
4.5840001 -0.65731776 0.41154715 0
4.5380001 -0.54609859 0.40400001 0
4.5410004 -0.55393076 0.40400001 0
4.5440001 -0.56177372 0.40400001 0
4.5480003 -0.56975377 0.40400001 0
4.5510001 -0.57762015 0.40400001 0
4.5480003 -0.58471817 0.40400001 0
4.5430002 -0.59154195 0.40400001 0
4.5370002 -0.59821421 0.40400001 0
4.5330005 -0.6051355 0.40400001 0
4.5440001 -0.61409855 0.40400001 0
4.5800004 -0.64919347 0.40400001 0
4.5840001 -0.65731776 0.40400001 0
4.5380001 -0.54609859 0.39653584 0
4.5410004 -0.55393076 0.39653045 0
4.5440001 -0.56177372 0.39652503 0
4.5480003 -0.56975377 0.39651781 0
4.5510001 -0.57762015 0.39651242 0
4.5480003 -0.58471817 0.39651781 0
4.5430002 -0.59154195 0.39652684 0
4.5370002 -0.59821421 0.39653766 0
4.5330005 -0.6051355 0.39654487 0
4.5440001 -0.61409855 0.39652503 0
4.5800004 -0.64919347 0.39646009 0
4.5840001 -0.65731776 0.39645287 0
4.5380001 -0.54609859 0.3890717 0
4.5410004 -0.55393076 0.38906088 0
4.5440001 -0.56177372 0.38905007 0
4.5480003 -0.56975377 0.38903561 0
4.5510001 -0.57762015 0.38902479 0
4.5480003 -0.58471817 0.38903561 0
4.5430002 -0.59154195 0.38905367 0
4.5370002 -0.59821421 0.38907531 0
4.5330005 -0.6051355 0.38908973 0
4.5440001 -0.61409855 0.38905007 0
4.5800004 -0.64919347 0.38892019 0
4.5840001 -0.65731776 0.38890573 0
4.5380001 -0.54609859 0.38160753 0
4.5410004 -0.55393076 0.38159132 0
4.5440001 -0.56177372 0.38157508 0
4.5480003 -0.56975377 0.38155341 0
4.5510001 -0.57762015 0.3815372 0
4.5480003 -0.58471817 0.38155341 0
4.5430002 -0.59154195 0.38158047 0
4.5370002 -0.59821421 0.38161296 0
4.5330005 -0.6051355 0.38163459 0
4.5440001 -0.61409855 0.38157508 0
4.5800004 -0.64919347 0.38138026 0
4.5840001 -0.65731776 0.38135862 0
4.5380001 -0.54609859 0.37414339 0
4.5410004 -0.55393076 0.37412173 0
4.5440001 -0.56177372 0.37410009 0
4.5480003 -0.56975377 0.37407124 0
4.5510001 -0.57762015 0.37404957 0
4.5480003 -0.58471817 0.37407124 0
4.5430002 -0.59154195 0.3741073 0
4.5370002 -0.59821421 0.3741506 0
4.5330005 -0.6051355 0.37417945 0
4.5440001 -0.61409855 0.37410009 0
4.5800004 -0.64919347 0.37384033 0
4.5840001 -0.65731776 0.37381148 0
4.5380001 -0.54609859 0.36667922 0
4.5410004 -0.55393076 0.36665216 0
4.5440001 -0.56177372 0.3666251 0
4.5480003 -0.56975377 0.36658904 0
4.5510001 -0.57762015 0.36656198 0
4.5480003 -0.58471817 0.36658904 0
4.5430002 -0.59154195 0.36663413 0
4.5370002 -0.59821421 0.36668825 0
4.5330005 -0.6051355 0.36672431 0
4.5440001 -0.61409855 0.3666251 0
4.5800004 -0.64919347 0.36630043 0
4.5840001 -0.65731776 0.36626434 0
4.5380001 -0.54609859 0.35921508 0
4.5410004 -0.55393076 0.3591826 0
4.5440001 -0.56177372 0.35915011 0
4.5480003 -0.56975377 0.35910684 0
4.5510001 -0.57762015 0.35907435 0
4.5480003 -0.58471817 0.35910684 0
4.5430002 -0.59154195 0.35916096 0
4.5370002 -0.59821421 0.3592259 0
4.5330005 -0.6051355 0.35926917 0
4.5440001 -0.61409855 0.35915011 0
4.5800004 -0.64919347 0.35876051 0
4.5840001 -0.65731776 0.3587172 0
4.5380001 -0.54609859 0.35175091 0
4.5410004 -0.55393076 0.35171303 0
4.5440001 -0.56177372 0.35167515 0
4.5480003 -0.56975377 0.35162464 0
4.5510001 -0.57762015 0.35158676 0
4.5480003 -0.58471817 0.35162464 0
4.5430002 -0.59154195 0.35168776 0
4.5370002 -0.59821421 0.35176355 0
4.5330005 -0.6051355 0.35181403 0
4.5440001 -0.61409855 0.35167515 0
4.5800004 -0.64919347 0.35122058 0
4.5840001 -0.65731776 0.35117009 0
4.5380001 -0.54609859 0.34428674 0
4.5410004 -0.55393076 0.34424347 0
4.5440001 -0.56177372 0.34420016 0
4.5480003 -0.56975377 0.34414244 0
4.5510001 -0.57762015 0.34409916 0
4.5480003 -0.58471817 0.34414244 0
4.5430002 -0.59154195 0.34421459 0
4.5370002 -0.59821421 0.34430116 0
4.5330005 -0.6051355 0.34435889 0
4.5440001 -0.61409855 0.34420016 0
4.5800004 -0.64919347 0.34368068 0
4.5840001 -0.65731776 0.34362295 0
4.5380001 -0.54609859 0.3368226 0
4.5410004 -0.55393076 0.33677387 0
4.5440001 -0.56177372 0.33672518 0
4.5480003 -0.56975377 0.33666024 0
4.5510001 -0.57762015 0.33661154 0
4.5480003 -0.58471817 0.33666024 0
4.5430002 -0.59154195 0.33674142 0
4.5370002 -0.59821421 0.33683881 0
4.5330005 -0.6051355 0.33690375 0
4.5440001 -0.61409855 0.33672518 0
4.5800004 -0.64919347 0.33614075 0
4.5840001 -0.65731776 0.33607581 0
4.5380001 -0.54609859 0.32935843 0
4.5410004 -0.55393076 0.32930431 0
4.5440001 -0.56177372 0.32925022 0
4.5480003 -0.56975377 0.32917804 0
4.5510001 -0.57762015 0.32912394 0
4.5480003 -0.58471817 0.32917804 0
4.5430002 -0.59154195 0.32926825 0
4.5370002 -0.59821421 0.32937646 0
4.5330005 -0.6051355 0.32944861 0
4.5440001 -0.61409855 0.32925022 0
4.5800004 -0.64919347 0.32860082 0
4.5840001 -0.65731776 0.32852867 0
4.5380001 -0.54609859 0.32189429 0
4.5410004 -0.55393076 0.32183474 0
4.5440001 -0.56177372 0.32177523 0
4.5480003 -0.56975377 0.32169586 0
4.5510001 -0.57762015 0.32163632 0
4.5480003 -0.58471817 0.32169586 0
4.5430002 -0.59154195 0.32179505 0
4.5370002 -0.59821421 0.32191411 0
4.5330005 -0.6051355 0.32199347 0
4.5440001 -0.61409855 0.32177523 0
4.5800004 -0.64919347 0.3210609 0
4.5840001 -0.65731776 0.32098156 0
4.5380001 -0.54609859 0.31443012 0
4.5410004 -0.55393076 0.31436518 0
4.5440001 -0.56177372 0.31430024 0
4.5480003 -0.56975377 0.31421366 0
4.5510001 -0.57762015 0.31414872 0
4.5480003 -0.58471817 0.31421366 0
4.5430002 -0.59154195 0.31432188 0
4.5370002 -0.59821421 0.31445175 0
4.5330005 -0.6051355 0.31453833 0
4.5440001 -0.61409855 0.31430024 0
4.5800004 -0.64919347 0.313521 0
4.5840001 -0.65731776 0.31343442 0
4.5380001 -0.54609859 0.30696595 0
4.5410004 -0.55393076 0.30689561 0
4.5440001 -0.56177372 0.30682525 0
4.5480003 -0.56975377 0.30673146 0
4.5510001 -0.57762015 0.30666113 0
4.5480003 -0.58471817 0.30673146 0
4.5430002 -0.59154195 0.3068487 0
4.5370002 -0.59821421 0.3069894 0
4.5330005 -0.6051355 0.30708319 0
4.5440001 -0.61409855 0.30682525 0
4.5800004 -0.64919347 0.30598107 0
4.5840001 -0.65731776 0.30588728 0
4.5380001 -0.54609859 0.29950181 0
4.5410004 -0.55393076 0.29942602 0
4.5440001 -0.56177372 0.29935029 0
4.5480003 -0.56975377 0.29924926 0
4.5510001 -0.57762015 0.2991735 0
4.5480003 -0.58471817 0.29924926 0
4.5430002 -0.59154195 0.29937553 0
4.5370002 -0.59821421 0.29952705 0
4.5330005 -0.6051355 0.29962805 0
4.5440001 -0.61409855 0.29935029 0
4.5800004 -0.64919347 0.29844117 0
4.5840001 -0.65731776 0.29834014 0
4.5380001 -0.54609859 0.29203764 0
4.5410004 -0.55393076 0.29195645 0
4.5440001 -0.56177372 0.2918753 0
4.5480003 -0.56975377 0.29176706 0
4.5510001 -0.57762015 0.29168591 0
4.5480003 -0.58471817 0.29176706 0
4.5430002 -0.59154195 0.29190236 0
4.5370002 -0.59821421 0.2920647 0
4.5330005 -0.6051355 0.29217291 0
4.5440001 -0.61409855 0.2918753 0
4.5800004 -0.64919347 0.29090124 0
4.5840001 -0.65731776 0.290793 0
4.5380001 -0.54609859 0.2845735 0
4.5410004 -0.55393076 0.28448689 0
4.5440001 -0.56177372 0.28440031 0
4.5480003 -0.56975377 0.28428486 0
4.5510001 -0.57762015 0.28419828 0
4.5480003 -0.58471817 0.28428486 0
4.5430002 -0.59154195 0.28442919 0
4.5370002 -0.59821421 0.28460234 0
4.5330005 -0.6051355 0.28471777 0
4.5440001 -0.61409855 0.28440031 0
4.5800004 -0.64919347 0.28336132 0
4.5840001 -0.65731776 0.28324589 0
4.5380001 -0.54609859 0.27710932 0
4.5410004 -0.55393076 0.27701733 0
4.5440001 -0.56177372 0.27692533 0
4.5480003 -0.56975377 0.27680266 0
4.5510001 -0.57762015 0.27671069 0
4.5480003 -0.58471817 0.27680266 0
4.5430002 -0.59154195 0.27695602 0
4.5370002 -0.59821421 0.27713999 0
4.5330005 -0.6051355 0.27726263 0
4.5440001 -0.61409855 0.27692533 0
4.5800004 -0.64919347 0.27582139 0
4.5840001 -0.65731776 0.27569875 0
4.5380001 -0.54609859 0.26964515 0
4.5410004 -0.55393076 0.26954776 0
4.5440001 -0.56177372 0.26945037 0
4.5480003 -0.56975377 0.26932049 0
4.5510001 -0.57762015 0.26922309 0
4.5480003 -0.58471817 0.26932049 0
4.5430002 -0.59154195 0.26948282 0
4.5370002 -0.59821421 0.26967764 0
4.5330005 -0.6051355 0.26980752 0
4.5440001 -0.61409855 0.26945037 0
4.5800004 -0.64919347 0.26828146 0
4.5840001 -0.65731776 0.26815164 0
4.5380001 -0.54609859 0.26218101 0
4.5410004 -0.55393076 0.26207817 0
4.5440001 -0.56177372 0.26197538 0
4.5480003 -0.56975377 0.26183826 0
4.5510001 -0.57762015 0.26173547 0
4.5480003 -0.58471817 0.26183826 0
4.5430002 -0.59154195 0.26200962 0
4.5370002 -0.59821421 0.26221526 0
4.5330005 -0.6051355 0.26235235 0
4.5440001 -0.61409855 0.26197538 0
4.5800004 -0.64919347 0.26074156 0
4.5840001 -0.65731776 0.26060447 0
4.5380001 -0.54609859 0.25471684 0
4.5410004 -0.55393076 0.25460863 0
4.5440001 -0.56177372 0.25450039 0
4.5480003 -0.56975377 0.25435609 0
4.5510001 -0.57762015 0.25424784 0
4.5480003 -0.58471817 0.25435609 0
4.5430002 -0.59154195 0.25453645 0
4.5370002 -0.59821421 0.25475293 0
4.5330005 -0.6051355 0.25489724 0
4.5440001 -0.61409855 0.25450039 0
4.5800004 -0.64919347 0.25320166 0
4.5840001 -0.65731776 0.25305736 0
4.5380001 -0.54609859 0.24725269 0
4.5410004 -0.55393076 0.24713904 0
4.5440001 -0.56177372 0.24702542 0
4.5480003 -0.56975377 0.24687389 0
4.5510001 -0.57762015 0.24676026 0
4.5480003 -0.58471817 0.24687389 0
4.5430002 -0.59154195 0.24706328 0
4.5370002 -0.59821421 0.24729058 0
4.5330005 -0.6051355 0.24744208 0
4.5440001 -0.61409855 0.24702542 0
4.5800004 -0.64919347 0.24566172 0
4.5840001 -0.65731776 0.24551022 0
4.5380001 -0.54609859 0.23978853 0
4.5410004 -0.55393076 0.23966947 0
4.5440001 -0.56177372 0.23955044 0
4.5480003 -0.56975377 0.23939168 0
4.5510001 -0.57762015 0.23927265 0
4.5480003 -0.58471817 0.23939168 0
4.5430002 -0.59154195 0.23959011 0
4.5370002 -0.59821421 0.23982821 0
4.5330005 -0.6051355 0.23998694 0
4.5440001 -0.61409855 0.23955044 0
4.5800004 -0.64919347 0.23812181 0
4.5840001 -0.65731776 0.23796308 0
4.5380001 -0.54609859 0.23232438 0
4.5410004 -0.55393076 0.23219991 0
4.5440001 -0.56177372 0.23207544 0
4.5480003 -0.56975377 0.23190948 0
4.5510001 -0.57762015 0.23178504 0
4.5480003 -0.58471817 0.23190948 0
4.5430002 -0.59154195 0.23211694 0
4.5370002 -0.59821421 0.23236586 0
4.5330005 -0.6051355 0.2325318 0
4.5440001 -0.61409855 0.23207544 0
4.5800004 -0.64919347 0.23058188 0
4.5840001 -0.65731776 0.23041594 0
4.5380001 -0.54609859 0.22486022 0
4.5410004 -0.55393076 0.22473034 0
4.5440001 -0.56177372 0.22460046 0
4.5480003 -0.56975377 0.2244273 0
4.5510001 -0.57762015 0.22429743 0
4.5480003 -0.58471817 0.2244273 0
4.5430002 -0.59154195 0.22464375 0
4.5370002 -0.59821421 0.22490351 0
4.5330005 -0.6051355 0.22507666 0
4.5440001 -0.61409855 0.22460046 0
4.5800004 -0.64919347 0.22304197 0
4.5840001 -0.65731776 0.22286882 0
4.5380001 -0.54609859 0.21739607 0
4.5410004 -0.55393076 0.21726076 0
4.5440001 -0.56177372 0.21712549 0
4.5480003 -0.56975377 0.2169451 0
4.5510001 -0.57762015 0.21680982 0
4.5480003 -0.58471817 0.2169451 0
4.5430002 -0.59154195 0.21717058 0
4.5380001 -0.59834772 0.21739607 0
4.5330005 -0.6051355 0.21762152 0
4.5440001 -0.61409855 0.21712549 0
4.5800004 -0.64919347 0.21550205 0
4.5840001 -0.65731776 0.21532169 0
4.5380001 -0.54609859 0.20993191 0
4.5410004 -0.55393076 0.2097912 0
4.5440001 -0.56177372 0.2096505 0
4.5480003 -0.56975377 0.2094629 0
4.5510001 -0.57762015 0.20932221 0
4.5480003 -0.58471817 0.2094629 0
4.5430002 -0.59154195 0.20969741 0
4.5380001 -0.59834772 0.20993191 0
4.5330005 -0.6051355 0.21016638 0
4.5440001 -0.61409855 0.2096505 0
4.5800004 -0.64919347 0.20796213 0
4.5840001 -0.65731776 0.20777455 0
4.5380001 -0.54609859 0.20246775 0
4.5410004 -0.55393076 0.20232162 0
4.5440001 -0.56177372 0.20217553 0
4.5480003 -0.56975377 0.2019807 0
4.5510001 -0.57762015 0.2018346 0
4.5480003 -0.58471817 0.2019807 0
4.5430002 -0.59154195 0.20222422 0
4.5380001 -0.59834772 0.20246775 0
4.5330005 -0.6051355 0.20271124 0
4.5440001 -0.61409855 0.20217553 0
4.5800004 -0.64919347 0.20042221 0
4.5840001 -0.65731776 0.20022741 0
4.5380001 -0.54609859 0.19500358 0
4.5410004 -0.55393076 0.19485205 0
4.5440001 -0.56177372 0.19470055 0
4.5480003 -0.56975377 0.19449851 0
4.5510001 -0.57762015 0.19434701 0
4.5480003 -0.58471817 0.19449851 0
4.5430002 -0.59154195 0.19475104 0
4.5380001 -0.59834772 0.19500358 0
4.5330005 -0.6051355 0.1952561 0
4.5440001 -0.61409855 0.19470055 0
4.5800004 -0.64919347 0.1928823 0
4.5840001 -0.65731776 0.19268028 0
4.5380001 -0.54609859 0.18753943 0
4.5410004 -0.55393076 0.18738249 0
4.5440001 -0.56177372 0.18722557 0
4.5480003 -0.56975377 0.18701631 0
4.5510001 -0.57762015 0.1868594 0
4.5480003 -0.58471817 0.18701631 0
4.5430002 -0.59154195 0.18727787 0
4.5380001 -0.59834772 0.18753943 0
4.5330005 -0.6051355 0.18780096 0
4.5440001 -0.61409855 0.18722557 0
4.5800004 -0.64919347 0.18534237 0
4.5840001 -0.65731776 0.18513314 0
4.5380001 -0.54609859 0.18007527 0
4.5410004 -0.55393076 0.17991291 0
4.5440001 -0.56177372 0.17975059 0
4.5480003 -0.56975377 0.17953411 0
4.5510001 -0.57762015 0.17937179 0
4.5480003 -0.58471817 0.17953411 0
4.5430002 -0.59154195 0.1798047 0
4.5380001 -0.59834772 0.18007527 0
4.5330005 -0.6051355 0.18034582 0
4.5440001 -0.61409855 0.17975059 0
4.5800004 -0.64919347 0.17780246 0
4.5840001 -0.65731776 0.177586 0
4.5380001 -0.54609859 0.17261112 0
4.5410004 -0.55393076 0.17244336 0
4.5440001 -0.56177372 0.1722756 0
4.5480003 -0.56975377 0.17205191 0
4.5510001 -0.57762015 0.17188418 0
4.5480003 -0.58471817 0.17205191 0
4.5430002 -0.59154195 0.17233153 0
4.5380001 -0.59834772 0.17261112 0
4.5330005 -0.6051355 0.17289068 0
4.5440001 -0.61409855 0.1722756 0
4.5800004 -0.64919347 0.17026253 0
4.5840001 -0.65731776 0.17003889 0
4.5380001 -0.54609859 0.16514695 0
4.5410004 -0.55393076 0.16497378 0
4.5440001 -0.56177372 0.16480061 0
4.5480003 -0.56975377 0.16456972 0
4.5510001 -0.57762015 0.16439657 0
