# .PCD v0.7 - Point Cloud Data file format
VERSION 0.7
FIELDS x y z intensity
SIZE 4 4 4 4
TYPE F F F F
COUNT 1 1 1 1
WIDTH 1408
HEIGHT 1
VIEWPOINT 0 0 0 1 0 0 0
POINTS 1408
DATA ascii
4.4960003 -0.99171501 1.4679295 0
4.4980001 -0.99956882 1.4684489 0
4.5010004 -1.0076643 1.4692283 0
4.5030003 -1.0155343 1.4697477 0
4.5060005 -1.0236497 1.4705269 0
4.4710002 -0.88313657 1.4540924 0
4.4650002 -0.88923526 1.4525447 0
4.4670005 -0.89698625 1.4530607 0
4.4700003 -0.90495545 1.4538344 0
4.4720001 -0.91272259 1.4543504 0
4.4740005 -0.92049706 1.4548663 0
4.4760003 -0.92827868 1.4553821 0
4.4700003 -0.93432146 1.4538344 0
4.4640002 -0.94034255 1.4522868 0
4.4590001 -0.94656384 1.450997 0
4.4580002 -0.95366186 1.4507391 0
4.4680004 -0.96323651 1.4533186 0
4.4960003 -0.99171501 1.460541 0
4.4980001 -0.99956882 1.4610568 0
4.5010004 -1.0076643 1.4618309 0
4.5030003 -1.0155343 1.4623466 0
4.5060005 -1.0236497 1.4631206 0
4.4710002 -0.88313657 1.4467491 0
4.4650002 -0.88923526 1.4452121 0
4.4670005 -0.89698625 1.4457246 0
4.4700003 -0.90495545 1.4464929 0
4.4720001 -0.91272259 1.4470052 0
4.4740005 -0.92049706 1.4475176 0
4.4760003 -0.92827868 1.4480299 0
4.4700003 -0.93432146 1.4464929 0
4.4640002 -0.94034255 1.4449561 0
4.4590001 -0.94656384 1.4436754 0
4.4580002 -0.95366186 1.4434192 0
4.4680004 -0.96323651 1.4459808 0
4.4960003 -0.99171501 1.4531527 0
4.4980001 -0.99956882 1.4536649 0
4.5010004 -1.0076643 1.4544333 0
4.5030003 -1.0155343 1.4549457 0
4.5060005 -1.0236497 1.4557141 0
4.4710002 -0.88313657 1.4394057 0
4.4650002 -0.88923526 1.4378797 0
4.4670005 -0.89698625 1.4383886 0
4.4700003 -0.90495545 1.4391514 0
4.4720001 -0.91272259 1.4396601 0
4.4740005 -0.92049706 1.4401689 0
4.4760003 -0.92827868 1.4406774 0
4.4700003 -0.93432146 1.4391514 0
4.4640002 -0.94034255 1.4376255 0
4.4590001 -0.94656384 1.4363538 0
4.4580002 -0.95366186 1.4360994 0
4.4680004 -0.96323651 1.4386429 0
4.4960003 -0.99171501 1.4457642 0
4.4980001 -0.99956882 1.4462729 0
4.5010004 -1.0076643 1.4470359 0
4.5030003 -1.0155343 1.4475446 0
4.5060005 -1.0236497 1.4483076 0
4.4710002 -0.88313657 1.4320625 0
4.4650002 -0.88923526 1.4305474 0
4.4670005 -0.89698625 1.4310524 0
4.4700003 -0.90495545 1.43181 0
4.4720001 -0.91272259 1.432315 0
4.4740005 -0.92049706 1.4328202 0
4.4760003 -0.92827868 1.4333252 0
4.4700003 -0.93432146 1.43181 0
4.4640002 -0.94034255 1.4302948 0
4.4590001 -0.94656384 1.4290321 0
4.4580002 -0.95366186 1.4287795 0
4.4680004 -0.96323651 1.4313049 0
4.4960003 -0.99171501 1.4383758 0
4.4980001 -0.99956882 1.4388809 0
4.5010004 -1.0076643 1.4396385 0
4.5030003 -1.0155343 1.4401436 0
4.5060005 -1.0236497 1.4409013 0
4.4710002 -0.88313657 1.4247192 0
4.4650002 -0.88923526 1.4232148 0
4.4670005 -0.89698625 1.4237163 0
4.4700003 -0.90495545 1.4244685 0
4.4720001 -0.91272259 1.4249699 0
4.4740005 -0.92049706 1.4254714 0
4.4760003 -0.92827868 1.4259728 0
4.4700003 -0.93432146 1.4244685 0
4.4640002 -0.94034255 1.4229641 0
4.4590001 -0.94656384 1.4217104 0
4.4580002 -0.95366186 1.4214597 0
4.4680004 -0.96323651 1.423967 0
4.4960003 -0.99171501 1.4309875 0
4.4980001 -0.99956882 1.4314889 0
4.5010004 -1.0076643 1.4322412 0
4.5030003 -1.0155343 1.4327425 0
4.5060005 -1.0236497 1.4334948 0
4.4710002 -0.88313657 1.4173759 0
4.4650002 -0.88923526 1.4158823 0
4.4670005 -0.89698625 1.4163802 0
4.4700003 -0.90495545 1.417127 0
4.4720001 -0.91272259 1.4176247 0
4.4740005 -0.92049706 1.4181226 0
4.4760003 -0.92827868 1.4186206 0
4.4700003 -0.93432146 1.417127 0
4.4640002 -0.94034255 1.4156334 0
4.4590001 -0.94656384 1.4143888 0
4.4580002 -0.95366186 1.4141399 0
4.4680004 -0.96323651 1.4166292 0
4.4960003 -0.99171501 1.4235991 0
4.4980001 -0.99956882 1.4240968 0
4.5010004 -1.0076643 1.4248437 0
4.5030003 -1.0155343 1.4253416 0
4.5060005 -1.0236497 1.4260883 0
4.4710002 -0.88313657 1.4100325 0
4.4650002 -0.88923526 1.4085499 0
4.4670005 -0.89698625 1.4090441 0
4.4700003 -0.90495545 1.4097855 0
4.4720001 -0.91272259 1.4102798 0
4.4740005 -0.92049706 1.410774 0
4.4760003 -0.92827868 1.4112682 0
4.4700003 -0.93432146 1.4097855 0
4.4640002 -0.94034255 1.4083027 0
4.4590001 -0.94656384 1.4070671 0
4.4580002 -0.95366186 1.4068199 0
4.4680004 -0.96323651 1.4092913 0
4.4960003 -0.99171501 1.4162107 0
4.4980001 -0.99956882 1.4167049 0
4.5010004 -1.0076643 1.4174463 0
4.5030003 -1.0155343 1.4179405 0
4.5060005 -1.0236497 1.4186819 0
4.4710002 -0.88313657 1.4026892 0
4.4650002 -0.88923526 1.4012173 0
4.4670005 -0.89698625 1.401708 0
4.4700003 -0.90495545 1.4024439 0
4.4720001 -0.91272259 1.4029346 0
4.4740005 -0.92049706 1.4034252 0
4.4760003 -0.92827868 1.4039159 0
4.4700003 -0.93432146 1.4024439 0
4.4640002 -0.94034255 1.400972 0
4.4590001 -0.94656384 1.3997453 0
4.4580002 -0.95366186 1.3995001 0
4.4680004 -0.96323651 1.4019533 0
4.4960003 -0.99171501 1.4088223 0
4.4980001 -0.99956882 1.4093128 0
4.5010004 -1.0076643 1.4100488 0
4.5030003 -1.0155343 1.4105394 0
4.5060005 -1.0236497 1.4112755 0
4.4710002 -0.88313657 1.3953459 0
4.4650002 -0.88923526 1.3938849 0
4.4670005 -0.89698625 1.394372 0
4.4700003 -0.90495545 1.3951024 0
4.4720001 -0.91272259 1.3955895 0
4.4740005 -0.92049706 1.3960766 0
4.4760003 -0.92827868 1.3965635 0
4.4700003 -0.93432146 1.3951024 0
4.4640002 -0.94034255 1.3936414 0
4.4590001 -0.94656384 1.3924237 0
4.4580002 -0.95366186 1.3921802 0
4.4680004 -0.96323651 1.3946154 0
4.4960003 -0.99171501 1.4014338 0
4.4980001 -0.99956882 1.4019208 0
4.5010004 -1.0076643 1.4026514 0
4.5030003 -1.0155343 1.4031384 0
4.5060005 -1.0236497 1.403869 0
4.4710002 -0.88313657 1.3880026 0
4.4650002 -0.88923526 1.3865523 0
4.4670005 -0.89698625 1.3870358 0
4.4700003 -0.90495545 1.3877609 0
4.4720001 -0.91272259 1.3882444 0
4.4740005 -0.92049706 1.3887279 0
4.4760003 -0.92827868 1.3892112 0
4.4700003 -0.93432146 1.3877609 0
4.4640002 -0.94034255 1.3863106 0
4.4590001 -0.94656384 1.3851022 0
4.4580002 -0.95366186 1.3848604 0
4.4680004 -0.96323651 1.3872776 0
4.4960003 -0.99171501 1.3940454 0
4.4980001 -0.99956882 1.3945289 0
4.5010004 -1.0076643 1.395254 0
4.5030003 -1.0155343 1.3957373 0
4.5060005 -1.0236497 1.3964626 0
4.4710002 -0.88313657 1.3806593 0
4.4650002 -0.88923526 1.3792199 0
4.4670005 -0.89698625 1.3796998 0
4.4700003 -0.90495545 1.3804194 0
4.4720001 -0.91272259 1.3808992 0
4.4740005 -0.92049706 1.3813791 0
4.4760003 -0.92827868 1.3818589 0
4.4700003 -0.93432146 1.3804194 0
4.4640002 -0.94034255 1.37898 0
4.4590001 -0.94656384 1.3777804 0
4.4580002 -0.95366186 1.3775405 0
4.4680004 -0.96323651 1.3799397 0
4.4960003 -0.99171501 1.386657 0
4.4980001 -0.99956882 1.3871368 0
4.5010004 -1.0076643 1.3878566 0
4.5030003 -1.0155343 1.3883364 0
4.5060005 -1.0236497 1.3890562 0
4.4710002 -0.88313657 1.373316 0
4.4650002 -0.88923526 1.3718874 0
4.4670005 -0.89698625 1.3723637 0
4.4700003 -0.90495545 1.373078 0
4.4720001 -0.91272259 1.3735541 0
4.4740005 -0.92049706 1.3740305 0
4.4760003 -0.92827868 1.3745066 0
4.4700003 -0.93432146 1.373078 0
4.4640002 -0.94034255 1.3716493 0
4.4590001 -0.94656384 1.3704588 0
4.4580002 -0.95366186 1.3702207 0
4.4680004 -0.96323651 1.3726017 0
4.4960003 -0.99171501 1.3792685 0
4.4980001 -0.99956882 1.3797449 0
4.5010004 -1.0076643 1.3804592 0
4.5030003 -1.0155343 1.3809353 0
4.5060005 -1.0236497 1.3816497 0
4.4710002 -0.88313657 1.3659728 0
4.4650002 -0.88923526 1.3645549 0
4.4670005 -0.89698625 1.3650275 0
4.4700003 -0.90495545 1.3657365 0
4.4720001 -0.91272259 1.366209 0
4.4740005 -0.92049706 1.3666817 0
4.4760003 -0.92827868 1.3671542 0
4.4700003 -0.93432146 1.3657365 0
4.4640002 -0.94034255 1.3643187 0
4.4590001 -0.94656384 1.3631371 0
4.4580002 -0.95366186 1.3629009 0
4.4680004 -0.96323651 1.3652638 0
4.4960003 -0.99171501 1.3718803 0
4.4980001 -0.99956882 1.3723528 0
4.5010004 -1.0076643 1.3730617 0
4.5030003 -1.0155343 1.3735343 0
4.5060005 -1.0236497 1.3742433 0
4.4710002 -0.88313657 1.3586295 0
4.4650002 -0.88923526 1.3572224 0
4.4670005 -0.89698625 1.3576914 0
4.4700003 -0.90495545 1.358395 0
4.4720001 -0.91272259 1.3588638 0
4.4740005 -0.92049706 1.359333 0
4.4760003 -0.92827868 1.3598019 0
4.4700003 -0.93432146 1.358395 0
4.4640002 -0.94034255 1.356988 0
4.4590001 -0.94656384 1.3558154 0
4.4580002 -0.95366186 1.355581 0
4.4680004 -0.96323651 1.357926 0
4.4960003 -0.99171501 1.3644918 0
4.4980001 -0.99956882 1.3649608 0
4.5010004 -1.0076643 1.3656644 0
4.5030003 -1.0155343 1.3661332 0
4.5060005 -1.0236497 1.3668368 0
4.4710002 -0.88313657 1.3512861 0
4.4650002 -0.88923526 1.34989 0
4.4670005 -0.89698625 1.3503555 0
4.4700003 -0.90495545 1.3510535 0
4.4720001 -0.91272259 1.3515189 0
4.4740005 -0.92049706 1.3519843 0
4.4760003 -0.92827868 1.3524495 0
4.4700003 -0.93432146 1.3510535 0
4.4640002 -0.94034255 1.3496573 0
4.4590001 -0.94656384 1.3484938 0
4.4580002 -0.95366186 1.3482611 0
4.4680004 -0.96323651 1.3505881 0
4.4960003 -0.99171501 1.3571035 0
4.4980001 -0.99956882 1.3575689 0
4.5010004 -1.0076643 1.3582669 0
4.5030003 -1.0155343 1.3587323 0
4.5060005 -1.0236497 1.3594304 0
4.4710002 -0.88313657 1.3439428 0
4.4650002 -0.88923526 1.3425574 0
4.4670005 -0.89698625 1.3430194 0
4.4700003 -0.90495545 1.343712 0
4.4720001 -0.91272259 1.3441737 0
4.4740005 -0.92049706 1.3446355 0
4.4760003 -0.92827868 1.3450973 0
4.4700003 -0.93432146 1.343712 0
4.4640002 -0.94034255 1.3423266 0
4.4590001 -0.94656384 1.3411721 0
4.4580002 -0.95366186 1.3409413 0
4.4680004 -0.96323651 1.3432502 0
4.4960003 -0.99171501 1.349715 0
4.4980001 -0.99956882 1.3501768 0
4.5010004 -1.0076643 1.3508695 0
4.5030003 -1.0155343 1.3513312 0
4.5060005 -1.0236497 1.352024 0
4.4710002 -0.88313657 1.3365996 0
4.4650002 -0.88923526 1.335225 0
4.4670005 -0.89698625 1.3356832 0
4.4700003 -0.90495545 1.3363705 0
4.4720001 -0.91272259 1.3368286 0
4.4740005 -0.92049706 1.3372868 0
4.4760003 -0.92827868 1.337745 0
4.4700003 -0.93432146 1.3363705 0
4.4640002 -0.94034255 1.3349959 0
4.4590001 -0.94656384 1.3338505 0
4.4580002 -0.95366186 1.3336215 0
4.4680004 -0.96323651 1.3359123 0
4.4960003 -0.99171501 1.3423266 0
4.4980001 -0.99956882 1.3427848 0
4.5010004 -1.0076643 1.343472 0
4.5030003 -1.0155343 1.3439301 0
4.5060005 -1.0236497 1.3446175 0
4.4710002 -0.88313657 1.3292562 0
4.4650002 -0.88923526 1.3278925 0
4.4670005 -0.89698625 1.3283472 0
4.4700003 -0.90495545 1.329029 0
4.4720001 -0.91272259 1.3294835 0
4.4740005 -0.92049706 1.3299381 0
4.4760003 -0.92827868 1.3303927 0
4.4700003 -0.93432146 1.329029 0
4.4640002 -0.94034255 1.3276653 0
4.4590001 -0.94656384 1.3265288 0
4.4580002 -0.95366186 1.3263016 0
4.4680004 -0.96323651 1.3285744 0
4.4960003 -0.99171501 1.3349382 0
4.4980001 -0.99956882 1.3353928 0
4.5010004 -1.0076643 1.3360746 0
4.5030003 -1.0155343 1.3365291 0
4.5060005 -1.0236497 1.3372111 0
4.4710002 -0.88313657 1.3219129 0
4.4650002 -0.88923526 1.32056 0
4.4670005 -0.89698625 1.3210111 0
4.4700003 -0.90495545 1.3216875 0
4.4720001 -0.91272259 1.3221383 0
4.4740005 -0.92049706 1.3225894 0
4.4760003 -0.92827868 1.3230404 0
4.4700003 -0.93432146 1.3216875 0
4.4640002 -0.94034255 1.3203346 0
4.4590001 -0.94656384 1.3192072 0
4.4580002 -0.95366186 1.3189816 0
4.4680004 -0.96323651 1.3212365 0
4.4960003 -0.99171501 1.3275498 0
4.4980001 -0.99956882 1.3280008 0
4.5010004 -1.0076643 1.3286773 0
4.5030003 -1.0155343 1.3291281 0
4.5060005 -1.0236497 1.3298047 0
4.4710002 -0.88313657 1.3145696 0
4.4650002 -0.88923526 1.3132275 0
4.4670005 -0.89698625 1.3136749 0
4.4700003 -0.90495545 1.314346 0
4.4720001 -0.91272259 1.3147932 0
4.4740005 -0.92049706 1.3152407 0
4.4760003 -0.92827868 1.315688 0
4.4700003 -0.93432146 1.314346 0
4.4640002 -0.94034255 1.3130039 0
4.4590001 -0.94656384 1.3118855 0
4.4580002 -0.95366186 1.3116618 0
4.4680004 -0.96323651 1.3138987 0
4.4960003 -0.99171501 1.3201615 0
4.4980001 -0.99956882 1.3206087 0
4.5010004 -1.0076643 1.3212799 0
4.5030003 -1.0155343 1.3217272 0
4.5060005 -1.0236497 1.3223982 0
4.4710002 -0.88313657 1.3072263 0
4.4650002 -0.88923526 1.3058951 0
4.4670005 -0.89698625 1.3063389 0
4.4700003 -0.90495545 1.3070045 0
4.4720001 -0.91272259 1.3074481 0
4.4740005 -0.92049706 1.307892 0
4.4760003 -0.92827868 1.3083357 0
4.4700003 -0.93432146 1.3070045 0
4.4640002 -0.94034255 1.3056732 0
4.4590001 -0.94656384 1.3045639 0
4.4580002 -0.95366186 1.304342 0
4.4680004 -0.96323651 1.3065608 0
4.4960003 -0.99171501 1.312773 0
4.4980001 -0.99956882 1.3132168 0
4.5010004 -1.0076643 1.3138824 0
4.5030003 -1.0155343 1.314326 0
4.5060005 -1.0236497 1.3149918 0
4.4710002 -0.88313657 1.299883 0
4.4650002 -0.88923526 1.2985625 0
4.4670005 -0.89698625 1.2990028 0
4.4700003 -0.90495545 1.2996629 0
4.4720001 -0.91272259 1.3001031 0
4.4740005 -0.92049706 1.3005433 0
4.4760003 -0.92827868 1.3009833 0
4.4700003 -0.93432146 1.2996629 0
4.4640002 -0.94034255 1.2983426 0
4.4590001 -0.94656384 1.2972422 0
4.4580002 -0.95366186 1.2970222 0
4.4680004 -0.96323651 1.2992228 0
4.4960003 -0.99171501 1.3053846 0
4.4980001 -0.99956882 1.3058248 0
4.5010004 -1.0076643 1.3064851 0
4.5030003 -1.0155343 1.3069251 0
4.5060005 -1.0236497 1.3075854 0
4.4710002 -0.88313657 1.2925397 0
4.4650002 -0.88923526 1.2912302 0
4.4670005 -0.89698625 1.2916667 0
4.4700003 -0.90495545 1.2923214 0
4.4720001 -0.91272259 1.292758 0
4.4740005 -0.92049706 1.2931945 0
4.4760003 -0.92827868 1.293631 0
4.4700003 -0.93432146 1.2923214 0
4.4640002 -0.94034255 1.2910119 0
4.4590001 -0.94656384 1.2899206 0
4.4580002 -0.95366186 1.2897023 0
4.4680004 -0.96323651 1.2918849 0
4.4960003 -0.99171501 1.2979963 0
4.4980001 -0.99956882 1.2984327 0
4.5010004 -1.0076643 1.2990875 0
4.5030003 -1.0155343 1.2995241 0
4.5060005 -1.0236497 1.3001789 0
4.4710002 -0.88313657 1.2851964 0
4.4650002 -0.88923526 1.2838976 0
4.4670005 -0.89698625 1.2843306 0
4.4700003 -0.90495545 1.2849799 0
4.4720001 -0.91272259 1.2854129 0
4.4740005 -0.92049706 1.2858458 0
4.4760003 -0.92827868 1.2862787 0
4.4700003 -0.93432146 1.2849799 0
4.4640002 -0.94034255 1.2836812 0
4.4590001 -0.94656384 1.282599 0
4.4580002 -0.95366186 1.2823825 0
4.4680004 -0.96323651 1.2845471 0
4.4960003 -0.99171501 1.2906078 0
4.4980001 -0.99956882 1.2910408 0
4.5010004 -1.0076643 1.2916901 0
4.5030003 -1.0155343 1.2921231 0
4.5060005 -1.0236497 1.2927725 0
4.4710002 -0.88313657 1.2778531 0
4.4650002 -0.88923526 1.2765652 0
4.4670005 -0.89698625 1.2769946 0
4.4700003 -0.90495545 1.2776384 0
4.4720001 -0.91272259 1.2780677 0
4.4740005 -0.92049706 1.2784971 0
4.4760003 -0.92827868 1.2789264 0
4.4700003 -0.93432146 1.2776384 0
4.4640002 -0.94034255 1.2763505 0
4.4590001 -0.94656384 1.2752773 0
4.4580002 -0.95366186 1.2750626 0
4.4680004 -0.96323651 1.2772092 0
4.4960003 -0.99171501 1.2832195 0
4.4980001 -0.99956882 1.2836487 0
4.5010004 -1.0076643 1.2842927 0
4.5030003 -1.0155343 1.284722 0
4.5060005 -1.0236497 1.2853661 0
4.4710002 -0.88313657 1.2705098 0
4.4650002 -0.88923526 1.2692327 0
4.4670005 -0.89698625 1.2696584 0
4.4700003 -0.90495545 1.2702969 0
4.4720001 -0.91272259 1.2707226 0
4.4740005 -0.92049706 1.2711484 0
4.4760003 -0.92827868 1.271574 0
4.4700003 -0.93432146 1.2702969 0
4.4640002 -0.94034255 1.2690198 0
4.4590001 -0.94656384 1.2679555 0
4.4580002 -0.95366186 1.2677428 0
4.4680004 -0.96323651 1.2698714 0
4.4960003 -0.99171501 1.2758311 0
4.4980001 -0.99956882 1.2762567 0
4.5010004 -1.0076643 1.2768953 0
4.5030003 -1.0155343 1.277321 0
4.5060005 -1.0236497 1.2779596 0
4.4710002 -0.88313657 1.2631664 0
4.4650002 -0.88923526 1.2619002 0
4.4670005 -0.89698625 1.2623224 0
4.4700003 -0.90495545 1.2629554 0
4.4720001 -0.91272259 1.2633775 0
4.4740005 -0.92049706 1.2637997 0
4.4760003 -0.92827868 1.2642218 0
4.4700003 -0.93432146 1.2629554 0
4.4640002 -0.94034255 1.2616892 0
4.4590001 -0.94656384 1.2606339 0
4.4580002 -0.95366186 1.2604229 0
4.4680004 -0.96323651 1.2625334 0
4.4960003 -0.99171501 1.2684426 0
4.4980001 -0.99956882 1.2688648 0
4.5010004 -1.0076643 1.2694979 0
4.5030003 -1.0155343 1.26992 0
4.5060005 -1.0236497 1.2705531 0
4.4710002 -0.88313657 1.2558233 0
4.4650002 -0.88923526 1.2545677 0
4.4670005 -0.89698625 1.2549863 0
4.4700003 -0.90495545 1.2556139 0
4.4720001 -0.91272259 1.2560323 0
4.4740005 -0.92049706 1.256451 0
4.4760003 -0.92827868 1.2568694 0
4.4700003 -0.93432146 1.2556139 0
4.4640002 -0.94034255 1.2543585 0
4.4590001 -0.94656384 1.2533122 0
4.4580002 -0.95366186 1.253103 0
4.4680004 -0.96323651 1.2551955 0
4.4960003 -0.99171501 1.2610543 0
4.4980001 -0.99956882 1.2614727 0
4.5010004 -1.0076643 1.2621005 0
4.5030003 -1.0155343 1.262519 0
4.5060005 -1.0236497 1.2631468 0
4.4710002 -0.88313657 1.2484798 0
4.4650002 -0.88923526 1.2472353 0
4.4670005 -0.89698625 1.2476501 0
4.4700003 -0.90495545 1.2482724 0
4.4720001 -0.91272259 1.2486873 0
4.4740005 -0.92049706 1.2491022 0
4.4760003 -0.92827868 1.2495171 0
4.4700003 -0.93432146 1.2482724 0
4.4640002 -0.94034255 1.2470279 0
4.4590001 -0.94656384 1.2459906 0
4.4580002 -0.95366186 1.2457832 0
4.4680004 -0.96323651 1.2478576 0
4.4960003 -0.99171501 1.2536658 0
4.4980001 -0.99956882 1.2540808 0
4.5010004 -1.0076643 1.254703 0
4.5030003 -1.0155343 1.2551179 0
4.5060005 -1.0236497 1.2557403 0
4.4710002 -0.88313657 1.2411366 0
4.4650002 -0.88923526 1.2399027 0
4.4670005 -0.89698625 1.2403141 0
4.4700003 -0.90495545 1.2409309 0
4.4720001 -0.91272259 1.2413422 0
4.4740005 -0.92049706 1.2417535 0
4.4760003 -0.92827868 1.2421647 0
4.4700003 -0.93432146 1.2409309 0
4.4640002 -0.94034255 1.2396971 0
4.4590001 -0.94656384 1.2386689 0
4.4580002 -0.95366186 1.2384633 0
4.4680004 -0.96323651 1.2405198 0
4.4960003 -0.99171501 1.2462775 0
4.4980001 -0.99956882 1.2466887 0
4.5010004 -1.0076643 1.2473056 0
4.5030003 -1.0155343 1.2477169 0
4.5060005 -1.0236497 1.2483338 0
4.4710002 -0.88313657 1.2337933 0
4.4650002 -0.88923526 1.2325703 0
4.4670005 -0.89698625 1.232978 0
4.4700003 -0.90495545 1.2335895 0
4.4720001 -0.91272259 1.2339971 0
4.4740005 -0.92049706 1.2344048 0
4.4760003 -0.92827868 1.2348124 0
4.4700003 -0.93432146 1.2335895 0
4.4640002 -0.94034255 1.2323664 0
4.4590001 -0.94656384 1.2313473 0
4.4580002 -0.95366186 1.2311435 0
4.4680004 -0.96323651 1.2331818 0
4.4960003 -0.99171501 1.2388891 0
4.4980001 -0.99956882 1.2392967 0
4.5010004 -1.0076643 1.2399082 0
4.5030003 -1.0155343 1.2403158 0
4.5060005 -1.0236497 1.2409275 0
4.4710002 -0.88313657 1.22645 0
4.4650002 -0.88923526 1.2252377 0
4.4670005 -0.89698625 1.2256418 0
4.4700003 -0.90495545 1.226248 0
4.4720001 -0.91272259 1.2266519 0
4.4740005 -0.92049706 1.227056 0
4.4760003 -0.92827868 1.2274601 0
4.4700003 -0.93432146 1.226248 0
4.4640002 -0.94034255 1.2250358 0
4.4590001 -0.94656384 1.2240256 0
4.4580002 -0.95366186 1.2238235 0
4.4680004 -0.96323651 1.2258439 0
4.4960003 -0.99171501 1.2315006 0
4.4980001 -0.99956882 1.2319047 0
4.5010004 -1.0076643 1.2325108 0
4.5030003 -1.0155343 1.2329148 0
4.5060005 -1.0236497 1.233521 0
4.4710002 -0.88313657 1.2191067 0
4.4650002 -0.88923526 1.2179053 0
4.4670005 -0.89698625 1.2183058 0
4.4700003 -0.90495545 1.2189064 0
4.4720001 -0.91272259 1.2193068 0
4.4740005 -0.92049706 1.2197074 0
4.4760003 -0.92827868 1.2201078 0
4.4700003 -0.93432146 1.2189064 0
4.4640002 -0.94034255 1.2177051 0
4.4590001 -0.94656384 1.216704 0
4.4580002 -0.95366186 1.2165037 0
4.4680004 -0.96323651 1.218506 0
4.4960003 -0.99171501 1.2241123 0
4.4980001 -0.99956882 1.2245127 0
4.5010004 -1.0076643 1.2251134 0
4.5030003 -1.0155343 1.2255138 0
4.5060005 -1.0236497 1.2261145 0
4.4710002 -0.88313657 1.2117634 0
4.4650002 -0.88923526 1.2105728 0
4.4670005 -0.89698625 1.2109698 0
4.4700003 -0.90495545 1.2115649 0
4.4720001 -0.91272259 1.2119617 0
4.4740005 -0.92049706 1.2123587 0
4.4760003 -0.92827868 1.2127554 0
4.4700003 -0.93432146 1.2115649 0
4.4640002 -0.94034255 1.2103745 0
4.4590001 -0.94656384 1.2093823 0
4.4580002 -0.95366186 1.2091839 0
4.4680004 -0.96323651 1.2111682 0
4.4960003 -0.99171501 1.2167239 0
4.4980001 -0.99956882 1.2171206 0
4.5010004 -1.0076643 1.217716 0
4.5030003 -1.0155343 1.2181128 0
4.5060005 -1.0236497 1.218708 0
4.4710002 -0.88313657 1.2044201 0
4.4650002 -0.88923526 1.2032403 0
4.4670005 -0.89698625 1.2036337 0
4.4700003 -0.90495545 1.2042234 0
4.4720001 -0.91272259 1.2046167 0
4.4740005 -0.92049706 1.2050099 0
4.4760003 -0.92827868 1.2054032 0
4.4700003 -0.93432146 1.2042234 0
4.4640002 -0.94034255 1.2030437 0
4.4590001 -0.94656384 1.2020607 0
4.4580002 -0.95366186 1.2018641 0
4.4680004 -0.96323651 1.2038302 0
4.4960003 -0.99171501 1.2093354 0
4.4980001 -0.99956882 1.2097286 0
4.5010004 -1.0076643 1.2103186 0
4.5030003 -1.0155343 1.2107117 0
4.5060005 -1.0236497 1.2113017 0
4.4710002 -0.88313657 1.1970767 0
4.4650002 -0.88923526 1.195908 0
4.4670005 -0.89698625 1.1962975 0
4.4700003 -0.90495545 1.196882 0
4.4720001 -0.91272259 1.1972716 0
4.4740005 -0.92049706 1.1976613 0
4.4760003 -0.92827868 1.1980509 0
4.4700003 -0.93432146 1.196882 0
4.4640002 -0.94034255 1.195713 0
4.4590001 -0.94656384 1.194739 0
4.4580002 -0.95366186 1.1945442 0
4.4680004 -0.96323651 1.1964923 0
4.4960003 -0.99171501 1.2019471 0
4.4980001 -0.99956882 1.2023367 0
4.5010004 -1.0076643 1.2029212 0
4.5030003 -1.0155343 1.2033107 0
4.5060005 -1.0236497 1.2038952 0
4.4710002 -0.88313657 1.1897335 0
4.4650002 -0.88923526 1.1885754 0
4.4670005 -0.89698625 1.1889615 0
4.4700003 -0.90495545 1.1895405 0
4.4720001 -0.91272259 1.1899265 0
4.4740005 -0.92049706 1.1903125 0
4.4760003 -0.92827868 1.1906985 0
4.4700003 -0.93432146 1.1895405 0
4.4640002 -0.94034255 1.1883824 0
4.4590001 -0.94656384 1.1874173 0
4.4580002 -0.95366186 1.1872244 0
4.4680004 -0.96323651 1.1891545 0
4.4960003 -0.99171501 1.1945586 0
4.4980001 -0.99956882 1.1949446 0
4.5010004 -1.0076643 1.1955237 0
4.5030003 -1.0155343 1.1959097 0
4.5060005 -1.0236497 1.1964887 0
4.4710002 -0.88313657 1.1823901 0
4.4650002 -0.88923526 1.1812429 0
4.4670005 -0.89698625 1.1816254 0
4.4700003 -0.90495545 1.182199 0
4.4720001 -0.91272259 1.1825813 0
4.4740005 -0.92049706 1.1829637 0
4.4760003 -0.92827868 1.1833462 0
4.4700003 -0.93432146 1.182199 0
4.4640002 -0.94034255 1.1810517 0
4.4590001 -0.94656384 1.1800957 0
4.4580002 -0.95366186 1.1799045 0
4.4680004 -0.96323651 1.1818166 0
4.4960003 -0.99171501 1.1871703 0
4.4980001 -0.99956882 1.1875526 0
4.5010004 -1.0076643 1.1881263 0
4.5030003 -1.0155343 1.1885087 0
4.5060005 -1.0236497 1.1890824 0
4.4710002 -0.88313657 1.1750468 0
4.4650002 -0.88923526 1.1739105 0
4.4670005 -0.89698625 1.1742893 0
4.4700003 -0.90495545 1.1748574 0
4.4720001 -0.91272259 1.1752362 0
4.4740005 -0.92049706 1.1756151 0
4.4760003 -0.92827868 1.1759938 0
4.4700003 -0.93432146 1.1748574 0
4.4640002 -0.94034255 1.1737211 0
4.4590001 -0.94656384 1.1727741 0
4.4580002 -0.95366186 1.1725847 0
4.4680004 -0.96323651 1.1744787 0
4.4960003 -0.99171501 1.1797818 0
4.4980001 -0.99956882 1.1801606 0
4.5010004 -1.0076643 1.1807289 0
4.5030003 -1.0155343 1.1811076 0
4.5060005 -1.0236497 1.1816759 0
4.4710002 -0.88313657 1.1677035 0
4.4650002 -0.88923526 1.1665779 0
4.4670005 -0.89698625 1.1669532 0
4.4700003 -0.90495545 1.167516 0
4.4720001 -0.91272259 1.1678911 0
4.4740005 -0.92049706 1.1682664 0
4.4760003 -0.92827868 1.1686416 0
4.4700003 -0.93432146 1.167516 0
4.4640002 -0.94034255 1.1663904 0
4.4590001 -0.94656384 1.1654524 0
4.4580002 -0.95366186 1.1652648 0
4.4680004 -0.96323651 1.1671407 0
4.4960003 -0.99171501 1.1723934 0
4.4980001 -0.99956882 1.1727686 0
4.5010004 -1.0076643 1.1733315 0
4.5030003 -1.0155343 1.1737067 0
4.5060005 -1.0236497 1.1742694 0
4.4710002 -0.88313657 1.1603602 0
4.4650002 -0.88923526 1.1592455 0
4.4670005 -0.89698625 1.1596171 0
4.4700003 -0.90495545 1.1601745 0
4.4720001 -0.91272259 1.1605461 0
4.4740005 -0.92049706 1.1609176 0
4.4760003 -0.92827868 1.1612892 0
4.4700003 -0.93432146 1.1601745 0
4.4640002 -0.94034255 1.1590596 0
4.4590001 -0.94656384 1.1581306 0
4.4580002 -0.95366186 1.1579449 0
4.4680004 -0.96323651 1.1598029 0
4.4960003 -0.99171501 1.1650051 0
4.4980001 -0.99956882 1.1653765 0
4.5010004 -1.0076643 1.1659341 0
4.5030003 -1.0155343 1.1663055 0
4.5060005 -1.0236497 1.166863 0
4.4710002 -0.88313657 1.1530169 0
4.4650002 -0.88923526 1.151913 0
4.4670005 -0.89698625 1.152281 0
4.4700003 -0.90495545 1.152833 0
4.4720001 -0.91272259 1.1532009 0
4.4740005 -0.92049706 1.153569 0
4.4760003 -0.92827868 1.1539369 0
4.4700003 -0.93432146 1.152833 0
4.4640002 -0.94034255 1.151729 0
4.4590001 -0.94656384 1.150809 0
4.4580002 -0.95366186 1.1506251 0
4.4680004 -0.96323651 1.152465 0
4.4960003 -0.99171501 1.1576166 0
4.4980001 -0.99956882 1.1579846 0
4.5010004 -1.0076643 1.1585367 0
4.5030003 -1.0155343 1.1589046 0
4.5060005 -1.0236497 1.1594566 0
4.4710002 -0.88313657 1.1456736 0
4.4650002 -0.88923526 1.1445805 0
4.4670005 -0.89698625 1.1449449 0
4.4700003 -0.90495545 1.1454915 0
4.4720001 -0.91272259 1.1458558 0
4.4740005 -0.92049706 1.1462202 0
4.4760003 -0.92827868 1.1465846 0
4.4700003 -0.93432146 1.1454915 0
4.4640002 -0.94034255 1.1443983 0
4.4590001 -0.94656384 1.1434875 0
4.4580002 -0.95366186 1.1433052 0
4.4680004 -0.96323651 1.1451272 0
4.4960003 -0.99171501 1.1502283 0
4.4980001 -0.99956882 1.1505926 0
4.5010004 -1.0076643 1.1511391 0
4.5030003 -1.0155343 1.1515036 0
4.5060005 -1.0236497 1.1520501 0
4.4710002 -0.88313657 1.1383303 0
4.4650002 -0.88923526 1.137248 0
4.4670005 -0.89698625 1.1376089 0
4.4700003 -0.90495545 1.13815 0
4.4720001 -0.91272259 1.1385107 0
4.4740005 -0.92049706 1.1388716 0
4.4760003 -0.92827868 1.1392323 0
4.4700003 -0.93432146 1.13815 0
4.4640002 -0.94034255 1.1370677 0
4.4590001 -0.94656384 1.1361657 0
4.4580002 -0.95366186 1.1359854 0
4.4680004 -0.96323651 1.1377892 0
4.4960003 -0.99171501 1.1428398 0
4.4980001 -0.99956882 1.1432006 0
4.5010004 -1.0076643 1.1437418 0
4.5030003 -1.0155343 1.1441026 0
4.5060005 -1.0236497 1.1446437 0
4.4710002 -0.88313657 1.130987 0
4.4650002 -0.88923526 1.1299156 0
4.4670005 -0.89698625 1.1302727 0
4.4700003 -0.90495545 1.1308085 0
4.4720001 -0.91272259 1.1311656 0
4.4740005 -0.92049706 1.1315228 0
4.4760003 -0.92827868 1.1318799 0
4.4700003 -0.93432146 1.1308085 0
4.4640002 -0.94034255 1.129737 0
4.4590001 -0.94656384 1.1288441 0
4.4580002 -0.95366186 1.1286656 0
4.4680004 -0.96323651 1.1304513 0
4.4960003 -0.99171501 1.1354514 0
4.4980001 -0.99956882 1.1358086 0
4.5010004 -1.0076643 1.1363443 0
4.5030003 -1.0155343 1.1367015 0
4.5060005 -1.0236497 1.1372373 0
4.4710002 -0.88313657 1.1236438 0
4.4650002 -0.88923526 1.122583 0
4.4670005 -0.89698625 1.1229367 0
4.4700003 -0.90495545 1.123467 0
4.4720001 -0.91272259 1.1238204 0
4.4740005 -0.92049706 1.1241741 0
4.4760003 -0.92827868 1.1245276 0
4.4700003 -0.93432146 1.123467 0
4.4640002 -0.94034255 1.1224062 0
4.4590001 -0.94656384 1.1215224 0
4.4580002 -0.95366186 1.1213456 0
4.4680004 -0.96323651 1.1231134 0
4.4960003 -0.99171501 1.1280631 0
4.4980001 -0.99956882 1.1284165 0
4.5010004 -1.0076643 1.128947 0
4.5030003 -1.0155343 1.1293005 0
4.5060005 -1.0236497 1.1298308 0
4.4710002 -0.88313657 1.1163005 0
4.4650002 -0.88923526 1.1152506 0
4.4670005 -0.89698625 1.1156006 0
4.4700003 -0.90495545 1.1161255 0
4.4720001 -0.91272259 1.1164753 0
4.4740005 -0.92049706 1.1168253 0
4.4760003 -0.92827868 1.1171752 0
4.4700003 -0.93432146 1.1161255 0
4.4640002 -0.94034255 1.1150756 0
4.4590001 -0.94656384 1.1142007 0
4.4580002 -0.95366186 1.1140258 0
4.4680004 -0.96323651 1.1157756 0
4.4960003 -0.99171501 1.1206746 0
4.4980001 -0.99956882 1.1210246 0
4.5010004 -1.0076643 1.1215495 0
4.5030003 -1.0155343 1.1218995 0
4.5060005 -1.0236497 1.1224244 0
4.4710002 -0.88313657 1.1089572 0
4.4650002 -0.88923526 1.1079181 0
4.4670005 -0.89698625 1.1082644 0
4.4700003 -0.90495545 1.108784 0
4.4720001 -0.91272259 1.1091303 0
4.4740005 -0.92049706 1.1094767 0
4.4760003 -0.92827868 1.109823 0
4.4700003 -0.93432146 1.108784 0
4.4640002 -0.94034255 1.1077449 0
4.4590001 -0.94656384 1.1068791 0
4.4580002 -0.95366186 1.1067059 0
4.4680004 -0.96323651 1.1084377 0
4.4960003 -0.99171501 1.1132863 0
4.4980001 -0.99956882 1.1136326 0
4.5010004 -1.0076643 1.1141522 0
4.5030003 -1.0155343 1.1144984 0
4.5060005 -1.0236497 1.1150179 0
4.4710002 -0.88313657 1.1016138 0
4.4650002 -0.88923526 1.1005857 0
4.4670005 -0.89698625 1.1009284 0
4.4700003 -0.90495545 1.1014425 0
4.4720001 -0.91272259 1.1017852 0
4.4740005 -0.92049706 1.1021279 0
4.4760003 -0.92827868 1.1024706 0
4.4700003 -0.93432146 1.1014425 0
4.4640002 -0.94034255 1.1004143 0
4.4590001 -0.94656384 1.0995575 0
4.4580002 -0.95366186 1.0993861 0
4.4680004 -0.96323651 1.1010997 0
4.4960003 -0.99171501 1.1058979 0
4.4980001 -0.99956882 1.1062405 0
4.5010004 -1.0076643 1.1067547 0
4.5030003 -1.0155343 1.1070974 0
4.5060005 -1.0236497 1.1076115 0
4.4710002 -0.88313657 1.0942705 0
4.4650002 -0.88923526 1.0932531 0
4.4670005 -0.89698625 1.0935923 0
4.4700003 -0.90495545 1.094101 0
4.4720001 -0.91272259 1.0944401 0
4.4740005 -0.92049706 1.0947793 0
4.4760003 -0.92827868 1.0951183 0
4.4700003 -0.93432146 1.094101 0
4.4640002 -0.94034255 1.0930836 0
4.4590001 -0.94656384 1.0922358 0
4.4580002 -0.95366186 1.0920663 0
4.4680004 -0.96323651 1.0937619 0
4.4960003 -0.99171501 1.0985094 0
4.4980001 -0.99956882 1.0988486 0
4.5010004 -1.0076643 1.0993572 0
4.5030003 -1.0155343 1.0996964 0
4.5060005 -1.0236497 1.1002051 0
4.4710002 -0.88313657 1.0869272 0
4.4650002 -0.88923526 1.0859207 0
4.4670005 -0.89698625 1.0862563 0
4.4700003 -0.90495545 1.0867594 0
4.4720001 -0.91272259 1.087095 0
4.4740005 -0.92049706 1.0874305 0
4.4760003 -0.92827868 1.0877661 0
4.4700003 -0.93432146 1.0867594 0
4.4650002 -0.94056255 1.0859207 0
4.4590001 -0.94656384 1.0849141 0
4.4580002 -0.95366186 1.0847464 0
4.4680004 -0.96323651 1.086424 0
4.4960003 -0.99171501 1.0911211 0
4.4980001 -0.99956882 1.0914565 0
4.5010004 -1.0076643 1.0919598 0
4.5030003 -1.0155343 1.0922953 0
4.5060005 -1.0236497 1.0927986 0
4.4710002 -0.88313657 1.0795839 0
4.4650002 -0.88923526 1.0785882 0
4.4670005 -0.89698625 1.0789201 0
4.4700003 -0.90495545 1.0794179 0
4.4720001 -0.91272259 1.0797498 0
4.4740005 -0.92049706 1.0800818 0
4.4760003 -0.92827868 1.0804137 0
4.4700003 -0.93432146 1.0794179 0
4.4650002 -0.94056255 1.0785882 0
4.4590001 -0.94656384 1.0775925 0
4.4580002 -0.95366186 1.0774266 0
4.4680004 -0.96323651 1.0790861 0
4.4960003 -0.99171501 1.0837327 0
4.4980001 -0.99956882 1.0840645 0
4.5010004 -1.0076643 1.0845624 0
4.5030003 -1.0155343 1.0848943 0
4.5060005 -1.0236497 1.0853922 0
4.4710002 -0.88313657 1.0722406 0
4.4650002 -0.88923526 1.0712557 0
4.4670005 -0.89698625 1.0715841 0
4.4700003 -0.90495545 1.0720764 0
4.4720001 -0.91272259 1.0724047 0
4.4740005 -0.92049706 1.072733 0
4.4760003 -0.92827868 1.0730613 0
4.4700003 -0.93432146 1.0720764 0
4.4650002 -0.94056255 1.0712557 0
4.4590001 -0.94656384 1.0702708 0
4.4580002 -0.95366186 1.0701067 0
4.4680004 -0.96323651 1.0717481 0
4.4960003 -0.99171501 1.0763443 0
4.4980001 -0.99956882 1.0766726 0
4.5010004 -1.0076643 1.077165 0
4.5030003 -1.0155343 1.0774933 0
4.5060005 -1.0236497 1.0779858 0
4.4710002 -0.88313657 1.0648973 0
4.4650002 -0.88923526 1.0639232 0
4.4670005 -0.89698625 1.064248 0
4.4700003 -0.90495545 1.0647349 0
4.4720001 -0.91272259 1.0650597 0
4.4740005 -0.92049706 1.0653844 0
4.4760003 -0.92827868 1.065709 0
4.4700003 -0.93432146 1.0647349 0
4.4650002 -0.94056255 1.0639232 0
4.4590001 -0.94656384 1.0629492 0
4.4580002 -0.95366186 1.0627868 0
4.4680004 -0.96323651 1.0644103 0
4.4960003 -0.99171501 1.0689559 0
4.4980001 -0.99956882 1.0692805 0
4.5010004 -1.0076643 1.0697676 0
4.5030003 -1.0155343 1.0700923 0
4.5060005 -1.0236497 1.0705793 0
4.4710002 -0.88313657 1.057554 0
4.4650002 -0.88923526 1.0565908 0
4.4670005 -0.89698625 1.0569119 0
4.4700003 -0.90495545 1.0573934 0
4.4720001 -0.91272259 1.0577145 0
4.4740005 -0.92049706 1.0580356 0
4.4760003 -0.92827868 1.0583566 0
4.4700003 -0.93432146 1.0573934 0
4.4650002 -0.94056255 1.0565908 0
4.4590001 -0.94656384 1.0556275 0
4.4580002 -0.95366186 1.055467 0
4.4680004 -0.96323651 1.0570724 0
4.4960003 -0.99171501 1.0615674 0
4.4980001 -0.99956882 1.0618886 0
4.5010004 -1.0076643 1.0623702 0
4.5030003 -1.0155343 1.0626912 0
4.5060005 -1.0236497 1.0631729 0
4.4710002 -0.88313657 1.0502107 0
4.4650002 -0.88923526 1.0492582 0
4.4670005 -0.89698625 1.0495758 0
4.4700003 -0.90495545 1.0500519 0
4.4720001 -0.91272259 1.0503694 0
4.4740005 -0.92049706 1.050687 0
4.4760003 -0.92827868 1.0510044 0
4.4700003 -0.93432146 1.0500519 0
4.4650002 -0.94056255 1.0492582 0
4.4590001 -0.94656384 1.0483059 0
4.4580002 -0.95366186 1.0481471 0
4.4680004 -0.96323651 1.0497346 0
4.4960003 -0.99171501 1.0541791 0
4.4980001 -0.99956882 1.0544965 0
4.5010004 -1.0076643 1.0549728 0
4.5030003 -1.0155343 1.0552902 0
4.5060005 -1.0236497 1.0557665 0
4.4710002 -0.88313657 1.0428674 0
4.4650002 -0.88923526 1.0419258 0
4.4670005 -0.89698625 1.0422397 0
4.4700003 -0.90495545 1.0427105 0
4.4720001 -0.91272259 1.0430243 0
4.4740005 -0.92049706 1.0433382 0
4.4760003 -0.92827868 1.0436521 0
4.4700003 -0.93432146 1.0427105 0
4.4650002 -0.94056255 1.0419258 0
4.4590001 -0.94656384 1.0409842 0
4.4580002 -0.95366186 1.0408273 0
4.4680004 -0.96323651 1.0423967 0
4.4960003 -0.99171501 1.0467907 0
4.4980001 -0.99956882 1.0471045 0
4.5010004 -1.0076643 1.0475754 0
4.5030003 -1.0155343 1.0478892 0
4.5060005 -1.0236497 1.0483601 0
4.4710002 -0.88313657 1.0355241 0
4.4650002 -0.88923526 1.0345933 0
4.4670005 -0.89698625 1.0349036 0
4.4700003 -0.90495545 1.0353689 0
4.4720001 -0.91272259 1.0356792 0
4.4740005 -0.92049706 1.0359895 0
4.4760003 -0.92827868 1.0362997 0
4.4700003 -0.93432146 1.0353689 0
4.4650002 -0.94056255 1.0345933 0
4.4590001 -0.94656384 1.0336626 0
4.4580002 -0.95366186 1.0335075 0
4.4680004 -0.96323651 1.0350587 0
4.4960003 -0.99171501 1.0394022 0
4.4980001 -0.99956882 1.0397125 0
4.5010004 -1.0076643 1.0401779 0
4.5030003 -1.0155343 1.0404881 0
4.5060005 -1.0236497 1.0409536 0
4.4710002 -0.88313657 1.0281807 0
4.4650002 -0.88923526 1.0272608 0
4.4670005 -0.89698625 1.0275675 0
4.4700003 -0.90495545 1.0280274 0
4.4720001 -0.91272259 1.028334 0
4.4740005 -0.92049706 1.0286409 0
4.4760003 -0.92827868 1.0289475 0
4.4700003 -0.93432146 1.0280274 0
4.4650002 -0.94056255 1.0272608 0
4.4590001 -0.94656384 1.026341 0
4.4580002 -0.95366186 1.0261875 0
4.4680004 -0.96323651 1.0277208 0
4.4960003 -0.99171501 1.0320139 0
4.4980001 -0.99956882 1.0323205 0
4.5010004 -1.0076643 1.0327805 0
4.5030003 -1.0155343 1.0330871 0
4.5060005 -1.0236497 1.0335472 0
4.4710002 -0.88313657 1.0208375 0
4.4650002 -0.88923526 1.0199283 0
4.4670005 -0.89698625 1.0202314 0
4.4700003 -0.90495545 1.0206859 0
4.4720001 -0.91272259 1.0209889 0
4.4740005 -0.92049706 1.0212921 0
4.4760003 -0.92827868 1.0215951 0
4.4700003 -0.93432146 1.0206859 0
4.4650002 -0.94056255 1.0199283 0
4.4590001 -0.94656384 1.0190192 0
4.4580002 -0.95366186 1.0188677 0
4.4680004 -0.96323651 1.020383 0
4.4960003 -0.99171501 1.0246255 0
4.4980001 -0.99956882 1.0249285 0
4.5010004 -1.0076643 1.0253831 0
4.5030003 -1.0155343 1.0256861 0
4.5060005 -1.0236497 1.0261407 0
4.4710002 -0.88313657 1.0134941 0
4.4650002 -0.88923526 1.0125959 0
4.4670005 -0.89698625 1.0128953 0
4.4700003 -0.90495545 1.0133445 0
4.4720001 -0.91272259 1.0136439 0
4.4740005 -0.92049706 1.0139433 0
4.4760003 -0.92827868 1.0142428 0
4.4700003 -0.93432146 1.0133445 0
4.4650002 -0.94056255 1.0125959 0
4.4590001 -0.94656384 1.0116975 0
4.4580002 -0.95366186 1.0115478 0
4.4680004 -0.96323651 1.0130451 0
4.4960003 -0.99171501 1.0172371 0
4.4980001 -0.99956882 1.0175365 0
4.5010004 -1.0076643 1.0179857 0
4.5030003 -1.0155343 1.018285 0
4.5060005 -1.0236497 1.0187343 0
4.4710002 -0.88313657 1.0061508 0
4.4650002 -0.88923526 1.0052634 0
4.4670005 -0.89698625 1.0055592 0
4.4700003 -0.90495545 1.006003 0
4.4720001 -0.91272259 1.0062988 0
4.4740005 -0.92049706 1.0065947 0
4.4760003 -0.92827868 1.0068904 0
4.4700003 -0.93432146 1.006003 0
4.4650002 -0.94056255 1.0052634 0
4.4590001 -0.94656384 1.0043759 0
4.4580002 -0.95366186 1.004228 0
4.4680004 -0.96323651 1.0057071 0
4.4960003 -0.99171501 1.0098487 0
4.4980001 -0.99956882 1.0101445 0
4.5010004 -1.0076643 1.0105883 0
4.5030003 -1.0155343 1.010884 0
4.5060005 -1.0236497 1.0113279 0
4.4710002 -0.88313657 0.99880755 0
4.4650002 -0.88923526 0.99793088 0
4.4670005 -0.89698625 0.99822319 0
4.4700003 -0.90495545 0.99866152 0
4.4720001 -0.91272259 0.9989537 0
4.4740005 -0.92049706 0.99924588 0
4.4760003 -0.92827868 0.99953806 0
4.4700003 -0.93432146 0.99866152 0
4.4650002 -0.94056255 0.99793088 0
4.4590001 -0.94656384 0.99705422 0
4.4580002 -0.95366186 0.99690819 0
4.4680004 -0.96323651 0.99836922 0
4.4960003 -0.99171501 1.0024602 0
4.4980001 -0.99956882 1.0027525 0
4.5010004 -1.0076643 1.0031909 0
4.5030003 -1.0155343 1.0034831 0
4.5060005 -1.0236497 1.0039214 0
4.4710002 -0.88313657 0.99146426 0
4.4650002 -0.88923526 0.99059844 0
4.4670005 -0.89698625 0.99088717 0
4.4700003 -0.90495545 0.99132001 0
4.4720001 -0.91272259 0.99160862 0
4.4740005 -0.92049706 0.99189723 0
4.4760003 -0.92827868 0.99218583 0
4.4700003 -0.93432146 0.99132001 0
4.4650002 -0.94056255 0.99059844 0
4.4590001 -0.94656384 0.98973262 0
4.4580002 -0.95366186 0.98958826 0
4.4680004 -0.96323651 0.99103141 0
4.4960003 -0.99171501 0.99507189 0
4.4980001 -0.99956882 0.99536049 0
4.5010004 -1.0076643 0.99579346 0
4.5030003 -1.0155343 0.99608207 0
4.5060005 -1.0236497 0.99651504 0
4.4710002 -0.88313657 0.98412097 0
4.4650002 -0.88923526 0.983266 0
4.4670005 -0.89698625 0.98355103 0
4.4700003 -0.90495545 0.98397839 0
4.4720001 -0.91272259 0.98426342 0
4.4740005 -0.92049706 0.98454857 0
4.4760003 -0.92827868 0.98483348 0
4.4700003 -0.93432146 0.98397839 0
4.4650002 -0.94056255 0.983266 0
4.4590001 -0.94656384 0.98241091 0
4.4580002 -0.95366186 0.98226845 0
4.4680004 -0.96323651 0.98369348 0
4.4960003 -0.99171501 0.98768353 0
4.4980001 -0.99956882 0.98796844 0
4.5010004 -1.0076643 0.98839605 0
4.5030003 -1.0155343 0.98868108 0
4.5060005 -1.0236497 0.98910856 0
4.4710002 -0.88313657 0.97677767 0
4.4650002 -0.88923526 0.97593343 0
4.4670005 -0.89698625 0.97621489 0
4.4700003 -0.90495545 0.97663701 0
4.4720001 -0.91272259 0.97691834 0
4.4740005 -0.92049706 0.97719979 0
4.4760003 -0.92827868 0.97748113 0
4.4700003 -0.93432146 0.97663701 0
4.4650002 -0.94056255 0.97593343 0
4.4590001 -0.94656384 0.97508931 0
4.4580002 -0.95366186 0.97494864 0
4.4680004 -0.96323651 0.97635555 0
4.4960003 -0.99171501 0.98029506 0
4.4980001 -0.99956882 0.98057652 0
4.5010004 -1.0076643 0.98099864 0
4.5030003 -1.0155343 0.98127997 0
4.5060005 -1.0236497 0.98170209 0
4.4710002 -0.88313657 0.96943438 0
4.4650002 -0.88923526 0.96860099 0
4.4670005 -0.89698625 0.96887887 0
4.4700003 -0.90495545 0.9692955 0
4.4720001 -0.91272259 0.96957326 0
4.4740005 -0.92049706 0.96985102 0
4.4760003 -0.92827868 0.97012889 0
4.4700003 -0.93432146 0.9692955 0
4.4650002 -0.94056255 0.96860099 0
4.4590001 -0.94656384 0.9677676 0
4.4580002 -0.95366186 0.96762872 0
4.4680004 -0.96323651 0.96901774 0
4.4960003 -0.99171501 0.97290671 0
4.4980001 -0.99956882 0.97318447 0
4.5010004 -1.0076643 0.97360122 0
4.5030003 -1.0155343 0.97387898 0
4.5060005 -1.0236497 0.97429562 0
4.4710002 -0.88313657 0.96209109 0
4.4650002 -0.88923526 0.96126854 0
4.4670005 -0.89698625 0.96154273 0
4.4700003 -0.90495545 0.961954 0
4.4720001 -0.91272259 0.96222818 0
4.4740005 -0.92049706 0.96250236 0
4.4760003 -0.92827868 0.96277654 0
4.4700003 -0.93432146 0.961954 0
4.4650002 -0.94056255 0.96126854 0
4.4590001 -0.94656384 0.960446 0
4.4580002 -0.95366186 0.96030891 0
4.4680004 -0.96323651 0.96167982 0
4.4960003 -0.99171501 0.96551836 0
4.4980001 -0.99956882 0.96579242 0
4.5010004 -1.0076643 0.96620381 0
4.5030003 -1.0155343 0.96647787 0
4.5060005 -1.0236497 0.96688926 0
4.4710002 -0.88313657 0.9547478 0
4.4650002 -0.88923526 0.95393598 0
4.4670005 -0.89698625 0.95420659 0
4.4700003 -0.90495545 0.95461249 0
4.4720001 -0.91272259 0.95488298 0
4.4740005 -0.92049706 0.95515358 0
4.4760003 -0.92827868 0.95542419 0
4.4700003 -0.93432146 0.95461249 0
4.4650002 -0.94056255 0.95393598 0
4.4590001 -0.94656384 0.95312428 0
4.4580002 -0.95366186 0.95298898 0
4.4680004 -0.96323651 0.95434189 0
4.4960003 -0.99171501 0.95812988 0
4.4980001 -0.99956882 0.95840049 0
4.5010004 -1.0076643 0.95880628 0
4.5030003 -1.0155343 0.95907688 0
4.5060005 -1.0236497 0.95948279 0
4.4710002 -0.88313657 0.94740438 0
4.4650002 -0.88923526 0.94660354 0
4.4670005 -0.89698625 0.94687057 0
4.4700003 -0.90495545 0.94727099 0
4.4720001 -0.91272259 0.9475379 0
4.4740005 -0.92049706 0.94780493 0
4.4760003 -0.92827868 0.94807184 0
4.4700003 -0.93432146 0.94727099 0
4.4650002 -0.94056255 0.94660354 0
4.4590001 -0.94656384 0.94580269 0
4.4580002 -0.95366186 0.94566917 0
4.4680004 -0.96323651 0.94700396 0
4.4960003 -0.99171501 0.95074153 0
4.4980001 -0.99956882 0.95100844 0
4.5010004 -1.0076643 0.95140898 0
4.5030003 -1.0155343 0.95167589 0
4.5060005 -1.0236497 0.95207632 0
4.4710002 -0.88313657 0.94006121 0
4.4650002 -0.88923526 0.93927109 0
4.4670005 -0.89698625 0.93953443 0
4.4700003 -0.90495545 0.93992949 0
4.4720001 -0.91272259 0.94019282 0
4.4740005 -0.92049706 0.94045627 0
4.4760003 -0.92827868 0.94071949 0
4.4700003 -0.93432146 0.93992949 0
4.4650002 -0.94056255 0.93927109 0
4.4590001 -0.94656384 0.93848097 0
4.4580002 -0.95366186 0.93834937 0
4.4680004 -0.96323651 0.93966615 0
4.4960003 -0.99171501 0.94335318 0
4.4980001 -0.99956882 0.94361639 0
4.5010004 -1.0076643 0.94401145 0
4.5030003 -1.0155343 0.9442749 0
4.5060005 -1.0236497 0.94466996 0
4.4710002 -0.88313657 0.9327178 0
4.4650002 -0.88923526 0.93193853 0
4.4670005 -0.89698625 0.93219841 0
4.4700003 -0.90495545 0.93258798 0
4.4720001 -0.91272259 0.93284774 0
4.4740005 -0.92049706 0.9331075 0
4.4760003 -0.92827868 0.93336725 0
4.4700003 -0.93432146 0.93258798 0
4.4650002 -0.94056255 0.93193853 0
4.4590001 -0.94656384 0.93115926 0
4.4580002 -0.95366186 0.93102944 0
4.4680004 -0.96323651 0.93232822 0
4.4960003 -0.99171501 0.9359647 0
4.4980001 -0.99956882 0.93622446 0
4.5010004 -1.0076643 0.93661416 0
4.5030003 -1.0155343 0.93687379 0
4.5060005 -1.0236497 0.93726349 0
4.4710002 -0.88313657 0.92537451 0
4.4650002 -0.88923526 0.92460608 0
4.4670005 -0.89698625 0.92486227 0
4.4700003 -0.90495545 0.92524648 0
4.4720001 -0.91272259 0.92550254 0
4.4740005 -0.92049706 0.92575884 0
4.4760003 -0.92827868 0.9260149 0
4.4700003 -0.93432146 0.92524648 0
4.4650002 -0.94056255 0.92460608 0
4.4590001 -0.94656384 0.92383766 0
4.4580002 -0.95366186 0.92370963 0
4.4680004 -0.96323651 0.92499042 0
4.4960003 -0.99171501 0.92857635 0
4.4980001 -0.99956882 0.92883241 0
4.5010004 -1.0076643 0.92921662 0
4.5030003 -1.0155343 0.9294728 0
4.5060005 -1.0236497 0.92985702 0
4.4710002 -0.88313657 0.91803122 0
4.4650002 -0.88923526 0.91727364 0
4.4670005 -0.89698625 0.91752625 0
4.4700003 -0.90495545 0.91790497 0
4.4720001 -0.91272259 0.91815746 0
4.4740005 -0.92049706 0.91841006 0
4.4760003 -0.92827868 0.91866255 0
4.4700003 -0.93432146 0.91790497 0
4.4650002 -0.94056255 0.91727364 0
4.4590001 -0.94656384 0.91651607 0
4.4580002 -0.95366186 0.9163897 0
4.4680004 -0.96323651 0.91765249 0
4.4960003 -0.99171501 0.92118788 0
4.4980001 -0.99956882 0.92144048 0
4.5010004 -1.0076643 0.92181921 0
4.5030003 -1.0155343 0.92207181 0
4.5060005 -1.0236497 0.92245066 0
4.4710002 -0.88313657 0.91068792 0
4.4650002 -0.88923526 0.9099412 0
4.4670005 -0.89698625 0.91019011 0
4.4700003 -0.90495545 0.91056347 0
4.4720001 -0.91272259 0.91081238 0
4.4740005 -0.92049706 0.91106129 0
4.4760003 -0.92827868 0.91131032 0
4.4700003 -0.93432146 0.91056347 0
4.4650002 -0.94056255 0.9099412 0
4.4590001 -0.94656384 0.90919435 0
4.4580002 -0.95366186 0.9090699 0
4.4680004 -0.96323651 0.91031456 0
4.4960003 -0.99171501 0.91379952 0
4.4980001 -0.99956882 0.91404843 0
4.5010004 -1.0076643 0.9144218 0
4.5030003 -1.0155343 0.91467083 0
4.5060005 -1.0236497 0.91504419 0
4.4710002 -0.88313657 0.90334463 0
4.4650002 -0.88923526 0.90260869 0
4.4670005 -0.89698625 0.90285403 0
4.4700003 -0.90495545 0.90322196 0
4.4720001 -0.91272259 0.9034673 0
4.4740005 -0.92049706 0.90371263 0
4.4760003 -0.92827868 0.90395796 0
4.4700003 -0.93432146 0.90322196 0
4.4650002 -0.94056255 0.90260869 0
4.4590001 -0.94656384 0.90187269 0
4.4580002 -0.95366186 0.90175009 0
4.4680004 -0.96323651 0.90297669 0
4.4960003 -0.99171501 0.90641117 0
4.4980001 -0.99956882 0.90665638 0
4.5010004 -1.0076643 0.90702438 0
4.5030003 -1.0155343 0.90726972 0
4.5060005 -1.0236497 0.90763772 0
4.4710002 -0.88313657 0.89600134 0
4.4650002 -0.88923526 0.89527619 0
4.4670005 -0.89698625 0.89551795 0
4.4700003 -0.90495545 0.89588046 0
4.4720001 -0.91272259 0.89612222 0
4.4740005 -0.92049706 0.89636397 0
4.4760003 -0.92827868 0.89660561 0
4.4700003 -0.93432146 0.89588046 0
4.4650002 -0.94056255 0.89527619 0
4.4590001 -0.94656384 0.89455104 0
4.4580002 -0.95366186 0.89443022 0
4.4680004 -0.96323651 0.89563882 0
4.4960003 -0.99171501 0.8990227 0
4.4980001 -0.99956882 0.89926445 0
4.5010004 -1.0076643 0.89962703 0
4.5030003 -1.0155343 0.89986867 0
4.5060005 -1.0236497 0.90023124 0
4.4710002 -0.88313657 0.88865805 0
4.4650002 -0.88923526 0.88794374 0
4.4670005 -0.89698625 0.88818187 0
4.4700003 -0.90495545 0.88853902 0
4.4720001 -0.91272259 0.88877708 0
4.4740005 -0.92049706 0.8890152 0
4.4760003 -0.92827868 0.88925332 0
4.4700003 -0.93432146 0.88853902 0
4.4650002 -0.94056255 0.88794374 0
4.4590001 -0.94656384 0.88722944 0
4.4580002 -0.95366186 0.88711035 0
4.4680004 -0.96323651 0.8883009 0
4.4960003 -0.99171501 0.89163429 0
4.4980001 -0.99956882 0.89187241 0
4.5010004 -1.0076643 0.89222956 0
4.5030003 -1.0155343 0.89246762 0
4.5060005 -1.0236497 0.89282489 0
4.4710002 -0.88313657 0.88131475 0
4.4650002 -0.88923526 0.88061124 0
4.4670005 -0.89698625 0.88084573 0
4.4700003 -0.90495545 0.88119745 0
4.4720001 -0.91272259 0.88143194 0
4.4740005 -0.92049706 0.88166654 0
4.4760003 -0.92827868 0.88190091 0
4.4700003 -0.93432146 0.88119745 0
4.4650002 -0.94056255 0.88061124 0
4.4590001 -0.94656384 0.87990773 0
4.4580002 -0.95366186 0.87979054 0
4.4680004 -0.96323651 0.88096297 0
4.4960003 -0.99171501 0.88424593 0
4.4980001 -0.99956882 0.88448036 0
4.5010004 -1.0076643 0.8848322 0
4.5030003 -1.0155343 0.88506663 0
4.5060005 -1.0236497 0.88541842 0
4.4710002 -0.88313657 0.8739714 0
4.4650002 -0.88923526 0.87327874 0
4.4670005 -0.89698625 0.87350965 0
4.4700003 -0.90495545 0.87385595 0
4.4720001 -0.91272259 0.87408686 0
4.4740005 -0.92049706 0.87431777 0
4.4760003 -0.92827868 0.87454867 0
4.4700003 -0.93432146 0.87385595 0
4.4650002 -0.94056255 0.87327874 0
4.4590001 -0.94656384 0.87258607 0
4.4580002 -0.95366186 0.87247062 0
4.4680004 -0.96323651 0.8736251 0
4.4960003 -0.99171501 0.87685752 0
4.4980001 -0.99956882 0.87708843 0
4.5010004 -1.0076643 0.87743473 0
4.5030003 -1.0155343 0.87766564 0
4.5060005 -1.0236497 0.87801194 0
4.4710002 -0.88313657 0.86662805 0
4.4650002 -0.88923526 0.86594629 0
4.4670005 -0.89698625 0.86617362 0
4.4700003 -0.90495545 0.86651444 0
4.4720001 -0.91272259 0.86674178 0
4.4740005 -0.92049706 0.86696905 0
4.4760003 -0.92827868 0.86719632 0
4.4700003 -0.93432146 0.86651444 0
4.4650002 -0.94056255 0.86594629 0
4.4590001 -0.94656384 0.86526442 0
4.4580002 -0.95366186 0.86515081 0
4.4680004 -0.96323651 0.86628723 0
4.4960003 -0.99171501 0.86946911 0
4.4980001 -0.99956882 0.86969638 0
4.5010004 -1.0076643 0.87003732 0
4.5030003 -1.0155343 0.87026459 0
4.5060005 -1.0236497 0.87060559 0
4.4710002 -0.88313657 0.85928482 0
4.4650002 -0.88923526 0.85861379 0
4.4670005 -0.89698625 0.85883749 0
4.4700003 -0.90495545 0.85917294 0
4.4720001 -0.91272259 0.85939664 0
4.4740005 -0.92049706 0.85962033 0
4.4760003 -0.92827868 0.85984397 0
4.4700003 -0.93432146 0.85917294 0
4.4650002 -0.94056255 0.85861379 0
4.4590001 -0.94656384 0.85794276 0
4.4580002 -0.95366186 0.85783094 0
4.4680004 -0.96323651 0.8589493 0
4.4960003 -0.99171501 0.86208069 0
4.4980001 -0.99956882 0.86230439 0
4.5010004 -1.0076643 0.8626399 0
4.5030003 -1.0155343 0.86286354 0
4.5060005 -1.0236497 0.86319911 0
4.4710002 -0.88313657 0.85194153 0
4.4650002 -0.88923526 0.85128129 0
4.4670005 -0.89698625 0.85150141 0
4.4700003 -0.90495545 0.85183144 0
4.4720001 -0.91272259 0.8520515 0
4.4740005 -0.92049706 0.85227168 0
4.4760003 -0.92827868 0.85249168 0
4.4700003 -0.93432146 0.85183144 0
4.4650002 -0.94056255 0.85128129 0
