# .PCD v0.7 - Point Cloud Data file format
VERSION 0.7
FIELDS x y z intensity
SIZE 4 4 4 4
TYPE F F F F
COUNT 1 1 1 1
WIDTH 1458
HEIGHT 1
VIEWPOINT 0 0 0 1 0 0 0
POINTS 1458
DATA ascii
4.3720002 2.2252181 0.24637604 0
4.3759999 2.2203333 0.24621731 0
4.3800001 2.2154343 0.24605857 0
4.3840003 2.2105207 0.24589983 0
4.388 2.2055926 0.2457411 0
4.3920002 2.2006502 0.24558236 0
4.3960004 2.1956935 0.24542363 0
4.4000001 2.190722 0.2452649 0
4.4040003 2.1857364 0.24510615 0
4.4080005 2.1807363 0.2449474 0
4.4120002 2.1757219 0.24478869 0
4.4170003 2.1712446 0.24459025 0
4.4210005 2.1661997 0.24443153 0
4.4250002 2.1611395 0.2442728 0
4.4290004 2.1560657 0.24411406 0
4.4330001 2.1509769 0.24395533 0
4.4370003 2.1458743 0.24379659 0
4.4410005 2.1407566 0.24363784 0
4.4450002 2.1356249 0.24347912 0
4.4500003 2.131016 0.24328069 0
4.4540005 2.1258538 0.24312195 0
4.4580002 2.1206765 0.24296324 0
4.4620004 2.1154854 0.2428045 0
4.4660001 2.1102796 0.24264577 0
4.4710002 2.1055877 0.24244735 0
4.4750004 2.1003513 0.2422886 0
4.4790001 2.0951004 0.24212988 0
4.4830003 2.0898352 0.24197114 0
4.4880004 2.0850768 0.24177271 0
4.4920001 2.0797806 0.24161398 0
4.4960003 2.0744703 0.24145524 0
4.5000005 2.0691457 0.2412965 0
4.5050001 2.0643203 0.24109811 0
4.5090003 2.0589647 0.24093936 0
4.5130005 2.0535951 0.24078062 0
4.5180001 2.0487192 0.24058221 0
4.5220003 2.0433187 0.24042347 0
4.5260005 2.0379038 0.24026473 0
4.5310001 2.0329773 0.24006632 0
4.5350003 2.0275316 0.23990758 0
4.5390005 2.0220718 0.23974884 0
4.5440001 2.0170949 0.23955044 0
4.5480003 2.0116041 0.23939168 0
4.5520005 2.0060987 0.23923294 0
4.5570002 2.0010715 0.23903453 0
4.5610003 1.9955359 0.23887579 0
4.5660005 1.9904742 0.23867738 0
4.5700002 1.9849076 0.23851864 0
4.5750003 1.9798119 0.23832023 0
4.5790005 1.9742148 0.23816147 0
4.5830002 1.9686031 0.23800276 0
4.5880003 1.9634569 0.23780434 0
4.5920005 1.9578147 0.2376456 0
4.5970001 1.952634 0.23744719 0
4.6010003 1.9469609 0.23728845 0
4.6060004 1.9417461 0.23709004 0
4.6100001 1.9360425 0.23693129 0
4.6150002 1.9307934 0.23673289 0
4.6190004 1.9250592 0.23657413 0
4.6240001 1.9197757 0.23637573 0
4.6290002 1.9144744 0.23617731 0
4.6330004 1.9086932 0.23601857 0
4.6380005 1.9033575 0.23582014 0
4.6420002 1.8975456 0.23566142 0
4.6470003 1.8921758 0.23546299 0
4.6510005 1.8863332 0.23530425 0
4.6560001 1.8809289 0.23510584 0
4.6610003 1.8755066 0.23490742 0
4.6650004 1.8696173 0.23474868 0
4.6700001 1.8641607 0.23455027 0
4.6750002 1.8586862 0.23435186 0
4.6790004 1.8527498 0.2341931 0
4.6840005 1.847241 0.23399469 0
4.6890001 1.841714 0.23379628 0
4.6930003 1.835731 0.23363754 0
4.6980004 1.8301699 0.23343912 0
4.7030001 1.8245904 0.23324071 0
4.7070003 1.8185605 0.23308197 0
4.7120004 1.8129472 0.23288354 0
4.7170005 1.8073156 0.23268513 0
4.7220001 1.8016659 0.23248672 0
4.7260003 1.7955728 0.23232798 0
4.7310004 1.7898891 0.23212956 0
4.7360005 1.7841872 0.23193112 0
4.7410002 1.7784672 0.23173273 0
4.7460003 1.7727293 0.2315343 0
4.7500005 1.7665567 0.23137555 0
4.7550001 1.7607845 0.23117717 0
4.7600002 1.7549942 0.23097873 0
4.7650003 1.749186 0.2307803 0
4.7700005 1.7433598 0.23058188 0
4.7750001 1.7375153 0.23038349 0
4.7800002 1.731653 0.23018506 0
4.7840004 1.7253685 0.23002632 0
4.7890005 1.7194719 0.2298279 0
4.7940001 1.7135571 0.22962949 0
4.7990003 1.7076244 0.22943106 0
4.8040004 1.7016737 0.22923264 0
4.8090005 1.6957051 0.22903422 0
4.8140001 1.689718 0.22883581 0
4.8190002 1.6837132 0.22863738 0
4.8240004 1.6776903 0.22843897 0
4.8290005 1.6716495 0.22824053 0
4.8340001 1.6655902 0.22804213 0
4.8390002 1.6595132 0.22784372 0
4.8440003 1.6534183 0.22764529 0
4.8490005 1.6473051 0.22744687 0
4.8540001 1.641174 0.22724846 0
4.8590002 1.6350248 0.22705004 0
4.8640003 1.6288575 0.22685161 0
4.8690004 1.6226723 0.22665319 0
4.8740001 1.6164689 0.22645478 0
4.8800001 1.6106174 0.22621669 0
4.8850002 1.6043762 0.22601825 0
4.8900003 1.5981171 0.22581984 0
4.8950005 1.5918398 0.22562142 0
4.9000001 1.5855445 0.22542301 0
4.9050002 1.5792311 0.22522458 0
4.9100003 1.5728998 0.22502616 0
4.9160004 1.5669075 0.22478805 0
4.9210005 1.5605384 0.22458963 0
4.9260001 1.5541511 0.22439124 0
4.9310002 1.5477457 0.2241928 0
4.9360003 1.5413225 0.22399437 0
4.9420004 1.5352292 0.22375628 0
4.9470005 1.5287679 0.22355784 0
4.9520001 1.5222886 0.22335945 0
4.9580002 1.5161339 0.22312135 0
4.9630003 1.5096169 0.22292292 0
4.9680004 1.5030817 0.2227245 0
4.9730005 1.4965285 0.22252607 0
4.9790001 1.4902925 0.222288 0
4.9840002 1.4837016 0.22208957 0
4.9900002 1.4774243 0.22185147 0
4.9950004 1.4707954 0.22165304 0
5.0000005 1.4641483 0.22145461 0
5.0060005 1.4578098 0.22121651 0
5.0110002 1.4511247 0.22101811 0
5.0160003 1.4444218 0.22081968 0
5.0220003 1.4380219 0.22058158 0
5.0270004 1.4312811 0.22038315 0
5.0330005 1.4248397 0.22014505 0
5.0380001 1.4180609 0.21994664 0
5.0440001 1.4115781 0.21970855 0
5.0490003 1.4047614 0.21951012 0
5.0550003 1.3982371 0.21927202 0
5.0600004 1.3913827 0.21907359 0
5.0660005 1.3848169 0.21883549 0
5.0710001 1.3779243 0.21863708 0
5.0770001 1.371317 0.21839899 0
5.0830002 1.364688 0.21816087 0
5.0880003 1.3577379 0.21796246 0
5.0940003 1.3510674 0.21772434 0
5.0990005 1.3440796 0.21752593 0
5.1050005 1.3373675 0.21728781 0
5.1110005 1.330634 0.2170497 0
5.1160002 1.3235883 0.21685131 0
5.1220002 1.3168131 0.2166132 0
5.1280003 1.3100164 0.2163751 0
5.1330004 1.3029131 0.21617667 0
5.1390004 1.2960749 0.21593857 0
5.1450005 1.289215 0.21570046 0
5.1510005 1.2823335 0.21546236 0
5.1560001 1.2751524 0.21526395 0
5.1620002 1.2682294 0.21502586 0
5.1680002 1.2612847 0.21478775 0
5.1740003 1.2543185 0.21454965 0
5.1800003 1.2473305 0.21431154 0
5.1850004 1.2400521 0.21411312 0
5.1910005 1.2330227 0.21387501 0
5.1970005 1.2259717 0.2136369 0
5.2030005 1.2188989 0.21339881 0
5.2090001 1.2118044 0.21316071 0
4.3640003 2.2349446 0.23954321 0
4.368 2.2300885 0.23937726 0
4.3720002 2.2252181 0.23921131 0
4.3759999 2.2203333 0.23904537 0
4.3800001 2.2154343 0.2388794 0
4.3840003 2.2105207 0.23871346 0
4.388 2.2055926 0.2385475 0
4.3920002 2.2006502 0.23838156 0
4.3960004 2.1956935 0.23821561 0
4.4000001 2.190722 0.23804967 0
4.4040003 2.1857364 0.2378837 0
4.4080005 2.1807363 0.23771775 0
4.4120002 2.1757219 0.23755181 0
4.4170003 2.1712446 0.23734437 0
4.4210005 2.1661997 0.23717842 0
4.4250002 2.1611395 0.23701246 0
4.4290004 2.1560657 0.23684651 0
4.4330001 2.1509769 0.23668057 0
4.4370003 2.1458743 0.23651461 0
4.4410005 2.1407566 0.23634866 0
4.4450002 2.1356249 0.23618272 0
4.4500003 2.131016 0.23597528 0
4.4540005 2.1258538 0.23580931 0
4.4580002 2.1206765 0.23564339 0
4.4620004 2.1154854 0.23547742 0
4.4660001 2.1102796 0.23531149 0
4.4710002 2.1055877 0.23510404 0
4.4750004 2.1003513 0.23493809 0
4.4790001 2.0951004 0.23477215 0
4.4830003 2.0898352 0.23460619 0
4.4880004 2.0850768 0.23439874 0
4.4920001 2.0797806 0.23423281 0
4.4960003 2.0744703 0.23406684 0
4.5000005 2.0691457 0.23390089 0
4.5050001 2.0643203 0.23369347 0
4.5090003 2.0589647 0.23352751 0
4.5130005 2.0535951 0.23336156 0
4.5180001 2.0487192 0.23315412 0
4.5220003 2.0433187 0.23298816 0
4.5260005 2.0379038 0.23282221 0
4.5310001 2.0329773 0.23261479 0
4.5350003 2.0275316 0.23244883 0
4.5390005 2.0220718 0.23228288 0
4.5440001 2.0170949 0.23207544 0
4.5480003 2.0116041 0.23190948 0
4.5520005 2.0060987 0.23174353 0
4.5570002 2.0010715 0.23153612 0
4.5610003 1.9955359 0.23137015 0
4.5660005 1.9904742 0.23116271 0
4.5700002 1.9849076 0.23099677 0
4.5750003 1.9798119 0.23078933 0
4.5790005 1.9742148 0.23062336 0
4.5830002 1.9686031 0.23045744 0
4.5880003 1.9634569 0.23024999 0
4.5920005 1.9578147 0.23008403 0
4.5970001 1.952634 0.22987661 0
4.6010003 1.9469609 0.22971065 0
4.6060004 1.9417461 0.22950321 0
4.6100001 1.9360425 0.22933728 0
4.6150002 1.9307934 0.22912982 0
4.6190004 1.9250592 0.22896387 0
4.6240001 1.9197757 0.22875644 0
4.6290002 1.9144744 0.228549 0
4.6330004 1.9086932 0.22838303 0
4.6380005 1.9033575 0.22817561 0
4.6420002 1.8975456 0.22800967 0
4.6470003 1.8921758 0.22780222 0
4.6510005 1.8863332 0.22763626 0
4.6560001 1.8809289 0.22742884 0
4.6610003 1.8755066 0.2272214 0
4.6650004 1.8696173 0.22705545 0
4.6700001 1.8641607 0.22684802 0
4.6750002 1.8586862 0.22664057 0
4.6790004 1.8527498 0.22647461 0
4.6840005 1.847241 0.22626716 0
4.6890001 1.841714 0.22605975 0
4.6930003 1.835731 0.2258938 0
4.6980004 1.8301699 0.22568636 0
4.7030001 1.8245904 0.22547892 0
4.7070003 1.8185605 0.22531296 0
4.7120004 1.8129472 0.22510552 0
4.7170005 1.8073156 0.22489808 0
4.7220001 1.8016659 0.22469066 0
4.7260003 1.7955728 0.22452471 0
4.7310004 1.7898891 0.22431727 0
4.7360005 1.7841872 0.22410981 0
4.7410002 1.7784672 0.22390239 0
4.7460003 1.7727293 0.22369495 0
4.7500005 1.7665567 0.223529 0
4.7550001 1.7607845 0.22332157 0
4.7600002 1.7549942 0.22311412 0
4.7650003 1.749186 0.22290669 0
4.7700005 1.7433598 0.22269924 0
4.7750001 1.7375153 0.22249182 0
4.7800002 1.731653 0.22228438 0
4.7840004 1.7253685 0.22211842 0
4.7890005 1.7194719 0.22191098 0
4.7940001 1.7135571 0.22170354 0
4.7990003 1.7076244 0.22149612 0
4.8040004 1.7016737 0.22128867 0
4.8090005 1.6957051 0.22108121 0
4.8140001 1.689718 0.2208738 0
4.8190002 1.6837132 0.22066636 0
4.8240004 1.6776903 0.22045891 0
4.8290005 1.6716495 0.22025147 0
4.8340001 1.6655902 0.22004405 0
4.8390002 1.6595132 0.21983661 0
4.8440003 1.6534183 0.21962917 0
4.8490005 1.6473051 0.21942171 0
4.8540001 1.641174 0.21921429 0
4.8590002 1.6350248 0.21900687 0
4.8640003 1.6288575 0.21879941 0
4.8690004 1.6226723 0.21859197 0
4.8740001 1.6164689 0.21838455 0
4.8800001 1.6106174 0.21813563 0
4.8850002 1.6043762 0.21792817 0
4.8900003 1.5981171 0.21772073 0
4.8950005 1.5918398 0.21751329 0
4.9000001 1.5855445 0.21730587 0
4.9050002 1.5792311 0.21709843 0
4.9100003 1.5728998 0.21689099 0
4.9160004 1.5669075 0.21664207 0
4.9210005 1.5605384 0.21643461 0
4.9260001 1.5541511 0.21622719 0
4.9310002 1.5477457 0.21601975 0
4.9360003 1.5413225 0.21581231 0
4.9420004 1.5352292 0.21556339 0
4.9470005 1.5287679 0.21535593 0
4.9520001 1.5222886 0.21514852 0
4.9580002 1.5161339 0.21489958 0
4.9630003 1.5096169 0.21469215 0
4.9680004 1.5030817 0.21448469 0
4.9730005 1.4965285 0.21427727 0
4.9790001 1.4902925 0.21402834 0
4.9840002 1.4837016 0.21382092 0
4.9900002 1.4774243 0.21357198 0
4.9950004 1.4707954 0.21336454 0
5.0000005 1.4641483 0.21315709 0
5.0060005 1.4578098 0.21290816 0
5.0110002 1.4511247 0.21270074 0
5.0160003 1.4444218 0.2124933 0
5.0220003 1.4380219 0.21224438 0
5.0270004 1.4312811 0.21203694 0
5.0330005 1.4248397 0.21178801 0
5.0380001 1.4180609 0.21158057 0
5.0440001 1.4115781 0.21133165 0
5.0490003 1.4047614 0.21112421 0
5.0550003 1.3982371 0.21087529 0
5.0600004 1.3913827 0.21066785 0
5.0660005 1.3848169 0.21041891 0
5.0710001 1.3779243 0.2102115 0
5.0770001 1.371317 0.20996258 0
5.0830002 1.364688 0.20971364 0
5.0880003 1.3577379 0.2095062 0
5.0940003 1.3510674 0.20925727 0
5.0990005 1.3440796 0.20904982 0
5.1050005 1.3373675 0.2088009 0
5.1110005 1.330634 0.20855197 0
5.1160002 1.3235883 0.20834455 0
5.1220002 1.3168131 0.20809563 0
5.1280003 1.3100164 0.2078467 0
5.1330004 1.3029131 0.20763925 0
5.1390004 1.2960749 0.20739032 0
5.1450005 1.289215 0.2071414 0
5.1510005 1.2823335 0.20689246 0
5.1560001 1.2751524 0.20668505 0
5.1620002 1.2682294 0.20643613 0
5.1680002 1.2612847 0.20618719 0
5.1740003 1.2543185 0.20593826 0
5.1800003 1.2473305 0.20568934 0
5.1850004 1.2400521 0.20548189 0
5.1910005 1.2330227 0.20523296 0
5.1970005 1.2259717 0.20498404 0
5.2030005 1.2188989 0.20473512 0
5.2090001 1.2118044 0.20448621 0
4.3640003 2.2349446 0.23239292 0
4.368 2.2300885 0.23221976 0
4.3720002 2.2252181 0.23204659 0
4.3759999 2.2203333 0.23187342 0
4.3800001 2.2154343 0.23170026 0
4.3840003 2.2105207 0.23152709 0
4.388 2.2055926 0.23135392 0
4.3920002 2.2006502 0.23118077 0
4.3960004 2.1956935 0.23100759 0
4.4000001 2.190722 0.23083442 0
4.4040003 2.1857364 0.23066126 0
4.4080005 2.1807363 0.23048809 0
4.4120002 2.1757219 0.23031493 0
4.4170003 2.1712446 0.23009847 0
4.4210005 2.1661997 0.22992529 0
4.4250002 2.1611395 0.22975214 0
4.4290004 2.1560657 0.22957897 0
4.4330001 2.1509769 0.22940582 0
4.4370003 2.1458743 0.22923265 0
4.4410005 2.1407566 0.22905947 0
4.4450002 2.1356249 0.22888632 0
4.4500003 2.131016 0.22866985 0
4.4540005 2.1258538 0.22849669 0
4.4580002 2.1206765 0.22832353 0
4.4620004 2.1154854 0.22815035 0
4.4660001 2.1102796 0.2279772 0
4.4710002 2.1055877 0.22776073 0
4.4750004 2.1003513 0.22758757 0
4.4790001 2.0951004 0.22741441 0
4.4830003 2.0898352 0.22724123 0
4.4880004 2.0850768 0.22702478 0
4.4920001 2.0797806 0.22685163 0
4.4960003 2.0744703 0.22667846 0
4.5000005 2.0691457 0.22650528 0
4.5050001 2.0643203 0.22628883 0
4.5090003 2.0589647 0.22611566 0
4.5130005 2.0535951 0.22594249 0
4.5180001 2.0487192 0.22572605 0
4.5220003 2.0433187 0.22555287 0
4.5260005 2.0379038 0.22537971 0
4.5310001 2.0329773 0.22516327 0
4.5350003 2.0275316 0.22499008 0
4.5390005 2.0220718 0.2248169 0
4.5440001 2.0170949 0.22460046 0
4.5480003 2.0116041 0.2244273 0
4.5520005 2.0060987 0.22425412 0
4.5570002 2.0010715 0.22403768 0
4.5610003 1.9955359 0.22386451 0
4.5660005 1.9904742 0.22364804 0
4.5700002 1.9849076 0.22347489 0
4.5750003 1.9798119 0.22325844 0
4.5790005 1.9742148 0.22308527 0
4.5830002 1.9686031 0.2229121 0
4.5880003 1.9634569 0.22269563 0
4.5920005 1.9578147 0.22252247 0
4.5970001 1.952634 0.22230603 0
4.6010003 1.9469609 0.22213285 0
4.6060004 1.9417461 0.22191639 0
4.6100001 1.9360425 0.22174324 0
4.6150002 1.9307934 0.22152677 0
4.6190004 1.9250592 0.22135359 0
4.6240001 1.9197757 0.22113717 0
4.6290002 1.9144744 0.2209207 0
4.6330004 1.9086932 0.22074752 0
4.6380005 1.9033575 0.22053108 0
4.6420002 1.8975456 0.22035791 0
4.6470003 1.8921758 0.22014144 0
4.6510005 1.8863332 0.21996827 0
4.6560001 1.8809289 0.21975183 0
4.6610003 1.8755066 0.21953537 0
4.6650004 1.8696173 0.2193622 0
4.6700001 1.8641607 0.21914576 0
4.6750002 1.8586862 0.21892929 0
4.6790004 1.8527498 0.21875612 0
4.6840005 1.847241 0.21853966 0
4.6890001 1.841714 0.21832322 0
4.6930003 1.835731 0.21815005 0
4.6980004 1.8301699 0.21793358 0
4.7030001 1.8245904 0.21771713 0
4.7070003 1.8185605 0.21754396 0
4.7120004 1.8129472 0.21732751 0
4.7170005 1.8073156 0.21711104 0
4.7220001 1.8016659 0.21689461 0
4.7260003 1.7955728 0.21672143 0
4.7310004 1.7898891 0.21650496 0
4.7360005 1.7841872 0.21628851 0
4.7410002 1.7784672 0.21607205 0
4.7460003 1.7727293 0.21585561 0
4.7500005 1.7665567 0.21568243 0
4.7550001 1.7607845 0.21546598 0
4.7600002 1.7549942 0.21524952 0
4.7650003 1.749186 0.21503305 0
4.7700005 1.7433598 0.2148166 0
4.7750001 1.7375153 0.21460016 0
4.7800002 1.731653 0.21438369 0
4.7840004 1.7253685 0.21421053 0
4.7890005 1.7194719 0.21399406 0
4.7940001 1.7135571 0.21377762 0
4.7990003 1.7076244 0.21356116 0
4.8040004 1.7016737 0.21334469 0
4.8090005 1.6957051 0.21312824 0
4.8140001 1.689718 0.21291178 0
4.8190002 1.6837132 0.21269533 0
4.8240004 1.6776903 0.21247886 0
4.8290005 1.6716495 0.21226241 0
4.8340001 1.6655902 0.21204597 0
4.8390002 1.6595132 0.2118295 0
4.8440003 1.6534183 0.21161304 0
4.8490005 1.6473051 0.21139657 0
4.8540001 1.641174 0.21118015 0
4.8590002 1.6350248 0.21096367 0
4.8640003 1.6288575 0.21074723 0
4.8690004 1.6226723 0.21053074 0
4.8740001 1.6164689 0.21031432 0
4.8800001 1.6106174 0.21005456 0
4.8850002 1.6043762 0.20983811 0
4.8900003 1.5981171 0.20962162 0
4.8950005 1.5918398 0.20940518 0
4.9000001 1.5855445 0.20918873 0
4.9050002 1.5792311 0.20897228 0
4.9100003 1.5728998 0.20875581 0
4.9160004 1.5669075 0.20849606 0
4.9210005 1.5605384 0.20827959 0
4.9260001 1.5541511 0.20806316 0
4.9310002 1.5477457 0.2078467 0
4.9360003 1.5413225 0.20763023 0
4.9420004 1.5352292 0.20737047 0
4.9470005 1.5287679 0.20715402 0
4.9520001 1.5222886 0.20693758 0
4.9580002 1.5161339 0.20667784 0
4.9630003 1.5096169 0.20646136 0
4.9680004 1.5030817 0.20624492 0
4.9730005 1.4965285 0.20602843 0
4.9790001 1.4902925 0.20576872 0
4.9840002 1.4837016 0.20555225 0
4.9900002 1.4774243 0.20529251 0
4.9950004 1.4707954 0.20507604 0
5.0000005 1.4641483 0.20485958 0
5.0060005 1.4578098 0.20459983 0
5.0110002 1.4511247 0.20438339 0
5.0160003 1.4444218 0.20416692 0
5.0220003 1.4380219 0.20390716 0
5.0270004 1.4312811 0.20369072 0
5.0330005 1.4248397 0.20343097 0
5.0380001 1.4180609 0.20321453 0
5.0440001 1.4115781 0.20295477 0
5.0490003 1.4047614 0.20273831 0
5.0550003 1.3982371 0.20247857 0
5.0600004 1.3913827 0.20226209 0
5.0660005 1.3848169 0.20200235 0
5.0710001 1.3779243 0.20178589 0
5.0770001 1.371317 0.20152615 0
5.0830002 1.364688 0.20126641 0
5.0880003 1.3577379 0.20104994 0
5.0940003 1.3510674 0.2007902 0
5.0990005 1.3440796 0.20057373 0
5.1050005 1.3373675 0.20031397 0
5.1110005 1.330634 0.20005423 0
5.1160002 1.3235883 0.19983779 0
5.1220002 1.3168131 0.19957803 0
5.1280003 1.3100164 0.19931829 0
5.1330004 1.3029131 0.19910182 0
5.1390004 1.2960749 0.19884208 0
5.1450005 1.289215 0.19858234 0
5.1510005 1.2823335 0.19832258 0
5.1560001 1.2751524 0.19810614 0
5.1620002 1.2682294 0.19784638 0
5.1680002 1.2612847 0.19758663 0
5.1740003 1.2543185 0.19732688 0
5.1800003 1.2473305 0.19706714 0
5.1850004 1.2400521 0.19685067 0
5.1910005 1.2330227 0.19659092 0
5.1970005 1.2259717 0.19633117 0
5.2030005 1.2188989 0.19607142 0
5.2090001 1.2118044 0.19581169 0
4.3640003 2.2349446 0.22524261 0
4.368 2.2300885 0.22506224 0
4.3720002 2.2252181 0.22488186 0
4.3759999 2.2203333 0.22470148 0
4.3800001 2.2154343 0.22452109 0
4.3840003 2.2105207 0.22434071 0
4.388 2.2055926 0.22416033 0
4.3920002 2.2006502 0.22397995 0
4.3960004 2.1956935 0.22379956 0
4.4000001 2.190722 0.22361919 0
4.4040003 2.1857364 0.22343881 0
4.4080005 2.1807363 0.22325842 0
4.4120002 2.1757219 0.22307806 0
4.4170003 2.1712446 0.22285257 0
4.4210005 2.1661997 0.22267218 0
4.4250002 2.1611395 0.22249182 0
4.4290004 2.1560657 0.22231142 0
4.4330001 2.1509769 0.22213106 0
4.4370003 2.1458743 0.22195067 0
4.4410005 2.1407566 0.22177029 0
4.4450002 2.1356249 0.22158991 0
4.4500003 2.131016 0.22136442 0
4.4540005 2.1258538 0.22118405 0
4.4580002 2.1206765 0.22100367 0
4.4620004 2.1154854 0.22082329 0
4.4660001 2.1102796 0.22064291 0
4.4710002 2.1055877 0.22041744 0
4.4750004 2.1003513 0.22023705 0
4.4790001 2.0951004 0.22005668 0
4.4830003 2.0898352 0.21987629 0
4.4880004 2.0850768 0.21965082 0
4.4920001 2.0797806 0.21947044 0
4.4960003 2.0744703 0.21929006 0
4.5000005 2.0691457 0.21910967 0
4.5050001 2.0643203 0.2188842 0
4.5090003 2.0589647 0.21870381 0
4.5130005 2.0535951 0.21852341 0
4.5180001 2.0487192 0.21829797 0
4.5220003 2.0433187 0.21811758 0
4.5260005 2.0379038 0.21793719 0
4.5310001 2.0329773 0.21771173 0
4.5350003 2.0275316 0.21753134 0
4.5390005 2.0220718 0.21735094 0
4.5440001 2.0170949 0.21712549 0
4.5480003 2.0116041 0.2169451 0
4.5520005 2.0060987 0.2167647 0
4.5570002 2.0010715 0.21653925 0
4.5610003 1.9955359 0.21635886 0
4.5660005 1.9904742 0.21613339 0
4.5700002 1.9849076 0.21595301 0
4.5750003 1.9798119 0.21572752 0
4.5790005 1.9742148 0.21554714 0
4.5830002 1.9686031 0.21536677 0
4.5880003 1.9634569 0.2151413 0
4.5920005 1.9578147 0.2149609 0
4.5970001 1.952634 0.21473543 0
4.6010003 1.9469609 0.21455504 0
4.6060004 1.9417461 0.21432957 0
4.6100001 1.9360425 0.21414921 0
4.6150002 1.9307934 0.21392374 0
4.6190004 1.9250592 0.21374334 0
4.6240001 1.9197757 0.21351787 0
4.6290002 1.9144744 0.21329239 0
4.6330004 1.9086932 0.21311201 0
4.6380005 1.9033575 0.21288651 0
4.6420002 1.8975456 0.21270615 0
4.6470003 1.8921758 0.21248068 0
4.6510005 1.8863332 0.21230029 0
4.6560001 1.8809289 0.21207483 0
4.6610003 1.8755066 0.21184935 0
4.6650004 1.8696173 0.21166895 0
4.6700001 1.8641607 0.2114435 0
4.6750002 1.8586862 0.21121801 0
4.6790004 1.8527498 0.21103762 0
4.6840005 1.847241 0.21081215 0
4.6890001 1.841714 0.21058668 0
4.6930003 1.835731 0.2104063 0
4.6980004 1.8301699 0.2101808 0
4.7030001 1.8245904 0.20995536 0
4.7070003 1.8185605 0.20977497 0
4.7120004 1.8129472 0.20954949 0
4.7170005 1.8073156 0.209324 0
4.7220001 1.8016659 0.20909853 0
4.7260003 1.7955728 0.20891814 0
4.7310004 1.7898891 0.20869267 0
4.7360005 1.7841872 0.2084672 0
4.7410002 1.7784672 0.20824173 0
4.7460003 1.7727293 0.20801626 0
4.7500005 1.7665567 0.20783587 0
4.7550001 1.7607845 0.2076104 0
4.7600002 1.7549942 0.20738493 0
4.7650003 1.749186 0.20715943 0
4.7700005 1.7433598 0.20693396 0
4.7750001 1.7375153 0.20670849 0
4.7800002 1.731653 0.20648302 0
4.7840004 1.7253685 0.20630263 0
4.7890005 1.7194719 0.20607714 0
4.7940001 1.7135571 0.20585169 0
4.7990003 1.7076244 0.2056262 0
4.8040004 1.7016737 0.20540072 0
4.8090005 1.6957051 0.20517525 0
4.8140001 1.689718 0.20494978 0
4.8190002 1.6837132 0.2047243 0
4.8240004 1.6776903 0.20449883 0
4.8290005 1.6716495 0.20427334 0
4.8340001 1.6655902 0.20404789 0
4.8390002 1.6595132 0.20382239 0
4.8440003 1.6534183 0.20359692 0
4.8490005 1.6473051 0.20337144 0
4.8540001 1.641174 0.20314598 0
4.8590002 1.6350248 0.2029205 0
4.8640003 1.6288575 0.20269501 0
4.8690004 1.6226723 0.20246954 0
4.8740001 1.6164689 0.20224407 0
4.8800001 1.6106174 0.2019735 0
4.8850002 1.6043762 0.20174803 0
4.8900003 1.5981171 0.20152253 0
4.8950005 1.5918398 0.20129706 0
4.9000001 1.5855445 0.20107159 0
4.9050002 1.5792311 0.20084612 0
4.9100003 1.5728998 0.20062064 0
4.9160004 1.5669075 0.20035006 0
4.9210005 1.5605384 0.20012458 0
4.9260001 1.5541511 0.19989912 0
4.9310002 1.5477457 0.19967364 0
4.9360003 1.5413225 0.19944815 0
4.9420004 1.5352292 0.19917758 0
4.9470005 1.5287679 0.19895211 0
4.9520001 1.5222886 0.19872664 0
4.9580002 1.5161339 0.19845606 0
4.9630003 1.5096169 0.19823059 0
4.9680004 1.5030817 0.19800511 0
4.9730005 1.4965285 0.19777963 0
4.9790001 1.4902925 0.19750908 0
4.9840002 1.4837016 0.1972836 0
4.9900002 1.4774243 0.19701304 0
4.9950004 1.4707954 0.19678754 0
5.0000005 1.4641483 0.19656207 0
5.0060005 1.4578098 0.19629149 0
5.0110002 1.4511247 0.19606602 0
5.0160003 1.4444218 0.19584055 0
5.0220003 1.4380219 0.19556998 0
5.0270004 1.4312811 0.19534449 0
5.0330005 1.4248397 0.19507392 0
5.0380001 1.4180609 0.19484846 0
5.0440001 1.4115781 0.19457789 0
5.0490003 1.4047614 0.1943524 0
5.0550003 1.3982371 0.19408183 0
5.0600004 1.3913827 0.19385636 0
5.0660005 1.3848169 0.19358578 0
5.0710001 1.3779243 0.19336031 0
5.0770001 1.371317 0.19308974 0
5.0830002 1.364688 0.19281916 0
5.0880003 1.3577379 0.19259369 0
5.0940003 1.3510674 0.19232312 0
5.0990005 1.3440796 0.19209763 0
5.1050005 1.3373675 0.19182707 0
5.1110005 1.330634 0.1915565 0
5.1160002 1.3235883 0.19133103 0
5.1220002 1.3168131 0.19106045 0
5.1280003 1.3100164 0.19078988 0
5.1330004 1.3029131 0.19056441 0
5.1390004 1.2960749 0.19029383 0
5.1450005 1.289215 0.19002326 0
5.1510005 1.2823335 0.18975268 0
5.1560001 1.2751524 0.18952723 0
5.1620002 1.2682294 0.18925665 0
5.1680002 1.2612847 0.18898608 0
5.1740003 1.2543185 0.1887155 0
5.1800003 1.2473305 0.18844493 0
5.1850004 1.2400521 0.18821946 0
5.1910005 1.2330227 0.18794888 0
5.1970005 1.2259717 0.18767831 0
5.2030005 1.2188989 0.18740773 0
5.2090001 1.2118044 0.18713719 0
4.3640003 2.2349446 0.21809232 0
4.368 2.2300885 0.21790472 0
4.3720002 2.2252181 0.21771713 0
4.3759999 2.2203333 0.21752955 0
4.3800001 2.2154343 0.21734194 0
4.3840003 2.2105207 0.21715434 0
4.388 2.2055926 0.21696675 0
4.3920002 2.2006502 0.21677916 0
4.3960004 2.1956935 0.21659154 0
4.4000001 2.190722 0.21640396 0
4.4040003 2.1857364 0.21621637 0
4.4080005 2.1807363 0.21602876 0
4.4120002 2.1757219 0.21584117 0
4.4170003 2.1712446 0.21560667 0
4.4210005 2.1661997 0.21541907 0
4.4250002 2.1611395 0.21523149 0
4.4290004 2.1560657 0.21504389 0
4.4330001 2.1509769 0.2148563 0
4.4370003 2.1458743 0.21466869 0
4.4410005 2.1407566 0.21448109 0
4.4450002 2.1356249 0.21429351 0
4.4500003 2.131016 0.21405901 0
4.4540005 2.1258538 0.2138714 0
4.4580002 2.1206765 0.21368381 0
4.4620004 2.1154854 0.21349621 0
4.4660001 2.1102796 0.21330863 0
4.4710002 2.1055877 0.21307413 0
4.4750004 2.1003513 0.21288653 0
4.4790001 2.0951004 0.21269894 0
4.4830003 2.0898352 0.21251135 0
4.4880004 2.0850768 0.21227683 0
4.4920001 2.0797806 0.21208926 0
4.4960003 2.0744703 0.21190166 0
4.5000005 2.0691457 0.21171406 0
4.5050001 2.0643203 0.21147956 0
4.5090003 2.0589647 0.21129197 0
4.5130005 2.0535951 0.21110436 0
4.5180001 2.0487192 0.21086988 0
4.5220003 2.0433187 0.21068227 0
4.5260005 2.0379038 0.21049468 0
4.5310001 2.0329773 0.2102602 0
4.5350003 2.0275316 0.21007258 0
4.5390005 2.0220718 0.20988499 0
4.5440001 2.0170949 0.2096505 0
4.5480003 2.0116041 0.2094629 0
4.5520005 2.0060987 0.20927529 0
4.5570002 2.0010715 0.20904082 0
4.5610003 1.9955359 0.20885321 0
4.5660005 1.9904742 0.20861872 0
4.5700002 1.9849076 0.20843114 0
4.5750003 1.9798119 0.20819664 0
4.5790005 1.9742148 0.20800903 0
4.5830002 1.9686031 0.20782144 0
4.5880003 1.9634569 0.20758694 0
4.5920005 1.9578147 0.20739934 0
4.5970001 1.952634 0.20716485 0
4.6010003 1.9469609 0.20697725 0
4.6060004 1.9417461 0.20674275 0
4.6100001 1.9360425 0.20655517 0
4.6150002 1.9307934 0.20632067 0
4.6190004 1.9250592 0.20613307 0
4.6240001 1.9197757 0.2058986 0
4.6290002 1.9144744 0.20566408 0
4.6330004 1.9086932 0.20547649 0
4.6380005 1.9033575 0.20524198 0
4.6420002 1.8975456 0.2050544 0
4.6470003 1.8921758 0.2048199 0
4.6510005 1.8863332 0.2046323 0
4.6560001 1.8809289 0.20439783 0
4.6610003 1.8755066 0.20416331 0
4.6650004 1.8696173 0.20397572 0
4.6700001 1.8641607 0.20374124 0
4.6750002 1.8586862 0.20350674 0
4.6790004 1.8527498 0.20331913 0
4.6840005 1.847241 0.20308463 0
4.6890001 1.841714 0.20285015 0
4.6930003 1.835731 0.20266254 0
4.6980004 1.8301699 0.20242804 0
4.7030001 1.8245904 0.20219357 0
4.7070003 1.8185605 0.20200597 0
4.7120004 1.8129472 0.20177147 0
4.7170005 1.8073156 0.20153695 0
4.7220001 1.8016659 0.20130248 0
4.7260003 1.7955728 0.20111488 0
4.7310004 1.7898891 0.20088038 0
4.7360005 1.7841872 0.20064588 0
4.7410002 1.7784672 0.20041139 0
4.7460003 1.7727293 0.20017691 0
4.7500005 1.7665567 0.1999893 0
4.7550001 1.7607845 0.1997548 0
4.7600002 1.7549942 0.19952032 0
4.7650003 1.749186 0.19928582 0
4.7700005 1.7433598 0.19905132 0
4.7750001 1.7375153 0.19881684 0
4.7800002 1.731653 0.19858234 0
4.7840004 1.7253685 0.19839473 0
4.7890005 1.7194719 0.19816023 0
4.7940001 1.7135571 0.19792575 0
4.7990003 1.7076244 0.19769125 0
4.8040004 1.7016737 0.19745676 0
4.8090005 1.6957051 0.19722225 0
4.8140001 1.689718 0.19698778 0
4.8190002 1.6837132 0.19675328 0
4.8240004 1.6776903 0.19651876 0
4.8290005 1.6716495 0.19628428 0
4.8340001 1.6655902 0.19604979 0
4.8390002 1.6595132 0.19581529 0
4.8440003 1.6534183 0.1955808 0
4.8490005 1.6473051 0.1953463 0
4.8540001 1.641174 0.19511181 0
4.8590002 1.6350248 0.19487731 0
4.8640003 1.6288575 0.19464283 0
4.8690004 1.6226723 0.19440831 0
4.8740001 1.6164689 0.19417384 0
4.8800001 1.6106174 0.19389243 0
4.8850002 1.6043762 0.19365795 0
4.8900003 1.5981171 0.19342344 0
4.8950005 1.5918398 0.19318894 0
4.9000001 1.5855445 0.19295447 0
4.9050002 1.5792311 0.19271995 0
4.9100003 1.5728998 0.19248545 0
4.9160004 1.5669075 0.19220406 0
4.9210005 1.5605384 0.19196956 0
4.9260001 1.5541511 0.19173509 0
4.9310002 1.5477457 0.19150059 0
4.9360003 1.5413225 0.19126609 0
4.9420004 1.5352292 0.19098468 0
4.9470005 1.5287679 0.1907502 0
4.9520001 1.5222886 0.1905157 0
4.9580002 1.5161339 0.19023432 0
4.9630003 1.5096169 0.1899998 0
4.9680004 1.5030817 0.18976532 0
4.9730005 1.4965285 0.18953082 0
4.9790001 1.4902925 0.18924944 0
4.9840002 1.4837016 0.18901493 0
4.9900002 1.4774243 0.18873355 0
4.9950004 1.4707954 0.18849903 0
5.0000005 1.4641483 0.18826455 0
5.0060005 1.4578098 0.18798314 0
5.0110002 1.4511247 0.18774867 0
5.0160003 1.4444218 0.18751417 0
5.0220003 1.4380219 0.18723278 0
5.0270004 1.4312811 0.18699826 0
5.0330005 1.4248397 0.18671688 0
5.0380001 1.4180609 0.1864824 0
5.0440001 1.4115781 0.18620099 0
5.0490003 1.4047614 0.18596649 0
5.0550003 1.3982371 0.1856851 0
5.0600004 1.3913827 0.1854506 0
5.0660005 1.3848169 0.18516921 0
5.0710001 1.3779243 0.18493474 0
5.0770001 1.371317 0.18465333 0
5.0830002 1.364688 0.18437193 0
5.0880003 1.3577379 0.18413743 0
5.0940003 1.3510674 0.18385604 0
5.0990005 1.3440796 0.18362154 0
5.1050005 1.3373675 0.18334015 0
5.1110005 1.330634 0.18305875 0
5.1160002 1.3235883 0.18282427 0
5.1220002 1.3168131 0.18254288 0
5.1280003 1.3100164 0.18226148 0
5.1330004 1.3029131 0.18202698 0
5.1390004 1.2960749 0.18174559 0
5.1450005 1.289215 0.18146418 0
5.1510005 1.2823335 0.18118279 0
5.1560001 1.2751524 0.18094832 0
5.1620002 1.2682294 0.18066691 0
5.1680002 1.2612847 0.18038552 0
5.1740003 1.2543185 0.18010412 0
5.1800003 1.2473305 0.17982273 0
5.1850004 1.2400521 0.17958823 0
5.1910005 1.2330227 0.17930683 0
5.1970005 1.2259717 0.17902544 0
5.2030005 1.2188989 0.17874403 0
5.2090001 1.2118044 0.17846267 0
4.3640003 2.2349446 0.21094202 0
4.368 2.2300885 0.21074723 0
4.3720002 2.2252181 0.21055241 0
4.3759999 2.2203333 0.21035759 0
4.3800001 2.2154343 0.21016277 0
4.3840003 2.2105207 0.20996797 0
4.388 2.2055926 0.20977317 0
4.3920002 2.2006502 0.20957835 0
4.3960004 2.1956935 0.20938353 0
4.4000001 2.190722 0.20918873 0
4.4040003 2.1857364 0.20899393 0
4.4080005 2.1807363 0.20879909 0
4.4120002 2.1757219 0.20860429 0
4.4170003 2.1712446 0.20836078 0
4.4210005 2.1661997 0.20816596 0
4.4250002 2.1611395 0.20797116 0
4.4290004 2.1560657 0.20777634 0
4.4330001 2.1509769 0.20758155 0
4.4370003 2.1458743 0.20738672 0
4.4410005 2.1407566 0.2071919 0
4.4450002 2.1356249 0.2069971 0
4.4500003 2.131016 0.20675358 0
4.4540005 2.1258538 0.20655876 0
4.4580002 2.1206765 0.20636396 0
4.4620004 2.1154854 0.20616914 0
4.4660001 2.1102796 0.20597436 0
4.4710002 2.1055877 0.20573084 0
4.4750004 2.1003513 0.20553601 0
4.4790001 2.0951004 0.20534121 0
4.4830003 2.0898352 0.20514639 0
4.4880004 2.0850768 0.20490287 0
4.4920001 2.0797806 0.20470807 0
4.4960003 2.0744703 0.20451325 0
4.5000005 2.0691457 0.20431843 0
4.5050001 2.0643203 0.20407493 0
4.5090003 2.0589647 0.20388012 0
4.5130005 2.0535951 0.2036853 0
4.5180001 2.0487192 0.2034418 0
4.5220003 2.0433187 0.20324698 0
4.5260005 2.0379038 0.20305216 0
4.5310001 2.0329773 0.20280866 0
4.5350003 2.0275316 0.20261385 0
4.5390005 2.0220718 0.20241901 0
4.5440001 2.0170949 0.20217553 0
4.5480003 2.0116041 0.2019807 0
4.5520005 2.0060987 0.20178588 0
4.5570002 2.0010715 0.20154239 0
4.5610003 1.9955359 0.20134756 0
4.5660005 1.9904742 0.20110404 0
4.5700002 1.9849076 0.20090924 0
4.5750003 1.9798119 0.20066573 0
4.5790005 1.9742148 0.20047091 0
4.5830002 1.9686031 0.20027612 0
4.5880003 1.9634569 0.20003259 0
4.5920005 1.9578147 0.19983777 0
4.5970001 1.952634 0.19959427 0
4.6010003 1.9469609 0.19939947 0
4.6060004 1.9417461 0.19915593 0
4.6100001 1.9360425 0.19896114 0
4.6150002 1.9307934 0.19871761 0
4.6190004 1.9250592 0.19852281 0
4.6240001 1.9197757 0.19827931 0
4.6290002 1.9144744 0.19803579 0
4.6330004 1.9086932 0.19784096 0
4.6380005 1.9033575 0.19759744 0
4.6420002 1.8975456 0.19740264 0
4.6470003 1.8921758 0.19715913 0
4.6510005 1.8863332 0.19696431 0
4.6560001 1.8809289 0.19672081 0
4.6610003 1.8755066 0.19647729 0
4.6650004 1.8696173 0.19628248 0
4.6700001 1.8641607 0.19603898 0
4.6750002 1.8586862 0.19579545 0
4.6790004 1.8527498 0.19560064 0
4.6840005 1.847241 0.19535711 0
4.6890001 1.841714 0.19511361 0
4.6930003 1.835731 0.1949188 0
4.6980004 1.8301699 0.19467528 0
4.7030001 1.8245904 0.19443178 0
4.7070003 1.8185605 0.19423696 0
4.7120004 1.8129472 0.19399343 0
4.7170005 1.8073156 0.19374992 0
4.7220001 1.8016659 0.19350642 0
4.7260003 1.7955728 0.19331162 0
4.7310004 1.7898891 0.19306807 0
4.7360005 1.7841872 0.19282456 0
4.7410002 1.7784672 0.19258107 0
4.7460003 1.7727293 0.19233756 0
4.7500005 1.7665567 0.19214272 0
4.7550001 1.7607845 0.19189924 0
4.7600002 1.7549942 0.19165571 0
4.7650003 1.749186 0.1914122 0
4.7700005 1.7433598 0.19116867 0
4.7750001 1.7375153 0.19092518 0
4.7800002 1.731653 0.19068167 0
4.7840004 1.7253685 0.19048683 0
4.7890005 1.7194719 0.19024332 0
4.7940001 1.7135571 0.18999982 0
4.7990003 1.7076244 0.1897563 0
4.8040004 1.7016737 0.18951279 0
4.8090005 1.6957051 0.18926926 0
4.8140001 1.689718 0.18902576 0
4.8190002 1.6837132 0.18878224 0
4.8240004 1.6776903 0.18853873 0
4.8290005 1.6716495 0.18829522 0
4.8340001 1.6655902 0.1880517 0
4.8390002 1.6595132 0.18780819 0
4.8440003 1.6534183 0.18756467 0
4.8490005 1.6473051 0.18732116 0
4.8540001 1.641174 0.18707764 0
4.8590002 1.6350248 0.18683413 0
4.8640003 1.6288575 0.18659061 0
4.8690004 1.6226723 0.1863471 0
4.8740001 1.6164689 0.1861036 0
4.8800001 1.6106174 0.18581139 0
4.8850002 1.6043762 0.18556787 0
4.8900003 1.5981171 0.18532434 0
4.8950005 1.5918398 0.18508081 0
4.9000001 1.5855445 0.18483733 0
4.9050002 1.5792311 0.18459381 0
4.9100003 1.5728998 0.18435028 0
4.9160004 1.5669075 0.18405807 0
4.9210005 1.5605384 0.18381456 0
4.9260001 1.5541511 0.18357104 0
4.9310002 1.5477457 0.18332753 0
4.9360003 1.5413225 0.18308401 0
4.9420004 1.5352292 0.18279178 0
4.9470005 1.5287679 0.18254827 0
4.9520001 1.5222886 0.18230478 0
4.9580002 1.5161339 0.18201256 0
4.9630003 1.5096169 0.18176904 0
4.9680004 1.5030817 0.18152553 0
4.9730005 1.4965285 0.181282 0
4.9790001 1.4902925 0.1809898 0
4.9840002 1.4837016 0.18074627 0
4.9900002 1.4774243 0.18045406 0
4.9950004 1.4707954 0.18021053 0
5.0000005 1.4641483 0.17996702 0
5.0060005 1.4578098 0.1796748 0
5.0110002 1.4511247 0.1794313 0
5.0160003 1.4444218 0.17918779 0
5.0220003 1.4380219 0.17889556 0
5.0270004 1.4312811 0.17865205 0
5.0330005 1.4248397 0.17835984 0
5.0380001 1.4180609 0.17811634 0
5.0440001 1.4115781 0.17782411 0
5.0490003 1.4047614 0.1775806 0
5.0550003 1.3982371 0.17728838 0
5.0600004 1.3913827 0.17704485 0
5.0660005 1.3848169 0.17675264 0
5.0710001 1.3779243 0.17650914 0
5.0770001 1.371317 0.17621693 0
5.0830002 1.364688 0.1759247 0
5.0880003 1.3577379 0.17568119 0
5.0940003 1.3510674 0.17538896 0
5.0990005 1.3440796 0.17514545 0
5.1050005 1.3373675 0.17485322 0
5.1110005 1.330634 0.17456101 0
5.1160002 1.3235883 0.17431751 0
5.1220002 1.3168131 0.1740253 0
5.1280003 1.3100164 0.17373307 0
5.1330004 1.3029131 0.17348956 0
5.1390004 1.2960749 0.17319733 0
5.1450005 1.289215 0.17290512 0
5.1510005 1.2823335 0.17261291 0
5.1560001 1.2751524 0.17236939 0
5.1620002 1.2682294 0.17207718 0
5.1680002 1.2612847 0.17178495 0
5.1740003 1.2543185 0.17149273 0
5.1800003 1.2473305 0.17120051 0
5.1850004 1.2400521 0.17095701 0
5.1910005 1.2330227 0.17066479 0
5.1970005 1.2259717 0.17037256 0
5.2030005 1.2188989 0.17008035 0
5.2090001 1.2118044 0.16978815 0
4.3640003 2.2349446 0.20379174 0
4.368 2.2300885 0.20358971 0
4.3720002 2.2252181 0.20338768 0
4.3759999 2.2203333 0.20318566 0
4.3800001 2.2154343 0.20298362 0
4.3840003 2.2105207 0.2027816 0
4.388 2.2055926 0.20257957 0
4.3920002 2.2006502 0.20237756 0
4.3960004 2.1956935 0.20217551 0
4.4000001 2.190722 0.2019735 0
4.4040003 2.1857364 0.20177147 0
4.4080005 2.1807363 0.20156942 0
4.4120002 2.1757219 0.20136742 0
4.4170003 2.1712446 0.20111488 0
4.4210005 2.1661997 0.20091283 0
4.4250002 2.1611395 0.20071083 0
4.4290004 2.1560657 0.20050879 0
4.4330001 2.1509769 0.20030679 0
4.4370003 2.1458743 0.20010476 0
4.4410005 2.1407566 0.19990271 0
4.4450002 2.1356249 0.1997007 0
4.4500003 2.131016 0.19944815 0
4.4540005 2.1258538 0.19924612 0
4.4580002 2.1206765 0.19904412 0
4.4620004 2.1154854 0.19884208 0
4.4660001 2.1102796 0.19864006 0
4.4710002 2.1055877 0.19838752 0
4.4750004 2.1003513 0.19818549 0
4.4790001 2.0951004 0.19798349 0
4.4830003 2.0898352 0.19778144 0
4.4880004 2.0850768 0.19752891 0
4.4920001 2.0797806 0.19732688 0
4.4960003 2.0744703 0.19712485 0
4.5000005 2.0691457 0.19692282 0
4.5050001 2.0643203 0.19667029 0
4.5090003 2.0589647 0.19646828 0
4.5130005 2.0535951 0.19626623 0
4.5180001 2.0487192 0.19601372 0
4.5220003 2.0433187 0.19581167 0
4.5260005 2.0379038 0.19560964 0
4.5310001 2.0329773 0.19535713 0
4.5350003 2.0275316 0.1951551 0
4.5390005 2.0220718 0.19495305 0
4.5440001 2.0170949 0.19470055 0
4.5480003 2.0116041 0.19449851 0
4.5520005 2.0060987 0.19429648 0
4.5570002 2.0010715 0.19404395 0
4.5610003 1.9955359 0.19384192 0
4.5660005 1.9904742 0.19358939 0
4.5700002 1.9849076 0.19338737 0
4.5750003 1.9798119 0.19313483 0
4.5790005 1.9742148 0.1929328 0
4.5830002 1.9686031 0.19273078 0
4.5880003 1.9634569 0.19247824 0
4.5920005 1.9578147 0.19227621 0
4.5970001 1.952634 0.19202369 0
4.6010003 1.9469609 0.19182166 0
4.6060004 1.9417461 0.19156912 0
4.6100001 1.9360425 0.1913671 0
4.6150002 1.9307934 0.19111457 0
4.6190004 1.9250592 0.19091253 0
4.6240001 1.9197757 0.19066001 0
4.6290002 1.9144744 0.19040748 0
4.6330004 1.9086932 0.19020544 0
4.6380005 1.9033575 0.18995291 0
4.6420002 1.8975456 0.18975089 0
4.6470003 1.8921758 0.18949835 0
4.6510005 1.8863332 0.18929631 0
4.6560001 1.8809289 0.18904381 0
4.6610003 1.8755066 0.18879126 0
4.6650004 1.8696173 0.18858922 0
4.6700001 1.8641607 0.18833672 0
4.6750002 1.8586862 0.18808417 0
4.6790004 1.8527498 0.18788213 0
4.6840005 1.847241 0.1876296 0
4.6890001 1.841714 0.18737708 0
4.6930003 1.835731 0.18717504 0
4.6980004 1.8301699 0.18692251 0
4.7030001 1.8245904 0.18666999 0
4.7070003 1.8185605 0.18646795 0
4.7120004 1.8129472 0.18621542 0
4.7170005 1.8073156 0.18596289 0
4.7220001 1.8016659 0.18571037 0
4.7260003 1.7955728 0.18550833 0
4.7310004 1.7898891 0.1852558 0
4.7360005 1.7841872 0.18500325 0
4.7410002 1.7784672 0.18475074 0
4.7460003 1.7727293 0.18449821 0
4.7500005 1.7665567 0.18429616 0
4.7550001 1.7607845 0.18404365 0
4.7600002 1.7549942 0.18379112 0
4.7650003 1.749186 0.18353857 0
4.7700005 1.7433598 0.18328604 0
4.7750001 1.7375153 0.18303351 0
4.7800002 1.731653 0.18278098 0
4.7840004 1.7253685 0.18257895 0
4.7890005 1.7194719 0.18232641 0
4.7940001 1.7135571 0.18207389 0
4.7990003 1.7076244 0.18182135 0
4.8040004 1.7016737 0.1815688 0
4.8090005 1.6957051 0.18131627 0
4.8140001 1.689718 0.18106376 0
4.8190002 1.6837132 0.18081123 0
4.8240004 1.6776903 0.18055868 0
4.8290005 1.6716495 0.18030614 0
4.8340001 1.6655902 0.18005362 0
4.8390002 1.6595132 0.17980108 0
4.8440003 1.6534183 0.17954855 0
4.8490005 1.6473051 0.17929602 0
4.8540001 1.641174 0.1790435 0
4.8590002 1.6350248 0.17879096 0
4.8640003 1.6288575 0.17853841 0
4.8690004 1.6226723 0.17828587 0
4.8740001 1.6164689 0.17803335 0
4.8800001 1.6106174 0.17773032 0
4.8850002 1.6043762 0.17747778 0
4.8900003 1.5981171 0.17722523 0
4.8950005 1.5918398 0.1769727 0
4.9000001 1.5855445 0.17672019 0
4.9050002 1.5792311 0.17646766 0
4.9100003 1.5728998 0.17621511 0
4.9160004 1.5669075 0.17591207 0
4.9210005 1.5605384 0.17565952 0
4.9260001 1.5541511 0.17540702 0
4.9310002 1.5477457 0.17515448 0
4.9360003 1.5413225 0.17490193 0
4.9420004 1.5352292 0.17459889 0
4.9470005 1.5287679 0.17434636 0
4.9520001 1.5222886 0.17409384 0
4.9580002 1.5161339 0.1737908 0
4.9630003 1.5096169 0.17353825 0
4.9680004 1.5030817 0.17328572 0
4.9730005 1.4965285 0.17303319 0
4.9790001 1.4902925 0.17273015 0
4.9840002 1.4837016 0.17247762 0
4.9890003 1.4770924 0.17222509 0
4.9950004 1.4707954 0.17192206 0
5.0000005 1.4641483 0.1716695 0
5.0060005 1.4578098 0.17136645 0
5.0110002 1.4511247 0.17111395 0
5.0160003 1.4444218 0.17086142 0
5.0220003 1.4380219 0.17055838 0
5.0270004 1.4312811 0.17030582 0
5.0330005 1.4248397 0.17000277 0
5.0380001 1.4180609 0.16975027 0
5.0440001 1.4115781 0.16944724 0
5.0490003 1.4047614 0.1691947 0
5.0550003 1.3982371 0.16889164 0
5.0600004 1.3913827 0.16863911 0
5.0660005 1.3848169 0.16833606 0
5.0710001 1.3779243 0.16808356 0
5.0770001 1.371317 0.16778052 0
5.0830002 1.364688 0.16747746 0
5.0880003 1.3577379 0.16722493 0
5.0940003 1.3510674 0.16692188 0
5.0990005 1.3440796 0.16666935 0
5.1050005 1.3373675 0.16636632 0
5.1110005 1.330634 0.16606325 0
5.1160002 1.3235883 0.16581075 0
5.1220002 1.3168131 0.1655077 0
5.1280003 1.3100164 0.16520467 0
5.1330004 1.3029131 0.16495214 0
5.1390004 1.2960749 0.16464907 0
5.1450005 1.289215 0.16434604 0
5.1510005 1.2823335 0.16404299 0
5.1560001 1.2751524 0.16379049 0
5.1620002 1.2682294 0.16348745 0
5.1680002 1.2612847 0.16318442 0
5.1740003 1.2543185 0.16288137 0
5.1800003 1.2473305 0.16257831 0
5.1850004 1.2400521 0.16232578 0
5.1910005 1.2330227 0.16202274 0
5.1970005 1.2259717 0.16171969 0
5.2030005 1.2188989 0.16141666 0
5.2090001 1.2118044 0.16111362 0
4.3640003 2.2349446 0.19664143 0
4.368 2.2300885 0.19643219 0
4.3720002 2.2252181 0.19622296 0
4.3759999 2.2203333 0.19601372 0
4.3800001 2.2154343 0.19580446 0
4.3840003 2.2105207 0.19559523 0
4.388 2.2055926 0.19538598 0
4.3920002 2.2006502 0.19517674 0
4.3960004 2.1956935 0.19496749 0
4.4000001 2.190722 0.19475827 0
4.4040003 2.1857364 0.19454902 0
4.4080005 2.1807363 0.19433977 0
4.4120002 2.1757219 0.19413054 0
4.4170003 2.1712446 0.19386898 0
4.4210005 2.1661997 0.19365974 0
4.4250002 2.1611395 0.1934505 0
4.4290004 2.1560657 0.19324125 0
4.4330001 2.1509769 0.19303203 0
4.4370003 2.1458743 0.19282277 0
4.4410005 2.1407566 0.19261353 0
4.4450002 2.1356249 0.1924043 0
4.4500003 2.131016 0.19214274 0
4.4540005 2.1258538 0.19193348 0
4.4580002 2.1206765 0.19172427 0
4.4620004 2.1154854 0.19151501 0
4.4660001 2.1102796 0.19130577 0
4.4710002 2.1055877 0.19104421 0
4.4750004 2.1003513 0.19083497 0
4.4790001 2.0951004 0.19062574 0
4.4830003 2.0898352 0.1904165 0
4.4880004 2.0850768 0.19015494 0
4.4920001 2.0797806 0.18994571 0
4.4960003 2.0744703 0.18973646 0
4.5000005 2.0691457 0.18952721 0
4.5050001 2.0643203 0.18926568 0
4.5090003 2.0589647 0.18905643 0
4.5130005 2.0535951 0.18884717 0
4.5180001 2.0487192 0.18858564 0
4.5220003 2.0433187 0.18837638 0
4.5260005 2.0379038 0.18816712 0
4.5310001 2.0329773 0.18790559 0
4.5350003 2.0275316 0.18769634 0
4.5390005 2.0220718 0.1874871 0
4.5440001 2.0170949 0.18722557 0
4.5480003 2.0116041 0.18701631 0
4.5520005 2.0060987 0.18680707 0
4.5570002 2.0010715 0.18654552 0
4.5610003 1.9955359 0.18633628 0
4.5660005 1.9904742 0.18607472 0
4.5700002 1.9849076 0.18586549 0
4.5750003 1.9798119 0.18560393 0
4.5790005 1.9742148 0.18539469 0
4.5830002 1.9686031 0.18518546 0
4.5880003 1.9634569 0.1849239 0
4.5920005 1.9578147 0.18471465 0
4.5970001 1.952634 0.18445311 0
4.6010003 1.9469609 0.18424386 0
4.6060004 1.9417461 0.18398231 0
4.6100001 1.9360425 0.18377307 0
4.6150002 1.9307934 0.18351153 0
4.6190004 1.9250592 0.18330225 0
4.6240001 1.9197757 0.18304072 0
4.6290002 1.9144744 0.18277916 0
4.6330004 1.9086932 0.18256992 0
4.6380005 1.9033575 0.18230838 0
4.6420002 1.8975456 0.18209913 0
4.6470003 1.8921758 0.18183757 0
4.6510005 1.8863332 0.18162832 0
4.6560001 1.8809289 0.18136679 0
4.6610003 1.8755066 0.18110523 0
4.6650004 1.8696173 0.18089598 0
4.6700001 1.8641607 0.18063445 0
4.6750002 1.8586862 0.18037289 0
4.6790004 1.8527498 0.18016364 0
4.6840005 1.847241 0.17990209 0
4.6890001 1.841714 0.17964055 0
4.6930003 1.835731 0.17943129 0
4.6980004 1.8301699 0.17916973 0
4.7030001 1.8245904 0.1789082 0
4.7070003 1.8185605 0.17869896 0
4.7120004 1.8129472 0.17843741 0
4.7170005 1.8073156 0.17817585 0
4.7220001 1.8016659 0.17791431 0
4.7260003 1.7955728 0.17770505 0
4.7310004 1.7898891 0.1774435 0
4.7360005 1.7841872 0.17718194 0
4.7410002 1.7784672 0.17692041 0
4.7460003 1.7727293 0.17665885 0
4.7500005 1.7665567 0.1764496 0
4.7550001 1.7607845 0.17618807 0
4.7600002 1.7549942 0.17592651 0
4.7650003 1.749186 0.17566495 0
4.7700005 1.7433598 0.17540339 0
4.7750001 1.7375153 0.17514186 0
4.7800002 1.731653 0.1748803 0
4.7840004 1.7253685 0.17467104 0
4.7890005 1.7194719 0.17440948 0
4.7940001 1.7135571 0.17414795 0
4.7990003 1.7076244 0.17388639 0
4.8040004 1.7016737 0.17362483 0
4.8090005 1.6957051 0.17336328 0
4.8140001 1.689718 0.17310175 0
4.8190002 1.6837132 0.17284019 0
4.8240004 1.6776903 0.17257863 0
4.8290005 1.6716495 0.17231707 0
4.8340001 1.6655902 0.17205554 0
4.8390002 1.6595132 0.17179398 0
4.8440003 1.6534183 0.17153242 0
4.8490005 1.6473051 0.17127086 0
4.8540001 1.641174 0.17100933 0
4.8590002 1.6350248 0.17074777 0
4.8640003 1.6288575 0.17048621 0
4.8690004 1.6226723 0.17022465 0
4.8740001 1.6164689 0.16996312 0
4.8800001 1.6106174 0.16964926 0
4.8850002 1.6043762 0.1693877 0
4.8900003 1.5981171 0.16912614 0
4.8950005 1.5918398 0.16886458 0
4.9000001 1.5855445 0.16860305 0
4.9050002 1.5792311 0.16834149 0
4.9100003 1.5728998 0.16807993 0
4.9160004 1.5669075 0.16776608 0
4.9210005 1.5605384 0.16750452 0
4.9260001 1.5541511 0.16724299 0
4.9310002 1.5477457 0.16698143 0
4.9360003 1.5413225 0.16671987 0
4.9420004 1.5352292 0.16640601 0
4.9470005 1.5287679 0.16614445 0
4.9520001 1.5222886 0.16588292 0
4.9580002 1.5161339 0.16556904 0
4.9630003 1.5096169 0.16530748 0
4.9680004 1.5030817 0.16504592 0
4.9730005 1.4965285 0.16478436 0
4.9790001 1.4902925 0.16447052 0
4.9840002 1.4837016 0.16420896 0
4.9890003 1.4770924 0.1639474 0
4.9950004 1.4707954 0.16363356 0
5.0000005 1.4641483 0.163372 0
5.0060005 1.4578098 0.16305813 0
5.0110002 1.4511247 0.1627966 0
5.0160003 1.4444218 0.16253504 0
5.0220003 1.4380219 0.16222116 0
5.0270004 1.4312811 0.1619596 0
5.0330005 1.4248397 0.16164574 0
5.0380001 1.4180609 0.16138421 0
5.0440001 1.4115781 0.16107036 0
5.0490003 1.4047614 0.1608088 0
5.0550003 1.3982371 0.16049491 0
5.0600004 1.3913827 0.16023335 0
5.0660005 1.3848169 0.1599195 0
5.0710001 1.3779243 0.15965797 0
5.0770001 1.371317 0.15934411 0
5.0830002 1.364688 0.15903023 0
5.0880003 1.3577379 0.15876867 0
5.0940003 1.3510674 0.15845482 0
5.0990005 1.3440796 0.15819326 0
5.1050005 1.3373675 0.1578794 0
5.1110005 1.330634 0.15756552 0
5.1160002 1.3235883 0.15730399 0
5.1220002 1.3168131 0.15699013 0
5.1280003 1.3100164 0.15667628 0
5.1330004 1.3029131 0.15641472 0
5.1390004 1.2960749 0.15610082 0
5.1450005 1.289215 0.15578698 0
5.1510005 1.2823335 0.15547311 0
5.1560001 1.2751524 0.15521158 0
5.1620002 1.2682294 0.1548977 0
5.1680002 1.2612847 0.15458384 0
5.1740003 1.2543185 0.15426999 0
5.1800003 1.2473305 0.15395612 0
5.1850004 1.2400521 0.15369454 0
5.1910005 1.2330227 0.15338069 0
5.1970005 1.2259717 0.15306684 0
5.2030005 1.2188989 0.15275297 0
5.2090001 1.2118044 0.15243912 0
4.3640003 2.2349446 0.18949114 0
4.368 2.2300885 0.18927468 0
4.3720002 2.2252181 0.18905823 0
4.3759999 2.2203333 0.18884178 0
4.3800001 2.2154343 0.18862531 0
4.3840003 2.2105207 0.18840885 0
4.388 2.2055926 0.1881924 0
4.3920002 2.2006502 0.18797594 0
4.3960004 2.1956935 0.18775949 0
4.4000001 2.190722 0.18754303 0
4.4040003 2.1857364 0.18732658 0
4.4080005 2.1807363 0.1871101 0
4.4120002 2.1757219 0.18689367 0
4.4170003 2.1712446 0.18662308 0
4.4210005 2.1661997 0.18640661 0
4.4250002 2.1611395 0.18619017 0
4.4290004 2.1560657 0.1859737 0
4.4330001 2.1509769 0.18575726 0
4.4370003 2.1458743 0.1855408 0
4.4410005 2.1407566 0.18532433 0
4.4450002 2.1356249 0.18510789 0
4.4500003 2.131016 0.18483731 0
4.4540005 2.1258538 0.18462084 0
4.4580002 2.1206765 0.1844044 0
4.4620004 2.1154854 0.18418793 0
4.4660001 2.1102796 0.18397151 0
4.4710002 2.1055877 0.18370092 0
4.4750004 2.1003513 0.18348445 0
4.4790001 2.0951004 0.18326801 0
4.4830003 2.0898352 0.18305154 0
4.4880004 2.0850768 0.18278097 0
4.4920001 2.0797806 0.18256453 0
4.4960003 2.0744703 0.18234806 0
4.5000005 2.0691457 0.18213159 0
4.5050001 2.0643203 0.18186104 0
4.5090003 2.0589647 0.18164457 0
4.5130005 2.0535951 0.1814281 0
4.5180001 2.0487192 0.18115756 0
4.5220003 2.0433187 0.18094109 0
4.5260005 2.0379038 0.18072462 0
4.5310001 2.0329773 0.18045408 0
4.5350003 2.0275316 0.18023761 0
4.5390005 2.0220718 0.18002114 0
4.5440001 2.0170949 0.17975059 0
4.5480003 2.0116041 0.17953411 0
4.5520005 2.0060987 0.17931765 0
4.5570002 2.0010715 0.17904711 0
4.5610003 1.9955359 0.17883062 0
4.5660005 1.9904742 0.17856005 0
4.5700002 1.9849076 0.17834361 0
4.5750003 1.9798119 0.17807303 0
4.5790005 1.9742148 0.17785656 0
4.5830002 1.9686031 0.17764013 0
4.5880003 1.9634569 0.17736955 0
4.5920005 1.9578147 0.17715308 0
4.5970001 1.952634 0.17688252 0
4.6010003 1.9469609 0.17666607 0
4.6060004 1.9417461 0.17639549 0
4.6100001 1.9360425 0.17617904 0
4.6150002 1.9307934 0.17590846 0
