# .PCD v0.7 - Point Cloud Data file format
VERSION 0.7
FIELDS x y z intensity
SIZE 4 4 4 4
TYPE F F F F
COUNT 1 1 1 1
WIDTH 1362
HEIGHT 1
VIEWPOINT 0 0 0 1 0 0 0
POINTS 1362
DATA ascii
2.7660003 0.16739053 0.16073482 0
2.7730002 0.16374141 0.16001512 0
3.1080003 -0.041115288 0.12557137 0
3.0990002 -0.046 0.12649676 0
3.0950003 -0.050861262 0.126908 0
3.0910003 -0.055708095 0.12731928 0
3.0900002 -0.060556732 0.12742209 0
3.0890002 -0.065401763 0.12752491 0
3.0880003 -0.07024318 0.1276277 0
3.0890002 -0.075102642 0.12752491 0
2.8150003 -0.076493382 0.15569678 0
2.8050003 -0.08070527 0.15672496 0
2.7990003 -0.084946021 0.15734185 0
2.7960002 -0.089219242 0.15765032 0
2.7930002 -0.093481645 0.15795878 0
2.7920003 -0.097776517 0.15806158 0
2.7910001 -0.10206777 0.15816441 0
2.7910001 -0.10638067 0.15816441 0
2.7910001 -0.11069359 0.15816441 0
2.7920003 -0.11503536 0.15806158 0
2.7940001 -0.11941139 0.15785594 0
2.7970002 -0.1238271 0.15754752 0
2.8010001 -0.12828793 0.15713625 0
2.8070002 -0.13283533 0.15651932 0
3.0920002 -0.20138726 0.12721646 0
3.0850003 -0.20582643 0.12793618 0
3.0800002 -0.210363 0.12845027 0
3.0760002 -0.21494468 0.12886152 0
3.0730002 -0.21957687 0.12917 0
3.0700002 -0.22419821 0.12947845 0
3.0680003 -0.22887731 0.12968406 0
3.0660002 -0.23354916 0.1298897 0
3.0660002 -0.23835811 0.1298897 0
2.8570001 -0.22771022 0.15137848 0
2.8460002 -0.23130883 0.15250945 0
2.8390002 -0.23517801 0.15322918 0
2.8340001 -0.23918064 0.15374327 0
2.8300002 -0.24324644 0.15415452 0
2.8260002 -0.24729779 0.1545658 0
2.8240001 -0.25150424 0.15477145 0
2.8210001 -0.25561693 0.15507992 0
2.8200002 -0.25989556 0.15518272 0
2.8180003 -0.26408041 0.15538831 0
2.8180003 -0.26844203 0.15538831 0
2.8170002 -0.27270982 0.15549117 0
2.8170002 -0.27706963 0.15549117 0
2.8170002 -0.28142944 0.15549117 0
2.8180003 -0.28588846 0.15538831 0
2.8190002 -0.29035106 0.15528552 0
2.8200002 -0.2948173 0.15518272 0
2.8220003 -0.29939178 0.15497705 0
2.8250003 -0.30407989 0.15466863 0
2.8290002 -0.308887 0.15425736 0
2.8340001 -0.3138186 0.15374327 0
2.8410003 -0.31899196 0.15302354 0
2.7730002 0.21938708 0.15573467 0
2.7640002 0.21411636 0.15667628 0
2.7600002 0.20941925 0.15709475 0
2.7570002 0.20484298 0.1574086 0
2.7550001 0.20038214 0.15761787 0
2.7540002 0.19603138 0.15772246 0
2.7540002 0.19178522 0.15772246 0
2.7540002 0.18753904 0.15772246 0
2.7550001 0.18339027 0.15761787 0
2.7570002 0.17933352 0.1574086 0
2.7590003 0.17526956 0.15719937 0
2.7620003 0.17129035 0.15688547 0
2.7660003 0.16739053 0.15646701 0
2.7730002 0.16374141 0.15573467 0
3.1080003 -0.041115288 0.12068668 0
3.0990002 -0.046 0.12162825 0
3.0950003 -0.050861262 0.12204674 0
3.0910003 -0.055708095 0.12246522 0
3.0900002 -0.060556732 0.12256986 0
3.0890002 -0.065401763 0.12267447 0
3.0880003 -0.07024318 0.1227791 0
3.0890002 -0.075102642 0.12267447 0
2.8150003 -0.076493382 0.1513406 0
2.8050003 -0.08070527 0.15238681 0
2.7990003 -0.084946021 0.15301451 0
2.7960002 -0.089219242 0.15332839 0
2.7930002 -0.093481645 0.15364227 0
2.7920003 -0.097776517 0.15374687 0
2.7910001 -0.10206777 0.15385148 0
2.7910001 -0.10638067 0.15385148 0
2.7910001 -0.11069359 0.15385148 0
2.7920003 -0.11503536 0.15374687 0
2.7940001 -0.11941139 0.15353763 0
2.7970002 -0.1238271 0.15322378 0
2.8010001 -0.12828793 0.1528053 0
2.8070002 -0.13283533 0.15217757 0
3.0920002 -0.20138726 0.12236062 0
3.0850003 -0.20582643 0.12309295 0
3.0800002 -0.210363 0.12361607 0
3.0760002 -0.21494468 0.12403455 0
3.0730002 -0.21957687 0.1243484 0
3.0700002 -0.22419821 0.12466228 0
3.0680003 -0.22887731 0.12487149 0
3.0660002 -0.23354916 0.12508076 0
3.0660002 -0.23835811 0.12508076 0
2.8570001 -0.22771022 0.14694655 0
2.8460002 -0.23130883 0.14809734 0
2.8390002 -0.23517801 0.1488297 0
2.8340001 -0.23918064 0.14935282 0
2.8300002 -0.24324644 0.1497713 0
2.8260002 -0.24729779 0.15018976 0
2.8240001 -0.25150424 0.15039903 0
2.8210001 -0.25561693 0.15071288 0
2.8200002 -0.25989556 0.15081751 0
2.8180003 -0.26408041 0.1510267 0
2.8180003 -0.26844203 0.1510267 0
2.8170002 -0.27270982 0.15113136 0
2.8170002 -0.27706963 0.15113136 0
2.8170002 -0.28142944 0.15113136 0
2.8180003 -0.28588846 0.1510267 0
2.8190002 -0.29035106 0.15092212 0
2.8200002 -0.2948173 0.15081751 0
2.8220003 -0.29939178 0.15060824 0
2.8250003 -0.30407989 0.15029439 0
2.8290002 -0.308887 0.14987591 0
2.8340001 -0.3138186 0.14935282 0
2.8410003 -0.31899196 0.14862043 0
2.7730002 0.21938708 0.15145424 0
2.7640002 0.21411636 0.15241209 0
2.7600002 0.20941925 0.15283775 0
2.7570002 0.20484298 0.15315703 0
2.7550001 0.20038214 0.15336987 0
2.7540002 0.19603138 0.15347633 0
2.7540002 0.19178522 0.15347633 0
2.7540002 0.18753904 0.15347633 0
2.7550001 0.18339027 0.15336987 0
2.7570002 0.17933352 0.15315703 0
2.7590003 0.17526956 0.15294418 0
2.7620003 0.17129035 0.15262488 0
2.7660003 0.16739053 0.15219921 0
2.7730002 0.16374141 0.15145424 0
3.1080003 -0.041115288 0.11580196 0
3.0990002 -0.046 0.11675978 0
3.0950003 -0.050861262 0.1171855 0
3.0910003 -0.055708095 0.11761117 0
3.0900002 -0.060556732 0.11771762 0
3.0890002 -0.065401763 0.11782405 0
3.0880003 -0.07024318 0.11793044 0
3.0890002 -0.075102642 0.11782405 0
2.8150003 -0.076493382 0.14698437 0
2.8050003 -0.08070527 0.14804861 0
2.7990003 -0.084946021 0.14868718 0
2.7960002 -0.089219242 0.14900646 0
2.7930002 -0.093481645 0.14932573 0
2.7920003 -0.097776517 0.14943215 0
2.7910001 -0.10206777 0.14953861 0
2.7910001 -0.10638067 0.14953861 0
2.7910001 -0.11069359 0.14953861 0
2.7920003 -0.11503536 0.14943215 0
2.7940001 -0.11941139 0.14921933 0
2.7970002 -0.1238271 0.14890006 0
2.8010001 -0.12828793 0.14847437 0
2.8070002 -0.13283533 0.14783582 0
3.0920002 -0.20138726 0.11750478 0
3.0850003 -0.20582643 0.11824974 0
3.0800002 -0.210363 0.11878186 0
3.0760002 -0.21494468 0.11920756 0
3.0730002 -0.21957687 0.11952683 0
3.0700002 -0.22419821 0.11984611 0
3.0680003 -0.22887731 0.12005892 0
3.0660002 -0.23354916 0.1202718 0
3.0660002 -0.23835811 0.1202718 0
2.8570001 -0.22771022 0.14251459 0
2.8460002 -0.23130883 0.14368522 0
2.8390002 -0.23517801 0.14443022 0
2.8340001 -0.23918064 0.14496234 0
2.8300002 -0.24324644 0.14538801 0
2.8260002 -0.24729779 0.14581373 0
2.8240001 -0.25150424 0.14602658 0
2.8210001 -0.25561693 0.14634585 0
2.8200002 -0.25989556 0.14645228 0
2.8180003 -0.26408041 0.1466651 0
2.8180003 -0.26844203 0.1466651 0
2.8170002 -0.27270982 0.14677158 0
2.8170002 -0.27706963 0.14677158 0
2.8170002 -0.28142944 0.14677158 0
2.8180003 -0.28588846 0.1466651 0
2.8190002 -0.29035106 0.1465587 0
2.8200002 -0.2948173 0.14645228 0
2.8220003 -0.29939178 0.14623943 0
2.8250003 -0.30407989 0.14592013 0
2.8290002 -0.308887 0.14549446 0
2.8340001 -0.3138186 0.14496234 0
2.8410003 -0.31899196 0.14421734 0
2.7730002 0.21938708 0.14717379 0
2.7640002 0.21411636 0.14814785 0
2.7600002 0.20941925 0.14858076 0
2.7570002 0.20484298 0.14890546 0
2.7550001 0.20038214 0.14912191 0
2.7540002 0.19603138 0.14923015 0
2.7540002 0.19178522 0.14923015 0
2.7540002 0.18753904 0.14923015 0
2.7550001 0.18339027 0.14912191 0
2.7570002 0.17933352 0.14890546 0
2.7590003 0.17526956 0.148689 0
2.7620003 0.17129035 0.14836431 0
2.7660003 0.16739053 0.1479314 0
2.7730002 0.16374141 0.14717379 0
3.1080003 -0.041115288 0.11091724 0
3.0990002 -0.046 0.11189133 0
3.0950003 -0.050861262 0.11232421 0
3.0910003 -0.055708095 0.11275715 0
3.0900002 -0.060556732 0.11286536 0
3.0890002 -0.065401763 0.1129736 0
3.0880003 -0.07024318 0.11308181 0
3.0890002 -0.075102642 0.1129736 0
2.8150003 -0.076493382 0.14262819 0
2.8050003 -0.08070527 0.14371046 0
2.7990003 -0.084946021 0.14435986 0
2.7960002 -0.089219242 0.14468452 0
2.7930002 -0.093481645 0.14500925 0
2.7920003 -0.097776517 0.14511743 0
2.7910001 -0.10206777 0.14522567 0
2.7910001 -0.10638067 0.14522567 0
2.7910001 -0.11069359 0.14522567 0
2.7920003 -0.11503536 0.14511743 0
2.7940001 -0.11941139 0.14490101 0
2.7970002 -0.1238271 0.14457631 0
2.8010001 -0.12828793 0.1441434 0
2.8070002 -0.13283533 0.14349404 0
3.0920002 -0.20138726 0.1126489 0
3.0850003 -0.20582643 0.11340651 0
3.0800002 -0.210363 0.11394766 0
3.0760002 -0.21494468 0.11438057 0
3.0730002 -0.21957687 0.11470526 0
3.0700002 -0.22419821 0.11502993 0
3.0680003 -0.22887731 0.11524639 0
3.0660002 -0.23354916 0.11546284 0
3.0660002 -0.23835811 0.11546284 0
2.8570001 -0.22771022 0.13808262 0
2.8460002 -0.23130883 0.13927311 0
2.8390002 -0.23517801 0.14003071 0
2.8340001 -0.23918064 0.14057186 0
2.8300002 -0.24324644 0.14100477 0
2.8260002 -0.24729779 0.14143768 0
2.8240001 -0.25150424 0.14165416 0
2.8210001 -0.25561693 0.14197886 0
2.8200002 -0.25989556 0.14208704 0
2.8180003 -0.26408041 0.1423035 0
2.8180003 -0.26844203 0.1423035 0
2.8170002 -0.27270982 0.14241174 0
2.8170002 -0.27706963 0.14241174 0
2.8170002 -0.28142944 0.14241174 0
2.8180003 -0.28588846 0.1423035 0
2.8190002 -0.29035106 0.14219528 0
2.8200002 -0.2948173 0.14208704 0
2.8220003 -0.29939178 0.14187059 0
2.8250003 -0.30407989 0.14154589 0
2.8290002 -0.308887 0.14111301 0
2.8340001 -0.3138186 0.14057186 0
2.8410003 -0.31899196 0.13981426 0
2.7730002 0.21938708 0.14289337 0
2.7640002 0.21411636 0.14388365 0
2.7600002 0.20941925 0.14432377 0
2.7570002 0.20484298 0.14465389 0
2.7550001 0.20038214 0.14487395 0
2.7540002 0.19603138 0.14498398 0
2.7540002 0.19178522 0.14498398 0
2.7540002 0.18753904 0.14498398 0
2.7550001 0.18339027 0.14487395 0
2.7570002 0.17933352 0.14465389 0
2.7590003 0.17526956 0.1444338 0
2.7620003 0.17129035 0.14410371 0
2.7660003 0.16739053 0.14366359 0
2.7730002 0.16374141 0.14289337 0
3.1080003 -0.041115288 0.10603252 0
3.0990002 -0.046 0.10702282 0
3.0950003 -0.050861262 0.10746297 0
3.0910003 -0.055708095 0.10790306 0
3.0900002 -0.060556732 0.10801315 0
3.0890002 -0.065401763 0.10812315 0
3.0880003 -0.07024318 0.10823315 0
3.0890002 -0.075102642 0.10812315 0
2.8150003 -0.076493382 0.13827199 0
2.8050003 -0.08070527 0.13937232 0
2.7990003 -0.084946021 0.14003253 0
2.7960002 -0.089219242 0.14036262 0
2.7930002 -0.093481645 0.14069271 0
2.7920003 -0.097776517 0.14080274 0
2.7910001 -0.10206777 0.1409128 0
2.7910001 -0.10638067 0.1409128 0
2.7910001 -0.11069359 0.1409128 0
2.7920003 -0.11503536 0.14080274 0
2.7940001 -0.11941139 0.14058271 0
2.7970002 -0.1238271 0.14025259 0
2.8010001 -0.12828793 0.13981247 0
2.8070002 -0.13283533 0.13915226 0
3.0920002 -0.20138726 0.10779306 0
3.0850003 -0.20582643 0.1085633 0
3.0800002 -0.210363 0.10911343 0
3.0760002 -0.21494468 0.10955358 0
3.0730002 -0.21957687 0.10988367 0
3.0700002 -0.22419821 0.11021376 0
3.0680003 -0.22887731 0.11043382 0
3.0660002 -0.23354916 0.11065391 0
3.0660002 -0.23835811 0.11065391 0
2.8570001 -0.22771022 0.13365066 0
2.8460002 -0.23130883 0.13486099 0
2.8390002 -0.23517801 0.13563123 0
2.8340001 -0.23918064 0.13618141 0
2.8300002 -0.24324644 0.13662151 0
2.8260002 -0.24729779 0.13706166 0
2.8240001 -0.25150424 0.13728172 0
2.8210001 -0.25561693 0.13761184 0
2.8200002 -0.25989556 0.13772184 0
2.8180003 -0.26408041 0.1379419 0
2.8180003 -0.26844203 0.1379419 0
2.8170002 -0.27270982 0.13805196 0
2.8170002 -0.27706963 0.13805196 0
2.8170002 -0.28142944 0.13805196 0
2.8180003 -0.28588846 0.1379419 0
2.8190002 -0.29035106 0.13783187 0
2.8200002 -0.2948173 0.13772184 0
2.8220003 -0.29939178 0.13750178 0
2.8250003 -0.30407989 0.13717166 0
2.8290002 -0.308887 0.13673156 0
2.8340001 -0.3138186 0.13618141 0
2.8410003 -0.31899196 0.13541114 0
2.7730002 0.21938708 0.13861293 0
2.7640002 0.21411636 0.13961944 0
2.7600002 0.20941925 0.1400668 0
2.7570002 0.20484298 0.14040232 0
2.7550001 0.20038214 0.14062598 0
2.7540002 0.19603138 0.14073783 0
2.7540002 0.19178522 0.14073783 0
2.7540002 0.18753904 0.14073783 0
2.7550001 0.18339027 0.14062598 0
2.7570002 0.17933352 0.14040232 0
2.7590003 0.17526956 0.14017862 0
2.7620003 0.17129035 0.13984311 0
2.7660003 0.16739053 0.13939577 0
2.7730002 0.16374141 0.13861293 0
3.1080003 -0.041115288 0.10114783 0
3.0990002 -0.046 0.10215434 0
3.0950003 -0.050861262 0.10260168 0
3.0910003 -0.055708095 0.10304904 0
3.0900002 -0.060556732 0.10316089 0
3.0890002 -0.065401763 0.10327274 0
3.0880003 -0.07024318 0.10338455 0
3.0890002 -0.075102642 0.10327274 0
2.8150003 -0.076493382 0.13391581 0
2.8050003 -0.08070527 0.13503414 0
2.7990003 -0.084946021 0.13570517 0
2.7960002 -0.089219242 0.13604072 0
2.7930002 -0.093481645 0.1363762 0
2.7920003 -0.097776517 0.13648802 0
2.7910001 -0.10206777 0.13659987 0
2.7910001 -0.10638067 0.13659987 0
2.7910001 -0.11069359 0.13659987 0
2.7920003 -0.11503536 0.13648802 0
2.7940001 -0.11941139 0.13626435 0
2.7970002 -0.1238271 0.13592887 0
2.8010001 -0.12828793 0.13548154 0
2.8070002 -0.13283533 0.13481051 0
3.0920002 -0.20138726 0.10293719 0
3.0850003 -0.20582643 0.10372004 0
3.0800002 -0.210363 0.10427925 0
3.0760002 -0.21494468 0.10472658 0
3.0730002 -0.21957687 0.10506207 0
3.0700002 -0.22419821 0.10539761 0
3.0680003 -0.22887731 0.10562125 0
3.0660002 -0.23354916 0.10584494 0
3.0660002 -0.23835811 0.10584494 0
2.8570001 -0.22771022 0.1292187 0
2.8460002 -0.23130883 0.13044888 0
2.8390002 -0.23517801 0.13123176 0
2.8340001 -0.23918064 0.13179094 0
2.8300002 -0.24324644 0.13223827 0
2.8260002 -0.24729779 0.13268563 0
2.8240001 -0.25150424 0.1329093 0
2.8210001 -0.25561693 0.13324478 0
2.8200002 -0.25989556 0.13335663 0
2.8180003 -0.26408041 0.1335803 0
2.8180003 -0.26844203 0.1335803 0
2.8170002 -0.27270982 0.13369215 0
2.8170002 -0.27706963 0.13369215 0
2.8170002 -0.28142944 0.13369215 0
2.8180003 -0.28588846 0.1335803 0
2.8190002 -0.29035106 0.13346845 0
2.8200002 -0.2948173 0.13335663 0
2.8220003 -0.29939178 0.13313293 0
2.8250003 -0.30407989 0.13279745 0
2.8290002 -0.308887 0.13235009 0
2.8340001 -0.3138186 0.13179094 0
2.8410003 -0.31899196 0.13100806 0
2.7730002 0.21938708 0.13433248 0
2.7640002 0.21411636 0.13535523 0
2.7600002 0.20941925 0.13580981 0
2.7570002 0.20484298 0.13615072 0
2.7550001 0.20038214 0.13637802 0
2.7540002 0.19603138 0.13649166 0
2.7540002 0.19178522 0.13649166 0
2.7540002 0.18753904 0.13649166 0
2.7550001 0.18339027 0.13637802 0
2.7570002 0.17933352 0.13615072 0
2.7590003 0.17526956 0.13592342 0
2.7620003 0.17129035 0.13558251 0
2.7660003 0.16739053 0.13512796 0
2.7730002 0.16374141 0.13433248 0
3.1080003 -0.041115288 0.096263111 0
3.0990002 -0.046 0.097285897 0
3.0950003 -0.050861262 0.097740442 0
3.0910003 -0.055708095 0.098194957 0
3.0900002 -0.060556732 0.098308653 0
3.0890002 -0.065401763 0.098422259 0
3.0880003 -0.07024318 0.098535925 0
3.0890002 -0.075102642 0.098422259 0
2.8150003 -0.076493382 0.12955958 0
2.8050003 -0.08070527 0.130696 0
2.7990003 -0.084946021 0.13137785 0
2.7960002 -0.089219242 0.13171875 0
2.7930002 -0.093481645 0.13205969 0
2.7920003 -0.097776517 0.13217333 0
2.7910001 -0.10206777 0.132287 0
2.7910001 -0.10638067 0.132287 0
2.7910001 -0.11069359 0.132287 0
2.7920003 -0.11503536 0.13217333 0
2.7940001 -0.11941139 0.13194606 0
2.7970002 -0.1238271 0.13160515 0
2.8010001 -0.12828793 0.13115057 0
2.8070002 -0.13283533 0.13046873 0
3.0920002 -0.20138726 0.09808135 0
3.0850003 -0.20582643 0.098876834 0
3.0800002 -0.210363 0.099445015 0
3.0760002 -0.21494468 0.09989959 0
3.0730002 -0.21957687 0.10024053 0
3.0700002 -0.22419821 0.10058144 0
3.0680003 -0.22887731 0.10080871 0
3.0660002 -0.23354916 0.10103598 0
3.0660002 -0.23835811 0.10103598 0
2.8570001 -0.22771022 0.12478673 0
2.8460002 -0.23130883 0.12603676 0
2.8390002 -0.23517801 0.12683225 0
2.8340001 -0.23918064 0.12740049 0
2.8300002 -0.24324644 0.127855 0
2.8260002 -0.24729779 0.12830955 0
2.8240001 -0.25150424 0.12853685 0
2.8210001 -0.25561693 0.12887779 0
2.8200002 -0.25989556 0.12899143 0
2.8180003 -0.26408041 0.12921867 0
2.8180003 -0.26844203 0.12921867 0
2.8170002 -0.27270982 0.12933236 0
2.8170002 -0.27706963 0.12933236 0
2.8170002 -0.28142944 0.12933236 0
2.8180003 -0.28588846 0.12921867 0
2.8190002 -0.29035106 0.12910506 0
2.8200002 -0.2948173 0.12899143 0
2.8220003 -0.29939178 0.12876412 0
2.8250003 -0.30407989 0.12842321 0
2.8290002 -0.308887 0.12796864 0
2.8340001 -0.3138186 0.12740049 0
2.8410003 -0.31899196 0.12660494 0
2.7730002 0.21938708 0.13005206 0
2.7640002 0.21411636 0.13109106 0
2.7600002 0.20941925 0.13155282 0
2.7570002 0.20484298 0.13189915 0
2.7550001 0.20038214 0.13213006 0
2.7540002 0.19603138 0.13224548 0
2.7540002 0.19178522 0.13224548 0
2.7540002 0.18753904 0.13224548 0
2.7550001 0.18339027 0.13213006 0
2.7570002 0.17933352 0.13189915 0
2.7590003 0.17526956 0.13166824 0
2.7620003 0.17129035 0.13132191 0
2.7660003 0.16739053 0.13086015 0
2.7730002 0.16374141 0.13005206 0
3.1080003 -0.041115288 0.091378391 0
3.0990002 -0.046 0.092417389 0
3.0950003 -0.050861262 0.092879176 0
3.0910003 -0.055708095 0.093340933 0
3.0900002 -0.060556732 0.093456388 0
3.0890002 -0.065401763 0.093571842 0
3.0880003 -0.07024318 0.093687266 0
3.0890002 -0.075102642 0.093571842 0
2.8150003 -0.076493382 0.1252034 0
2.8050003 -0.08070527 0.12635785 0
2.7990003 -0.084946021 0.12705052 0
2.7960002 -0.089219242 0.12739685 0
2.7930002 -0.093481645 0.12774318 0
2.7920003 -0.097776517 0.12785861 0
2.7910001 -0.10206777 0.12797406 0
2.7910001 -0.10638067 0.12797406 0
2.7910001 -0.11069359 0.12797406 0
2.7920003 -0.11503536 0.12785861 0
2.7940001 -0.11941139 0.12762773 0
2.7970002 -0.1238271 0.1272814 0
2.8010001 -0.12828793 0.12681964 0
2.8070002 -0.13283533 0.12612697 0
3.0920002 -0.20138726 0.093225509 0
3.0850003 -0.20582643 0.094033599 0
3.0800002 -0.210363 0.09461084 0
3.0760002 -0.21494468 0.095072597 0
3.0730002 -0.21957687 0.09541893 0
3.0700002 -0.22419821 0.095765263 0
3.0680003 -0.22887731 0.095996141 0
3.0660002 -0.23354916 0.09622705 0
3.0660002 -0.23835811 0.09622705 0
2.8570001 -0.22771022 0.1203548 0
2.8460002 -0.23130883 0.12162465 0
2.8390002 -0.23517801 0.12243277 0
2.8340001 -0.23918064 0.12300998 0
2.8300002 -0.24324644 0.12347177 0
2.8260002 -0.24729779 0.12393352 0
2.8240001 -0.25150424 0.12416443 0
2.8210001 -0.25561693 0.12451077 0
2.8200002 -0.25989556 0.12462619 0
2.8180003 -0.26408041 0.12485707 0
2.8180003 -0.26844203 0.12485707 0
2.8170002 -0.27270982 0.12497252 0
2.8170002 -0.27706963 0.12497252 0
2.8170002 -0.28142944 0.12497252 0
2.8180003 -0.28588846 0.12485707 0
2.8190002 -0.29035106 0.12474164 0
2.8200002 -0.2948173 0.12462619 0
2.8220003 -0.29939178 0.12439531 0
2.8250003 -0.30407989 0.12404898 0
2.8290002 -0.308887 0.12358719 0
2.8340001 -0.3138186 0.12300998 0
2.8410003 -0.31899196 0.12220186 0
2.7730002 0.21938708 0.12577161 0
2.7640002 0.21411636 0.12682685 0
2.7600002 0.20941925 0.12729582 0
2.7570002 0.20484298 0.12764758 0
2.7550001 0.20038214 0.12788209 0
2.7540002 0.19603138 0.12799931 0
2.7540002 0.19178522 0.12799931 0
2.7540002 0.18753904 0.12799931 0
2.7550001 0.18339027 0.12788209 0
2.7570002 0.17933352 0.12764758 0
2.7590003 0.17526956 0.12741309 0
2.7620003 0.17129035 0.12706134 0
2.7660003 0.16739053 0.12659234 0
2.7730002 0.16374141 0.12577161 0
3.1080003 -0.041115288 0.086493671 0
3.0990002 -0.046 0.087548912 0
3.0950003 -0.050861262 0.088017881 0
3.0910003 -0.055708095 0.08848691 0
3.0900002 -0.060556732 0.088604152 0
3.0890002 -0.065401763 0.088721395 0
3.0880003 -0.07024318 0.088838637 0
3.0890002 -0.075102642 0.088721395 0
2.8150003 -0.076493382 0.12084723 0
2.8050003 -0.08070527 0.12201968 0
2.7990003 -0.084946021 0.12272316 0
2.7960002 -0.089219242 0.12307492 0
2.7930002 -0.093481645 0.12342665 0
2.7920003 -0.097776517 0.12354392 0
2.7910001 -0.10206777 0.12366116 0
2.7910001 -0.10638067 0.12366116 0
2.7910001 -0.11069359 0.12366116 0
2.7920003 -0.11503536 0.12354392 0
2.7940001 -0.11941139 0.12330943 0
2.7970002 -0.1238271 0.12295768 0
2.8010001 -0.12828793 0.12248868 0
2.8070002 -0.13283533 0.12178519 0
3.0920002 -0.20138726 0.088369638 0
3.0850003 -0.20582643 0.089190394 0
3.0800002 -0.210363 0.089776635 0
3.0760002 -0.21494468 0.090245634 0
3.0730002 -0.21957687 0.090597361 0
3.0700002 -0.22419821 0.090949118 0
3.0680003 -0.22887731 0.091183573 0
3.0660002 -0.23354916 0.091418087 0
3.0660002 -0.23835811 0.091418087 0
2.8570001 -0.22771022 0.11592284 0
2.8460002 -0.23130883 0.11721253 0
2.8390002 -0.23517801 0.11803329 0
2.8340001 -0.23918064 0.1186195 0
2.8300002 -0.24324644 0.11908853 0
2.8260002 -0.24729779 0.1195575 0
2.8240001 -0.25150424 0.11979201 0
2.8210001 -0.25561693 0.12014374 0
2.8200002 -0.25989556 0.12026098 0
2.8180003 -0.26408041 0.12049547 0
2.8180003 -0.26844203 0.12049547 0
2.8170002 -0.27270982 0.12061271 0
2.8170002 -0.27706963 0.12061271 0
2.8170002 -0.28142944 0.12061271 0
2.8180003 -0.28588846 0.12049547 0
2.8190002 -0.29035106 0.12037823 0
2.8200002 -0.2948173 0.12026098 0
2.8220003 -0.29939178 0.12002647 0
2.8250003 -0.30407989 0.11967474 0
2.8290002 -0.308887 0.11920574 0
2.8340001 -0.3138186 0.1186195 0
2.8410003 -0.31899196 0.11779878 0
2.7730002 0.21938708 0.12149116 0
2.7640002 0.21411636 0.12256265 0
2.7600002 0.20941925 0.12303883 0
2.7570002 0.20484298 0.12339598 0
2.7550001 0.20038214 0.1236341 0
2.7540002 0.19603138 0.12375313 0
2.7540002 0.19178522 0.12375313 0
2.7540002 0.18753904 0.12375313 0
2.7550001 0.18339027 0.1236341 0
2.7570002 0.17933352 0.12339598 0
2.7590003 0.17526956 0.12315789 0
2.7620003 0.17129035 0.12280074 0
2.7660003 0.16739053 0.12232453 0
2.7730002 0.16374141 0.12149116 0
3.1080003 -0.041115288 0.081608981 0
3.0990002 -0.046 0.082680434 0
3.0950003 -0.050861262 0.083156645 0
3.0910003 -0.055708095 0.083632827 0
3.0900002 -0.060556732 0.083751887 0
3.0890002 -0.065401763 0.083870947 0
3.0880003 -0.07024318 0.083989978 0
3.0890002 -0.075102642 0.083870947 0
2.8150003 -0.076493382 0.11649102 0
2.8050003 -0.08070527 0.11768153 0
2.7990003 -0.084946021 0.11839584 0
2.7960002 -0.089219242 0.11875299 0
2.7930002 -0.093481645 0.11911017 0
2.7920003 -0.097776517 0.1192292 0
2.7910001 -0.10206777 0.11934826 0
2.7910001 -0.10638067 0.11934826 0
2.7910001 -0.11069359 0.11934826 0
2.7920003 -0.11503536 0.1192292 0
2.7940001 -0.11941139 0.11899111 0
2.7970002 -0.1238271 0.11863393 0
2.8010001 -0.12828793 0.11815774 0
2.8070002 -0.13283533 0.11744344 0
3.0920002 -0.20138726 0.083513796 0
3.0850003 -0.20582643 0.084347159 0
3.0800002 -0.210363 0.08494243 0
3.0760002 -0.21494468 0.085418612 0
3.0730002 -0.21957687 0.085775793 0
3.0700002 -0.22419821 0.086132944 0
3.0680003 -0.22887731 0.086371034 0
3.0660002 -0.23354916 0.086609125 0
3.0660002 -0.23835811 0.086609125 0
2.8570001 -0.22771022 0.11149088 0
2.8460002 -0.23130883 0.11280042 0
2.8390002 -0.23517801 0.11363378 0
2.8340001 -0.23918064 0.11422905 0
2.8300002 -0.24324644 0.11470526 0
2.8260002 -0.24729779 0.11518145 0
2.8240001 -0.25150424 0.11541957 0
2.8210001 -0.25561693 0.11577675 0
2.8200002 -0.25989556 0.11589578 0
2.8180003 -0.26408041 0.11613387 0
2.8180003 -0.26844203 0.11613387 0
2.8170002 -0.27270982 0.11625293 0
2.8170002 -0.27706963 0.11625293 0
2.8170002 -0.28142944 0.11625293 0
2.8180003 -0.28588846 0.11613387 0
2.8190002 -0.29035106 0.11601481 0
2.8200002 -0.2948173 0.11589578 0
2.8220003 -0.29939178 0.11565766 0
2.8250003 -0.30407989 0.11530048 0
2.8290002 -0.308887 0.1148243 0
2.8340001 -0.3138186 0.11422905 0
2.8410003 -0.31899196 0.11339566 0
2.7730002 0.21938708 0.11721072 0
2.7640002 0.21411636 0.11829844 0
2.7600002 0.20941925 0.11878186 0
2.7570002 0.20484298 0.11914441 0
2.7550001 0.20038214 0.11938614 0
2.7540002 0.19603138 0.11950698 0
2.7540002 0.19178522 0.11950698 0
2.7540002 0.18753904 0.11950698 0
2.7550001 0.18339027 0.11938614 0
2.7570002 0.17933352 0.11914441 0
2.7590003 0.17526956 0.11890271 0
2.7620003 0.17129035 0.11854014 0
2.7660003 0.16739053 0.11805671 0
2.7730002 0.16374141 0.11721072 0
3.1080003 -0.041115288 0.076724261 0
3.0990002 -0.046 0.077811956 0
3.0950003 -0.050861262 0.07829535 0
3.0910003 -0.055708095 0.078778803 0
3.0900002 -0.060556732 0.078899652 0
3.0890002 -0.065401763 0.0790205 0
3.0880003 -0.07024318 0.079141378 0
3.0890002 -0.075102642 0.0790205 0
2.8150003 -0.076493382 0.11213481 0
2.8050003 -0.08070527 0.11334336 0
2.7990003 -0.084946021 0.11406848 0
2.7960002 -0.089219242 0.11443105 0
2.7930002 -0.093481645 0.11479363 0
2.7920003 -0.097776517 0.11491448 0
2.7910001 -0.10206777 0.11503536 0
2.7910001 -0.10638067 0.11503536 0
2.7910001 -0.11069359 0.11503536 0
2.7920003 -0.11503536 0.11491448 0
2.7940001 -0.11941139 0.11467278 0
2.7970002 -0.1238271 0.11431023 0
2.8010001 -0.12828793 0.11382681 0
2.8070002 -0.13283533 0.11310169 0
3.0920002 -0.20138726 0.078657925 0
3.0850003 -0.20582643 0.079503924 0
3.0800002 -0.210363 0.080108225 0
3.0760002 -0.21494468 0.080591619 0
3.0730002 -0.21957687 0.080954194 0
3.0700002 -0.22419821 0.081316769 0
3.0680003 -0.22887731 0.081558466 0
3.0660002 -0.23354916 0.081800193 0
3.0660002 -0.23835811 0.081800193 0
2.8570001 -0.22771022 0.10705891 0
2.8460002 -0.23130883 0.10838833 0
2.8390002 -0.23517801 0.1092343 0
2.8340001 -0.23918064 0.10983858 0
2.8300002 -0.24324644 0.11032203 0
2.8260002 -0.24729779 0.11080542 0
2.8240001 -0.25150424 0.11104712 0
2.8210001 -0.25561693 0.11140969 0
2.8200002 -0.25989556 0.11153057 0
2.8180003 -0.26408041 0.11177224 0
2.8180003 -0.26844203 0.11177224 0
2.8170002 -0.27270982 0.11189312 0
2.8170002 -0.27706963 0.11189312 0
2.8170002 -0.28142944 0.11189312 0
2.8180003 -0.28588846 0.11177224 0
2.8190002 -0.29035106 0.11165139 0
2.8200002 -0.2948173 0.11153057 0
2.8220003 -0.29939178 0.11128882 0
2.8250003 -0.30407989 0.11092627 0
2.8290002 -0.308887 0.11044285 0
2.8340001 -0.3138186 0.10983858 0
2.8410003 -0.31899196 0.10899258 0
2.7730002 0.21938708 0.1129303 0
2.7640002 0.21411636 0.11403424 0
2.7600002 0.20941925 0.11452487 0
2.7570002 0.20484298 0.11489287 0
2.7550001 0.20038214 0.11513817 0
2.7540002 0.19603138 0.11526084 0
2.7540002 0.19178522 0.11526084 0
2.7540002 0.18753904 0.11526084 0
2.7550001 0.18339027 0.11513817 0
2.7570002 0.17933352 0.11489287 0
2.7590003 0.17526956 0.11464751 0
2.7620003 0.17129035 0.11427954 0
2.7660003 0.16739053 0.1137889 0
2.7730002 0.16374141 0.1129303 0
3.1080003 -0.041115288 0.071839541 0
3.0990002 -0.046 0.072943479 0
3.0950003 -0.050861262 0.073434114 0
3.0910003 -0.055708095 0.07392472 0
3.0900002 -0.060556732 0.074047416 0
3.0890002 -0.065401763 0.074170083 0
3.0880003 -0.07024318 0.074292719 0
3.0890002 -0.075102642 0.074170083 0
2.8150003 -0.076493382 0.10777861 0
2.8050003 -0.08070527 0.10900521 0
2.7990003 -0.084946021 0.10974115 0
2.7960002 -0.089219242 0.11010915 0
2.7930002 -0.093481645 0.11047712 0
2.7920003 -0.097776517 0.11059979 0
2.7910001 -0.10206777 0.11072245 0
2.7910001 -0.10638067 0.11072245 0
2.7910001 -0.11069359 0.11072245 0
2.7920003 -0.11503536 0.11059979 0
2.7940001 -0.11941139 0.11035445 0
2.7970002 -0.1238271 0.10998648 0
2.8010001 -0.12828793 0.10949585 0
2.8070002 -0.13283533 0.10875988 0
3.0920002 -0.20138726 0.073802084 0
3.0850003 -0.20582643 0.074660689 0
3.0800002 -0.210363 0.07527402 0
3.0760002 -0.21494468 0.075764656 0
3.0730002 -0.21957687 0.076132625 0
3.0700002 -0.22419821 0.076500624 0
3.0680003 -0.22887731 0.076745898 0
3.0660002 -0.23354916 0.07699123 0
3.0660002 -0.23835811 0.07699123 0
2.8570001 -0.22771022 0.10262695 0
2.8460002 -0.23130883 0.10397622 0
2.8390002 -0.23517801 0.10483482 0
2.8340001 -0.23918064 0.10544813 0
2.8300002 -0.24324644 0.10593873 0
2.8260002 -0.24729779 0.1064294 0
2.8240001 -0.25150424 0.1066747 0
2.8210001 -0.25561693 0.10704267 0
2.8200002 -0.25989556 0.10716534 0
2.8180003 -0.26408041 0.10741064 0
2.8180003 -0.26844203 0.10741064 0
2.8170002 -0.27270982 0.10753331 0
2.8170002 -0.27706963 0.10753331 0
2.8170002 -0.28142944 0.10753331 0
2.8180003 -0.28588846 0.10741064 0
2.8190002 -0.29035106 0.107288 0
2.8200002 -0.2948173 0.10716534 0
2.8220003 -0.29939178 0.10692 0
2.8250003 -0.30407989 0.10655203 0
2.8290002 -0.308887 0.1060614 0
2.8340001 -0.3138186 0.10544813 0
2.8410003 -0.31899196 0.10458946 0
2.7730002 0.21938708 0.10864985 0
2.7640002 0.21411636 0.10977003 0
2.7600002 0.20941925 0.11026788 0
2.7570002 0.20484298 0.11064127 0
2.7550001 0.20038214 0.11089021 0
2.7540002 0.19603138 0.11101466 0
2.7540002 0.19178522 0.11101466 0
2.7540002 0.18753904 0.11101466 0
2.7550001 0.18339027 0.11089021 0
2.7570002 0.17933352 0.11064127 0
2.7590003 0.17526956 0.11039233 0
2.7620003 0.17129035 0.11001894 0
2.7660003 0.16739053 0.10952109 0
2.7730002 0.16374141 0.10864985 0
3.1080003 -0.041115288 0.066954821 0
3.0990002 -0.046 0.068075001 0
3.0950003 -0.050861262 0.068572849 0
3.0910003 -0.055708095 0.069070697 0
3.0900002 -0.060556732 0.069195181 0
3.0890002 -0.065401763 0.069319606 0
3.0880003 -0.07024318 0.06944409 0
3.0890002 -0.075102642 0.069319606 0
2.8150003 -0.076493382 0.10342243 0
2.8050003 -0.08070527 0.10466707 0
2.7990003 -0.084946021 0.10541382 0
2.7960002 -0.089219242 0.10578722 0
2.7930002 -0.093481645 0.10616061 0
2.7920003 -0.097776517 0.10628507 0
2.7910001 -0.10206777 0.10640955 0
2.7910001 -0.10638067 0.10640955 0
2.7910001 -0.11069359 0.10640955 0
2.7920003 -0.11503536 0.10628507 0
2.7940001 -0.11941139 0.10603616 0
2.7970002 -0.1238271 0.10566276 0
2.8010001 -0.12828793 0.10516492 0
2.8070002 -0.13283533 0.10441813 0
3.0740001 -0.20034826 0.071186602 0
3.0700002 -0.20493354 0.07168442 0
3.0700002 -0.2097497 0.07168442 0
3.0700002 -0.21456589 0.07168442 0
3.0710003 -0.21944699 0.071559966 0
3.0700002 -0.22419821 0.07168442 0
3.0680003 -0.22887731 0.071933359 0
3.0660002 -0.23354916 0.072182268 0
3.0660002 -0.23835811 0.072182268 0
2.8570001 -0.22771022 0.098194987 0
2.8460002 -0.23130883 0.099564105 0
2.8390002 -0.23517801 0.10043532 0
2.8340001 -0.23918064 0.10105765 0
2.8300002 -0.24324644 0.1015555 0
2.8260002 -0.24729779 0.10205334 0
2.8240001 -0.25150424 0.10230228 0
2.8210001 -0.25561693 0.10267568 0
2.8200002 -0.25989556 0.1028001 0
2.8180003 -0.26408041 0.10304904 0
2.8180003 -0.26844203 0.10304904 0
2.8170002 -0.27270982 0.10317349 0
2.8170002 -0.27706963 0.10317349 0
2.8170002 -0.28142944 0.10317349 0
2.8180003 -0.28588846 0.10304904 0
2.8190002 -0.29035106 0.10292459 0
2.8200002 -0.2948173 0.1028001 0
2.8220003 -0.29939178 0.10255119 0
2.8250003 -0.30407989 0.1021778 0
2.8290002 -0.308887 0.10167995 0
2.8340001 -0.3138186 0.10105765 0
2.8410003 -0.31899196 0.10018638 0
2.7730002 0.21938708 0.1043694 0
2.7640002 0.21411636 0.10550582 0
2.7600002 0.20941925 0.10601088 0
2.7570002 0.20484298 0.1063897 0
2.7550001 0.20038214 0.10664222 0
2.7540002 0.19603138 0.10676852 0
2.7540002 0.19178522 0.10676852 0
2.7540002 0.18753904 0.10676852 0
2.7550001 0.18339027 0.10664222 0
2.7570002 0.17933352 0.1063897 0
2.7590003 0.17526956 0.10613713 0
2.7620003 0.17129035 0.10575837 0
2.7660003 0.16739053 0.10525328 0
2.7730002 0.16374141 0.1043694 0
3.1080003 -0.041115288 0.062070131 0
3.0990002 -0.046 0.063206524 0
3.0950003 -0.050861262 0.063711584 0
3.0910003 -0.055708095 0.064216644 0
3.0900002 -0.060556732 0.064342946 0
3.0890002 -0.065401763 0.064469188 0
3.0880003 -0.07024318 0.064595431 0
3.0890002 -0.075102642 0.064469188 0
2.8150003 -0.076493382 0.099066228 0
2.8050003 -0.08070527 0.10032886 0
2.7990003 -0.084946021 0.1010865 0
2.7960002 -0.089219242 0.10146528 0
2.7930002 -0.093481645 0.1018441 0
2.7920003 -0.097776517 0.10197034 0
2.7910001 -0.10206777 0.10209665 0
2.7910001 -0.10638067 0.10209665 0
2.7910001 -0.11069359 0.10209665 0
2.7920003 -0.11503536 0.10197034 0
2.7940001 -0.11941139 0.10171783 0
2.7970002 -0.1238271 0.10133904 0
2.8010001 -0.12828793 0.10083395 0
2.8070002 -0.13283533 0.10007638 0
3.0740001 -0.20034826 0.066363186 0
3.0590003 -0.20427877 0.068257183 0
3.0600002 -0.20913641 0.06813091 0
3.0610001 -0.21399768 0.068004668 0
3.0610001 -0.21879761 0.068004668 0
3.0620003 -0.22366428 0.067878395 0
3.0620003 -0.22846603 0.067878395 0
3.0630002 -0.23333812 0.067752123 0
3.0640001 -0.23821379 0.06762588 0
2.8570001 -0.22771022 0.093763053 0
2.8460002 -0.23130883 0.095151991 0
2.8390002 -0.23517801 0.096035838 0
2.8340001 -0.23918064 0.096667171 0
2.8300002 -0.24324644 0.09717223 0
2.8260002 -0.24729779 0.09767729 0
2.8240001 -0.25150424 0.097929835 0
2.8210001 -0.25561693 0.098308653 0
2.8200002 -0.25989556 0.098434895 0
2.8180003 -0.26408041 0.09868744 0
2.8180003 -0.26844203 0.09868744 0
2.8170002 -0.27270982 0.098813713 0
2.8170002 -0.27706963 0.098813713 0
2.8170002 -0.28142944 0.098813713 0
2.8180003 -0.28588846 0.09868744 0
2.8190002 -0.29035106 0.098561138 0
2.8200002 -0.2948173 0.098434895 0
2.8220003 -0.29939178 0.09818238 0
2.8250003 -0.30407989 0.097803563 0
2.8290002 -0.308887 0.097298503 0
2.8340001 -0.3138186 0.096667171 0
2.8410003 -0.31899196 0.095783293 0
2.7730002 0.21938708 0.10008898 0
2.7640002 0.21411636 0.10124162 0
2.7600002 0.20941925 0.10175389 0
2.7570002 0.20484298 0.1021381 0
2.7550001 0.20038214 0.10239428 0
2.7540002 0.19603138 0.10252234 0
2.7540002 0.19178522 0.10252234 0
2.7540002 0.18753904 0.10252234 0
2.7550001 0.18339027 0.10239428 0
2.7570002 0.17933352 0.1021381 0
2.7590003 0.17526956 0.10188198 0
2.7620003 0.17129035 0.10149777 0
2.7660003 0.16739053 0.1009855 0
2.7730002 0.16374141 0.10008898 0
3.1080003 -0.041115288 0.057185411 0
3.0990002 -0.046 0.058338046 0
3.0950003 -0.050861262 0.058850318 0
3.0910003 -0.055708095 0.05936259 0
3.0900002 -0.060556732 0.059490681 0
3.0890002 -0.065401763 0.059618741 0
3.0880003 -0.07024318 0.059746832 0
3.0890002 -0.075102642 0.059618741 0
2.8150003 -0.076493382 0.094710022 0
2.8050003 -0.08070527 0.095990717 0
2.7990003 -0.084946021 0.09675917 0
2.7960002 -0.089219242 0.097143352 0
2.7930002 -0.093481645 0.097527564 0
2.7920003 -0.097776517 0.097655654 0
2.7910001 -0.10206777 0.097783744 0
2.7910001 -0.10638067 0.097783744 0
2.7910001 -0.11069359 0.097783744 0
2.7920003 -0.11503536 0.097655654 0
2.7940001 -0.11941139 0.097399533 0
2.7970002 -0.1238271 0.097015291 0
2.8010001 -0.12828793 0.096503019 0
2.8070002 -0.13283533 0.095734596 0
3.0740001 -0.20034826 0.061539829 0
3.0590003 -0.20427877 0.063460857 0
3.0600002 -0.20913641 0.063332796 0
3.0610001 -0.21399768 0.063204736 0
3.0610001 -0.21879761 0.063204736 0
3.0620003 -0.22366428 0.063076645 0
3.0620003 -0.22846603 0.063076645 0
3.0630002 -0.23333812 0.062948585 0
3.0640001 -0.23821379 0.062820524 0
2.8570001 -0.22771022 0.08933109 0
2.8460002 -0.23130883 0.090739876 0
2.8390002 -0.23517801 0.09163636 0
2.8340001 -0.23918064 0.092276722 0
2.8300002 -0.24324644 0.092788994 0
2.8260002 -0.24729779 0.093301266 0
2.8240001 -0.25150424 0.093557417 0
2.8210001 -0.25561693 0.093941629 0
2.8200002 -0.25989556 0.09406969 0
2.8180003 -0.26408041 0.094325811 0
2.8180003 -0.26844203 0.094325811 0
2.8170002 -0.27270982 0.094453901 0
2.8170002 -0.27706963 0.094453901 0
2.8170002 -0.28142944 0.094453901 0
2.8180003 -0.28588846 0.094325811 0
2.8190002 -0.29035106 0.09419775 0
2.8200002 -0.2948173 0.09406969 0
2.8220003 -0.29939178 0.093813539 0
2.8250003 -0.30407989 0.093429327 0
2.8290002 -0.308887 0.092917025 0
2.8340001 -0.3138186 0.092276722 0
2.8410003 -0.31899196 0.091380179 0
2.7730002 0.21938708 0.095808536 0
2.7640002 0.21411636 0.096977413 0
2.7600002 0.20941925 0.097496897 0
2.7570002 0.20484298 0.097886533 0
2.7550001 0.20038214 0.098146319 0
2.7540002 0.19603138 0.098276168 0
2.7540002 0.19178522 0.098276168 0
2.7540002 0.18753904 0.098276168 0
2.7550001 0.18339027 0.098146319 0
2.7570002 0.17933352 0.097886533 0
2.7590003 0.17526956 0.097626776 0
2.7620003 0.17129035 0.09723717 0
2.7660003 0.16739053 0.096717656 0
2.7730002 0.16374141 0.095808536 0
3.1080003 -0.041115288 0.052300692 0
3.0990002 -0.046 0.053469568 0
3.0950003 -0.050861262 0.053989053 0
3.0910003 -0.055708095 0.054508567 0
3.0900002 -0.060556732 0.054638445 0
3.0890002 -0.065401763 0.054768324 0
3.0880003 -0.07024318 0.054898173 0
3.0890002 -0.075102642 0.054768324 0
2.8150003 -0.076493382 0.090353817 0
2.8050003 -0.08070527 0.091652572 0
2.7990003 -0.084946021 0.092431813 0
2.7960002 -0.089219242 0.092821449 0
2.7930002 -0.093481645 0.093211085 0
2.7920003 -0.097776517 0.093340933 0
2.7910001 -0.10206777 0.093470812 0
2.7910001 -0.10638067 0.093470812 0
2.7910001 -0.11069359 0.093470812 0
2.7920003 -0.11503536 0.093340933 0
2.7940001 -0.11941139 0.093081176 0
2.7970002 -0.1238271 0.0926916 0
2.8010001 -0.12828793 0.092172086 0
2.8070002 -0.13283533 0.091392845 0
3.0740001 -0.20034826 0.056716442 0
3.0590003 -0.20427877 0.058664531 0
3.0600002 -0.20913641 0.058534682 0
3.0610001 -0.21399768 0.058404803 0
3.0610001 -0.21879761 0.058404803 0
3.0620003 -0.22366428 0.058274895 0
3.0620003 -0.22846603 0.058274895 0
3.0630002 -0.23333812 0.058145046 0
3.0640001 -0.23821379 0.058015198 0
2.8570001 -0.22771022 0.084899127 0
2.8460002 -0.23130883 0.086327761 0
2.8390002 -0.23517801 0.087236881 0
2.8340001 -0.23918064 0.087886244 0
2.8300002 -0.24324644 0.088405728 0
2.8260002 -0.24729779 0.088925213 0
2.8240001 -0.25150424 0.089184999 0
2.8210001 -0.25561693 0.089574605 0
2.8200002 -0.25989556 0.089704484 0
2.8180003 -0.26408041 0.089964211 0
2.8180003 -0.26844203 0.089964211 0
2.8170002 -0.27270982 0.09009409 0
2.8170002 -0.27706963 0.09009409 0
2.8170002 -0.28142944 0.09009409 0
2.8180003 -0.28588846 0.089964211 0
2.8190002 -0.29035106 0.089834332 0
2.8200002 -0.2948173 0.089704484 0
2.8220003 -0.29939178 0.089444697 0
2.8250003 -0.30407989 0.089055091 0
2.8290002 -0.308887 0.088535577 0
2.8340001 -0.3138186 0.087886244 0
2.8410003 -0.31899196 0.086977094 0
2.7730002 0.21938708 0.091528118 0
2.7640002 0.21411636 0.092713237 0
2.7600002 0.20941925 0.093239933 0
2.7570002 0.20484298 0.093634963 0
2.7550001 0.20038214 0.093898326 0
2.7540002 0.19603138 0.094029993 0
2.7540002 0.19178522 0.094029993 0
2.7540002 0.18753904 0.094029993 0
2.7550001 0.18339027 0.093898326 0
2.7570002 0.17933352 0.093634963 0
2.7590003 0.17526956 0.0933716 0
2.7620003 0.17129035 0.09297657 0
2.7660003 0.16739053 0.092449844 0
2.7730002 0.16374141 0.091528118 0
3.0880003 -0.07024318 0.050049543 0
2.8150003 -0.076493382 0.085997641 0
2.8050003 -0.08070527 0.087314397 0
2.7990003 -0.084946021 0.088104486 0
2.7960002 -0.089219242 0.088499516 0
2.7930002 -0.093481645 0.088894546 0
2.7920003 -0.097776517 0.089026242 0
2.7910001 -0.10206777 0.089157939 0
2.7910001 -0.10638067 0.089157939 0
2.7910001 -0.11069359 0.089157939 0
2.7920003 -0.11503536 0.089026242 0
2.7940001 -0.11941139 0.088762879 0
2.7970002 -0.1238271 0.08836785 0
2.8010001 -0.12828793 0.087841153 0
2.8070002 -0.13283533 0.087051094 0
3.0740001 -0.20034826 0.051893055 0
3.0590003 -0.20427877 0.053868204 0
3.0600002 -0.20913641 0.053736538 0
3.0610001 -0.21399768 0.053604871 0
3.0610001 -0.21879761 0.053604871 0
3.0620003 -0.22366428 0.053473145 0
3.0620003 -0.22846603 0.053473145 0
3.0630002 -0.23333812 0.053341508 0
3.0640001 -0.23821379 0.053209841 0
2.8460002 -0.23130883 0.081915617 0
2.8390002 -0.23517801 0.082837373 0
2.8340001 -0.23918064 0.083495766 0
2.8300002 -0.24324644 0.084022492 0
2.8260002 -0.24729779 0.084549189 0
2.8240001 -0.25150424 0.084812552 0
2.8210001 -0.25561693 0.085207582 0
2.8200002 -0.25989556 0.085339248 0
2.8180003 -0.26408041 0.085602582 0
2.8180003 -0.26844203 0.085602582 0
2.8170002 -0.27270982 0.085734278 0
2.8170002 -0.27706963 0.085734278 0
2.8170002 -0.28142944 0.085734278 0
2.8180003 -0.28588846 0.085602582 0
2.8190002 -0.29035106 0.085470945 0
2.8200002 -0.2948173 0.085339248 0
2.8220003 -0.29939178 0.085075885 0
2.8250003 -0.30407989 0.084680855 0
2.8290002 -0.308887 0.084154129 0
2.8340001 -0.3138186 0.083495766 0
2.8410003 -0.31899196 0.08257398 0
2.7730002 0.21938708 0.087247699 0
2.7640002 0.21411636 0.088449031 0
2.7600002 0.20941925 0.08898294 0
2.7570002 0.20484298 0.089383364 0
2.7550001 0.20038214 0.089650363 0
2.7540002 0.19603138 0.089783818 0
2.7540002 0.19178522 0.089783818 0
2.7540002 0.18753904 0.089783818 0
2.7550001 0.18339027 0.089650363 0
2.7570002 0.17933352 0.089383364 0
2.7590003 0.17526956 0.089116424 0
2.7620003 0.17129035 0.088715971 0
2.7660003 0.16739053 0.088182032 0
2.7730002 0.16374141 0.087247699 0
2.8150003 -0.076493382 0.081641406 0
2.8050003 -0.08070527 0.082976252 0
2.7990003 -0.084946021 0.08377713 0
2.7960002 -0.089219242 0.084177583 0
2.7930002 -0.093481645 0.084578037 0
2.7920003 -0.097776517 0.084711522 0
2.7910001 -0.10206777 0.084845006 0
2.7910001 -0.10638067 0.084845006 0
2.7910001 -0.11069359 0.084845006 0
2.7920003 -0.11503536 0.084711522 0
2.7940001 -0.11941139 0.084444553 0
2.7970002 -0.1238271 0.084044129 0
2.8010001 -0.12828793 0.08351022 0
2.8070002 -0.13283533 0.082709283 0
2.8460002 -0.23130883 0.077503502 0
2.8390002 -0.23517801 0.078437895 0
2.8340001 -0.23918064 0.079105318 0
2.8300002 -0.24324644 0.079639226 0
2.8260002 -0.24729779 0.080173165 0
2.8240001 -0.25150424 0.080440104 0
2.8210001 -0.25561693 0.080840558 0
2.8200002 -0.25989556 0.080974042 0
2.8180003 -0.26408041 0.081240982 0
2.8180003 -0.26844203 0.081240982 0
2.8170002 -0.27270982 0.081374496 0
2.8170002 -0.27706963 0.081374496 0
2.8170002 -0.28142944 0.081374496 0
2.8180003 -0.28588846 0.081240982 0
2.8190002 -0.29035106 0.081107497 0
2.8200002 -0.2948173 0.080974042 0
2.8220003 -0.29939178 0.080707073 0
2.8250003 -0.30407989 0.080306619 0
2.8290002 -0.308887 0.079772681 0
2.8340001 -0.3138186 0.079105318 0
2.8410003 -0.31899196 0.078170896 0
2.7730002 0.21938708 0.082967252 0
2.7640002 0.21411636 0.084184825 0
2.7600002 0.20941925 0.084725946 0
2.7570002 0.20484298 0.085131824 0
2.7550001 0.20038214 0.085402399 0
2.7540002 0.19603138 0.085537672 0
2.7540002 0.19178522 0.085537672 0
2.7540002 0.18753904 0.085537672 0
2.7550001 0.18339027 0.085402399 0
2.7570002 0.17933352 0.085131824 0
2.7590003 0.17526956 0.084861219 0
2.7620003 0.17129035 0.084455371 0
2.7660003 0.16739053 0.08391425 0
2.7730002 0.16374141 0.082967252 0
2.8150003 -0.076493382 0.07728523 0
2.8050003 -0.08070527 0.078638107 0
2.7990003 -0.084946021 0.079449803 0
2.7960002 -0.089219242 0.07985568 0
2.7930002 -0.093481645 0.080261528 0
2.7920003 -0.097776517 0.080396801 0
2.7910001 -0.10206777 0.080532134 0
2.7910001 -0.10638067 0.080532134 0
2.7910001 -0.11069359 0.080532134 0
2.7920003 -0.11503536 0.080396801 0
2.7940001 -0.11941139 0.080126256 0
2.7970002 -0.1238271 0.079720378 0
2.8010001 -0.12828793 0.079179257 0
2.8070002 -0.13283533 0.078367531 0
2.8460002 -0.23130883 0.073091388 0
2.8390002 -0.23517801 0.074038416 0
2.8340001 -0.23918064 0.074714839 0
2.8300002 -0.24324644 0.07525599 0
2.8260002 -0.24729779 0.075797111 0
2.8240001 -0.25150424 0.076067686 0
2.8210001 -0.25561693 0.076473564 0
2.8200002 -0.25989556 0.076608837 0
2.8180003 -0.26408041 0.076879382 0
2.8180003 -0.26844203 0.076879382 0
2.8170002 -0.27270982 0.077014685 0
2.8170002 -0.27706963 0.077014685 0
2.8170002 -0.28142944 0.077014685 0
2.8180003 -0.28588846 0.076879382 0
2.8190002 -0.29035106 0.07674408 0
2.8200002 -0.2948173 0.076608837 0
2.8220003 -0.29939178 0.076338261 0
2.8250003 -0.30407989 0.075932384 0
2.8290002 -0.308887 0.075391263 0
2.8340001 -0.3138186 0.074714839 0
2.8410003 -0.31899196 0.073767811 0
2.7730002 0.21938708 0.078686804 0
2.7640002 0.21411636 0.07992062 0
2.7600002 0.20941925 0.080468953 0
2.7570002 0.20484298 0.080880255 0
2.7550001 0.20038214 0.081154436 0
2.7540002 0.19603138 0.081291497 0
2.7540002 0.19178522 0.081291497 0
2.7540002 0.18753904 0.081291497 0
2.7550001 0.18339027 0.081154436 0
2.7570002 0.17933352 0.080880255 0
2.7590003 0.17526956 0.080606043 0
2.7620003 0.17129035 0.080194771 0
2.7660003 0.16739053 0.079646438 0
2.7730002 0.16374141 0.078686804 0
2.8150003 -0.076493382 0.072929054 0
2.8050003 -0.08070527 0.074299932 0
2.7990003 -0.084946021 0.075122476 0
2.7960002 -0.089219242 0.075533748 0
2.7930002 -0.093481645 0.07594502 0
2.7920003 -0.097776517 0.076082081 0
2.7910001 -0.10206777 0.076219201 0
2.7910001 -0.10638067 0.076219201 0
2.7910001 -0.11069359 0.076219201 0
2.7920003 -0.11503536 0.076082081 0
2.7940001 -0.11941139 0.075807959 0
2.7970002 -0.1238271 0.075396657 0
2.8010001 -0.12828793 0.074848324 0
2.8070002 -0.13283533 0.07402578 0
2.8330002 -0.23032396 0.070461452 0
2.8260002 -0.23416968 0.071421057 0
2.8260002 -0.2385457 0.071421057 0
2.8260002 -0.24292175 0.071421057 0
2.8260002 -0.24729779 0.071421057 0
2.8240001 -0.25150424 0.071695268 0
2.8210001 -0.25561693 0.07210654 0
2.8200002 -0.25989556 0.072243601 0
2.8180003 -0.26408041 0.072517753 0
2.8180003 -0.26844203 0.072517753 0
2.8170002 -0.27270982 0.072654873 0
2.8170002 -0.27706963 0.072654873 0
2.8170002 -0.28142944 0.072654873 0
2.8180003 -0.28588846 0.072517753 0
2.8190002 -0.29035106 0.072380692 0
2.8200002 -0.2948173 0.072243601 0
2.8220003 -0.29939178 0.07196942 0
2.8250003 -0.30407989 0.071558148 0
2.8260002 -0.30856234 0.071421057 0
2.8260002 -0.31293836 0.071421057 0
2.8260002 -0.31731439 0.071421057 0
2.8260002 -0.32169047 0.071421057 0
2.8260002 -0.32606649 0.071421057 0
2.8260002 -0.33044252 0.071421057 0
2.8260002 -0.33481857 0.071421057 0
2.8260002 -0.3391946 0.071421057 0
2.8260002 -0.34357062 0.071421057 0
2.8260002 -0.34794667 0.071421057 0
2.8260002 -0.35232273 0.071421057 0
2.8260002 -0.35669875 0.071421057 0
2.8270001 -0.36120465 0.071283996 0
2.8270001 -0.3655825 0.071283996 0
2.8280003 -0.37009385 0.071146876 0
2.8280003 -0.37447351 0.071146876 0
2.8290002 -0.3789902 0.071009815 0
2.8300002 -0.38351056 0.070872724 0
2.8300002 -0.38789383 0.070872724 0
2.8310003 -0.39241958 0.070735604 0
2.8310003 -0.39680463 0.070735604 0
2.8320003 -0.40133581 0.070598513 0
2.8320003 -0.40572265 0.070598513 0
2.8330002 -0.41025925 0.070461452 0
2.8330002 -0.41464791 0.070461452 0
2.8340001 -0.41918987 0.070324361 0
2.8350003 -0.4237355 0.070187241 0
2.8350003 -0.42812777 0.070187241 0
2.7730002 0.21938708 0.074406385 0
2.7640002 0.21411636 0.075656414 0
2.7600002 0.20941925 0.076211959 0
2.7570002 0.20484298 0.076628655 0
2.7550001 0.20038214 0.076906443 0
2.7540002 0.19603138 0.077045351 0
2.7540002 0.19178522 0.077045351 0
2.7540002 0.18753904 0.077045351 0
2.7550001 0.18339027 0.076906443 0
2.7570002 0.17933352 0.076628655 0
2.7590003 0.17526956 0.076350868 0
2.7620003 0.17129035 0.075934172 0
2.7660003 0.16739053 0.075378627 0
2.7730002 0.16374141 0.074406385 0
2.8150003 -0.076493382 0.068572849 0
2.8050003 -0.08070527 0.069961786 0
2.7990003 -0.084946021 0.070795149 0
2.7960002 -0.089219242 0.071211845 0
2.7930002 -0.093481645 0.071628481 0
2.7920003 -0.097776517 0.07176739 0
2.7910001 -0.10206777 0.071906298 0
2.7910001 -0.10638067 0.071906298 0
2.7910001 -0.11069359 0.071906298 0
2.7920003 -0.11503536 0.07176739 0
2.7940001 -0.11941139 0.071489632 0
2.7970002 -0.1238271 0.071072936 0
2.8010001 -0.12828793 0.070517391 0
2.8070002 -0.13283533 0.069683999 0
2.8330002 -0.23032396 0.066072792 0
2.8110001 -0.23300621 0.069128424 0
2.8120003 -0.23743457 0.068989515 0
2.8120003 -0.24178536 0.068989515 0
2.8130002 -0.2462191 0.068850636 0
2.8130002 -0.2505717 0.068850636 0
2.8140001 -0.25501084 0.068711758 0
2.8140001 -0.25936526 0.068711758 0
2.8150003 -0.26380983 0.068572849 0
2.8150003 -0.26816604 0.068572849 0
2.8160002 -0.27261603 0.06843394 0
2.8160002 -0.27697402 0.06843394 0
2.8170002 -0.28142944 0.068295062 0
2.8180003 -0.28588846 0.068156153 0
2.8180003 -0.29025009 0.068156153 0
2.8190002 -0.29471448 0.068017274 0
2.8190002 -0.2990779 0.068017274 0
2.8200002 -0.30354774 0.067878395 0
2.8200002 -0.30791298 0.067878395 0
2.8210001 -0.31238818 0.067739487 0
2.8210001 -0.31675524 0.067739487 0
2.8220003 -0.3212359 0.067600578 0
2.8220003 -0.32560471 0.067600578 0
2.8230002 -0.33009079 0.067461699 0
2.8240001 -0.33458045 0.06732285 0
2.8240001 -0.3389529 0.06732285 0
2.8250003 -0.34344798 0.067183912 0
2.8250003 -0.34782222 0.067183912 0
2.8260002 -0.35232273 0.067045033 0
2.8260002 -0.35669875 0.067045033 0
2.8270001 -0.36120465 0.066906154 0
2.8270001 -0.3655825 0.066906154 0
2.8280003 -0.37009385 0.066767246 0
2.8280003 -0.37447351 0.066767246 0
2.8290002 -0.3789902 0.066628367 0
2.8300002 -0.38351056 0.066489458 0
2.8300002 -0.38789383 0.066489458 0
2.8310003 -0.39241958 0.066350549 0
2.8310003 -0.39680463 0.066350549 0
2.8320003 -0.40133581 0.066211671 0
2.8320003 -0.40572265 0.066211671 0
2.8330002 -0.41025925 0.066072792 0
2.8330002 -0.41464791 0.066072792 0
