# .PCD v0.7 - Point Cloud Data file format
VERSION 0.7
FIELDS x y z intensity
SIZE 4 4 4 4
TYPE F F F F
COUNT 1 1 1 1
WIDTH 1453
HEIGHT 1
VIEWPOINT 0 0 0 1 0 0 0
POINTS 1453
DATA ascii
4.7600002 -2.4997563 2.2049942 0
4.7520003 -2.5031042 2.2016897 0
4.7440004 -2.5064235 2.1983852 0
4.7360005 -2.5097134 2.1950805 0
4.7930002 -2.4866319 2.2107015 0
4.7850003 -2.490097 2.2074113 0
4.7770004 -2.4935334 2.2041214 0
4.7680001 -2.4963796 2.2004197 0
4.7600002 -2.4997563 2.1971297 0
4.7520003 -2.5031042 2.1938396 0
4.7440004 -2.5064235 2.1905494 0
4.7360005 -2.5097134 2.1872594 0
4.7930002 -2.4866319 2.2027774 0
4.7850003 -2.490097 2.1995018 0
4.7770004 -2.4935334 2.1962261 0
4.7680001 -2.4963796 2.1925406 0
4.7600002 -2.4997563 2.189265 0
4.7520003 -2.5031042 2.1859894 0
4.7440004 -2.5064235 2.1827137 0
4.7360005 -2.5097134 2.1794381 0
4.7930002 -2.4866319 2.1948533 0
4.7850003 -2.490097 2.191592 0
4.7770004 -2.4935334 2.1883307 0
4.7680001 -2.4963796 2.1846616 0
4.7600002 -2.4997563 2.1814005 0
4.7520003 -2.5031042 2.1781392 0
4.7440004 -2.5064235 2.1748779 0
4.7360005 -2.5097134 2.1716168 0
4.7930002 -2.4866319 2.1869292 0
4.7850003 -2.490097 2.1836822 0
4.7770004 -2.4935334 2.1804354 0
4.7680001 -2.4963796 2.1767826 0
4.7600002 -2.4997563 2.1735358 0
4.7520003 -2.5031042 2.170289 0
4.7440004 -2.5064235 2.1670423 0
4.7360005 -2.5097134 2.1637955 0
4.7930002 -2.4866319 2.1790049 0
4.7850003 -2.490097 2.1757727 0
4.7770004 -2.4935334 2.1725402 0
4.7680001 -2.4963796 2.1689036 0
4.7600002 -2.4997563 2.1656711 0
4.7520003 -2.5031042 2.1624389 0
4.7440004 -2.5064235 2.1592064 0
4.7360005 -2.5097134 2.1559741 0
4.7930002 -2.4866319 2.1710808 0
4.7850003 -2.490097 2.1678629 0
4.7770004 -2.4935334 2.164645 0
4.7680001 -2.4963796 2.1610246 0
4.7600002 -2.4997563 2.1578066 0
4.7520003 -2.5031042 2.1545887 0
4.7440004 -2.5064235 2.1513708 0
4.7360005 -2.5097134 2.1481528 0
4.7930002 -2.4866319 2.1631567 0
4.7850003 -2.490097 2.1599531 0
4.7770004 -2.4935334 2.1567497 0
4.7680001 -2.4963796 2.1531456 0
4.7600002 -2.4997563 2.1499422 0
4.7520003 -2.5031042 2.1467385 0
4.7440004 -2.5064235 2.1435351 0
4.7360005 -2.5097134 2.1403315 0
4.7930002 -2.4866319 2.1552327 0
4.7850003 -2.490097 2.1520433 0
4.7770004 -2.4935334 2.1488545 0
4.7680001 -2.4963796 2.1452665 0
4.7600002 -2.4997563 2.1420774 0
4.7520003 -2.5031042 2.1388884 0
4.7440004 -2.5064235 2.1356993 0
4.7360005 -2.5097134 2.1325102 0
4.7930002 -2.4866319 2.1473083 0
4.7850003 -2.490097 2.1441338 0
4.7770004 -2.4935334 2.140959 0
4.7680001 -2.4963796 2.1373875 0
4.7600002 -2.4997563 2.1342127 0
4.7520003 -2.5031042 2.1310382 0
4.7440004 -2.5064235 2.1278634 0
4.7360005 -2.5097134 2.1246889 0
4.7930002 -2.4866319 2.1393843 0
4.7850003 -2.490097 2.136224 0
4.7770004 -2.4935334 2.1330638 0
4.7680001 -2.4963796 2.1295085 0
4.7600002 -2.4997563 2.1263483 0
4.7520003 -2.5031042 2.123188 0
4.7440004 -2.5064235 2.1200278 0
4.7360005 -2.5097134 2.1168675 0
4.7930002 -2.4866319 2.1314602 0
4.7850003 -2.490097 2.1283145 0
4.7770004 -2.4935334 2.1251686 0
4.7680001 -2.4963796 2.1216295 0
4.7600002 -2.4997563 2.1184835 0
4.7520003 -2.5031042 2.1153378 0
4.7440004 -2.5064235 2.1121919 0
4.7360005 -2.5097134 2.1090462 0
4.7930002 -2.4866319 2.1235361 0
4.7850003 -2.490097 2.1204047 0
4.7770004 -2.4935334 2.1172733 0
4.7680001 -2.4963796 2.1137505 0
4.7600002 -2.4997563 2.1106191 0
4.7520003 -2.5031042 2.1074877 0
4.7440004 -2.5064235 2.1043563 0
4.7360005 -2.5097134 2.1012249 0
4.7930002 -2.4866319 2.1156118 0
4.7850003 -2.490097 2.1124949 0
4.7770004 -2.4935334 2.1093781 0
4.7680001 -2.4963796 2.1058714 0
4.7600002 -2.4997563 2.1027544 0
4.7520003 -2.5031042 2.0996375 0
4.7440004 -2.5064235 2.0965204 0
4.7360005 -2.5097134 2.0934036 0
4.7930002 -2.4866319 2.107688 0
4.7850003 -2.490097 2.1045852 0
4.7770004 -2.4935334 2.1014829 0
4.7680001 -2.4963796 2.0979922 0
4.7600002 -2.4997563 2.0948899 0
4.7520003 -2.5031042 2.0917873 0
4.7440004 -2.5064235 2.0886848 0
4.7360005 -2.5097134 2.0855823 0
4.7930002 -2.4866319 2.0997636 0
4.7850003 -2.490097 2.0966756 0
4.7770004 -2.4935334 2.0935876 0
4.7680001 -2.4963796 2.0901134 0
4.7600002 -2.4997563 2.0870252 0
4.7520003 -2.5031042 2.0839372 0
4.7440004 -2.5064235 2.0808492 0
4.7360005 -2.5097134 2.0777609 0
4.7930002 -2.4866319 2.0918396 0
4.7850003 -2.490097 2.0887659 0
4.7770004 -2.4935334 2.0856922 0
4.7680001 -2.4963796 2.0822344 0
4.7600002 -2.4997563 2.0791607 0
4.7520003 -2.5031042 2.076087 0
4.7440004 -2.5064235 2.0730133 0
4.7360005 -2.5097134 2.0699396 0
4.7930002 -2.4866319 2.0839155 0
4.7850003 -2.490097 2.0808563 0
4.7770004 -2.4935334 2.0777969 0
4.7680001 -2.4963796 2.0743551 0
4.7600002 -2.4997563 2.071296 0
4.7520003 -2.5031042 2.0682368 0
4.7440004 -2.5064235 2.0651777 0
4.7360005 -2.5097134 2.0621183 0
4.7930002 -2.4866319 2.0759914 0
4.7850003 -2.490097 2.0729465 0
4.7770004 -2.4935334 2.0699017 0
4.7680001 -2.4963796 2.0664761 0
4.7600002 -2.4997563 2.0634313 0
4.7520003 -2.5031042 2.0603867 0
4.7440004 -2.5064235 2.0573418 0
4.7360005 -2.5097134 2.054297 0
4.7930002 -2.4866319 2.0680671 0
4.7850003 -2.490097 2.0650368 0
4.7770004 -2.4935334 2.0620065 0
4.7680001 -2.4963796 2.0585971 0
4.7600002 -2.4997563 2.0555668 0
4.7520003 -2.5031042 2.0525365 0
4.7440004 -2.5064235 2.0495059 0
4.7360005 -2.5097134 2.0464756 0
4.7930002 -2.4866319 2.060143 0
4.7850003 -2.490097 2.057127 0
4.7770004 -2.4935334 2.0541112 0
4.7680001 -2.4963796 2.0507181 0
4.7600002 -2.4997563 2.0477023 0
4.7520003 -2.5031042 2.0446863 0
4.7440004 -2.5064235 2.0416703 0
4.7360005 -2.5097134 2.0386543 0
4.7930002 -2.4866319 2.0522189 0
4.7850003 -2.490097 2.0492175 0
4.7770004 -2.4935334 2.046216 0
4.7680001 -2.4963796 2.0428391 0
4.7600002 -2.4997563 2.0398376 0
4.7520003 -2.5031042 2.0368361 0
4.7440004 -2.5064235 2.0338345 0
4.7360005 -2.5097134 2.030833 0
4.7930002 -2.4866319 2.0442948 0
4.7850003 -2.490097 2.0413077 0
4.7770004 -2.4935334 2.0383205 0
4.7680001 -2.4963796 2.03496 0
4.7600002 -2.4997563 2.0319729 0
4.7520003 -2.5031042 2.028986 0
4.7440004 -2.5064235 2.0259988 0
4.7360005 -2.5097134 2.0230117 0
4.7930002 -2.4866319 2.0363705 0
4.7850003 -2.490097 2.0333979 0
4.7770004 -2.4935334 2.0304253 0
4.7680001 -2.4963796 2.027081 0
4.7600002 -2.4997563 2.0241084 0
4.7520003 -2.5031042 2.0211356 0
4.7440004 -2.5064235 2.0181632 0
4.7360005 -2.5097134 2.0151904 0
4.7930002 -2.4866319 2.0284464 0
4.7850003 -2.490097 2.0254884 0
4.7770004 -2.4935334 2.0225301 0
4.7680001 -2.4963796 2.019202 0
4.7600002 -2.4997563 2.0162437 0
4.7520003 -2.5031042 2.0132856 0
4.7440004 -2.5064235 2.0103273 0
4.7360005 -2.5097134 2.007369 0
4.7930002 -2.4866319 2.0205224 0
4.7850003 -2.490097 2.0175786 0
4.7770004 -2.4935334 2.0146348 0
4.7680001 -2.4963796 2.011323 0
4.7600002 -2.4997563 2.0083792 0
4.7520003 -2.5031042 2.0054355 0
4.7440004 -2.5064235 2.0024917 0
4.7360005 -2.5097134 1.9995478 0
4.7930002 -2.4866319 2.0125983 0
4.7850003 -2.490097 2.0096688 0
4.7770004 -2.4935334 2.0067396 0
4.7680001 -2.4963796 2.003444 0
4.7600002 -2.4997563 2.0005145 0
4.7520003 -2.5031042 1.9975853 0
4.7440004 -2.5064235 1.994656 0
4.7360005 -2.5097134 1.9917265 0
4.7930002 -2.4866319 2.0046742 0
4.7850003 -2.490097 2.0017591 0
4.7770004 -2.4935334 1.9988444 0
4.7680001 -2.4963796 1.9955649 0
4.7600002 -2.4997563 1.99265 0
4.7520003 -2.5031042 1.9897351 0
4.7440004 -2.5064235 1.9868202 0
4.7360005 -2.5097134 1.9839052 0
4.7930002 -2.4866319 1.9967501 0
4.7850003 -2.490097 1.9938496 0
4.7770004 -2.4935334 1.990949 0
4.7680001 -2.4963796 1.9876859 0
4.7600002 -2.4997563 1.9847854 0
4.7520003 -2.5031042 1.981885 0
4.7440004 -2.5064235 1.9789844 0
4.7360005 -2.5097134 1.9760839 0
4.7930002 -2.4866319 1.9888259 0
4.7850003 -2.490097 1.9859399 0
4.7770004 -2.4935334 1.9830538 0
4.7680001 -2.4963796 1.9798068 0
4.7600002 -2.4997563 1.9769207 0
4.7520003 -2.5031042 1.9740347 0
4.7440004 -2.5064235 1.9711486 0
4.7360005 -2.5097134 1.9682626 0
4.7930002 -2.4866319 1.9809018 0
4.7850003 -2.490097 1.9780302 0
4.7770004 -2.4935334 1.9751586 0
4.7680001 -2.4963796 1.9719278 0
4.7600002 -2.4997563 1.9690561 0
4.7520003 -2.5031042 1.9661845 0
4.7440004 -2.5064235 1.9633129 0
4.7360005 -2.5097134 1.9604414 0
4.7930002 -2.4866319 1.9729776 0
4.7850003 -2.490097 1.9701204 0
4.7770004 -2.4935334 1.9672632 0
4.7680001 -2.4963796 1.9640487 0
4.7600002 -2.4997563 1.9611915 0
4.7520003 -2.5031042 1.9583344 0
4.7440004 -2.5064235 1.9554772 0
4.7360005 -2.5097134 1.95262 0
4.7930002 -2.4866319 1.9650536 0
4.7850003 -2.490097 1.9622108 0
4.7770004 -2.4935334 1.959368 0
4.7680001 -2.4963796 1.9561698 0
4.7600002 -2.4997563 1.9533271 0
4.7520003 -2.5031042 1.9504843 0
4.7440004 -2.5064235 1.9476415 0
4.7360005 -2.5097134 1.9447987 0
4.7930002 -2.4866319 1.9571294 0
4.7850003 -2.490097 1.954301 0
4.7770004 -2.4935334 1.9514728 0
4.7680001 -2.4963796 1.9482907 0
4.7600002 -2.4997563 1.9454623 0
4.7520003 -2.5031042 1.9426341 0
4.7440004 -2.5064235 1.9398057 0
4.7360005 -2.5097134 1.9369774 0
4.7930002 -2.4866319 1.9492053 0
4.7850003 -2.490097 1.9463915 0
4.7770004 -2.4935334 1.9435775 0
4.7680001 -2.4963796 1.9404117 0
4.7600002 -2.4997563 1.9375978 0
4.7520003 -2.5031042 1.9347839 0
4.7440004 -2.5064235 1.93197 0
4.7360005 -2.5097134 1.9291561 0
4.7930002 -2.4866319 1.9412811 0
4.7850003 -2.490097 1.9384817 0
4.7770004 -2.4935334 1.9356822 0
4.7680001 -2.4963796 1.9325327 0
4.7600002 -2.4997563 1.9297332 0
4.7520003 -2.5031042 1.9269336 0
4.7440004 -2.5064235 1.9241343 0
4.7360005 -2.5097134 1.9213347 0
4.7930002 -2.4866319 1.933357 0
4.7850003 -2.490097 1.930572 0
4.7770004 -2.4935334 1.9277869 0
4.7680001 -2.4963796 1.9246535 0
4.7600002 -2.4997563 1.9218686 0
4.7520003 -2.5031042 1.9190835 0
4.7440004 -2.5064235 1.9162985 0
4.7360005 -2.5097134 1.9135134 0
4.7930002 -2.4866319 1.9254329 0
4.7850003 -2.490097 1.9226623 0
4.7770004 -2.4935334 1.9198916 0
4.7680001 -2.4963796 1.9167746 0
4.7600002 -2.4997563 1.914004 0
4.7520003 -2.5031042 1.9112333 0
4.7440004 -2.5064235 1.9084628 0
4.7360005 -2.5097134 1.9056921 0
4.7930002 -2.4866319 1.9175088 0
4.7850003 -2.490097 1.9147526 0
4.7770004 -2.4935334 1.9119965 0
4.7680001 -2.4963796 1.9088956 0
4.7600002 -2.4997563 1.9061394 0
4.7520003 -2.5031042 1.9033833 0
4.7440004 -2.5064235 1.9006269 0
4.7360005 -2.5097134 1.8978708 0
4.7930002 -2.4866319 1.9095846 0
4.7850003 -2.490097 1.9068428 0
4.7770004 -2.4935334 1.9041011 0
4.7680001 -2.4963796 1.9010165 0
4.7600002 -2.4997563 1.8982748 0
4.7520003 -2.5031042 1.8955331 0
4.7440004 -2.5064235 1.8927913 0
4.7360005 -2.5097134 1.8900495 0
4.7930002 -2.4866319 1.9016606 0
4.7850003 -2.490097 1.8989332 0
4.7770004 -2.4935334 1.8962058 0
4.7680001 -2.4963796 1.8931375 0
4.7600002 -2.4997563 1.8904102 0
4.7520003 -2.5031042 1.8876828 0
4.7440004 -2.5064235 1.8849555 0
4.7360005 -2.5097134 1.8822283 0
4.7930002 -2.4866319 1.8937364 0
4.7850003 -2.490097 1.8910235 0
4.7770004 -2.4935334 1.8883106 0
4.7680001 -2.4963796 1.8852584 0
4.7600002 -2.4997563 1.8825456 0
4.7520003 -2.5031042 1.8798326 0
4.7440004 -2.5064235 1.8771198 0
4.7360005 -2.5097134 1.8744069 0
4.7930002 -2.4866319 1.8858123 0
4.7850003 -2.490097 1.8831139 0
4.7770004 -2.4935334 1.8804153 0
4.7680001 -2.4963796 1.8773794 0
4.7600002 -2.4997563 1.8746809 0
4.7520003 -2.5031042 1.8719825 0
4.7440004 -2.5064235 1.869284 0
4.7360005 -2.5097134 1.8665856 0
4.7930002 -2.4866319 1.8778881 0
4.7850003 -2.490097 1.8752041 0
4.7770004 -2.4935334 1.8725201 0
4.7680001 -2.4963796 1.8695004 0
4.7600002 -2.4997563 1.8668163 0
4.7520003 -2.5031042 1.8641323 0
4.7440004 -2.5064235 1.8614483 0
4.7360005 -2.5097134 1.8587643 0
4.7930002 -2.4866319 1.869964 0
4.7850003 -2.490097 1.8672944 0
4.7770004 -2.4935334 1.8646247 0
4.7680001 -2.4963796 1.8616214 0
4.7600002 -2.4997563 1.8589518 0
4.7520003 -2.5031042 1.8562821 0
4.7440004 -2.5064235 1.8536125 0
4.7360005 -2.5097134 1.850943 0
4.7930002 -2.4866319 1.8620398 0
4.7850003 -2.490097 1.8593847 0
4.7770004 -2.4935334 1.8567295 0
4.7680001 -2.4963796 1.8537424 0
4.7600002 -2.4997563 1.8510872 0
4.7520003 -2.5031042 1.8484321 0
4.7440004 -2.5064235 1.8457768 0
4.7360005 -2.5097134 1.8431216 0
4.7930002 -2.4866319 1.8541157 0
4.7850003 -2.490097 1.851475 0
4.7770004 -2.4935334 1.8488343 0
4.7680001 -2.4963796 1.8458632 0
4.7600002 -2.4997563 1.8432225 0
4.7520003 -2.5031042 1.8405818 0
4.7440004 -2.5064235 1.8379411 0
4.7360005 -2.5097134 1.8353003 0
4.7930002 -2.4866319 1.8461915 0
4.7850003 -2.490097 1.8435653 0
4.7770004 -2.4935334 1.840939 0
4.7680001 -2.4963796 1.8379842 0
4.7600002 -2.4997563 1.8353579 0
4.7520003 -2.5031042 1.8327316 0
4.7440004 -2.5064235 1.8301053 0
4.7360005 -2.5097134 1.827479 0
4.7930002 -2.4866319 1.8382674 0
4.7850003 -2.490097 1.8356556 0
4.7770004 -2.4935334 1.8330437 0
4.7680001 -2.4963796 1.8301053 0
4.7600002 -2.4997563 1.8274933 0
4.7520003 -2.5031042 1.8248814 0
4.7440004 -2.5064235 1.8222696 0
4.7360005 -2.5097134 1.8196577 0
4.7930002 -2.4866319 1.8303434 0
4.7850003 -2.490097 1.8277459 0
4.7770004 -2.4935334 1.8251485 0
4.7680001 -2.4963796 1.8222262 0
4.7600002 -2.4997563 1.8196287 0
4.7520003 -2.5031042 1.8170313 0
4.7440004 -2.5064235 1.8144338 0
4.7360005 -2.5097134 1.8118364 0
4.7930002 -2.4866319 1.8224193 0
4.7850003 -2.490097 1.8198361 0
4.7770004 -2.4935334 1.8172531 0
4.7680001 -2.4963796 1.8143471 0
4.7600002 -2.4997563 1.8117641 0
4.7520003 -2.5031042 1.8091811 0
4.7440004 -2.5064235 1.8065981 0
4.7360005 -2.5097134 1.8040152 0
4.7930002 -2.4866319 1.8144951 0
4.7850003 -2.490097 1.8119265 0
4.7770004 -2.4935334 1.8093579 0
4.7680001 -2.4963796 1.8064681 0
4.7600002 -2.4997563 1.8038995 0
4.7520003 -2.5031042 1.8013309 0
4.7440004 -2.5064235 1.7987623 0
4.7360005 -2.5097134 1.7961938 0
4.7930002 -2.4866319 1.806571 0
4.7850003 -2.490097 1.8040167 0
4.7770004 -2.4935334 1.8014627 0
4.7680001 -2.4963796 1.798589 0
4.7600002 -2.4997563 1.7960349 0
4.7520003 -2.5031042 1.7934808 0
4.7440004 -2.5064235 1.7909266 0
4.7360005 -2.5097134 1.7883725 0
4.7930002 -2.4866319 1.7986468 0
4.7850003 -2.490097 1.7961071 0
4.7770004 -2.4935334 1.7935673 0
4.7680001 -2.4963796 1.7907101 0
4.7600002 -2.4997563 1.7881703 0
4.7520003 -2.5031042 1.7856306 0
4.7440004 -2.5064235 1.7830908 0
4.7360005 -2.5097134 1.7805512 0
4.7930002 -2.4866319 1.7907227 0
4.7850003 -2.490097 1.7881974 0
4.7770004 -2.4935334 1.7856721 0
4.7680001 -2.4963796 1.7828311 0
4.7600002 -2.4997563 1.7803056 0
4.7520003 -2.5031042 1.7777804 0
4.7440004 -2.5064235 1.7752551 0
4.7360005 -2.5097134 1.7727298 0
4.7930002 -2.4866319 1.7827985 0
4.7850003 -2.490097 1.7802877 0
4.7770004 -2.4935334 1.7777768 0
4.7680001 -2.4963796 1.7749519 0
4.7600002 -2.4997563 1.772441 0
4.7520003 -2.5031042 1.7699302 0
4.7440004 -2.5064235 1.7674193 0
4.7360005 -2.5097134 1.7649084 0
4.7930002 -2.4866319 1.7748744 0
4.7850003 -2.490097 1.772378 0
4.7770004 -2.4935334 1.7698816 0
4.7680001 -2.4963796 1.7670729 0
4.7600002 -2.4997563 1.7645766 0
4.7520003 -2.5031042 1.7620801 0
4.7440004 -2.5064235 1.7595837 0
4.7360005 -2.5097134 1.7570871 0
4.7930002 -2.4866319 1.7669502 0
4.7850003 -2.490097 1.7644683 0
4.7770004 -2.4935334 1.7619863 0
4.7680001 -2.4963796 1.7591939 0
4.7600002 -2.4997563 1.756712 0
4.7520003 -2.5031042 1.7542299 0
4.7440004 -2.5064235 1.7517478 0
4.7360005 -2.5097134 1.7492658 0
4.7930002 -2.4866319 1.7590262 0
4.7850003 -2.490097 1.7565585 0
4.7770004 -2.4935334 1.754091 0
4.7680001 -2.4963796 1.7513148 0
4.7600002 -2.4997563 1.7488472 0
4.7520003 -2.5031042 1.7463796 0
4.7440004 -2.5064235 1.7439121 0
4.7360005 -2.5097134 1.7414445 0
4.7930002 -2.4866319 1.751102 0
4.7850003 -2.490097 1.7486489 0
4.7770004 -2.4935334 1.7461957 0
4.7680001 -2.4963796 1.7434359 0
4.7600002 -2.4997563 1.7409827 0
4.7520003 -2.5031042 1.7385296 0
4.7440004 -2.5064235 1.7360764 0
4.7360005 -2.5097134 1.7336231 0
4.7930002 -2.4866319 1.7431779 0
4.7850003 -2.490097 1.7407392 0
4.7770004 -2.4935334 1.7383006 0
4.7680001 -2.4963796 1.7355568 0
4.7600002 -2.4997563 1.7331181 0
4.7520003 -2.5031042 1.7306794 0
4.7440004 -2.5064235 1.7282406 0
4.7360005 -2.5097134 1.7258019 0
4.7930002 -2.4866319 1.7352538 0
4.7850003 -2.490097 1.7328296 0
4.7770004 -2.4935334 1.7304052 0
4.7680001 -2.4963796 1.7276777 0
4.7600002 -2.4997563 1.7252535 0
4.7520003 -2.5031042 1.7228292 0
4.7440004 -2.5064235 1.7204049 0
4.7360005 -2.5097134 1.7179806 0
4.7930002 -2.4866319 1.7273297 0
4.7850003 -2.490097 1.7249198 0
4.7770004 -2.4935334 1.72251 0
4.7680001 -2.4963796 1.7197987 0
4.7600002 -2.4997563 1.7173889 0
4.7520003 -2.5031042 1.7149791 0
4.7440004 -2.5064235 1.7125691 0
4.7360005 -2.5097134 1.7101593 0
4.7930002 -2.4866319 1.7194055 0
4.7850003 -2.490097 1.7170101 0
4.7770004 -2.4935334 1.7146146 0
4.7680001 -2.4963796 1.7119197 0
4.7600002 -2.4997563 1.7095243 0
4.7520003 -2.5031042 1.7071289 0
4.7440004 -2.5064235 1.7047334 0
4.7360005 -2.5097134 1.702338 0
4.7930002 -2.4866319 1.7114815 0
4.7850003 -2.490097 1.7091004 0
4.7770004 -2.4935334 1.7067194 0
4.7680001 -2.4963796 1.7040408 0
4.7600002 -2.4997563 1.7016597 0
4.7520003 -2.5031042 1.6992786 0
4.7440004 -2.5064235 1.6968977 0
4.7360005 -2.5097134 1.6945167 0
4.7930002 -2.4866319 1.7035573 0
4.7850003 -2.490097 1.7011907 0
4.7770004 -2.4935334 1.6988242 0
4.7680001 -2.4963796 1.6961616 0
4.7600002 -2.4997563 1.6937951 0
4.7520003 -2.5031042 1.6914284 0
4.7440004 -2.5064235 1.689062 0
4.7360005 -2.5097134 1.6866953 0
4.7930002 -2.4866319 1.6956332 0
4.7850003 -2.490097 1.6932811 0
4.7770004 -2.4935334 1.6909288 0
4.7680001 -2.4963796 1.6882826 0
4.7600002 -2.4997563 1.6859304 0
4.7520003 -2.5031042 1.6835784 0
4.7440004 -2.5064235 1.6812263 0
4.7360005 -2.5097134 1.678874 0
4.7930002 -2.4866319 1.687709 0
4.7850003 -2.490097 1.6853713 0
4.7770004 -2.4935334 1.6830336 0
4.7680001 -2.4963796 1.6804036 0
4.7600002 -2.4997563 1.6780658 0
4.7520003 -2.5031042 1.6757282 0
4.7440004 -2.5064235 1.6733904 0
4.7360005 -2.5097134 1.6710527 0
4.7930002 -2.4866319 1.6797849 0
4.7850003 -2.490097 1.6774616 0
4.7770004 -2.4935334 1.6751384 0
4.7680001 -2.4963796 1.6725245 0
4.7600002 -2.4997563 1.6702013 0
4.7520003 -2.5031042 1.667878 0
4.7440004 -2.5064235 1.6655546 0
4.7360005 -2.5097134 1.6632314 0
4.7930002 -2.4866319 1.6718607 0
4.7850003 -2.490097 1.6695518 0
4.7770004 -2.4935334 1.6672431 0
4.7680001 -2.4963796 1.6646454 0
4.7600002 -2.4997563 1.6623367 0
4.7520003 -2.5031042 1.6600279 0
4.7440004 -2.5064235 1.6577189 0
4.7360005 -2.5097134 1.6554102 0
4.7930002 -2.4866319 1.6639366 0
4.7850003 -2.490097 1.6616422 0
4.7770004 -2.4935334 1.6593478 0
4.7680001 -2.4963796 1.6567665 0
4.7600002 -2.4997563 1.6544721 0
4.7520003 -2.5031042 1.6521776 0
4.7440004 -2.5064235 1.6498832 0
4.7360005 -2.5097134 1.6475888 0
4.7930002 -2.4866319 1.6560124 0
4.7850003 -2.490097 1.6537324 0
4.7770004 -2.4935334 1.6514525 0
4.7680001 -2.4963796 1.6488874 0
4.7600002 -2.4997563 1.6466074 0
4.7520003 -2.5031042 1.6443274 0
4.7440004 -2.5064235 1.6420474 0
4.7360005 -2.5097134 1.6397675 0
4.7930002 -2.4866319 1.6480885 0
4.7850003 -2.490097 1.6458228 0
4.7770004 -2.4935334 1.6435572 0
4.7680001 -2.4963796 1.6410084 0
4.7600002 -2.4997563 1.6387428 0
4.7520003 -2.5031042 1.6364772 0
4.7440004 -2.5064235 1.6342118 0
4.7360005 -2.5097134 1.6319462 0
4.7930002 -2.4866319 1.6401643 0
4.7850003 -2.490097 1.6379131 0
4.7770004 -2.4935334 1.6356621 0
4.7680001 -2.4963796 1.6331294 0
4.7600002 -2.4997563 1.6308782 0
4.7520003 -2.5031042 1.6286272 0
4.7440004 -2.5064235 1.626376 0
4.7360005 -2.5097134 1.6241249 0
4.7930002 -2.4866319 1.6322402 0
4.7850003 -2.490097 1.6300035 0
4.7770004 -2.4935334 1.6277667 0
4.7680001 -2.4963796 1.6252502 0
4.7600002 -2.4997563 1.6230137 0
4.7520003 -2.5031042 1.620777 0
4.7440004 -2.5064235 1.6185403 0
4.7360005 -2.5097134 1.6163036 0
4.7930002 -2.4866319 1.624316 0
4.7850003 -2.490097 1.6220937 0
4.7770004 -2.4935334 1.6198714 0
4.7680001 -2.4963796 1.6173713 0
4.7600002 -2.4997563 1.615149 0
4.7520003 -2.5031042 1.6129267 0
4.7440004 -2.5064235 1.6107045 0
4.7360005 -2.5097134 1.6084822 0
4.7930002 -2.4866319 1.6163919 0
4.7850003 -2.490097 1.614184 0
4.7770004 -2.4935334 1.6119761 0
4.7680001 -2.4963796 1.6094923 0
4.7600002 -2.4997563 1.6072844 0
4.7520003 -2.5031042 1.6050766 0
4.7440004 -2.5064235 1.6028688 0
4.7360005 -2.5097134 1.6006609 0
4.7930002 -2.4866319 1.6084677 0
4.7850003 -2.490097 1.6062742 0
4.7770004 -2.4935334 1.6040809 0
4.7680001 -2.4963796 1.6016133 0
4.7600002 -2.4997563 1.5994198 0
4.7520003 -2.5031042 1.5972264 0
4.7440004 -2.5064235 1.5950329 0
4.7360005 -2.5097134 1.5928396 0
4.7930002 -2.4866319 1.6005436 0
4.7850003 -2.490097 1.5983646 0
4.7770004 -2.4935334 1.5961857 0
4.7690005 -2.4969409 1.5940067 0
4.7600002 -2.4997563 1.5915552 0
4.7520003 -2.5031042 1.5893762 0
4.7440004 -2.5064235 1.5871972 0
4.7360005 -2.5097134 1.5850183 0
4.7930002 -2.4866319 1.5926194 0
4.7850003 -2.490097 1.5904549 0
4.7770004 -2.4935334 1.5882903 0
4.7690005 -2.4969409 1.5861257 0
4.7600002 -2.4997563 1.5836905 0
4.7520003 -2.5031042 1.581526 0
4.7440004 -2.5064235 1.5793616 0
4.7360005 -2.5097134 1.5771971 0
4.7930002 -2.4866319 1.5846953 0
4.7850003 -2.490097 1.5825453 0
4.7770004 -2.4935334 1.5803951 0
4.7690005 -2.4969409 1.578245 0
4.7600002 -2.4997563 1.575826 0
4.7520003 -2.5031042 1.573676 0
4.7440004 -2.5064235 1.5715258 0
4.7360005 -2.5097134 1.5693758 0
4.7930002 -2.4866319 1.5767711 0
4.7850003 -2.490097 1.5746355 0
4.7770004 -2.4935334 1.5724998 0
4.7690005 -2.4969409 1.5703641 0
4.7600002 -2.4997563 1.5679615 0
4.7520003 -2.5031042 1.5658257 0
4.7440004 -2.5064235 1.5636901 0
4.7360005 -2.5097134 1.5615544 0
4.7930002 -2.4866319 1.5688471 0
4.7850003 -2.490097 1.5667259 0
4.7770004 -2.4935334 1.5646046 0
4.7690005 -2.4969409 1.5624833 0
4.7600002 -2.4997563 1.5600969 0
4.7520003 -2.5031042 1.5579755 0
4.7440004 -2.5064235 1.5558543 0
4.7360005 -2.5097134 1.5537331 0
4.7930002 -2.4866319 1.5609229 0
4.7850003 -2.490097 1.5588161 0
4.7770004 -2.4935334 1.5567093 0
4.7690005 -2.4969409 1.5546025 0
4.7600002 -2.4997563 1.5522321 0
4.7520003 -2.5031042 1.5501254 0
4.7440004 -2.5064235 1.5480186 0
4.7360005 -2.5097134 1.5459118 0
4.7930002 -2.4866319 1.5529989 0
4.7850003 -2.490097 1.5509064 0
4.7770004 -2.4935334 1.5488141 0
4.7690005 -2.4969409 1.5467217 0
4.7600002 -2.4997563 1.5443676 0
4.7520003 -2.5031042 1.5422752 0
4.7440004 -2.5064235 1.5401828 0
4.7360005 -2.5097134 1.5380905 0
4.7930002 -2.4866319 1.5450747 0
4.7850003 -2.490097 1.5429968 0
4.7770004 -2.4935334 1.5409187 0
4.7690005 -2.4969409 1.5388408 0
4.7600002 -2.4997563 1.536503 0
4.7520003 -2.5031042 1.534425 0
4.7440004 -2.5064235 1.5323471 0
4.7360005 -2.5097134 1.530269 0
4.7930002 -2.4866319 1.5371506 0
4.7850003 -2.490097 1.5350871 0
4.7770004 -2.4935334 1.5330235 0
4.7690005 -2.4969409 1.53096 0
4.7600002 -2.4997563 1.5286384 0
4.7520003 -2.5031042 1.5265749 0
4.7440004 -2.5064235 1.5245113 0
4.7360005 -2.5097134 1.5224477 0
4.7930002 -2.4866319 1.5292264 0
4.7850003 -2.490097 1.5271773 0
4.7770004 -2.4935334 1.5251282 0
4.7690005 -2.4969409 1.5230792 0
4.7600002 -2.4997563 1.5207738 0
4.7520003 -2.5031042 1.5187247 0
4.7440004 -2.5064235 1.5166756 0
4.7360005 -2.5097134 1.5146264 0
4.7930002 -2.4866319 1.5213023 0
4.7850003 -2.490097 1.5192677 0
4.7770004 -2.4935334 1.5172329 0
4.7690005 -2.4969409 1.5151982 0
4.7600002 -2.4997563 1.5129092 0
4.7520003 -2.5031042 1.5108745 0
4.7440004 -2.5064235 1.5088398 0
4.7360005 -2.5097134 1.5068051 0
4.7930002 -2.4866319 1.5133781 0
4.7850003 -2.490097 1.5113579 0
4.7770004 -2.4935334 1.5093377 0
4.7690005 -2.4969409 1.5073174 0
4.7600002 -2.4997563 1.5050446 0
4.7520003 -2.5031042 1.5030243 0
4.7440004 -2.5064235 1.5010041 0
4.7360005 -2.5097134 1.4989839 0
4.7930002 -2.4866319 1.5054541 0
4.7850003 -2.490097 1.5034482 0
4.7770004 -2.4935334 1.5014424 0
4.7690005 -2.4969409 1.4994366 0
4.7600002 -2.4997563 1.49718 0
4.7520003 -2.5031042 1.4951742 0
4.7440004 -2.5064235 1.4931684 0
4.7360005 -2.5097134 1.4911625 0
4.7930002 -2.4866319 1.4975299 0
4.7850003 -2.490097 1.4955385 0
4.7770004 -2.4935334 1.4935472 0
4.7690005 -2.4969409 1.4915558 0
4.7600002 -2.4997563 1.4893153 0
4.7520003 -2.5031042 1.487324 0
4.7440004 -2.5064235 1.4853326 0
4.7360005 -2.5097134 1.4833412 0
4.7930002 -2.4866319 1.4896058 0
4.7850003 -2.490097 1.4876288 0
4.7770004 -2.4935334 1.4856519 0
4.7690005 -2.4969409 1.4836749 0
4.7600002 -2.4997563 1.4814508 0
4.7520003 -2.5031042 1.4794738 0
4.7440004 -2.5064235 1.4774969 0
4.7360005 -2.5097134 1.4755199 0
4.7930002 -2.4866319 1.4816816 0
4.7850003 -2.490097 1.4797192 0
4.7770004 -2.4935334 1.4777566 0
4.7690005 -2.4969409 1.4757941 0
4.7600002 -2.4997563 1.4735862 0
4.7520003 -2.5031042 1.4716235 0
4.7440004 -2.5064235 1.4696611 0
4.7360005 -2.5097134 1.4676986 0
4.7930002 -2.4866319 1.4737575 0
4.7850003 -2.490097 1.4718094 0
4.7770004 -2.4935334 1.4698613 0
4.7690005 -2.4969409 1.4679133 0
4.7600002 -2.4997563 1.4657216 0
4.7520003 -2.5031042 1.4637735 0
4.7440004 -2.5064235 1.4618254 0
4.7360005 -2.5097134 1.4598773 0
4.7930002 -2.4866319 1.4658333 0
4.7850003 -2.490097 1.4638997 0
4.7770004 -2.4935334 1.4619662 0
4.7690005 -2.4969409 1.4600323 0
4.7600002 -2.4997563 1.4578569 0
4.7520003 -2.5031042 1.4559233 0
4.7440004 -2.5064235 1.4539896 0
4.7360005 -2.5097134 1.4520559 0
4.7930002 -2.4866319 1.4579093 0
4.7850003 -2.490097 1.45599 0
4.7770004 -2.4935334 1.4540708 0
4.7690005 -2.4969409 1.4521517 0
4.7600002 -2.4997563 1.4499923 0
4.7520003 -2.5031042 1.4480731 0
4.7440004 -2.5064235 1.446154 0
4.7360005 -2.5097134 1.4442346 0
4.7930002 -2.4866319 1.4499851 0
4.7850003 -2.490097 1.4480803 0
4.7770004 -2.4935334 1.4461756 0
4.7690005 -2.4969409 1.4442707 0
4.7600002 -2.4997563 1.4421277 0
4.7520003 -2.5031042 1.440223 0
4.7440004 -2.5064235 1.4383181 0
4.7360005 -2.5097134 1.4364133 0
4.7930002 -2.4866319 1.4420611 0
4.7850003 -2.490097 1.4401706 0
4.7770004 -2.4935334 1.4382802 0
4.7690005 -2.4969409 1.4363899 0
4.7600002 -2.4997563 1.4342631 0
4.7520003 -2.5031042 1.4323728 0
4.7440004 -2.5064235 1.4304824 0
4.7360005 -2.5097134 1.4285921 0
4.7930002 -2.4866319 1.4341369 0
4.7850003 -2.490097 1.432261 0
4.7770004 -2.4935334 1.430385 0
4.7690005 -2.4969409 1.428509 0
4.7600002 -2.4997563 1.4263985 0
4.7520003 -2.5031042 1.4245225 0
4.7440004 -2.5064235 1.4226466 0
4.7360005 -2.5097134 1.4207708 0
4.7930002 -2.4866319 1.4262128 0
4.7850003 -2.490097 1.4243512 0
4.7770004 -2.4935334 1.4224898 0
4.7690005 -2.4969409 1.4206283 0
4.7600002 -2.4997563 1.4185339 0
4.7520003 -2.5031042 1.4166723 0
4.7440004 -2.5064235 1.4148109 0
4.7360005 -2.5097134 1.4129494 0
4.7930002 -2.4866319 1.4182886 0
4.7850003 -2.490097 1.4164416 0
4.7770004 -2.4935334 1.4145944 0
4.7690005 -2.4969409 1.4127474 0
4.7600002 -2.4997563 1.4106693 0
4.7520003 -2.5031042 1.4088223 0
4.7440004 -2.5064235 1.4069752 0
4.7360005 -2.5097134 1.4051281 0
4.7930002 -2.4866319 1.4103645 0
4.7850003 -2.490097 1.4085318 0
4.7770004 -2.4935334 1.4066992 0
4.7690005 -2.4969409 1.4048665 0
4.7600002 -2.4997563 1.4028047 0
4.7520003 -2.5031042 1.400972 0
4.7440004 -2.5064235 1.3991394 0
4.7360005 -2.5097134 1.3973068 0
4.7930002 -2.4866319 1.4024403 0
4.7850003 -2.490097 1.4006221 0
4.7770004 -2.4935334 1.3988038 0
4.7690005 -2.4969409 1.3969858 0
4.7600002 -2.4997563 1.3949401 0
4.7520003 -2.5031042 1.393122 0
4.7440004 -2.5064235 1.3913037 0
4.7360005 -2.5097134 1.3894855 0
4.7930002 -2.4866319 1.3945161 0
4.7850003 -2.490097 1.3927124 0
4.7770004 -2.4935334 1.3909086 0
4.7690005 -2.4969409 1.3891048 0
4.7600002 -2.4997563 1.3870754 0
4.7520003 -2.5031042 1.3852717 0
4.7440004 -2.5064235 1.3834679 0
4.7360005 -2.5097134 1.3816642 0
4.7930002 -2.4866319 1.386592 0
4.7850003 -2.490097 1.3848027 0
4.7770004 -2.4935334 1.3830134 0
4.7690005 -2.4969409 1.381224 0
4.7600002 -2.4997563 1.3792108 0
4.7520003 -2.5031042 1.3774215 0
4.7440004 -2.5064235 1.3756322 0
4.7360005 -2.5097134 1.3738428 0
4.7930002 -2.4866319 1.3786678 0
4.7850003 -2.490097 1.376893 0
4.7770004 -2.4935334 1.375118 0
4.7690005 -2.4969409 1.3733431 0
4.7600002 -2.4997563 1.3713464 0
4.7520003 -2.5031042 1.3695713 0
4.7440004 -2.5064235 1.3677964 0
4.7360005 -2.5097134 1.3660215 0
4.7930002 -2.4866319 1.3707439 0
4.7850003 -2.490097 1.3689833 0
4.7770004 -2.4935334 1.3672228 0
4.7690005 -2.4969409 1.3654623 0
4.7600002 -2.4997563 1.3634818 0
4.7520003 -2.5031042 1.3617212 0
4.7440004 -2.5064235 1.3599607 0
4.7360005 -2.5097134 1.3582002 0
4.7930002 -2.4866319 1.3628197 0
4.7850003 -2.490097 1.3610736 0
4.7770004 -2.4935334 1.3593276 0
4.7690005 -2.4969409 1.3575815 0
4.7600002 -2.4997563 1.355617 0
4.7520003 -2.5031042 1.353871 0
4.7440004 -2.5064235 1.3521249 0
4.7360005 -2.5097134 1.3503789 0
4.7930002 -2.4866319 1.3548956 0
4.7850003 -2.490097 1.3531638 0
4.7770004 -2.4935334 1.3514323 0
4.7690005 -2.4969409 1.3497006 0
4.7600002 -2.4997563 1.3477525 0
4.7520003 -2.5031042 1.3460208 0
4.7440004 -2.5064235 1.3442892 0
4.7360005 -2.5097134 1.3425575 0
4.7930002 -2.4866319 1.3469714 0
4.7850003 -2.490097 1.3452542 0
4.7770004 -2.4935334 1.343537 0
4.7690005 -2.4969409 1.3418199 0
4.7600002 -2.4997563 1.3398879 0
4.7520003 -2.5031042 1.3381706 0
4.7440004 -2.5064235 1.3364534 0
4.7360005 -2.5097134 1.3347362 0
4.7930002 -2.4866319 1.3390473 0
4.7850003 -2.490097 1.3373445 0
4.7770004 -2.4935334 1.3356417 0
4.7690005 -2.4969409 1.333939 0
4.7600002 -2.4997563 1.3320233 0
4.7520003 -2.5031042 1.3303205 0
4.7440004 -2.5064235 1.3286177 0
4.7360005 -2.5097134 1.3269149 0
4.7930002 -2.4866319 1.3311231 0
4.7850003 -2.490097 1.3294349 0
4.7770004 -2.4935334 1.3277464 0
4.7690005 -2.4969409 1.3260581 0
4.7600002 -2.4997563 1.3241587 0
4.7520003 -2.5031042 1.3224703 0
4.7440004 -2.5064235 1.3207819 0
4.7360005 -2.5097134 1.3190936 0
4.8020005 -2.4836919 1.3250823 0
4.7930002 -2.4866319 1.323199 0
4.7850003 -2.490097 1.3215251 0
4.7770004 -2.4935334 1.3198512 0
4.7690005 -2.4969409 1.3181772 0
4.7600002 -2.4997563 1.3162941 0
4.7520003 -2.5031042 1.3146201 0
4.7440004 -2.5064235 1.3129462 0
4.7360005 -2.5097134 1.3112723 0
4.8020005 -2.4836919 1.3171419 0
4.7930002 -2.4866319 1.3152748 0
4.7850003 -2.490097 1.3136154 0
4.7770004 -2.4935334 1.3119559 0
4.7690005 -2.4969409 1.3102964 0
4.7600002 -2.4997563 1.3084295 0
4.7520003 -2.5031042 1.30677 0
4.7440004 -2.5064235 1.3051105 0
4.7360005 -2.5097134 1.3034509 0
4.8020005 -2.4836919 1.3092016 0
4.7930002 -2.4866319 1.3073508 0
4.7850003 -2.490097 1.3057057 0
4.7770004 -2.4935334 1.3040607 0
4.7690005 -2.4969409 1.3024156 0
4.7600002 -2.4997563 1.3005649 0
4.7520003 -2.5031042 1.2989198 0
4.7440004 -2.5064235 1.2972747 0
4.7360005 -2.5097134 1.2956297 0
4.8020005 -2.4836919 1.3012612 0
4.7930002 -2.4866319 1.2994267 0
4.7850003 -2.490097 1.297796 0
4.7770004 -2.4935334 1.2961653 0
4.7690005 -2.4969409 1.2945348 0
4.7600002 -2.4997563 1.2927003 0
4.7520003 -2.5031042 1.2910696 0
4.7440004 -2.5064235 1.289439 0
4.7360005 -2.5097134 1.2878084 0
4.8020005 -2.4836919 1.2933208 0
4.7930002 -2.4866319 1.2915025 0
4.7850003 -2.490097 1.2898864 0
4.7770004 -2.4935334 1.2882701 0
4.7690005 -2.4969409 1.286654 0
4.7600002 -2.4997563 1.2848356 0
4.7520003 -2.5031042 1.2832195 0
4.7440004 -2.5064235 1.2816032 0
4.7360005 -2.5097134 1.2799871 0
4.8020005 -2.4836919 1.2853805 0
4.7930002 -2.4866319 1.2835784 0
4.7850003 -2.490097 1.2819766 0
4.7770004 -2.4935334 1.2803749 0
4.7690005 -2.4969409 1.2787731 0
4.7600002 -2.4997563 1.2769711 0
4.7520003 -2.5031042 1.2753693 0
4.7440004 -2.5064235 1.2737676 0
4.7360005 -2.5097134 1.2721658 0
4.8020005 -2.4836919 1.2774401 0
4.7930002 -2.4866319 1.2756542 0
4.7850003 -2.490097 1.2740669 0
4.7770004 -2.4935334 1.2724795 0
4.7690005 -2.4969409 1.2708923 0
4.7600002 -2.4997563 1.2691064 0
4.7520003 -2.5031042 1.2675191 0
4.7440004 -2.5064235 1.2659317 0
4.7360005 -2.5097134 1.2643445 0
4.8020005 -2.4836919 1.2694998 0
4.7930002 -2.4866319 1.2677301 0
4.7850003 -2.490097 1.2661573 0
4.7770004 -2.4935334 1.2645843 0
4.7690005 -2.4969409 1.2630115 0
4.7600002 -2.4997563 1.2612418 0
4.7520003 -2.5031042 1.2596689 0
4.7440004 -2.5064235 1.258096 0
4.7360005 -2.5097134 1.2565231 0
4.8020005 -2.4836919 1.2615594 0
4.7930002 -2.4866319 1.2598059 0
4.7850003 -2.490097 1.2582475 0
4.7770004 -2.4935334 1.2566891 0
4.7690005 -2.4969409 1.2551305 0
4.7600002 -2.4997563 1.2533772 0
4.7520003 -2.5031042 1.2518188 0
4.7440004 -2.5064235 1.2502602 0
4.7360005 -2.5097134 1.2487018 0
4.8020005 -2.4836919 1.253619 0
4.7930002 -2.4866319 1.2518818 0
4.7850003 -2.490097 1.2503378 0
4.7770004 -2.4935334 1.2487938 0
4.7690005 -2.4969409 1.2472497 0
4.7600002 -2.4997563 1.2455126 0
4.7520003 -2.5031042 1.2439686 0
4.7440004 -2.5064235 1.2424246 0
4.7360005 -2.5097134 1.2408805 0
4.8020005 -2.4836919 1.2456787 0
4.7930002 -2.4866319 1.2439578 0
4.7850003 -2.490097 1.2424282 0
4.7770004 -2.4935334 1.2408985 0
4.7690005 -2.4969409 1.2393689 0
4.7600002 -2.4997563 1.237648 0
4.7520003 -2.5031042 1.2361184 0
4.7440004 -2.5064235 1.2345889 0
4.7360005 -2.5097134 1.2330592 0
4.8020005 -2.4836919 1.2377383 0
4.7930002 -2.4866319 1.2360336 0
4.7850003 -2.490097 1.2345184 0
4.7770004 -2.4935334 1.2330033 0
4.7690005 -2.4969409 1.2314881 0
4.7600002 -2.4997563 1.2297834 0
4.7520003 -2.5031042 1.2282683 0
4.7440004 -2.5064235 1.226753 0
4.7360005 -2.5097134 1.2252378 0
4.8020005 -2.4836919 1.2297978 0
4.7930002 -2.4866319 1.2281095 0
4.7850003 -2.490097 1.2266088 0
4.7770004 -2.4935334 1.225108 0
4.7690005 -2.4969409 1.2236072 0
4.7600002 -2.4997563 1.2219188 0
4.7520003 -2.5031042 1.2204181 0
4.7440004 -2.5064235 1.2189173 0
4.7360005 -2.5097134 1.2174165 0
4.8020005 -2.4836919 1.2218575 0
4.7930002 -2.4866319 1.2201853 0
4.7850003 -2.490097 1.218699 0
4.7770004 -2.4935334 1.2172127 0
4.7690005 -2.4969409 1.2157264 0
4.7600002 -2.4997563 1.2140542 0
4.7520003 -2.5031042 1.2125678 0
4.7440004 -2.5064235 1.2110816 0
4.7360005 -2.5097134 1.2095952 0
4.8020005 -2.4836919 1.2139171 0
4.7930002 -2.4866319 1.2122612 0
4.7850003 -2.490097 1.2107893 0
4.7770004 -2.4935334 1.2093174 0
4.7690005 -2.4969409 1.2078456 0
4.7600002 -2.4997563 1.2061896 0
4.7520003 -2.5031042 1.2047178 0
4.7440004 -2.5064235 1.2032459 0
4.7360005 -2.5097134 1.2017739 0
4.8020005 -2.4836919 1.2059768 0
4.7930002 -2.4866319 1.2043371 0
4.7850003 -2.490097 1.2028795 0
4.7770004 -2.4935334 1.2014222 0
4.7690005 -2.4969409 1.1999648 0
4.7600002 -2.4997563 1.198325 0
4.7520003 -2.5031042 1.1968676 0
4.7440004 -2.5064235 1.1954101 0
4.7360005 -2.5097134 1.1939526 0
4.8020005 -2.4836919 1.1980364 0
4.7930002 -2.4866319 1.1964129 0
4.7850003 -2.490097 1.1949699 0
4.7770004 -2.4935334 1.1935269 0
4.7690005 -2.4969409 1.1920838 0
4.7600002 -2.4997563 1.1904603 0
4.7520003 -2.5031042 1.1890173 0
4.7440004 -2.5064235 1.1875743 0
4.7360005 -2.5097134 1.1861312 0
4.8020005 -2.4836919 1.190096 0
4.7930002 -2.4866319 1.1884888 0
4.7850003 -2.490097 1.1870602 0
4.7770004 -2.4935334 1.1856316 0
4.7690005 -2.4969409 1.184203 0
4.7600002 -2.4997563 1.1825957 0
4.7520003 -2.5031042 1.1811672 0
4.7440004 -2.5064235 1.1797386 0
4.7360005 -2.5097134 1.17831 0
4.8020005 -2.4836919 1.1821557 0
4.7930002 -2.4866319 1.1805646 0
4.7850003 -2.490097 1.1791505 0
4.7770004 -2.4935334 1.1777364 0
4.7690005 -2.4969409 1.1763222 0
4.7600002 -2.4997563 1.1747311 0
4.7520003 -2.5031042 1.1733171 0
4.7440004 -2.5064235 1.1719029 0
4.7360005 -2.5097134 1.1704887 0
4.8020005 -2.4836919 1.1742153 0
4.7930002 -2.4866319 1.1726406 0
4.7850003 -2.490097 1.1712408 0
4.7770004 -2.4935334 1.1698411 0
4.7690005 -2.4969409 1.1684413 0
4.7600002 -2.4997563 1.1668665 0
4.7520003 -2.5031042 1.1654668 0
4.7440004 -2.5064235 1.1640671 0
4.7360005 -2.5097134 1.1626674 0
4.8020005 -2.4836919 1.166275 0
4.7930002 -2.4866319 1.1647165 0
4.7850003 -2.490097 1.1633312 0
4.7770004 -2.4935334 1.1619458 0
4.7690005 -2.4969409 1.1605605 0
4.7600002 -2.4997563 1.1590019 0
4.7520003 -2.5031042 1.1576166 0
4.7440004 -2.5064235 1.1562314 0
4.7360005 -2.5097134 1.1548461 0
4.8020005 -2.4836919 1.1583346 0
4.7930002 -2.4866319 1.1567923 0
4.7850003 -2.490097 1.1554214 0
4.7770004 -2.4935334 1.1540506 0
4.7690005 -2.4969409 1.1526797 0
4.7600002 -2.4997563 1.1511374 0
4.7520003 -2.5031042 1.1497666 0
4.7440004 -2.5064235 1.1483957 0
4.7360005 -2.5097134 1.1470248 0
4.8020005 -2.4836919 1.1503942 0
4.7930002 -2.4866319 1.1488682 0
4.7850003 -2.490097 1.1475117 0
4.7770004 -2.4935334 1.1461552 0
4.7690005 -2.4969409 1.1447989 0
4.7600002 -2.4997563 1.1432728 0
4.7520003 -2.5031042 1.1419163 0
4.7440004 -2.5064235 1.1405599 0
4.7360005 -2.5097134 1.1392034 0
4.8020005 -2.4836919 1.1424539 0
4.7930002 -2.4866319 1.140944 0
4.7850003 -2.490097 1.1396021 0
4.7770004 -2.4935334 1.13826 0
4.7690005 -2.4969409 1.1369181 0
4.7600002 -2.4997563 1.1354082 0
4.7520003 -2.5031042 1.1340661 0
4.7440004 -2.5064235 1.1327242 0
4.7360005 -2.5097134 1.1313821 0
4.8020005 -2.4836919 1.1345135 0
4.7930002 -2.4866319 1.1330199 0
4.7850003 -2.490097 1.1316923 0
4.7770004 -2.4935334 1.1303648 0
4.7690005 -2.4969409 1.1290371 0
4.7600002 -2.4997563 1.1275436 0
4.7520003 -2.5031042 1.1262161 0
4.7440004 -2.5064235 1.1248884 0
4.7360005 -2.5097134 1.1235608 0
4.8020005 -2.4836919 1.1265732 0
4.7930002 -2.4866319 1.1250957 0
4.7850003 -2.490097 1.1237826 0
4.7770004 -2.4935334 1.1224695 0
4.7690005 -2.4969409 1.1211563 0
4.7600002 -2.4997563 1.119679 0
4.7520003 -2.5031042 1.1183658 0
4.7440004 -2.5064235 1.1170527 0
4.7360005 -2.5097134 1.1157395 0
4.8020005 -2.4836919 1.1186328 0
4.7930002 -2.4866319 1.1171716 0
4.7850003 -2.490097 1.115873 0
4.7770004 -2.4935334 1.1145742 0
4.7690005 -2.4969409 1.1132755 0
4.7600002 -2.4997563 1.1118144 0
4.7520003 -2.5031042 1.1105156 0
4.7440004 -2.5064235 1.1092169 0
4.7360005 -2.5097134 1.1079181 0
4.8020005 -2.4836919 1.1106925 0
4.7930002 -2.4866319 1.1092476 0
4.7850003 -2.490097 1.1079632 0
4.7770004 -2.4935334 1.106679 0
4.7690005 -2.4969409 1.1053946 0
4.7600002 -2.4997563 1.1039498 0
4.7520003 -2.5031042 1.1026654 0
4.7440004 -2.5064235 1.1013812 0
4.7360005 -2.5097134 1.1000969 0
4.8020005 -2.4836919 1.1027521 0
4.7930002 -2.4866319 1.1013234 0
4.7850003 -2.490097 1.1000535 0
4.7770004 -2.4935334 1.0987836 0
4.7690005 -2.4969409 1.0975138 0
4.7600002 -2.4997563 1.0960852 0
4.7520003 -2.5031042 1.0948153 0
4.7440004 -2.5064235 1.0935454 0
4.7360005 -2.5097134 1.0922756 0
4.8020005 -2.4836919 1.0948117 0
4.7930002 -2.4866319 1.0933993 0
4.7850003 -2.490097 1.0921439 0
4.7770004 -2.4935334 1.0908884 0
4.7690005 -2.4969409 1.089633 0
4.7600002 -2.4997563 1.0882205 0
4.7520003 -2.5031042 1.0869651 0
4.7440004 -2.5064235 1.0857097 0
4.7360005 -2.5097134 1.0844542 0
4.8020005 -2.4836919 1.0868713 0
4.7930002 -2.4866319 1.0854751 0
4.7850003 -2.490097 1.0842341 0
4.7770004 -2.4935334 1.0829931 0
4.7690005 -2.4969409 1.0817522 0
4.7600002 -2.4997563 1.080356 0
4.7520003 -2.5031042 1.0791149 0
4.7440004 -2.5064235 1.0778739 0
4.7360005 -2.5097134 1.0766329 0
4.8020005 -2.4836919 1.078931 0
4.7930002 -2.4866319 1.077551 0
4.7850003 -2.490097 1.0763245 0
4.7770004 -2.4935334 1.0750978 0
4.7690005 -2.4969409 1.0738714 0
4.7600002 -2.4997563 1.0724913 0
4.7520003 -2.5031042 1.0712647 0
4.7440004 -2.5064235 1.0700382 0
4.7360005 -2.5097134 1.0688115 0
4.8020005 -2.4836919 1.0709906 0
4.7930002 -2.4866319 1.0696269 0
4.7850003 -2.490097 1.0684148 0
4.7770004 -2.4935334 1.0672026 0
4.7690005 -2.4969409 1.0659904 0
4.7600002 -2.4997563 1.0646267 0
4.7520003 -2.5031042 1.0634146 0
4.7440004 -2.5064235 1.0622025 0
4.7360005 -2.5097134 1.0609903 0
4.8020005 -2.4836919 1.0630503 0
4.7930002 -2.4866319 1.0617027 0
4.7850003 -2.490097 1.060505 0
4.7770004 -2.4935334 1.0593073 0
4.7690005 -2.4969409 1.0581096 0
4.7600002 -2.4997563 1.0567621 0
4.7520003 -2.5031042 1.0555644 0
4.7440004 -2.5064235 1.0543667 0
4.7360005 -2.5097134 1.053169 0
4.8020005 -2.4836919 1.0551099 0
4.7930002 -2.4866319 1.0537786 0
4.7850003 -2.490097 1.0525954 0
4.7770004 -2.4935334 1.0514121 0
4.7690005 -2.4969409 1.0502287 0
4.7600002 -2.4997563 1.0488975 0
4.7520003 -2.5031042 1.0477142 0
4.7440004 -2.5064235 1.046531 0
4.7360005 -2.5097134 1.0453477 0
4.8020005 -2.4836919 1.0471696 0
4.7930002 -2.4866319 1.0458544 0
4.7850003 -2.490097 1.0446856 0
4.7770004 -2.4935334 1.0435168 0
4.7690005 -2.4969409 1.0423479 0
4.7600002 -2.4997563 1.0410329 0
4.7520003 -2.5031042 1.0398641 0
4.7440004 -2.5064235 1.0386952 0
4.7360005 -2.5097134 1.0375264 0
4.8020005 -2.4836919 1.0392292 0
4.7930002 -2.4866319 1.0379304 0
4.7850003 -2.490097 1.0367759 0
4.7770004 -2.4935334 1.0356215 0
4.7690005 -2.4969409 1.0344671 0
4.7600002 -2.4997563 1.0331683 0
4.7520003 -2.5031042 1.0320139 0
4.7440004 -2.5064235 1.0308595 0
4.7360005 -2.5097134 1.029705 0
4.8020005 -2.4836919 1.0312887 0
4.7930002 -2.4866319 1.0300062 0
4.7850003 -2.490097 1.0288662 0
4.7770004 -2.4935334 1.0277263 0
4.7690005 -2.4969409 1.0265863 0
4.7600002 -2.4997563 1.0253037 0
4.7520003 -2.5031042 1.0241637 0
4.7440004 -2.5064235 1.0230237 0
4.7360005 -2.5097134 1.0218837 0
4.8020005 -2.4836919 1.0233485 0
4.7930002 -2.4866319 1.0220821 0
4.7850003 -2.490097 1.0209565 0
4.7770004 -2.4935334 1.0198311 0
4.7690005 -2.4969409 1.0187055 0
4.7600002 -2.4997563 1.0174391 0
4.7520003 -2.5031042 1.0163136 0
4.7440004 -2.5064235 1.015188 0
4.7360005 -2.5097134 1.0140624 0
4.8020005 -2.4836919 1.015408 0
4.7930002 -2.4866319 1.014158 0
4.7850003 -2.490097 1.0130469 0
4.7770004 -2.4935334 1.0119357 0
4.7690005 -2.4969409 1.0108246 0
4.7600002 -2.4997563 1.0095745 0
4.7520003 -2.5031042 1.0084634 0
4.7440004 -2.5064235 1.0073522 0
4.7360005 -2.5097134 1.0062411 0
4.8020005 -2.4836919 1.0074677 0
4.7930002 -2.4866319 1.0062338 0
4.7850003 -2.490097 1.0051371 0
4.7770004 -2.4935334 1.0040405 0
4.7690005 -2.4969409 1.0029438 0
4.7600002 -2.4997563 1.0017099 0
4.7520003 -2.5031042 1.0006132 0
4.7440004 -2.5064235 0.99951649 0
4.7360005 -2.5097134 0.99841976 0
4.8020005 -2.4836919 0.99952734 0
4.7930002 -2.4866319 0.99830973 0
4.7850003 -2.490097 0.99722743 0
4.7770004 -2.4935334 0.99614513 0
4.7690005 -2.4969409 0.99506283 0
4.7600002 -2.4997563 0.99384522 0
4.7520003 -2.5031042 0.99276304 0
4.7440004 -2.5064235 0.99168074 0
4.7360005 -2.5097134 0.99059856 0
4.8020005 -2.4836919 0.99158704 0
4.7930002 -2.4866319 0.99038553 0
4.7850003 -2.490097 0.98931777 0
4.7770004 -2.4935334 0.9882499 0
4.7690005 -2.4969409 0.98718202 0
4.7600002 -2.4997563 0.98598075 0
4.7520003 -2.5031042 0.98491287 0
4.7440004 -2.5064235 0.983845 0
4.7360005 -2.5097134 0.98277724 0
4.8020005 -2.4836919 0.98364663 0
4.7930002 -2.4866319 0.98246145 0
4.7850003 -2.490097 0.981408 0
4.7770004 -2.4935334 0.98035467 0
4.7690005 -2.4969409 0.97930121 0
4.7600002 -2.4997563 0.97811604 0
4.7520003 -2.5031042 0.9770627 0
4.7440004 -2.5064235 0.97600925 0
4.7360005 -2.5097134 0.97495592 0
4.8020005 -2.4836919 0.97570622 0
4.7930002 -2.4866319 0.97453737 0
4.7850003 -2.490097 0.97349834 0
4.7770004 -2.4935334 0.97245932 0
4.7690005 -2.4969409 0.97142041 0
4.7600002 -2.4997563 0.97025144 0
4.7520003 -2.5031042 0.96921253 0
4.7440004 -2.5064235 0.9681735 0
4.7360005 -2.5097134 0.96713448 0
4.8020005 -2.4836919 0.96776581 0
4.7930002 -2.4866319 0.96661317 0
4.7850003 -2.490097 0.96558869 0
4.7770004 -2.4935334 0.96456409 0
4.7690005 -2.4969409 0.9635396 0
4.7600002 -2.4997563 0.96238685 0
4.7520003 -2.5031042 0.96136236 0
4.7440004 -2.5064235 0.96033776 0
4.7360005 -2.5097134 0.95931315 0
4.8020005 -2.4836919 0.95982552 0
4.7930002 -2.4866319 0.95868909 0
4.7850003 -2.490097 0.95767891 0
4.7770004 -2.4935334 0.95666885 0
4.7690005 -2.4969409 0.95565867 0
4.7600002 -2.4997563 0.95452225 0
4.7520003 -2.5031042 0.95351219 0
4.7440004 -2.5064235 0.95250201 0
4.7360005 -2.5097134 0.95149195 0
4.8020005 -2.4836919 0.9518851 0
4.7930002 -2.4866319 0.95076489 0
4.7850003 -2.490097 0.94976926 0
4.7770004 -2.4935334 0.94877362 0
4.7690005 -2.4969409 0.94777787 0
4.7600002 -2.4997563 0.94665766 0
4.7520003 -2.5031042 0.94566202 0
4.7440004 -2.5064235 0.94466627 0
4.7360005 -2.5097134 0.94367063 0
4.8020005 -2.4836919 0.94394481 0
4.7930002 -2.4866319 0.94284081 0
4.7850003 -2.490097 0.9418596 0
4.7770004 -2.4935334 0.94087827 0
4.7690005 -2.4969409 0.93989706 0
4.7600002 -2.4997563 0.93879306 0
4.7520003 -2.5031042 0.93781173 0
4.7440004 -2.5064235 0.93683052 0
4.7360005 -2.5097134 0.93584931 0
4.8020005 -2.4836919 0.9360044 0
4.7930002 -2.4866319 0.93491662 0
4.7850003 -2.490097 0.93394983 0
4.7770004 -2.4935334 0.93298304 0
4.7690005 -2.4969409 0.93201613 0
4.7600002 -2.4997563 0.93092847 0
4.7520003 -2.5031042 0.92996168 0
4.7440004 -2.5064235 0.92899477 0
4.7360005 -2.5097134 0.92802799 0
4.8020005 -2.4836919 0.92806411 0
4.7930002 -2.4866319 0.92699254 0
4.7850003 -2.490097 0.92604017 0
4.7770004 -2.4935334 0.92508781 0
4.7690005 -2.4969409 0.92413533 0
4.7600002 -2.4997563 0.92306387 0
4.7520003 -2.5031042 0.92211151 0
4.7440004 -2.5064235 0.92115903 0
4.7360005 -2.5097134 0.92020667 0
4.8020005 -2.4836919 0.9201237 0
4.7930002 -2.4866319 0.91906846 0
4.7850003 -2.490097 0.91813052 0
4.7770004 -2.4935334 0.91719246 0
4.7690005 -2.4969409 0.91625452 0
4.7600002 -2.4997563 0.91519928 0
4.7520003 -2.5031042 0.91426122 0
4.7440004 -2.5064235 0.91332328 0
4.7360005 -2.5097134 0.91238534 0
4.8020005 -2.4836919 0.91218328 0
4.7930002 -2.4866319 0.91114426 0
4.7850003 -2.490097 0.91022074 0
4.7770004 -2.4935334 0.90929723 0
4.7690005 -2.4969409 0.90837371 0
4.7600002 -2.4997563 0.90733469 0
4.7520003 -2.5031042 0.90641117 0
4.7440004 -2.5064235 0.90548754 0
4.7360005 -2.5097134 0.90456402 0
4.8020005 -2.4836919 0.90424299 0
4.7930002 -2.4866319 0.90322018 0
4.7850003 -2.490097 0.90231109 0
4.7770004 -2.4935334 0.90140194 0
4.7690005 -2.4969409 0.90049291 0
4.7600002 -2.4997563 0.89947009 0
4.7520003 -2.5031042 0.898561 0
4.7440004 -2.5064235 0.89765185 0
4.7360005 -2.5097134 0.8967427 0
4.8020005 -2.4836919 0.89630258 0
4.7930002 -2.4866319 0.89529598 0
4.7850003 -2.490097 0.89440137 0
4.7770004 -2.4935334 0.89350665 0
4.7690005 -2.4969409 0.89261198 0
4.7600002 -2.4997563 0.89160544 0
4.7520003 -2.5031042 0.89071071 0
4.7440004 -2.5064235 0.88981611 0
4.7360005 -2.5097134 0.88892138 0
4.8020005 -2.4836919 0.88836229 0
4.7930002 -2.4866319 0.8873719 0
4.7850003 -2.490097 0.88649166 0
4.7770004 -2.4935334 0.88561141 0
4.7690005 -2.4969409 0.88473117 0
4.7600002 -2.4997563 0.8837409 0
4.7520003 -2.5031042 0.8828606 0
4.7440004 -2.5064235 0.8819803 0
4.7360005 -2.5097134 0.88110012 0
4.8020005 -2.4836919 0.88042188 0
4.7930002 -2.4866319 0.87944782 0
4.7850003 -2.490097 0.87858194 0
4.7770004 -2.4935334 0.87771618 0
4.7690005 -2.4969409 0.87685031 0
4.7600002 -2.4997563 0.87587625 0
4.7520003 -2.5031042 0.87501043 0
4.7440004 -2.5064235 0.87414455 0
4.7360005 -2.5097134 0.8732788 0
4.8020005 -2.4836919 0.87248147 0
4.7930002 -2.4866319 0.87152362 0
4.7850003 -2.490097 0.87067229 0
4.7770004 -2.4935334 0.86982083 0
4.7690005 -2.4969409 0.8689695 0
4.7600002 -2.4997563 0.86801165 0
4.7520003 -2.5031042 0.8671602 0
4.7440004 -2.5064235 0.86630887 0
4.7360005 -2.5097134 0.86545748 0
4.8020005 -2.4836919 0.86454117 0
4.7930002 -2.4866319 0.86359954 0
4.7850003 -2.490097 0.86276257 0
4.7770004 -2.4935334 0.8619256 0
4.7690005 -2.4969409 0.86108863 0
4.7600002 -2.4997563 0.860147 0
4.7520003 -2.5031042 0.85931009 0
4.7440004 -2.5064235 0.85847312 0
4.7360005 -2.5097134 0.85763615 0
4.8020005 -2.4836919 0.85660076 0
4.7930002 -2.4866319 0.85567534 0
4.7850003 -2.490097 0.85485286 0
4.7770004 -2.4935334 0.85403037 0
4.7690005 -2.4969409 0.85320783 0
4.7600002 -2.4997563 0.8522824 0
4.7520003 -2.5031042 0.85145986 0
4.7440004 -2.5064235 0.85063738 0
4.7360005 -2.5097134 0.84981489 0
4.8020005 -2.4836919 0.84866041 0
4.7930002 -2.4866319 0.84775126 0
4.7850003 -2.490097 0.84694314 0
4.7770004 -2.4935334 0.84613502 0
4.7690005 -2.4969409 0.84532702 0
4.7600002 -2.4997563 0.84441781 0
4.7520003 -2.5031042 0.84360969 0
4.7440004 -2.5064235 0.84280163 0
4.7360005 -2.5097134 0.84199357 0
4.8020005 -2.4836919 0.84072006 0
4.7930002 -2.4866319 0.83982712 0
4.7850003 -2.490097 0.83903348 0
4.7770004 -2.4935334 0.83823979 0
