# .PCD v0.7 - Point Cloud Data file format
VERSION 0.7
FIELDS x y z intensity
SIZE 4 4 4 4
TYPE F F F F
COUNT 1 1 1 1
WIDTH 1462
HEIGHT 1
VIEWPOINT 0 0 0 1 0 0 0
POINTS 1462
DATA ascii
4.7470002 -2.0376532 1.6821082 0
4.7420001 -2.0431943 1.680638 0
4.7360005 -2.0482562 1.678874 0
4.7310004 -2.0537596 1.6774039 0
4.7250004 -2.0587795 1.6756397 0
4.7200003 -2.064245 1.6741697 0
4.7150002 -2.0696924 1.6726996 0
4.7090001 -2.074651 1.6709354 0
4.7040005 -2.0800607 1.6694654 0
4.6980004 -2.0849781 1.6677012 0
4.6930003 -2.0903497 1.666231 0
4.6880002 -2.0957034 1.6647609 0
4.6820002 -2.100559 1.6629968 0
4.6770005 -2.1058753 1.6615268 0
4.6720004 -2.1111729 1.6600567 0
4.6670003 -2.1164525 1.6585866 0
4.6610003 -2.1212273 1.6568224 0
4.6560001 -2.1264689 1.6553524 0
4.6510005 -2.1316931 1.6538823 0
4.6460004 -2.1368988 1.6524121 0
4.6400003 -2.1415923 1.650648 0
4.6350002 -2.14676 1.6491778 0
4.6300001 -2.1519098 1.6477077 0
4.6250005 -2.1570418 1.6462377 0
4.6200004 -2.1621556 1.6447676 0
4.6140003 -2.166748 1.6430035 0
4.6090002 -2.171824 1.6415334 0
4.6040001 -2.1768818 1.6400632 0
4.5990005 -2.1819217 1.6385932 0
4.5940003 -2.1869438 1.6371231 0
4.5890002 -2.1919472 1.6356529 0
4.5840001 -2.196933 1.6341828 0
4.5790005 -2.201901 1.6327127 0
4.5740004 -2.2068505 1.6312426 0
4.5690002 -2.211782 1.6297724 0
4.5640001 -2.2166955 1.6283023 0
4.5590005 -2.2215912 1.6268324 0
4.5540004 -2.2264688 1.6253623 0
4.5490003 -2.231328 1.6238922 0
4.5440001 -2.2361693 1.6224219 0
4.5390005 -2.240993 1.6209519 0
4.5340004 -2.2457981 1.6194818 0
4.5290003 -2.2505856 1.6180117 0
4.5240002 -2.2553546 1.6165416 0
4.5190001 -2.2601061 1.6150714 0
4.5140004 -2.2648392 1.6136013 0
4.5090003 -2.2695544 1.6121312 0
4.5040002 -2.2742515 1.6106611 0
4.4990001 -2.2789304 1.6091911 0
4.4950004 -2.2841382 1.6080151 0
4.4900002 -2.2887831 1.6065449 0
4.4850001 -2.2934098 1.6050746 0
4.4800005 -2.2980187 1.6036047 0
4.4750004 -2.3026094 1.6021346 0
4.4700003 -2.3071818 1.6006645 0
4.4660001 -2.3122938 1.5994883 0
4.4610004 -2.3168323 1.5980183 0
4.4560003 -2.3213525 1.5965482 0
4.4510002 -2.3258548 1.5950781 0
4.4470005 -2.330904 1.5939021 0
4.4420004 -2.335372 1.5924319 0
4.4370003 -2.3398218 1.5909617 0
4.4320002 -2.3442538 1.5894916 0
4.4280005 -2.3492396 1.5883157 0
4.4230003 -2.3536372 1.5868455 0
4.9900002 -1.8012496 1.7452757 0
4.9840002 -1.8072239 1.7435224 0
4.9780002 -1.8131764 1.7417691 0
4.9720001 -1.8191073 1.7400157 0
4.9650002 -1.824627 1.7379704 0
4.9590001 -1.8305128 1.7362169 0
4.9530005 -1.8363771 1.7344638 0
4.9470005 -1.8422197 1.7327105 0
4.9410005 -1.8480406 1.7309573 0
4.9350004 -1.8538398 1.7292038 0
4.9300003 -1.8600178 1.7277428 0
4.9240003 -1.8657756 1.7259893 0
4.9180002 -1.8715117 1.7242361 0
4.9120002 -1.8772261 1.7224828 0
4.9060001 -1.8829188 1.7207295 0
4.9000001 -1.88859 1.7189761 0
4.8940005 -1.8942397 1.717223 0
4.8880005 -1.8998675 1.7154697 0
4.8830004 -1.9058887 1.7140086 0
4.8770003 -1.9114749 1.7122552 0
4.8710003 -1.9170399 1.7105019 0
4.8650002 -1.922583 1.7087486 0
4.8590002 -1.9281043 1.7069954 0
4.8540001 -1.9340278 1.7055341 0
4.8480005 -1.9395082 1.703781 0
4.8420005 -1.9449666 1.7020277 0
4.8360004 -1.9504031 1.7002745 0
4.8310003 -1.9562491 1.6988132 0
4.8250003 -1.9616443 1.69706 0
4.8190002 -1.9670178 1.6953067 0
4.8140001 -1.9728062 1.6938455 0
4.8080001 -1.9781383 1.6920923 0
4.8030005 -1.9838889 1.6906313 0
4.7970004 -1.9891796 1.6888779 0
4.7910004 -1.9944484 1.6871246 0
4.7860003 -2.0001411 1.6856636 0
4.7800002 -2.0053685 1.6839101 0
4.7750001 -2.0110235 1.6824491 0
4.7690005 -2.0162096 1.6806959 0
4.7640004 -2.0218267 1.6792349 0
4.7580004 -2.0269711 1.6774814 0
4.7530003 -2.0325503 1.6760204 0
4.7470002 -2.0376532 1.6742669 0
4.7420001 -2.0431943 1.6728059 0
4.7360005 -2.0482562 1.6710527 0
4.7310004 -2.0537596 1.6695917 0
4.7250004 -2.0587795 1.6678382 0
4.7200003 -2.064245 1.6663772 0
4.7150002 -2.0696924 1.6649162 0
4.7090001 -2.074651 1.6631627 0
4.7040005 -2.0800607 1.6617018 0
4.6980004 -2.0849781 1.6599485 0
4.6930003 -2.0903497 1.6584874 0
4.6880002 -2.0957034 1.6570262 0
4.6820002 -2.100559 1.655273 0
4.6770005 -2.1058753 1.6538119 0
4.6720004 -2.1111729 1.6523508 0
4.6670003 -2.1164525 1.6508896 0
4.6610003 -2.1212273 1.6491364 0
4.6560001 -2.1264689 1.6476753 0
4.6510005 -2.1316931 1.6462142 0
4.6460004 -2.1368988 1.6447532 0
4.6400003 -2.1415923 1.6429999 0
4.6350002 -2.14676 1.6415387 0
4.6300001 -2.1519098 1.6400776 0
4.6250005 -2.1570418 1.6386167 0
4.6200004 -2.1621556 1.6371554 0
4.6140003 -2.166748 1.6354022 0
4.6090002 -2.171824 1.6339412 0
4.6040001 -2.1768818 1.6324799 0
4.5990005 -2.1819217 1.631019 0
4.5940003 -2.1869438 1.6295578 0
4.5890002 -2.1919472 1.6280968 0
4.5840001 -2.196933 1.6266356 0
4.5790005 -2.201901 1.6251746 0
4.5740004 -2.2068505 1.6237136 0
4.5690002 -2.211782 1.6222525 0
4.5640001 -2.2166955 1.6207913 0
4.5590005 -2.2215912 1.6193303 0
4.5540004 -2.2264688 1.6178693 0
4.5490003 -2.231328 1.616408 0
4.5440001 -2.2361693 1.614947 0
4.5390005 -2.240993 1.6134861 0
4.5340004 -2.2457981 1.6120249 0
4.5290003 -2.2505856 1.6105638 0
4.5240002 -2.2553546 1.6091026 0
4.5190001 -2.2601061 1.6076416 0
4.5140004 -2.2648392 1.6061805 0
4.5090003 -2.2695544 1.6047194 0
4.5040002 -2.2742515 1.6032584 0
4.4990001 -2.2789304 1.6017972 0
4.4950004 -2.2841382 1.6006284 0
4.4900002 -2.2887831 1.5991672 0
4.4850001 -2.2934098 1.5977062 0
4.4800005 -2.2980187 1.5962452 0
4.4750004 -2.3026094 1.594784 0
4.4700003 -2.3071818 1.593323 0
4.4660001 -2.3122938 1.592154 0
4.4610004 -2.3168323 1.5906931 0
4.4560003 -2.3213525 1.589232 0
4.4510002 -2.3258548 1.5877708 0
4.4470005 -2.330904 1.5866021 0
4.4420004 -2.335372 1.5851409 0
4.4370003 -2.3398218 1.5836798 0
4.4320002 -2.3442538 1.5822186 0
4.4280005 -2.3492396 1.5810499 0
4.4230003 -2.3536372 1.5795888 0
4.9900002 -1.8012496 1.7369963 0
4.9840002 -1.8072239 1.7352538 0
4.9780002 -1.8131764 1.7335112 0
4.9720001 -1.8191073 1.7317687 0
4.9650002 -1.824627 1.729736 0
4.9590001 -1.8305128 1.7279935 0
4.9530005 -1.8363771 1.7262511 0
4.9470005 -1.8422197 1.7245086 0
4.9410005 -1.8480406 1.7227662 0
4.9350004 -1.8538398 1.7210237 0
4.9300003 -1.8600178 1.7195715 0
4.9240003 -1.8657756 1.717829 0
4.9180002 -1.8715117 1.7160865 0
4.9120002 -1.8772261 1.714344 0
4.9060001 -1.8829188 1.7126015 0
4.9000001 -1.88859 1.7108591 0
4.8940005 -1.8942397 1.7091167 0
4.8880005 -1.8998675 1.7073742 0
4.8830004 -1.9058887 1.7059221 0
4.8770003 -1.9114749 1.7041796 0
4.8710003 -1.9170399 1.7024372 0
4.8650002 -1.922583 1.7006947 0
4.8590002 -1.9281043 1.6989522 0
4.8540001 -1.9340278 1.6975 0
4.8480005 -1.9395082 1.6957576 0
4.8420005 -1.9449666 1.6940151 0
4.8360004 -1.9504031 1.6922727 0
4.8310003 -1.9562491 1.6908207 0
4.8250003 -1.9616443 1.6890781 0
4.8190002 -1.9670178 1.6873356 0
4.8140001 -1.9728062 1.6858835 0
4.8080001 -1.9781383 1.684141 0
4.8030005 -1.9838889 1.6826891 0
4.7970004 -1.9891796 1.6809466 0
4.7910004 -1.9944484 1.6792041 0
4.7860003 -2.0001411 1.6777519 0
4.7800002 -2.0053685 1.6760094 0
4.7750001 -2.0110235 1.6745574 0
4.7690005 -2.0162096 1.6728151 0
4.7640004 -2.0218267 1.671363 0
4.7580004 -2.0269711 1.6696205 0
4.7530003 -2.0325503 1.6681683 0
4.7470002 -2.0376532 1.6664258 0
4.7420001 -2.0431943 1.6649739 0
4.7360005 -2.0482562 1.6632314 0
4.7310004 -2.0537596 1.6617794 0
4.7250004 -2.0587795 1.6600369 0
4.7200003 -2.064245 1.6585847 0
4.7150002 -2.0696924 1.6571326 0
4.7090001 -2.074651 1.6553901 0
4.7040005 -2.0800607 1.6539382 0
4.6980004 -2.0849781 1.6521957 0
4.6930003 -2.0903497 1.6507436 0
4.6880002 -2.0957034 1.6492915 0
4.6820002 -2.100559 1.647549 0
4.6770005 -2.1058753 1.6460971 0
4.6720004 -2.1111729 1.644645 0
4.6670003 -2.1164525 1.6431929 0
4.6610003 -2.1212273 1.6414503 0
4.6560001 -2.1264689 1.6399982 0
4.6510005 -2.1316931 1.6385463 0
4.6460004 -2.1368988 1.6370941 0
4.6400003 -2.1415923 1.6353517 0
4.6350002 -2.14676 1.6338996 0
4.6300001 -2.1519098 1.6324476 0
4.6250005 -2.1570418 1.6309955 0
4.6200004 -2.1621556 1.6295434 0
4.6140003 -2.166748 1.6278009 0
4.6090002 -2.171824 1.626349 0
4.6040001 -2.1768818 1.6248968 0
4.5990005 -2.1819217 1.6234448 0
4.5940003 -2.1869438 1.6219927 0
4.5890002 -2.1919472 1.6205406 0
4.5840001 -2.196933 1.6190885 0
4.5790005 -2.201901 1.6176364 0
4.5740004 -2.2068505 1.6161845 0
4.5690002 -2.211782 1.6147324 0
4.5640001 -2.2166955 1.6132802 0
4.5590005 -2.2215912 1.6118283 0
4.5540004 -2.2264688 1.6103762 0
4.5490003 -2.231328 1.608924 0
4.5440001 -2.2361693 1.6074721 0
4.5390005 -2.240993 1.6060201 0
4.5340004 -2.2457981 1.6045679 0
4.5290003 -2.2505856 1.6031159 0
4.5240002 -2.2553546 1.6016637 0
4.5190001 -2.2601061 1.6002116 0
4.5140004 -2.2648392 1.5987597 0
4.5090003 -2.2695544 1.5973076 0
4.5040002 -2.2742515 1.5958555 0
4.4990001 -2.2789304 1.5944034 0
4.4950004 -2.2841382 1.5932418 0
4.4900002 -2.2887831 1.5917897 0
4.4850001 -2.2934098 1.5903376 0
4.4800005 -2.2980187 1.5888857 0
4.4750004 -2.3026094 1.5874336 0
4.4700003 -2.3071818 1.5859815 0
4.4660001 -2.3122938 1.5848197 0
4.4610004 -2.3168323 1.5833678 0
4.4560003 -2.3213525 1.5819157 0
4.4510002 -2.3258548 1.5804635 0
4.4470005 -2.330904 1.5793021 0
4.4420004 -2.335372 1.5778499 0
4.4370003 -2.3398218 1.5763978 0
4.4320002 -2.3442538 1.5749458 0
4.4280005 -2.3492396 1.5737841 0
4.4230003 -2.3536372 1.5723321 0
4.9900002 -1.8012496 1.7287169 0
4.9840002 -1.8072239 1.7269851 0
4.9780002 -1.8131764 1.7252533 0
4.9720001 -1.8191073 1.7235218 0
4.9650002 -1.824627 1.7215016 0
4.9590001 -1.8305128 1.7197698 0
4.9530005 -1.8363771 1.7180384 0
4.9470005 -1.8422197 1.7163067 0
4.9410005 -1.8480406 1.7145751 0
4.9350004 -1.8538398 1.7128433 0
4.9300003 -1.8600178 1.7114003 0
4.9240003 -1.8657756 1.7096686 0
4.9180002 -1.8715117 1.7079369 0
4.9120002 -1.8772261 1.7062052 0
4.9060001 -1.8829188 1.7044736 0
4.9000001 -1.88859 1.7027419 0
4.8940005 -1.8942397 1.7010103 0
4.8880005 -1.8998675 1.6992787 0
4.8830004 -1.9058887 1.6978356 0
4.8770003 -1.9114749 1.696104 0
4.8710003 -1.9170399 1.6943723 0
4.8650002 -1.922583 1.6926407 0
4.8590002 -1.9281043 1.6909089 0
4.8540001 -1.9340278 1.6894659 0
4.8480005 -1.9395082 1.6877344 0
4.8420005 -1.9449666 1.6860027 0
4.8360004 -1.9504031 1.6842711 0
4.8310003 -1.9562491 1.6828279 0
4.8250003 -1.9616443 1.6810962 0
4.8190002 -1.9670178 1.6793647 0
4.8140001 -1.9728062 1.6779215 0
4.8080001 -1.9781383 1.6761899 0
4.8030005 -1.9838889 1.6747469 0
4.7970004 -1.9891796 1.6730152 0
4.7910004 -1.9944484 1.6712836 0
4.7860003 -2.0001411 1.6698405 0
4.7800002 -2.0053685 1.6681089 0
4.7750001 -2.0110235 1.6666658 0
4.7690005 -2.0162096 1.6649342 0
4.7640004 -2.0218267 1.6634911 0
4.7580004 -2.0269711 1.6617595 0
4.7530003 -2.0325503 1.6603165 0
4.7470002 -2.0376532 1.6585847 0
4.7420001 -2.0431943 1.6571416 0
4.7360005 -2.0482562 1.6554102 0
4.7310004 -2.0537596 1.6539671 0
4.7250004 -2.0587795 1.6522354 0
4.7200003 -2.064245 1.6507922 0
4.7150002 -2.0696924 1.6493492 0
4.7090001 -2.074651 1.6476176 0
4.7040005 -2.0800607 1.6461747 0
4.6980004 -2.0849781 1.6444429 0
4.6930003 -2.0903497 1.6429998 0
4.6880002 -2.0957034 1.6415567 0
4.6820002 -2.100559 1.6398251 0
4.6770005 -2.1058753 1.6383822 0
4.6720004 -2.1111729 1.636939 0
4.6670003 -2.1164525 1.635496 0
4.6610003 -2.1212273 1.6337643 0
4.6560001 -2.1264689 1.6323212 0
4.6510005 -2.1316931 1.6308782 0
4.6460004 -2.1368988 1.6294352 0
4.6400003 -2.1415923 1.6277035 0
4.6350002 -2.14676 1.6262605 0
4.6300001 -2.1519098 1.6248174 0
4.6250005 -2.1570418 1.6233745 0
4.6200004 -2.1621556 1.6219314 0
4.6140003 -2.166748 1.6201998 0
4.6090002 -2.171824 1.6187567 0
4.6040001 -2.1768818 1.6173136 0
4.5990005 -2.1819217 1.6158707 0
4.5940003 -2.1869438 1.6144276 0
4.5890002 -2.1919472 1.6129844 0
4.5840001 -2.196933 1.6115414 0
4.5790005 -2.201901 1.6100985 0
4.5740004 -2.2068505 1.6086553 0
4.5690002 -2.211782 1.6072123 0
4.5640001 -2.2166955 1.6057692 0
4.5590005 -2.2215912 1.6043262 0
4.5540004 -2.2264688 1.6028831 0
4.5490003 -2.231328 1.6014401 0
4.5440001 -2.2361693 1.599997 0
4.5390005 -2.240993 1.598554 0
4.5340004 -2.2457981 1.597111 0
4.5290003 -2.2505856 1.5956678 0
4.5240002 -2.2553546 1.5942248 0
4.5190001 -2.2601061 1.5927818 0
4.5140004 -2.2648392 1.5913388 0
4.5090003 -2.2695544 1.5898958 0
4.5040002 -2.2742515 1.5884527 0
4.4990001 -2.2789304 1.5870095 0
4.4950004 -2.2841382 1.5858552 0
4.4900002 -2.2887831 1.5844121 0
4.4850001 -2.2934098 1.582969 0
4.4800005 -2.2980187 1.581526 0
4.4750004 -2.3026094 1.580083 0
4.4700003 -2.3071818 1.57864 0
4.4660001 -2.3122938 1.5774854 0
4.4610004 -2.3168323 1.5760425 0
4.4560003 -2.3213525 1.5745994 0
4.4510002 -2.3258548 1.5731564 0
4.4470005 -2.330904 1.5720021 0
4.4420004 -2.335372 1.5705589 0
4.4370003 -2.3398218 1.5691159 0
4.4320002 -2.3442538 1.5676727 0
4.4280005 -2.3492396 1.5665184 0
4.4230003 -2.3536372 1.5650754 0
4.9900002 -1.8012496 1.7204373 0
4.9840002 -1.8072239 1.7187165 0
4.9780002 -1.8131764 1.7169957 0
4.9720001 -1.8191073 1.7152748 0
4.9650002 -1.824627 1.7132672 0
4.9590001 -1.8305128 1.7115463 0
4.9530005 -1.8363771 1.7098256 0
4.9470005 -1.8422197 1.7081047 0
4.9410005 -1.8480406 1.7063838 0
4.9350004 -1.8538398 1.704663 0
4.9300003 -1.8600178 1.703229 0
4.9240003 -1.8657756 1.7015082 0
4.9180002 -1.8715117 1.6997873 0
4.9120002 -1.8772261 1.6980665 0
4.9060001 -1.8829188 1.6963456 0
4.9000001 -1.88859 1.6946248 0
4.8940005 -1.8942397 1.6929041 0
4.8880005 -1.8998675 1.6911832 0
4.8830004 -1.9058887 1.6897492 0
4.8770003 -1.9114749 1.6880283 0
4.8710003 -1.9170399 1.6863074 0
4.8650002 -1.922583 1.6845865 0
4.8590002 -1.9281043 1.6828657 0
4.8540001 -1.9340278 1.6814317 0
4.8480005 -1.9395082 1.679711 0
4.8420005 -1.9449666 1.6779902 0
4.8360004 -1.9504031 1.6762693 0
4.8310003 -1.9562491 1.6748353 0
4.8250003 -1.9616443 1.6731144 0
4.8190002 -1.9670178 1.6713936 0
4.8140001 -1.9728062 1.6699594 0
4.8080001 -1.9781383 1.6682386 0
4.8030005 -1.9838889 1.6668047 0
4.7970004 -1.9891796 1.6650839 0
4.7910004 -1.9944484 1.6633631 0
4.7860003 -2.0001411 1.661929 0
4.7800002 -2.0053685 1.6602082 0
4.7750001 -2.0110235 1.6587741 0
4.7690005 -2.0162096 1.6570534 0
4.7640004 -2.0218267 1.6556193 0
4.7580004 -2.0269711 1.6538985 0
4.7530003 -2.0325503 1.6524644 0
4.7470002 -2.0376532 1.6507436 0
4.7420001 -2.0431943 1.6493095 0
4.7360005 -2.0482562 1.6475888 0
4.7310004 -2.0537596 1.6461546 0
4.7250004 -2.0587795 1.6444339 0
4.7200003 -2.064245 1.6429998 0
4.7140002 -2.0692234 1.641279 0
4.7090001 -2.074651 1.6398449 0
4.7040005 -2.0800607 1.638411 0
4.6980004 -2.0849781 1.6366903 0
4.6930003 -2.0903497 1.6352561 0
4.6880002 -2.0957034 1.633822 0
4.6820002 -2.100559 1.6321012 0
4.6770005 -2.1058753 1.6306673 0
4.6720004 -2.1111729 1.6292332 0
4.6670003 -2.1164525 1.6277992 0
4.6610003 -2.1212273 1.6260782 0
4.6560001 -2.1264689 1.6246442 0
4.6510005 -2.1316931 1.6232103 0
4.6460004 -2.1368988 1.6217763 0
4.6400003 -2.1415923 1.6200554 0
4.6350002 -2.14676 1.6186215 0
4.6300001 -2.1519098 1.6171873 0
4.6250005 -2.1570418 1.6157534 0
4.6200004 -2.1621556 1.6143193 0
4.6140003 -2.166748 1.6125985 0
4.6090002 -2.171824 1.6111645 0
4.6040001 -2.1768818 1.6097302 0
4.5990005 -2.1819217 1.6082964 0
4.5940003 -2.1869438 1.6068624 0
4.5890002 -2.1919472 1.6054283 0
4.5840001 -2.196933 1.6039943 0
4.5790005 -2.201901 1.6025603 0
4.5740004 -2.2068505 1.6011262 0
4.5690002 -2.211782 1.5996922 0
4.5640001 -2.2166955 1.5982581 0
4.5590005 -2.2215912 1.5968242 0
4.5540004 -2.2264688 1.5953901 0
4.5490003 -2.231328 1.5939561 0
4.5440001 -2.2361693 1.592522 0
4.5390005 -2.240993 1.5910882 0
4.5340004 -2.2457981 1.589654 0
4.5290003 -2.2505856 1.58822 0
4.5240002 -2.2553546 1.5867859 0
4.5190001 -2.2601061 1.5853519 0
4.5140004 -2.2648392 1.583918 0
4.5090003 -2.2695544 1.5824839 0
4.5040002 -2.2742515 1.5810498 0
4.4990001 -2.2789304 1.5796157 0
4.4950004 -2.2841382 1.5784687 0
4.4900002 -2.2887831 1.5770345 0
4.4850001 -2.2934098 1.5756005 0
4.4800005 -2.2980187 1.5741667 0
4.4750004 -2.3026094 1.5727326 0
4.4700003 -2.3071818 1.5712984 0
4.4660001 -2.3122938 1.5701512 0
4.4610004 -2.3168323 1.5687172 0
4.4560003 -2.3213525 1.5672833 0
4.4510002 -2.3258548 1.5658491 0
4.4470005 -2.330904 1.564702 0
4.4420004 -2.335372 1.5632679 0
4.4370003 -2.3398218 1.561834 0
4.4320002 -2.3442538 1.5603998 0
4.4280005 -2.3492396 1.5592526 0
4.4230003 -2.3536372 1.5578187 0
4.9900002 -1.8012496 1.7121578 0
4.9840002 -1.8072239 1.7104478 0
4.9780002 -1.8131764 1.7087379 0
4.9720001 -1.8191073 1.7070277 0
4.9650002 -1.824627 1.7050328 0
4.9590001 -1.8305128 1.7033228 0
4.9530005 -1.8363771 1.7016128 0
4.9470005 -1.8422197 1.6999029 0
4.9410005 -1.8480406 1.6981927 0
4.9350004 -1.8538398 1.6964828 0
4.9300003 -1.8600178 1.6950577 0
4.9240003 -1.8657756 1.6933478 0
4.9180002 -1.8715117 1.6916376 0
4.9120002 -1.8772261 1.6899277 0
4.9060001 -1.8829188 1.6882176 0
4.9000001 -1.88859 1.6865076 0
4.8940005 -1.8942397 1.6847978 0
4.8880005 -1.8998675 1.6830877 0
4.8820004 -1.9054738 1.6813778 0
4.8770003 -1.9114749 1.6799526 0
4.8710003 -1.9170399 1.6782427 0
4.8650002 -1.922583 1.6765326 0
4.8590002 -1.9281043 1.6748226 0
4.8540001 -1.9340278 1.6733975 0
4.8480005 -1.9395082 1.6716876 0
4.8420005 -1.9449666 1.6699777 0
4.8360004 -1.9504031 1.6682676 0
4.8310003 -1.9562491 1.6668426 0
4.8250003 -1.9616443 1.6651325 0
4.8190002 -1.9670178 1.6634226 0
4.8140001 -1.9728062 1.6619974 0
4.8080001 -1.9781383 1.6602875 0
4.8020005 -1.983449 1.6585776 0
4.7970004 -1.9891796 1.6571527 0
4.7910004 -1.9944484 1.6554425 0
4.7860003 -2.0001411 1.6540176 0
4.7800002 -2.0053685 1.6523075 0
4.7750001 -2.0110235 1.6508825 0
4.7690005 -2.0162096 1.6491725 0
4.7640004 -2.0218267 1.6477474 0
4.7580004 -2.0269711 1.6460375 0
4.7530003 -2.0325503 1.6446124 0
4.7470002 -2.0376532 1.6429025 0
4.7420001 -2.0431943 1.6414773 0
4.7360005 -2.0482562 1.6397675 0
4.7310004 -2.0537596 1.6383424 0
4.7250004 -2.0587795 1.6366324 0
4.7200003 -2.064245 1.6352073 0
4.7140002 -2.0692234 1.6334974 0
4.7090001 -2.074651 1.6320723 0
4.7040005 -2.0800607 1.6306474 0
4.6980004 -2.0849781 1.6289374 0
4.6930003 -2.0903497 1.6275123 0
4.6880002 -2.0957034 1.6260873 0
4.6820002 -2.100559 1.6243774 0
4.6770005 -2.1058753 1.6229523 0
4.6720004 -2.1111729 1.6215274 0
4.6670003 -2.1164525 1.6201023 0
4.6610003 -2.1212273 1.6183923 0
4.6560001 -2.1264689 1.6169672 0
4.6510005 -2.1316931 1.6155424 0
4.6460004 -2.1368988 1.6141173 0
4.6400003 -2.1415923 1.6124073 0
4.6350002 -2.14676 1.6109822 0
4.6300001 -2.1519098 1.6095573 0
4.6250005 -2.1570418 1.6081322 0
4.6200004 -2.1621556 1.6067073 0
4.6140003 -2.166748 1.6049972 0
4.6090002 -2.171824 1.6035722 0
4.6040001 -2.1768818 1.6021471 0
4.5990005 -2.1819217 1.6007223 0
4.5940003 -2.1869438 1.5992972 0
4.5890002 -2.1919472 1.5978721 0
4.5840001 -2.196933 1.5964471 0
4.5790005 -2.201901 1.5950222 0
4.5740004 -2.2068505 1.5935972 0
4.5690002 -2.211782 1.5921721 0
4.5640001 -2.2166955 1.590747 0
4.5590005 -2.2215912 1.5893222 0
4.5540004 -2.2264688 1.5878971 0
4.5490003 -2.231328 1.5864722 0
4.5440001 -2.2361693 1.585047 0
4.5390005 -2.240993 1.5836221 0
4.5340004 -2.2457981 1.5821971 0
4.5290003 -2.2505856 1.580772 0
4.5240002 -2.2553546 1.5793471 0
4.5190001 -2.2601061 1.577922 0
4.5140004 -2.2648392 1.5764971 0
4.5090003 -2.2695544 1.5750721 0
4.5040002 -2.2742515 1.573647 0
4.4990001 -2.2789304 1.5722219 0
4.4950004 -2.2841382 1.5710821 0
4.4900002 -2.2887831 1.569657 0
4.4850001 -2.2934098 1.5682319 0
4.4800005 -2.2980187 1.566807 0
4.4750004 -2.3026094 1.565382 0
4.4700003 -2.3071818 1.5639569 0
4.4660001 -2.3122938 1.5628169 0
4.4610004 -2.3168323 1.5613919 0
4.4560003 -2.3213525 1.5599669 0
4.4510002 -2.3258548 1.558542 0
4.4470005 -2.330904 1.557402 0
4.4420004 -2.335372 1.555977 0
4.4370003 -2.3398218 1.5545518 0
4.4320002 -2.3442538 1.5531269 0
4.4280005 -2.3492396 1.5519869 0
4.4230003 -2.3536372 1.5505619 0
4.9900002 -1.8012496 1.7038783 0
4.9840002 -1.8072239 1.7021791 0
4.9780002 -1.8131764 1.70048 0
4.9720001 -1.8191073 1.6987808 0
4.9650002 -1.824627 1.6967984 0
4.9590001 -1.8305128 1.6950992 0
4.9530005 -1.8363771 1.6934 0
4.9470005 -1.8422197 1.6917009 0
4.9410005 -1.8480406 1.6900017 0
4.9350004 -1.8538398 1.6883025 0
4.9300003 -1.8600178 1.6868864 0
4.9240003 -1.8657756 1.6851872 0
4.9180002 -1.8715117 1.6834881 0
4.9120002 -1.8772261 1.6817889 0
4.9060001 -1.8829188 1.6800897 0
4.9000001 -1.88859 1.6783905 0
4.8940005 -1.8942397 1.6766914 0
4.8880005 -1.8998675 1.6749923 0
4.8820004 -1.9054738 1.6732931 0
4.8770003 -1.9114749 1.671877 0
4.8710003 -1.9170399 1.6701778 0
4.8650002 -1.922583 1.6684786 0
4.8590002 -1.9281043 1.6667794 0
4.8540001 -1.9340278 1.6653634 0
4.8480005 -1.9395082 1.6636643 0
4.8420005 -1.9449666 1.6619651 0
4.8360004 -1.9504031 1.6602659 0
4.8310003 -1.9562491 1.65885 0
4.8250003 -1.9616443 1.6571507 0
4.8190002 -1.9670178 1.6554515 0
4.8140001 -1.9728062 1.6540354 0
4.8080001 -1.9781383 1.6523362 0
4.8020005 -1.983449 1.6506373 0
4.7970004 -1.9891796 1.6492212 0
4.7910004 -1.9944484 1.647522 0
4.7860003 -2.0001411 1.646106 0
4.7800002 -2.0053685 1.6444068 0
4.7750001 -2.0110235 1.6429907 0
4.7690005 -2.0162096 1.6412916 0
4.7640004 -2.0218267 1.6398758 0
4.7580004 -2.0269711 1.6381764 0
4.7530003 -2.0325503 1.6367605 0
4.7470002 -2.0376532 1.6350613 0
4.7420001 -2.0431943 1.6336453 0
4.7360005 -2.0482562 1.6319462 0
4.7310004 -2.0537596 1.6305301 0
4.7250004 -2.0587795 1.6288309 0
4.7200003 -2.064245 1.6274149 0
4.7140002 -2.0692234 1.6257157 0
4.7090001 -2.074651 1.6242998 0
4.7040005 -2.0800607 1.6228839 0
4.6980004 -2.0849781 1.6211847 0
4.6930003 -2.0903497 1.6197686 0
4.6880002 -2.0957034 1.6183525 0
4.6820002 -2.100559 1.6166533 0
4.6770005 -2.1058753 1.6152375 0
4.6720004 -2.1111729 1.6138215 0
4.6670003 -2.1164525 1.6124054 0
4.6610003 -2.1212273 1.6107063 0
4.6560001 -2.1264689 1.6092902 0
4.6510005 -2.1316931 1.6078743 0
4.6460004 -2.1368988 1.6064583 0
4.6400003 -2.1415923 1.6047591 0
4.6350002 -2.14676 1.6033431 0
4.6300001 -2.1519098 1.601927 0
4.6250005 -2.1570418 1.6005112 0
4.6200004 -2.1621556 1.5990951 0
4.6140003 -2.166748 1.5973959 0
4.6090002 -2.171824 1.5959799 0
4.6040001 -2.1768818 1.594564 0
4.5990005 -2.1819217 1.593148 0
4.5940003 -2.1869438 1.5917319 0
4.5890002 -2.1919472 1.5903161 0
4.5840001 -2.196933 1.5889 0
4.5790005 -2.201901 1.5874841 0
4.5740004 -2.2068505 1.586068 0
4.5690002 -2.211782 1.5846521 0
4.5640001 -2.2166955 1.583236 0
4.5590005 -2.2215912 1.5818201 0
4.5540004 -2.2264688 1.5804042 0
4.5490003 -2.231328 1.5789881 0
4.5440001 -2.2361693 1.5775721 0
4.5390005 -2.240993 1.5761561 0
4.5340004 -2.2457981 1.5747402 0
4.5290003 -2.2505856 1.5733242 0
4.5240002 -2.2553546 1.5719081 0
4.5190001 -2.2601061 1.570492 0
4.5140004 -2.2648392 1.5690763 0
4.5090003 -2.2695544 1.5676602 0
4.5040002 -2.2742515 1.5662441 0
4.4990001 -2.2789304 1.564828 0
4.4950004 -2.2841382 1.5636954 0
4.4900002 -2.2887831 1.5622793 0
4.4850001 -2.2934098 1.5608635 0
4.4800005 -2.2980187 1.5594475 0
4.4750004 -2.3026094 1.5580314 0
4.4700003 -2.3071818 1.5566155 0
4.4660001 -2.3122938 1.5554826 0
4.4610004 -2.3168323 1.5540667 0
4.4560003 -2.3213525 1.5526507 0
4.4510002 -2.3258548 1.5512347 0
4.4470005 -2.330904 1.550102 0
4.4420004 -2.335372 1.548686 0
4.4370003 -2.3398218 1.5472699 0
4.4320002 -2.3442538 1.5458539 0
4.4280005 -2.3492396 1.5447212 0
4.4230003 -2.3536372 1.5433052 0
4.9900002 -1.8012496 1.6955988 0
4.9840002 -1.8072239 1.6939105 0
4.9780002 -1.8131764 1.6922221 0
4.9720001 -1.8191073 1.6905338 0
4.9650002 -1.824627 1.6885641 0
4.9590001 -1.8305128 1.6868756 0
4.9530005 -1.8363771 1.6851873 0
4.9470005 -1.8422197 1.6834991 0
4.9410005 -1.8480406 1.6818106 0
4.9350004 -1.8538398 1.6801221 0
4.9300003 -1.8600178 1.6787152 0
4.9240003 -1.8657756 1.6770269 0
4.9180002 -1.8715117 1.6753385 0
4.9120002 -1.8772261 1.6736501 0
4.9060001 -1.8829188 1.6719618 0
4.9000001 -1.88859 1.6702733 0
4.8940005 -1.8942397 1.6685852 0
4.8880005 -1.8998675 1.6668967 0
4.8820004 -1.9054738 1.6652085 0
4.8770003 -1.9114749 1.6638014 0
4.8710003 -1.9170399 1.662113 0
4.8650002 -1.922583 1.6604246 0
4.8590002 -1.9281043 1.6587362 0
4.8540001 -1.9340278 1.6573292 0
4.8480005 -1.9395082 1.655641 0
4.8420005 -1.9449666 1.6539527 0
4.8360004 -1.9504031 1.6522642 0
4.8310003 -1.9562491 1.6508572 0
4.8250003 -1.9616443 1.6491688 0
4.8190002 -1.9670178 1.6474805 0
4.8140001 -1.9728062 1.6460735 0
4.8080001 -1.9781383 1.6443851 0
4.8020005 -1.983449 1.6426969 0
4.7970004 -1.9891796 1.6412899 0
4.7910004 -1.9944484 1.6396015 0
4.7860003 -2.0001411 1.6381944 0
4.7800002 -2.0053685 1.6365061 0
4.7750001 -2.0110235 1.6350991 0
4.7690005 -2.0162096 1.6334109 0
4.7640004 -2.0218267 1.6320039 0
4.7580004 -2.0269711 1.6303154 0
4.7530003 -2.0325503 1.6289085 0
4.7470002 -2.0376532 1.6272202 0
4.7420001 -2.0431943 1.6258131 0
4.7360005 -2.0482562 1.6241249 0
4.7310004 -2.0537596 1.6227179 0
4.7250004 -2.0587795 1.6210295 0
4.7200003 -2.064245 1.6196225 0
4.7140002 -2.0692234 1.6179341 0
4.7090001 -2.074651 1.6165271 0
4.7040005 -2.0800607 1.6151203 0
4.6980004 -2.0849781 1.6134318 0
4.6930003 -2.0903497 1.6120248 0
4.6880002 -2.0957034 1.6106179 0
4.6820002 -2.100559 1.6089295 0
4.6770005 -2.1058753 1.6075226 0
4.6720004 -2.1111729 1.6061156 0
4.6670003 -2.1164525 1.6047087 0
4.6610003 -2.1212273 1.6030202 0
4.6560001 -2.1264689 1.6016133 0
4.6510005 -2.1316931 1.6002064 0
4.6460004 -2.1368988 1.5987993 0
4.6400003 -2.1415923 1.597111 0
4.6350002 -2.14676 1.595704 0
4.6300001 -2.1519098 1.5942969 0
4.6250005 -2.1570418 1.59289 0
4.6200004 -2.1621556 1.5914831 0
4.6140003 -2.166748 1.5897948 0
4.6090002 -2.171824 1.5883877 0
4.6040001 -2.1768818 1.5869807 0
4.5990005 -2.1819217 1.5855739 0
4.5940003 -2.1869438 1.5841669 0
4.5890002 -2.1919472 1.5827599 0
4.5840001 -2.196933 1.5813528 0
4.5790005 -2.201901 1.579946 0
4.5740004 -2.2068505 1.578539 0
4.5690002 -2.211782 1.577132 0
4.5640001 -2.2166955 1.575725 0
4.5590005 -2.2215912 1.5743182 0
4.5540004 -2.2264688 1.5729111 0
4.5490003 -2.231328 1.5715041 0
4.5440001 -2.2361693 1.5700971 0
4.5390005 -2.240993 1.5686903 0
4.5340004 -2.2457981 1.5672833 0
4.5290003 -2.2505856 1.5658762 0
4.5240002 -2.2553546 1.5644692 0
4.5190001 -2.2601061 1.5630622 0
4.5140004 -2.2648392 1.5616554 0
4.5090003 -2.2695544 1.5602484 0
4.5040002 -2.2742515 1.5588413 0
4.4990001 -2.2789304 1.5574343 0
4.4950004 -2.2841382 1.5563089 0
4.4900002 -2.2887831 1.5549018 0
4.4850001 -2.2934098 1.5534948 0
4.4800005 -2.2980187 1.5520879 0
4.4750004 -2.3026094 1.550681 0
4.4700003 -2.3071818 1.549274 0
4.4660001 -2.3122938 1.5481484 0
4.4610004 -2.3168323 1.5467415 0
4.4560003 -2.3213525 1.5453345 0
4.4510002 -2.3258548 1.5439274 0
4.4470005 -2.330904 1.542802 0
4.4420004 -2.335372 1.5413949 0
4.4370003 -2.3398218 1.5399879 0
4.4320002 -2.3442538 1.5385809 0
4.4280005 -2.3492396 1.5374554 0
4.4230003 -2.3536372 1.5360484 0
4.9900002 -1.8012496 1.6873194 0
4.9840002 -1.8072239 1.6856419 0
4.9780002 -1.8131764 1.6839644 0
4.9710002 -1.8187195 1.6820072 0
4.9650002 -1.824627 1.6803296 0
4.9590001 -1.8305128 1.678652 0
4.9530005 -1.8363771 1.6769747 0
4.9470005 -1.8422197 1.675297 0
4.9410005 -1.8480406 1.6736195 0
4.9350004 -1.8538398 1.671942 0
4.9300003 -1.8600178 1.670544 0
4.9240003 -1.8657756 1.6688664 0
4.9180002 -1.8715117 1.6671889 0
4.9120002 -1.8772261 1.6655113 0
4.9060001 -1.8829188 1.6638337 0
4.9000001 -1.88859 1.6621562 0
4.8940005 -1.8942397 1.6604788 0
4.8880005 -1.8998675 1.6588013 0
4.8820004 -1.9054738 1.6571238 0
4.8770003 -1.9114749 1.6557257 0
4.8710003 -1.9170399 1.6540481 0
4.8650002 -1.922583 1.6523706 0
4.8590002 -1.9281043 1.6506931 0
4.8540001 -1.9340278 1.6492951 0
4.8480005 -1.9395082 1.6476177 0
4.8420005 -1.9449666 1.6459401 0
4.8360004 -1.9504031 1.6442626 0
4.8310003 -1.9562491 1.6428646 0
4.8250003 -1.9616443 1.641187 0
4.8190002 -1.9670178 1.6395094 0
4.8140001 -1.9728062 1.6381115 0
4.8080001 -1.9781383 1.636434 0
4.8020005 -1.983449 1.6347564 0
4.7970004 -1.9891796 1.6333585 0
4.7910004 -1.9944484 1.631681 0
4.7860003 -2.0001411 1.630283 0
4.7800002 -2.0053685 1.6286055 0
4.7750001 -2.0110235 1.6272074 0
4.7690005 -2.0162096 1.62553 0
4.7640004 -2.0218267 1.624132 0
4.7580004 -2.0269711 1.6224545 0
4.7530003 -2.0325503 1.6210566 0
4.7470002 -2.0376532 1.6193789 0
4.7420001 -2.0431943 1.617981 0
4.7360005 -2.0482562 1.6163036 0
4.7310004 -2.0537596 1.6149056 0
4.7250004 -2.0587795 1.6132281 0
4.7200003 -2.064245 1.61183 0
4.7140002 -2.0692234 1.6101525 0
4.7090001 -2.074651 1.6087545 0
4.7040005 -2.0800607 1.6073567 0
4.6980004 -2.0849781 1.6056792 0
4.6930003 -2.0903497 1.6042811 0
4.6880002 -2.0957034 1.6028831 0
4.6820002 -2.100559 1.6012056 0
4.6770005 -2.1058753 1.5998077 0
4.6720004 -2.1111729 1.5984097 0
4.6670003 -2.1164525 1.5970117 0
4.6610003 -2.1212273 1.5953342 0
4.6560001 -2.1264689 1.5939362 0
4.6510005 -2.1316931 1.5925384 0
4.6460004 -2.1368988 1.5911404 0
4.6400003 -2.1415923 1.5894628 0
4.6350002 -2.14676 1.5880649 0
4.6300001 -2.1519098 1.5866669 0
4.6250005 -2.1570418 1.585269 0
4.6200004 -2.1621556 1.583871 0
4.6140003 -2.166748 1.5821935 0
4.6090002 -2.171824 1.5807955 0
4.6040001 -2.1768818 1.5793976 0
4.5990005 -2.1819217 1.5779996 0
4.5940003 -2.1869438 1.5766017 0
4.5890002 -2.1919472 1.5752038 0
4.5840001 -2.196933 1.5738057 0
4.5790005 -2.201901 1.5724078 0
4.5740004 -2.2068505 1.5710099 0
4.5690002 -2.211782 1.5696119 0
4.5640001 -2.2166955 1.5682138 0
4.5590005 -2.2215912 1.5668161 0
4.5540004 -2.2264688 1.5654181 0
4.5490003 -2.231328 1.5640202 0
4.5440001 -2.2361693 1.5626221 0
4.5390005 -2.240993 1.5612242 0
4.5340004 -2.2457981 1.5598263 0
4.5290003 -2.2505856 1.5584283 0
4.5240002 -2.2553546 1.5570303 0
4.5190001 -2.2601061 1.5556324 0
4.5140004 -2.2648392 1.5542345 0
4.5090003 -2.2695544 1.5528364 0
4.5040002 -2.2742515 1.5514385 0
4.4990001 -2.2789304 1.5500405 0
4.4950004 -2.2841382 1.5489222 0
4.4900002 -2.2887831 1.5475242 0
4.4850001 -2.2934098 1.5461262 0
4.4800005 -2.2980187 1.5447285 0
4.4750004 -2.3026094 1.5433304 0
4.4700003 -2.3071818 1.5419325 0
4.4660001 -2.3122938 1.540814 0
4.4610004 -2.3168323 1.5394162 0
4.4560003 -2.3213525 1.5380182 0
4.4510002 -2.3258548 1.5366203 0
4.4470005 -2.330904 1.535502 0
4.4420004 -2.335372 1.534104 0
4.4370003 -2.3398218 1.532706 0
4.4320002 -2.3442538 1.5313081 0
4.4280005 -2.3492396 1.5301896 0
4.4230003 -2.3536372 1.5287918 0
4.9900002 -1.8012496 1.67904 0
4.9840002 -1.8072239 1.6773732 0
4.9780002 -1.8131764 1.6757065 0
4.9710002 -1.8187195 1.673762 0
4.9650002 -1.824627 1.6720952 0
4.9590001 -1.8305128 1.6704285 0
4.9530005 -1.8363771 1.6687618 0
4.9470005 -1.8422197 1.6670951 0
4.9410005 -1.8480406 1.6654285 0
4.9350004 -1.8538398 1.6637617 0
4.9300003 -1.8600178 1.6623728 0
4.9240003 -1.8657756 1.660706 0
4.9180002 -1.8715117 1.6590393 0
4.9120002 -1.8772261 1.6573726 0
4.9060001 -1.8829188 1.6557058 0
4.9000001 -1.88859 1.6540391 0
4.8940005 -1.8942397 1.6523725 0
4.8880005 -1.8998675 1.6507057 0
4.8820004 -1.9054738 1.649039 0
4.8770003 -1.9114749 1.64765 0
4.8710003 -1.9170399 1.6459833 0
4.8650002 -1.922583 1.6443167 0
4.8590002 -1.9281043 1.6426499 0
4.8540001 -1.9340278 1.641261 0
4.8480005 -1.9395082 1.6395943 0
4.8420005 -1.9449666 1.6379275 0
4.8360004 -1.9504031 1.6362609 0
4.8310003 -1.9562491 1.6348718 0
4.8250003 -1.9616443 1.6332052 0
4.8190002 -1.9670178 1.6315384 0
4.8140001 -1.9728062 1.6301494 0
4.8080001 -1.9781383 1.6284827 0
4.8020005 -1.983449 1.6268162 0
4.7970004 -1.9891796 1.6254272 0
4.7910004 -1.9944484 1.6237605 0
4.7860003 -2.0001411 1.6223714 0
4.7800002 -2.0053685 1.6207048 0
4.7750001 -2.0110235 1.6193157 0
4.7690005 -2.0162096 1.6176492 0
4.7640004 -2.0218267 1.6162602 0
4.7580004 -2.0269711 1.6145935 0
4.7530003 -2.0325503 1.6132045 0
4.7470002 -2.0376532 1.6115377 0
4.7420001 -2.0431943 1.6101489 0
4.7360005 -2.0482562 1.6084822 0
4.7310004 -2.0537596 1.6070933 0
4.7250004 -2.0587795 1.6054265 0
4.7200003 -2.064245 1.6040375 0
4.7140002 -2.0692234 1.6023709 0
4.7090001 -2.074651 1.6009818 0
4.7040005 -2.0800607 1.599593 0
4.6980004 -2.0849781 1.5979263 0
4.6930003 -2.0903497 1.5965374 0
4.6880002 -2.0957034 1.5951483 0
4.6820002 -2.100559 1.5934817 0
4.6770005 -2.1058753 1.5920929 0
4.6720004 -2.1111729 1.5907038 0
4.6670003 -2.1164525 1.5893149 0
4.6610003 -2.1212273 1.5876482 0
4.6560001 -2.1264689 1.5862592 0
4.6510005 -2.1316931 1.5848703 0
4.6460004 -2.1368988 1.5834814 0
4.6400003 -2.1415923 1.5818146 0
4.6350002 -2.14676 1.5804257 0
4.6300001 -2.1519098 1.5790367 0
4.6250005 -2.1570418 1.5776479 0
4.6200004 -2.1621556 1.576259 0
4.6140003 -2.166748 1.5745922 0
4.6090002 -2.171824 1.5732033 0
4.6040001 -2.1768818 1.5718143 0
4.5990005 -2.1819217 1.5704255 0
4.5940003 -2.1869438 1.5690365 0
4.5890002 -2.1919472 1.5676476 0
4.5840001 -2.196933 1.5662585 0
4.5790005 -2.201901 1.5648698 0
4.5740004 -2.2068505 1.5634807 0
4.5690002 -2.211782 1.5620918 0
4.5640001 -2.2166955 1.5607028 0
4.5590005 -2.2215912 1.559314 0
4.5540004 -2.2264688 1.5579251 0
4.5490003 -2.231328 1.5565361 0
4.5440001 -2.2361693 1.5551472 0
4.5390005 -2.240993 1.5537583 0
4.5340004 -2.2457981 1.5523694 0
4.5290003 -2.2505856 1.5509803 0
4.5240002 -2.2553546 1.5495914 0
4.5190001 -2.2601061 1.5482024 0
4.5140004 -2.2648392 1.5468136 0
4.5090003 -2.2695544 1.5454246 0
4.5040002 -2.2742515 1.5440357 0
4.4990001 -2.2789304 1.5426466 0
4.4950004 -2.2841382 1.5415357 0
4.4900002 -2.2887831 1.5401467 0
4.4850001 -2.2934098 1.5387578 0
4.4800005 -2.2980187 1.5373689 0
4.4750004 -2.3026094 1.53598 0
4.4700003 -2.3071818 1.534591 0
4.4660001 -2.3122938 1.5334798 0
4.4610004 -2.3168323 1.5320909 0
4.4560003 -2.3213525 1.530702 0
4.4510002 -2.3258548 1.529313 0
4.4470005 -2.330904 1.5282019 0
4.4420004 -2.335372 1.5268129 0
4.4370003 -2.3398218 1.525424 0
4.4320002 -2.3442538 1.5240351 0
4.4280005 -2.3492396 1.5229241 0
4.4230003 -2.3536372 1.521535 0
4.9900002 -1.8012496 1.6707604 0
4.9840002 -1.8072239 1.6691045 0
4.9780002 -1.8131764 1.6674486 0
4.9710002 -1.8187195 1.6655167 0
4.9650002 -1.824627 1.6638608 0
4.9590001 -1.8305128 1.6622049 0
4.9530005 -1.8363771 1.6605492 0
4.9470005 -1.8422197 1.6588932 0
4.9410005 -1.8480406 1.6572374 0
4.9350004 -1.8538398 1.6555815 0
4.9300003 -1.8600178 1.6542015 0
4.9240003 -1.8657756 1.6525456 0
4.9180002 -1.8715117 1.6508896 0
4.9120002 -1.8772261 1.6492337 0
4.9060001 -1.8829188 1.6475779 0
4.9000001 -1.88859 1.6459219 0
4.8940005 -1.8942397 1.6442662 0
4.8880005 -1.8998675 1.6426103 0
4.8820004 -1.9054738 1.6409544 0
4.8770003 -1.9114749 1.6395744 0
4.8710003 -1.9170399 1.6379186 0
4.8650002 -1.922583 1.6362627 0
4.8590002 -1.9281043 1.6346066 0
4.8540001 -1.9340278 1.6332268 0
4.8480005 -1.9395082 1.6315709 0
4.8420005 -1.9449666 1.629915 0
4.8360004 -1.9504031 1.6282592 0
4.8310003 -1.9562491 1.6268792 0
4.8250003 -1.9616443 1.6252233 0
4.8190002 -1.9670178 1.6235673 0
4.8140001 -1.9728062 1.6221874 0
4.8080001 -1.9781383 1.6205316 0
4.8020005 -1.983449 1.6188757 0
4.7970004 -1.9891796 1.6174958 0
4.7910004 -1.9944484 1.61584 0
4.7860003 -2.0001411 1.61446 0
4.7800002 -2.0053685 1.6128041 0
4.7750001 -2.0110235 1.6114241 0
4.7690005 -2.0162096 1.6097684 0
4.7640004 -2.0218267 1.6083884 0
4.7580004 -2.0269711 1.6067325 0
4.7530003 -2.0325503 1.6053525 0
4.7470002 -2.0376532 1.6036966 0
4.7420001 -2.0431943 1.6023166 0
4.7360005 -2.0482562 1.6006609 0
4.7310004 -2.0537596 1.599281 0
4.7250004 -2.0587795 1.597625 0
4.7200003 -2.064245 1.5962452 0
4.7140002 -2.0692234 1.5945891 0
4.7090001 -2.074651 1.5932093 0
4.7040005 -2.0800607 1.5918295 0
4.6980004 -2.0849781 1.5901736 0
4.6930003 -2.0903497 1.5887936 0
4.6880002 -2.0957034 1.5874137 0
4.6820002 -2.100559 1.5857577 0
4.6770005 -2.1058753 1.5843779 0
4.6720004 -2.1111729 1.5829979 0
4.6670003 -2.1164525 1.5816181 0
4.6610003 -2.1212273 1.5799621 0
4.6560001 -2.1264689 1.5785823 0
4.6510005 -2.1316931 1.5772024 0
4.6460004 -2.1368988 1.5758225 0
4.6400003 -2.1415923 1.5741665 0
4.6350002 -2.14676 1.5727866 0
4.6300001 -2.1519098 1.5714066 0
4.6250005 -2.1570418 1.5700268 0
4.6200004 -2.1621556 1.5686469 0
4.6140003 -2.166748 1.566991 0
4.6090002 -2.171824 1.565611 0
4.6040001 -2.1768818 1.564231 0
4.5990005 -2.1819217 1.5628513 0
4.5940003 -2.1869438 1.5614712 0
4.5890002 -2.1919472 1.5600914 0
4.5840001 -2.196933 1.5587114 0
4.5790005 -2.201901 1.5573317 0
4.5740004 -2.2068505 1.5559517 0
4.5690002 -2.211782 1.5545716 0
4.5640001 -2.2166955 1.5531918 0
4.5590005 -2.2215912 1.5518121 0
4.5540004 -2.2264688 1.5504321 0
4.5490003 -2.231328 1.549052 0
4.5440001 -2.2361693 1.5476722 0
4.5390005 -2.240993 1.5462924 0
4.5340004 -2.2457981 1.5449125 0
4.5290003 -2.2505856 1.5435324 0
4.5240002 -2.2553546 1.5421524 0
4.5190001 -2.2601061 1.5407726 0
4.5140004 -2.2648392 1.5393928 0
4.5090003 -2.2695544 1.5380127 0
4.5040002 -2.2742515 1.5366328 0
4.4990001 -2.2789304 1.5352528 0
4.4950004 -2.2841382 1.5341491 0
4.4900002 -2.2887831 1.5327691 0
4.4850001 -2.2934098 1.5313891 0
4.4800005 -2.2980187 1.5300094 0
4.4750004 -2.3026094 1.5286294 0
4.4700003 -2.3071818 1.5272495 0
4.4660001 -2.3122938 1.5261456 0
4.4610004 -2.3168323 1.5247657 0
4.4560003 -2.3213525 1.5233858 0
4.4510002 -2.3258548 1.5220058 0
4.4470005 -2.330904 1.5209019 0
4.4420004 -2.335372 1.519522 0
4.4370003 -2.3398218 1.518142 0
4.4320002 -2.3442538 1.516762 0
4.4280005 -2.3492396 1.5156583 0
4.4230003 -2.3536372 1.5142783 0
4.9900002 -1.8012496 1.662481 0
4.9840002 -1.8072239 1.6608359 0
4.9780002 -1.8131764 1.6591908 0
4.9710002 -1.8187195 1.6572715 0
4.9650002 -1.824627 1.6556264 0
4.9590001 -1.8305128 1.6539814 0
4.9530005 -1.8363771 1.6523365 0
4.9470005 -1.8422197 1.6506913 0
4.9410005 -1.8480406 1.6490463 0
4.9350004 -1.8538398 1.6474012 0
4.9300003 -1.8600178 1.6460303 0
4.9240003 -1.8657756 1.6443851 0
4.9180002 -1.8715117 1.6427401 0
4.9120002 -1.8772261 1.641095 0
4.9060001 -1.8829188 1.6394498 0
4.9000001 -1.88859 1.6378049 0
4.8940005 -1.8942397 1.6361599 0
4.8880005 -1.8998675 1.6345148 0
4.8820004 -1.9054738 1.6328697 0
4.8770003 -1.9114749 1.6314988 0
4.8710003 -1.9170399 1.6298537 0
4.8650002 -1.922583 1.6282086 0
4.8590002 -1.9281043 1.6265635 0
4.8540001 -1.9340278 1.6251925 0
4.8480005 -1.9395082 1.6235477 0
4.8420005 -1.9449666 1.6219026 0
4.8360004 -1.9504031 1.6202574 0
4.8310003 -1.9562491 1.6188865 0
4.8250003 -1.9616443 1.6172415 0
4.8190002 -1.9670178 1.6155964 0
4.8140001 -1.9728062 1.6142254 0
4.8080001 -1.9781383 1.6125803 0
4.8020005 -1.983449 1.6109354 0
4.7970004 -1.9891796 1.6095645 0
4.7910004 -1.9944484 1.6079195 0
4.7860003 -2.0001411 1.6065484 0
4.7800002 -2.0053685 1.6049033 0
4.7750001 -2.0110235 1.6035324 0
4.7690005 -2.0162096 1.6018875 0
4.7640004 -2.0218267 1.6005166 0
4.7580004 -2.0269711 1.5988715 0
4.7530003 -2.0325503 1.5975006 0
4.7470002 -2.0376532 1.5958555 0
4.7420001 -2.0431943 1.5944846 0
4.7360005 -2.0482562 1.5928396 0
4.7310004 -2.0537596 1.5914687 0
4.7250004 -2.0587795 1.5898236 0
4.7200003 -2.064245 1.5884527 0
4.7140002 -2.0692234 1.5868076 0
4.7090001 -2.074651 1.5854367 0
4.7040005 -2.0800607 1.5840659 0
4.6980004 -2.0849781 1.5824207 0
4.6930003 -2.0903497 1.5810498 0
4.6880002 -2.0957034 1.5796789 0
4.6820002 -2.100559 1.5780338 0
4.6770005 -2.1058753 1.576663 0
4.6720004 -2.1111729 1.5752921 0
4.6670003 -2.1164525 1.5739212 0
4.6610003 -2.1212273 1.5722761 0
4.6560001 -2.1264689 1.5709052 0
4.6510005 -2.1316931 1.5695343 0
4.6460004 -2.1368988 1.5681634 0
4.6400003 -2.1415923 1.5665184 0
4.6350002 -2.14676 1.5651475 0
4.6300001 -2.1519098 1.5637766 0
4.6250005 -2.1570418 1.5624058 0
4.6200004 -2.1621556 1.5610348 0
4.6140003 -2.166748 1.5593897 0
4.6090002 -2.171824 1.5580188 0
4.6040001 -2.1768818 1.5566479 0
4.5990005 -2.1819217 1.5552771 0
4.5940003 -2.1869438 1.5539062 0
4.5890002 -2.1919472 1.5525353 0
4.5840001 -2.196933 1.5511644 0
4.5790005 -2.201901 1.5497935 0
4.5740004 -2.2068505 1.5484226 0
4.5690002 -2.211782 1.5470517 0
4.5640001 -2.2166955 1.5456806 0
4.5590005 -2.2215912 1.54431 0
4.5540004 -2.2264688 1.5429389 0
4.5490003 -2.231328 1.541568 0
4.5440001 -2.2361693 1.5401971 0
4.5390005 -2.240993 1.5388263 0
4.5340004 -2.2457981 1.5374554 0
4.5290003 -2.2505856 1.5360845 0
4.5240002 -2.2553546 1.5347136 0
4.5190001 -2.2601061 1.5333427 0
4.5140004 -2.2648392 1.5319719 0
4.5090003 -2.2695544 1.530601 0
4.5040002 -2.2742515 1.52923 0
4.4990001 -2.2789304 1.5278591 0
4.4950004 -2.2841382 1.5267625 0
4.4900002 -2.2887831 1.5253916 0
4.4850001 -2.2934098 1.5240206 0
4.4800005 -2.2980187 1.5226498 0
4.4750004 -2.3026094 1.5212789 0
4.4700003 -2.3071818 1.519908 0
4.4660001 -2.3122938 1.5188112 0
4.4610004 -2.3168323 1.5174403 0
4.4560003 -2.3213525 1.5160694 0
4.4510002 -2.3258548 1.5146985 0
4.4470005 -2.330904 1.5136019 0
4.4420004 -2.335372 1.512231 0
4.4370003 -2.3398218 1.5108601 0
4.4320002 -2.3442538 1.5094892 0
4.4280005 -2.3492396 1.5083925 0
4.4230003 -2.3536372 1.5070215 0
4.9900002 -1.8012496 1.6542015 0
4.9840002 -1.8072239 1.6525673 0
4.9780002 -1.8131764 1.6509329 0
4.9710002 -1.8187195 1.6490263 0
4.9650002 -1.824627 1.647392 0
4.9590001 -1.8305128 1.6457578 0
4.9530005 -1.8363771 1.6441237 0
4.9470005 -1.8422197 1.6424894 0
4.9410005 -1.8480406 1.6408551 0
4.9350004 -1.8538398 1.6392208 0
4.9300003 -1.8600178 1.637859 0
4.9240003 -1.8657756 1.6362247 0
4.9180002 -1.8715117 1.6345905 0
4.9120002 -1.8772261 1.6329561 0
4.9060001 -1.8829188 1.6313219 0
4.9000001 -1.88859 1.6296877 0
4.8940005 -1.8942397 1.6280535 0
4.8880005 -1.8998675 1.6264193 0
4.8820004 -1.9054738 1.6247851 0
4.8770003 -1.9114749 1.6234231 0
4.8710003 -1.9170399 1.6217889 0
4.8650002 -1.922583 1.6201546 0
4.8590002 -1.9281043 1.6185204 0
4.8540001 -1.9340278 1.6171584 0
4.8480005 -1.9395082 1.6155243 0
4.8420005 -1.9449666 1.6138901 0
4.8360004 -1.9504031 1.6122558 0
4.8310003 -1.9562491 1.6108938 0
4.8250003 -1.9616443 1.6092596 0
4.8190002 -1.9670178 1.6076254 0
4.8140001 -1.9728062 1.6062634 0
4.8080001 -1.9781383 1.6046292 0
4.8020005 -1.983449 1.602995 0
4.7970004 -1.9891796 1.6016331 0
4.7910004 -1.9944484 1.5999988 0
4.7860003 -2.0001411 1.598637 0
4.7800002 -2.0053685 1.5970026 0
4.7750001 -2.0110235 1.5956408 0
4.7690005 -2.0162096 1.5940067 0
4.7640004 -2.0218267 1.5926448 0
4.7580004 -2.0269711 1.5910105 0
4.7530003 -2.0325503 1.5896486 0
4.7470002 -2.0376532 1.5880144 0
4.7420001 -2.0431943 1.5866525 0
4.7360005 -2.0482562 1.5850183 0
4.7310004 -2.0537596 1.5836564 0
4.7250004 -2.0587795 1.5820222 0
4.7200003 -2.064245 1.5806602 0
4.7140002 -2.0692234 1.579026 0
4.7090001 -2.074651 1.577664 0
4.7040005 -2.0800607 1.5763023 0
4.6980004 -2.0849781 1.574668 0
4.6930003 -2.0903497 1.5733061 0
4.6880002 -2.0957034 1.5719442 0
4.6820002 -2.100559 1.57031 0
4.6770005 -2.1058753 1.5689481 0
4.6720004 -2.1111729 1.5675862 0
4.6670003 -2.1164525 1.5662243 0
4.6610003 -2.1212273 1.5645901 0
4.6560001 -2.1264689 1.5632281 0
4.6510005 -2.1316931 1.5618664 0
4.6460004 -2.1368988 1.5605046 0
4.6400003 -2.1415923 1.5588703 0
4.6350002 -2.14676 1.5575083 0
4.6300001 -2.1519098 1.5561464 0
4.6250005 -2.1570418 1.5547847 0
4.6200004 -2.1621556 1.5534227 0
4.6140003 -2.166748 1.5517884 0
4.6090002 -2.171824 1.5504266 0
4.6040001 -2.1768818 1.5490648 0
4.5990005 -2.1819217 1.5477029 0
4.5940003 -2.1869438 1.5463411 0
4.5890002 -2.1919472 1.5449791 0
4.5840001 -2.196933 1.5436171 0
4.5790005 -2.201901 1.5422554 0
4.5740004 -2.2068505 1.5408936 0
4.5690002 -2.211782 1.5395316 0
4.5640001 -2.2166955 1.5381696 0
4.5590005 -2.2215912 1.5368079 0
4.5540004 -2.2264688 1.5354459 0
4.5490003 -2.231328 1.5340841 0
4.5440001 -2.2361693 1.5327222 0
4.5390005 -2.240993 1.5313604 0
4.5340004 -2.2457981 1.5299985 0
4.5290003 -2.2505856 1.5286366 0
4.5240002 -2.2553546 1.5272746 0
4.5190001 -2.2601061 1.5259128 0
4.5140004 -2.2648392 1.524551 0
4.5090003 -2.2695544 1.5231891 0
4.5040002 -2.2742515 1.5218272 0
4.4990001 -2.2789304 1.5204653 0
4.4950004 -2.2841382 1.5193758 0
4.4900002 -2.2887831 1.518014 0
4.4850001 -2.2934098 1.5166521 0
4.4800005 -2.2980187 1.5152903 0
4.4750004 -2.3026094 1.5139284 0
4.4700003 -2.3071818 1.5125664 0
4.4660001 -2.3122938 1.5114769 0
4.4610004 -2.3168323 1.5101151 0
4.4560003 -2.3213525 1.5087533 0
4.4510002 -2.3258548 1.5073912 0
4.4470005 -2.330904 1.5063019 0
4.4420004 -2.335372 1.50494 0
4.4370003 -2.3398218 1.5035781 0
4.4320002 -2.3442538 1.5022162 0
4.4280005 -2.3492396 1.5011268 0
4.4230003 -2.3536372 1.4997648 0
4.9900002 -1.8012496 1.6459219 0
4.9840002 -1.8072239 1.6442986 0
4.9780002 -1.8131764 1.6426752 0
4.9710002 -1.8187195 1.6407812 0
4.9650002 -1.824627 1.6391577 0
4.9590001 -1.8305128 1.6375343 0
4.9530005 -1.8363771 1.635911 0
4.9470005 -1.8422197 1.6342875 0
4.9410005 -1.8480406 1.632664 0
4.9350004 -1.8538398 1.6310407 0
4.9300003 -1.8600178 1.6296878 0
4.9240003 -1.8657756 1.6280643 0
4.9180002 -1.8715117 1.6264409 0
4.9120002 -1.8772261 1.6248174 0
4.9060001 -1.8829188 1.623194 0
4.9000001 -1.88859 1.6215706 0
4.8940005 -1.8942397 1.6199472 0
4.8880005 -1.8998675 1.6183238 0
4.8820004 -1.9054738 1.6167003 0
4.8770003 -1.9114749 1.6153475 0
4.8710003 -1.9170399 1.613724 0
4.8650002 -1.922583 1.6121006 0
4.8590002 -1.9281043 1.6104772 0
4.8540001 -1.9340278 1.6091242 0
4.8480005 -1.9395082 1.607501 0
4.8420005 -1.9449666 1.6058775 0
4.8360004 -1.9504031 1.604254 0
4.8310003 -1.9562491 1.6029012 0
4.8250003 -1.9616443 1.6012777 0
4.8190002 -1.9670178 1.5996543 0
4.8140001 -1.9728062 1.5983014 0
4.8080001 -1.9781383 1.596678 0
4.8020005 -1.983449 1.5950546 0
4.7970004 -1.9891796 1.5937018 0
4.7910004 -1.9944484 1.5920783 0
4.7860003 -2.0001411 1.5907254 0
4.7800002 -2.0053685 1.589102 0
4.7750001 -2.0110235 1.5877491 0
4.7690005 -2.0162096 1.5861257 0
4.7640004 -2.0218267 1.5847729 0
4.7580004 -2.0269711 1.5831494 0
4.7530003 -2.0325503 1.5817966 0
4.7470002 -2.0376532 1.5801733 0
4.7420001 -2.0431943 1.5788202 0
4.7360005 -2.0482562 1.5771971 0
4.7310004 -2.0537596 1.575844 0
4.7250004 -2.0587795 1.5742207 0
4.7200003 -2.064245 1.5728678 0
4.7140002 -2.0692234 1.5712444 0
4.7090001 -2.074651 1.5698915 0
4.7040005 -2.0800607 1.5685387 0
4.6980004 -2.0849781 1.5669153 0
4.6930003 -2.0903497 1.5655624 0
4.6880002 -2.0957034 1.5642095 0
4.6820002 -2.100559 1.5625859 0
4.6770005 -2.1058753 1.5612333 0
4.6720004 -2.1111729 1.5598804 0
4.6670003 -2.1164525 1.5585276 0
4.6610003 -2.1212273 1.5569041 0
4.6560001 -2.1264689 1.5555512 0
4.6510005 -2.1316931 1.5541985 0
4.6460004 -2.1368988 1.5528455 0
4.6400003 -2.1415923 1.5512221 0
4.6350002 -2.14676 1.5498692 0
4.6300001 -2.1519098 1.5485163 0
4.6250005 -2.1570418 1.5471636 0
4.6200004 -2.1621556 1.5458107 0
4.6140003 -2.166748 1.5441872 0
4.6090002 -2.171824 1.5428344 0
4.6040001 -2.1768818 1.5414814 0
4.5990005 -2.1819217 1.5401287 0
4.5940003 -2.1869438 1.5387758 0
4.5890002 -2.1919472 1.537423 0
4.5840001 -2.196933 1.53607 0
4.5790005 -2.201901 1.5347172 0
4.5740004 -2.2068505 1.5333644 0
4.5690002 -2.211782 1.5320115 0
4.5640001 -2.2166955 1.5306586 0
4.5590005 -2.2215912 1.5293058 0
4.5540004 -2.2264688 1.5279529 0
4.5490003 -2.231328 1.5266001 0
4.5440001 -2.2361693 1.5252472 0
4.5390005 -2.240993 1.5238944 0
4.5340004 -2.2457981 1.5225415 0
4.5290003 -2.2505856 1.5211887 0
4.5240002 -2.2553546 1.5198358 0
4.5190001 -2.2601061 1.5184828 0
4.5140004 -2.2648392 1.5171301 0
4.5090003 -2.2695544 1.5157772 0
4.5040002 -2.2742515 1.5144244 0
4.4990001 -2.2789304 1.5130714 0
4.4950004 -2.2841382 1.5119894 0
4.4900002 -2.2887831 1.5106363 0
4.4850001 -2.2934098 1.5092835 0
4.4800005 -2.2980187 1.5079308 0
4.4750004 -2.3026094 1.5065778 0
4.4700003 -2.3071818 1.5052249 0
4.4660001 -2.3122938 1.5041426 0
4.4610004 -2.3168323 1.5027899 0
4.4560003 -2.3213525 1.5014369 0
4.4510002 -2.3258548 1.5000842 0
4.4470005 -2.330904 1.4990019 0
4.4420004 -2.335372 1.497649 0
4.4370003 -2.3398218 1.4962962 0
4.4320002 -2.3442538 1.4949431 0
4.4280005 -2.3492396 1.4938611 0
4.4230003 -2.3536372 1.4925081 0
4.9900002 -1.8012496 1.6376425 0
4.9840002 -1.8072239 1.6360298 0
4.9780002 -1.8131764 1.6344173 0
4.9710002 -1.8187195 1.6325359 0
4.9650002 -1.824627 1.6309233 0
4.9590001 -1.8305128 1.6293107 0
