# .PCD v0.7 - Point Cloud Data file format
VERSION 0.7
FIELDS x y z intensity
SIZE 4 4 4 4
TYPE F F F F
COUNT 1 1 1 1
WIDTH 1406
HEIGHT 1
VIEWPOINT 0 0 0 1 0 0 0
POINTS 1406
DATA ascii
4.1860003 -1.0430658 0.29473251 0
4.1870003 -1.0501602 0.29470366 0
4.1890001 -1.0575252 0.29464594 0
4.1930003 -1.0654349 0.29453051 0
4.1990004 -1.0739001 0.29435733 0
4.1129999 -0.47464254 0.29014182 0
4.1030002 -0.48016763 0.29044849 0
4.0970001 -0.48613283 0.29063249 0
4.0940003 -0.49243894 0.29072446 0
4.092 -0.4988569 0.29078579 0
4.092 -0.50551653 0.29078579 0
4.0929999 -0.51230246 0.29075512 0
4.0970001 -0.51947623 0.29063249 0
4.1040001 -0.52705401 0.29041782 0
4.3060002 -0.70124781 0.28422356 0
4.2990003 -0.70710653 0.28443819 0
4.296 -0.71362555 0.28453019 0
4.2930002 -0.72013366 0.28462219 0
4.2930002 -0.72715586 0.28462219 0
4.2940001 -0.73435491 0.2845915 0
4.2980003 -0.74209327 0.28446886 0
3.8910003 -0.67570943 0.29694939 0
3.8820002 -0.68036687 0.29722539 0
3.8760002 -0.68554378 0.29740939 0
3.8720002 -0.69107074 0.29753202 0
3.8700004 -0.69695836 0.29759336 0
3.8690002 -0.70302814 0.29762402 0
3.8700004 -0.70947677 0.29759336 0
3.8720002 -0.71612197 0.29753202 0
3.8760002 -0.72316402 0.29740939 0
3.8860002 -0.73140019 0.29710275 0
4.3870001 -0.83709621 0.28173968 0
4.381 -0.8430866 0.28192368 0
4.3770003 -0.84945947 0.28204635 0
4.3740001 -0.8560217 0.28213835 0
4.3730001 -0.86298442 0.28216898 0
4.3720002 -0.86994356 0.28219968 0
4.3720002 -0.87710822 0.28219968 0
4.3730001 -0.88448405 0.28216898 0
4.3759999 -0.89228904 0.28207701 0
4.3800001 -0.90031964 0.28195435 0
4.092 -0.89843649 0.29078579 0
4.0820003 -0.90276927 0.29109246 0
4.0770001 -0.90823841 0.29124576 0
4.073 -0.91392577 0.29136842 0
4.0710001 -0.92007494 0.29142976 0
4.0700002 -0.92645681 0.29146042 0
4.0710001 -0.93331856 0.29142976 0
4.073 -0.9404273 0.29136842 0
4.079 -0.94852465 0.29118443 0
4.2140002 -0.99540204 0.2870447 0
4.2060003 -1.000276 0.28729001 0
4.2000003 -1.005626 0.28747401 0
4.1950002 -1.0112088 0.28762734 0
4.1920004 -1.0172858 0.28771931 0
4.1890001 -1.023352 0.28781131 0
4.1870003 -1.029667 0.28787264 0
4.1860003 -1.0362366 0.28790331 0
4.1860003 -1.0430658 0.28790331 0
4.1870003 -1.0501602 0.28787264 0
4.1890001 -1.0575252 0.28781131 0
4.1930003 -1.0654349 0.28768867 0
4.1990004 -1.0739001 0.28750467 0
4.1129999 -0.47464254 0.28344429 0
4.1030002 -0.48016763 0.28376898 0
4.0970001 -0.48613283 0.2839638 0
4.0940003 -0.49243894 0.28406119 0
4.092 -0.4988569 0.28412613 0
4.092 -0.50551653 0.28412613 0
4.0929999 -0.51230246 0.28409368 0
4.0970001 -0.51947623 0.2839638 0
4.1040001 -0.52705401 0.28373653 0
4.3060002 -0.70124781 0.27717787 0
4.2990003 -0.70710653 0.27740514 0
4.296 -0.71362555 0.27750254 0
4.2930002 -0.72013366 0.27759993 0
4.2930002 -0.72715586 0.27759993 0
4.2940001 -0.73435491 0.27756751 0
4.2980003 -0.74209327 0.27743763 0
3.8910003 -0.67570943 0.2906523 0
3.8820002 -0.68036687 0.29094452 0
3.8760002 -0.68554378 0.29113933 0
3.8720002 -0.69107074 0.29126921 0
3.8700004 -0.69695836 0.29133415 0
3.8690002 -0.70302814 0.29136664 0
3.8700004 -0.70947677 0.29133415 0
3.8720002 -0.71612197 0.29126921 0
3.8760002 -0.72316402 0.29113933 0
3.8860002 -0.73140019 0.29081467 0
4.3870001 -0.83709621 0.2745479 0
4.381 -0.8430866 0.27474272 0
4.3770003 -0.84945947 0.2748726 0
4.3740001 -0.8560217 0.27497 0
4.3730001 -0.86298442 0.27500248 0
4.3720002 -0.86994356 0.27503496 0
4.3720002 -0.87710822 0.27503496 0
4.3730001 -0.88448405 0.27500248 0
4.3759999 -0.89228904 0.27490509 0
4.3800001 -0.90031964 0.27477521 0
4.092 -0.89843649 0.28412613 0
4.0820003 -0.90276927 0.28445083 0
4.0770001 -0.90823841 0.28461316 0
4.073 -0.91392577 0.28474304 0
4.0710001 -0.92007494 0.28480798 0
4.0700002 -0.92645681 0.28484046 0
4.0710001 -0.93331856 0.28480798 0
4.073 -0.9404273 0.28474304 0
4.079 -0.94852465 0.28454822 0
4.2140002 -0.99540204 0.28016499 0
4.2060003 -1.000276 0.28042471 0
4.2000003 -1.005626 0.28061953 0
4.1950002 -1.0112088 0.28078189 0
4.1920004 -1.0172858 0.28087926 0
4.1890001 -1.023352 0.28097668 0
4.1870003 -1.029667 0.28104162 0
4.1860003 -1.0362366 0.28107411 0
4.1860003 -1.0430658 0.28107411 0
4.1870003 -1.0501602 0.28104162 0
4.1890001 -1.0575252 0.28097668 0
4.1930003 -1.0654349 0.2808468 0
4.1990004 -1.0739001 0.28065199 0
4.1129999 -0.47464254 0.27674675 0
4.1030002 -0.48016763 0.27708948 0
4.0970001 -0.48613283 0.27729511 0
4.0940003 -0.49243894 0.27739793 0
4.092 -0.4988569 0.27746648 0
4.092 -0.50551653 0.27746648 0
4.0929999 -0.51230246 0.2774322 0
4.0970001 -0.51947623 0.27729511 0
4.1040001 -0.52705401 0.2770552 0
4.3060002 -0.70124781 0.27013218 0
4.2990003 -0.70710653 0.27037209 0
4.296 -0.71362555 0.27047491 0
4.2930002 -0.72013366 0.27057773 0
4.2930002 -0.72715586 0.27057773 0
4.2940001 -0.73435491 0.27054346 0
4.2980003 -0.74209327 0.27040637 0
3.8910003 -0.67570943 0.28435522 0
3.8820002 -0.68036687 0.28466368 0
3.8760002 -0.68554378 0.28486931 0
3.8720002 -0.69107074 0.2850064 0
3.8700004 -0.69695836 0.28507492 0
3.8690002 -0.70302814 0.28510922 0
3.8700004 -0.70947677 0.28507492 0
3.8720002 -0.71612197 0.2850064 0
3.8760002 -0.72316402 0.28486931 0
3.8860002 -0.73140019 0.28452659 0
4.3870001 -0.83709621 0.26735613 0
4.381 -0.8430866 0.26756176 0
4.3770003 -0.84945947 0.26769885 0
4.3740001 -0.8560217 0.26780167 0
4.3730001 -0.86298442 0.26783592 0
4.3720002 -0.86994356 0.26787022 0
4.3720002 -0.87710822 0.26787022 0
4.3730001 -0.88448405 0.26783592 0
4.3759999 -0.89228904 0.26773313 0
4.3800001 -0.90031964 0.26759604 0
4.092 -0.89843649 0.27746648 0
4.0820003 -0.90276927 0.2778092 0
4.0770001 -0.90823841 0.27798057 0
4.073 -0.91392577 0.27811766 0
4.0710001 -0.92007494 0.2781862 0
4.0700002 -0.92645681 0.27822047 0
4.0710001 -0.93331856 0.2781862 0
4.073 -0.9404273 0.27811766 0
4.079 -0.94852465 0.27791202 0
4.2140002 -0.99540204 0.27328524 0
4.2060003 -1.000276 0.27355942 0
4.2000003 -1.005626 0.27376506 0
4.1950002 -1.0112088 0.27393642 0
4.1920004 -1.0172858 0.27403924 0
4.1890001 -1.023352 0.27414206 0
4.1870003 -1.029667 0.2742106 0
4.1860003 -1.0362366 0.27424487 0
4.1860003 -1.0430658 0.27424487 0
4.1870003 -1.0501602 0.2742106 0
4.1890001 -1.0575252 0.27414206 0
4.1930003 -1.0654349 0.27400497 0
4.1990004 -1.0739001 0.27379933 0
4.1129999 -0.47464254 0.27004921 0
4.1030002 -0.48016763 0.27041 0
4.0970001 -0.48613283 0.27062643 0
4.0940003 -0.49243894 0.27073467 0
4.092 -0.4988569 0.27080682 0
4.092 -0.50551653 0.27080682 0
4.0929999 -0.51230246 0.27077073 0
4.0970001 -0.51947623 0.27062643 0
4.1040001 -0.52705401 0.27037391 0
4.3060002 -0.70124781 0.2630865 0
4.2990003 -0.70710653 0.26333904 0
4.296 -0.71362555 0.26344728 0
4.2930002 -0.72013366 0.26355553 0
4.2930002 -0.72715586 0.26355553 0
4.2940001 -0.73435491 0.26351941 0
4.2980003 -0.74209327 0.2633751 0
3.8910003 -0.67570943 0.27805811 0
3.8820002 -0.68036687 0.27838284 0
3.8760002 -0.68554378 0.27859926 0
3.8720002 -0.69107074 0.27874357 0
3.8700004 -0.69695836 0.27881572 0
3.8690002 -0.70302814 0.27885181 0
3.8700004 -0.70947677 0.27881572 0
3.8720002 -0.71612197 0.27874357 0
3.8760002 -0.72316402 0.27859926 0
3.8860002 -0.73140019 0.27823851 0
4.3860002 -0.83689779 0.26020041 0
4.381 -0.8430866 0.2603808 0
4.3770003 -0.84945947 0.26052511 0
4.3740001 -0.8560217 0.26063335 0
4.3730001 -0.86298442 0.26066941 0
4.3720002 -0.86994356 0.26070547 0
4.3720002 -0.87710822 0.26070547 0
4.3730001 -0.88448405 0.26066941 0
4.3759999 -0.89228904 0.26056117 0
4.3800001 -0.90031964 0.26041687 0
4.092 -0.89843649 0.27080682 0
4.0820003 -0.90276927 0.27116758 0
4.0770001 -0.90823841 0.27134794 0
4.073 -0.91392577 0.27149227 0
4.0710001 -0.92007494 0.27156442 0
4.0700002 -0.92645681 0.27160048 0
4.0710001 -0.93331856 0.27156442 0
4.073 -0.9404273 0.27149227 0
4.079 -0.94852465 0.27127582 0
4.2140002 -0.99540204 0.26640552 0
4.2060003 -1.000276 0.26669413 0
4.2000003 -1.005626 0.26691061 0
4.1950002 -1.0112088 0.26709098 0
4.1920004 -1.0172858 0.26719922 0
4.1890001 -1.023352 0.2673074 0
4.1870003 -1.029667 0.26737958 0
4.1860003 -1.0362366 0.26741564 0
4.1860003 -1.0430658 0.26741564 0
4.1870003 -1.0501602 0.26737958 0
4.1890001 -1.0575252 0.2673074 0
4.1930003 -1.0654349 0.26716313 0
4.1990004 -1.0739001 0.26694667 0
4.1129999 -0.47464254 0.26335168 0
4.1030002 -0.48016763 0.26373047 0
4.0970001 -0.48613283 0.26395774 0
4.0940003 -0.49243894 0.2640714 0
4.092 -0.4988569 0.26414716 0
4.092 -0.50551653 0.26414716 0
4.0929999 -0.51230246 0.26410928 0
4.0970001 -0.51947623 0.26395774 0
4.1040001 -0.52705401 0.26369259 0
4.3060002 -0.70124781 0.25604084 0
4.2990003 -0.70710653 0.25630599 0
4.296 -0.71362555 0.25641966 0
4.2930002 -0.72013366 0.25653327 0
4.2930002 -0.72715586 0.25653327 0
4.2940001 -0.73435491 0.25649539 0
4.2980003 -0.74209327 0.2563439 0
3.8910003 -0.67570943 0.27176103 0
3.8820002 -0.68036687 0.27210194 0
3.8760002 -0.68554378 0.27232921 0
3.8720002 -0.69107074 0.27248076 0
3.8700004 -0.69695836 0.27255651 0
3.8690002 -0.70302814 0.27259439 0
3.8700004 -0.70947677 0.27255651 0
3.8720002 -0.71612197 0.27248076 0
3.8760002 -0.72316402 0.27232921 0
3.8860002 -0.73140019 0.27195042 0
4.3860002 -0.83689779 0.25301045 0
4.381 -0.8430866 0.25319985 0
4.3770003 -0.84945947 0.25335136 0
4.3740001 -0.8560217 0.253465 0
4.3730001 -0.86298442 0.25350288 0
4.3720002 -0.86994356 0.25354075 0
4.3720002 -0.87710822 0.25354075 0
4.3730001 -0.88448405 0.25350288 0
4.3759999 -0.89228904 0.25338924 0
4.3800001 -0.90031964 0.25323772 0
4.092 -0.89843649 0.26414716 0
4.0820003 -0.90276927 0.26452595 0
4.0770001 -0.90823841 0.26471537 0
4.073 -0.91392577 0.26486689 0
4.0710001 -0.92007494 0.26494265 0
4.0700002 -0.92645681 0.26498052 0
4.0710001 -0.93331856 0.26494265 0
4.073 -0.9404273 0.26486689 0
4.079 -0.94852465 0.26463962 0
4.2140002 -0.99540204 0.25952581 0
4.2060003 -1.000276 0.25982884 0
4.2000003 -1.005626 0.26005614 0
4.1950002 -1.0112088 0.2602455 0
4.1920004 -1.0172858 0.26035917 0
4.1890001 -1.023352 0.26047277 0
4.1870003 -1.029667 0.26054856 0
4.1860003 -1.0362366 0.26058644 0
4.1860003 -1.0430658 0.26058644 0
4.1870003 -1.0501602 0.26054856 0
4.1890001 -1.0575252 0.26047277 0
4.1930003 -1.0654349 0.26032126 0
4.1990004 -1.0739001 0.26009399 0
4.1129999 -0.47464254 0.25665414 0
4.1030002 -0.48016763 0.25705099 0
4.0970001 -0.48613283 0.25728905 0
4.0940003 -0.49243894 0.25740814 0
4.092 -0.4988569 0.25748748 0
4.092 -0.50551653 0.25748748 0
4.0929999 -0.51230246 0.25744781 0
4.0970001 -0.51947623 0.25728905 0
4.1040001 -0.52705401 0.25701129 0
4.3060002 -0.70124781 0.24899516 0
4.2990003 -0.70710653 0.24927296 0
4.296 -0.71362555 0.249392 0
4.2930002 -0.72013366 0.24951105 0
4.2930002 -0.72715586 0.24951105 0
4.2940001 -0.73435491 0.24947137 0
4.2980003 -0.74209327 0.24931264 0
3.8910003 -0.67570943 0.26546395 0
3.8820002 -0.68036687 0.2658211 0
3.8760002 -0.68554378 0.26605919 0
3.8720002 -0.69107074 0.26621795 0
3.8700004 -0.69695836 0.26629728 0
3.8690002 -0.70302814 0.26633698 0
3.8700004 -0.70947677 0.26629728 0
3.8720002 -0.71612197 0.26621795 0
3.8760002 -0.72316402 0.26605919 0
3.8860002 -0.73140019 0.26566237 0
4.3860002 -0.83689779 0.24582045 0
4.381 -0.8430866 0.24601889 0
4.3770003 -0.84945947 0.24617761 0
4.3740001 -0.8560217 0.24629667 0
4.3730001 -0.86298442 0.24633636 0
4.3720002 -0.86994356 0.24637604 0
4.3720002 -0.87710822 0.24637604 0
4.3730001 -0.88448405 0.24633636 0
4.3759999 -0.89228904 0.24621731 0
4.3800001 -0.90031964 0.24605857 0
4.092 -0.89843649 0.25748748 0
4.0820003 -0.90276927 0.25788432 0
4.0770001 -0.90823841 0.25808275 0
4.073 -0.91392577 0.25824147 0
4.0710001 -0.92007494 0.25832084 0
4.0700002 -0.92645681 0.25836053 0
4.0710001 -0.93331856 0.25832084 0
4.073 -0.9404273 0.25824147 0
4.079 -0.94852465 0.25800338 0
4.2140002 -0.99540204 0.25264609 0
4.2060003 -1.000276 0.25296354 0
4.2000003 -1.005626 0.25320166 0
4.1950002 -1.0112088 0.25340006 0
4.1920004 -1.0172858 0.25351912 0
4.1890001 -1.023352 0.25363815 0
4.1870003 -1.029667 0.25371754 0
4.1860003 -1.0362366 0.25375721 0
4.1860003 -1.0430658 0.25375721 0
4.1870003 -1.0501602 0.25371754 0
4.1890001 -1.0575252 0.25363815 0
4.1930003 -1.0654349 0.25347942 0
4.1990004 -1.0739001 0.25324133 0
4.1129999 -0.47464254 0.24995659 0
4.1030002 -0.48016763 0.25037149 0
4.0970001 -0.48613283 0.25062039 0
4.0940003 -0.49243894 0.25074485 0
4.092 -0.4988569 0.25082785 0
4.092 -0.50551653 0.25082785 0
4.0929999 -0.51230246 0.25078636 0
4.0970001 -0.51947623 0.25062039 0
4.1040001 -0.52705401 0.25032997 0
4.3060002 -0.70124781 0.24194948 0
4.2990003 -0.70710653 0.24223991 0
4.296 -0.71362555 0.24236438 0
4.2930002 -0.72013366 0.24248883 0
4.2930002 -0.72715586 0.24248883 0
4.2940001 -0.73435491 0.24244735 0
4.2980003 -0.74209327 0.24228139 0
3.8910003 -0.67570943 0.25916684 0
3.8820002 -0.68036687 0.25954023 0
3.8760002 -0.68554378 0.25978917 0
3.8720002 -0.69107074 0.25995511 0
3.8700004 -0.69695836 0.26003808 0
3.8690002 -0.70302814 0.26007956 0
3.8700004 -0.70947677 0.26003808 0
3.8720002 -0.71612197 0.25995511 0
3.8760002 -0.72316402 0.25978917 0
3.8860002 -0.73140019 0.25937426 0
4.3860002 -0.83689779 0.23863047 0
4.381 -0.8430866 0.23883793 0
4.3770003 -0.84945947 0.23900387 0
4.3740001 -0.8560217 0.23912832 0
4.3730001 -0.86298442 0.23916982 0
4.3720002 -0.86994356 0.23921131 0
4.3720002 -0.87710822 0.23921131 0
4.3730001 -0.88448405 0.23916982 0
4.3759999 -0.89228904 0.23904537 0
4.3800001 -0.90031964 0.2388794 0
4.092 -0.89843649 0.25082785 0
4.0820003 -0.90276927 0.2512427 0
4.0770001 -0.90823841 0.25145012 0
4.073 -0.91392577 0.25161612 0
4.0710001 -0.92007494 0.25169909 0
4.0700002 -0.92645681 0.25174057 0
4.0710001 -0.93331856 0.25169909 0
4.073 -0.9404273 0.25161612 0
4.079 -0.94852465 0.25136715 0
4.2140002 -0.99540204 0.24576636 0
4.2060003 -1.000276 0.24609825 0
4.2000003 -1.005626 0.24634717 0
4.1950002 -1.0112088 0.24655461 0
4.1920004 -1.0172858 0.24667908 0
4.1890001 -1.023352 0.24680354 0
4.1870003 -1.029667 0.24688651 0
4.1860003 -1.0362366 0.24692801 0
4.1860003 -1.0430658 0.24692801 0
4.1870003 -1.0501602 0.24688651 0
4.1890001 -1.0575252 0.24680354 0
4.1930003 -1.0654349 0.24663758 0
4.1990004 -1.0739001 0.24638866 0
4.1129999 -0.47464254 0.24325906 0
4.1030002 -0.48016763 0.24369198 0
4.0970001 -0.48613283 0.24395172 0
4.0940003 -0.49243894 0.24408159 0
4.092 -0.4988569 0.24416818 0
4.092 -0.50551653 0.24416818 0
4.0929999 -0.51230246 0.24412489 0
4.0970001 -0.51947623 0.24395172 0
4.1040001 -0.52705401 0.24364868 0
4.3060002 -0.70124781 0.23490381 0
4.2990003 -0.70710653 0.23520686 0
4.296 -0.71362555 0.23533672 0
4.2930002 -0.72013366 0.2354666 0
4.2930002 -0.72715586 0.2354666 0
4.2940001 -0.73435491 0.2354233 0
4.2980003 -0.74209327 0.23525015 0
3.8910003 -0.67570943 0.25286973 0
3.8820002 -0.68036687 0.25325936 0
3.8760002 -0.68554378 0.25351912 0
3.8720002 -0.69107074 0.25369227 0
3.8700004 -0.69695836 0.25377887 0
3.8690002 -0.70302814 0.25382215 0
3.8700004 -0.70947677 0.25377887 0
3.8720002 -0.71612197 0.25369227 0
3.8760002 -0.72316402 0.25351912 0
3.8860002 -0.73140019 0.25308621 0
4.3860002 -0.83689779 0.2314405 0
4.381 -0.8430866 0.23165695 0
4.3770003 -0.84945947 0.23183012 0
4.3740001 -0.8560217 0.23196 0
4.3730001 -0.86298442 0.23200329 0
4.3720002 -0.86994356 0.23204659 0
4.3720002 -0.87710822 0.23204659 0
4.3730001 -0.88448405 0.23200329 0
4.3759999 -0.89228904 0.23187342 0
4.3800001 -0.90031964 0.23170026 0
4.092 -0.89843649 0.24416818 0
4.0820003 -0.90276927 0.24460109 0
4.0770001 -0.90823841 0.24481754 0
4.073 -0.91392577 0.24499072 0
4.0710001 -0.92007494 0.2450773 0
4.0700002 -0.92645681 0.24512058 0
4.0710001 -0.93331856 0.2450773 0
4.073 -0.9404273 0.24499072 0
4.079 -0.94852465 0.24473096 0
4.2140002 -0.99540204 0.23888662 0
4.2060003 -1.000276 0.23923294 0
4.2000003 -1.005626 0.2394927 0
4.1950002 -1.0112088 0.23970917 0
4.1920004 -1.0172858 0.23983902 0
4.1890001 -1.023352 0.23996891 0
4.1870003 -1.029667 0.2400555 0
4.1860003 -1.0362366 0.24009877 0
4.1860003 -1.0430658 0.24009877 0
4.1870003 -1.0501602 0.2400555 0
4.1890001 -1.0575252 0.23996891 0
4.1930003 -1.0654349 0.23979574 0
4.1990004 -1.0739001 0.23953599 0
4.1129999 -0.47464254 0.23656152 0
4.1030002 -0.48016763 0.23701246 0
4.0970001 -0.48613283 0.23728304 0
4.0940003 -0.49243894 0.23741832 0
4.092 -0.4988569 0.23750852 0
4.092 -0.50551653 0.23750852 0
4.0929999 -0.51230246 0.23746341 0
4.0970001 -0.51947623 0.23728304 0
4.1040001 -0.52705401 0.23696737 0
4.3060002 -0.70124781 0.22785814 0
4.2990003 -0.70710653 0.22817381 0
4.296 -0.71362555 0.22830909 0
4.2930002 -0.72013366 0.22844438 0
4.2930002 -0.72715586 0.22844438 0
4.2940001 -0.73435491 0.22839928 0
4.2980003 -0.74209327 0.2282189 0
3.8910003 -0.67570943 0.24657266 0
3.8820002 -0.68036687 0.24697851 0
3.8760002 -0.68554378 0.24724908 0
3.8720002 -0.69107074 0.24742946 0
3.8700004 -0.69695836 0.24751964 0
3.8690002 -0.70302814 0.24756475 0
3.8700004 -0.70947677 0.24751964 0
3.8720002 -0.71612197 0.24742946 0
3.8760002 -0.72316402 0.24724908 0
3.8860002 -0.73140019 0.24679813 0
4.3860002 -0.83689779 0.22425051 0
4.381 -0.8430866 0.22447601 0
4.3770003 -0.84945947 0.22465639 0
4.3740001 -0.8560217 0.22479166 0
4.3730001 -0.86298442 0.22483677 0
4.3720002 -0.86994356 0.22488186 0
4.3720002 -0.87710822 0.22488186 0
4.3730001 -0.88448405 0.22483677 0
4.3759999 -0.89228904 0.22470148 0
4.3800001 -0.90031964 0.22452109 0
4.092 -0.89843649 0.23750852 0
4.0820003 -0.90276927 0.23795947 0
4.0770001 -0.90823841 0.23818493 0
4.073 -0.91392577 0.23836532 0
4.0710001 -0.92007494 0.2384555 0
4.0700002 -0.92645681 0.23850061 0
4.0710001 -0.93331856 0.2384555 0
4.073 -0.9404273 0.23836532 0
4.079 -0.94852465 0.23809475 0
4.2140002 -0.99540204 0.23200689 0
4.2060003 -1.000276 0.23236765 0
4.2000003 -1.005626 0.23263822 0
4.1950002 -1.0112088 0.23286371 0
4.1920004 -1.0172858 0.23299898 0
4.1890001 -1.023352 0.23313427 0
4.1870003 -1.029667 0.23322447 0
4.1860003 -1.0362366 0.23326956 0
4.1860003 -1.0430658 0.23326956 0
4.1870003 -1.0501602 0.23322447 0
4.1890001 -1.0575252 0.23313427 0
4.1930003 -1.0654349 0.23295389 0
4.1990004 -1.0739001 0.23268333 0
4.1129999 -0.47464254 0.22986399 0
4.1030002 -0.48016763 0.23033297 0
4.0970001 -0.48613283 0.23061435 0
4.0940003 -0.49243894 0.23075505 0
4.092 -0.4988569 0.23084885 0
4.092 -0.50551653 0.23084885 0
4.0929999 -0.51230246 0.23080195 0
4.0970001 -0.51947623 0.23061435 0
4.1040001 -0.52705401 0.23028606 0
4.3060002 -0.70124781 0.22081247 0
4.2990003 -0.70710653 0.22114076 0
4.296 -0.71362555 0.22128145 0
4.2930002 -0.72013366 0.22142215 0
4.2930002 -0.72715586 0.22142215 0
4.2940001 -0.73435491 0.22137524 0
4.2980003 -0.74209327 0.22118765 0
3.8910003 -0.67570943 0.24027555 0
3.8820002 -0.68036687 0.24069765 0
3.8760002 -0.68554378 0.24097905 0
3.8720002 -0.69107074 0.24116664 0
3.8700004 -0.69695836 0.24126042 0
3.8690002 -0.70302814 0.24130735 0
3.8700004 -0.70947677 0.24126042 0
3.8720002 -0.71612197 0.24116664 0
3.8760002 -0.72316402 0.24097905 0
3.8860002 -0.73140019 0.24051006 0
4.3860002 -0.83689779 0.21706054 0
4.381 -0.8430866 0.21729504 0
4.3770003 -0.84945947 0.21748263 0
4.3740001 -0.8560217 0.21762334 0
4.3730001 -0.86298442 0.21767023 0
4.3720002 -0.86994356 0.21771713 0
4.3720002 -0.87710822 0.21771713 0
4.3730001 -0.88448405 0.21767023 0
4.3759999 -0.89228904 0.21752955 0
4.3800001 -0.90031964 0.21734194 0
4.092 -0.89843649 0.23084885 0
4.0820003 -0.90276927 0.23131785 0
4.0770001 -0.90823841 0.23155233 0
4.073 -0.91392577 0.23173994 0
4.0710001 -0.92007494 0.23183373 0
4.0700002 -0.92645681 0.23188065 0
4.0710001 -0.93331856 0.23183373 0
4.073 -0.9404273 0.23173994 0
4.079 -0.94852465 0.23145853 0
4.2140002 -0.99540204 0.22512718 0
4.2060003 -1.000276 0.22550236 0
4.2000003 -1.005626 0.22578377 0
4.1950002 -1.0112088 0.22601826 0
4.1920004 -1.0172858 0.22615895 0
4.1890001 -1.023352 0.22629964 0
4.1870003 -1.029667 0.22639345 0
4.1860003 -1.0362366 0.22644034 0
4.1860003 -1.0430658 0.22644034 0
4.1870003 -1.0501602 0.22639345 0
4.1890001 -1.0575252 0.22629964 0
4.1930003 -1.0654349 0.22611205 0
4.1990004 -1.0739001 0.22583064 0
4.1129999 -0.47464254 0.22316645 0
4.1030002 -0.48016763 0.22365347 0
4.0970001 -0.48613283 0.22394568 0
4.0940003 -0.49243894 0.22409178 0
4.092 -0.4988569 0.22418919 0
4.092 -0.50551653 0.22418919 0
4.0929999 -0.51230246 0.22414051 0
4.0970001 -0.51947623 0.22394568 0
4.1040001 -0.52705401 0.22360477 0
4.3060002 -0.70124781 0.21376678 0
4.2990003 -0.70710653 0.21410771 0
4.296 -0.71362555 0.21425383 0
4.2930002 -0.72013366 0.21439993 0
4.2930002 -0.72715586 0.21439993 0
4.2940001 -0.73435491 0.21435122 0
4.2980003 -0.74209327 0.2141564 0
3.8910003 -0.67570943 0.23397847 0
3.8820002 -0.68036687 0.2344168 0
3.8760002 -0.68554378 0.23470901 0
3.8720002 -0.69107074 0.23490381 0
3.8700004 -0.69695836 0.23500121 0
3.8690002 -0.70302814 0.23504993 0
3.8700004 -0.70947677 0.23500121 0
3.8720002 -0.71612197 0.23490381 0
3.8760002 -0.72316402 0.23470901 0
3.8860002 -0.73140019 0.23422198 0
4.3860002 -0.83689779 0.20987056 0
4.381 -0.8430866 0.21011408 0
4.3770003 -0.84945947 0.21030889 0
4.3740001 -0.8560217 0.210455 0
4.3730001 -0.86298442 0.21050368 0
4.3720002 -0.86994356 0.21055241 0
4.3720002 -0.87710822 0.21055241 0
4.3730001 -0.88448405 0.21050368 0
4.3759999 -0.89228904 0.21035759 0
4.3800001 -0.90031964 0.21016277 0
4.092 -0.89843649 0.22418919 0
4.0820003 -0.90276927 0.22467622 0
4.0770001 -0.90823841 0.22491974 0
4.073 -0.91392577 0.22511455 0
4.0710001 -0.92007494 0.22521195 0
4.0700002 -0.92645681 0.22526066 0
4.0710001 -0.93331856 0.22521195 0
4.073 -0.9404273 0.22511455 0
4.079 -0.94852465 0.22482234 0
4.2140002 -0.99540204 0.21824744 0
4.2060003 -1.000276 0.21863706 0
4.2000003 -1.005626 0.21892929 0
4.1950002 -1.0112088 0.21917281 0
4.1920004 -1.0172858 0.2193189 0
4.1890001 -1.023352 0.21946502 0
4.1870003 -1.029667 0.21956243 0
4.1860003 -1.0362366 0.21961112 0
4.1860003 -1.0430658 0.21961112 0
4.1870003 -1.0501602 0.21956243 0
4.1890001 -1.0575252 0.21946502 0
4.1930003 -1.0654349 0.21927021 0
4.1990004 -1.0739001 0.21897799 0
4.1129999 -0.47464254 0.2164689 0
4.1030002 -0.48016763 0.21697396 0
4.0970001 -0.48613283 0.21727701 0
4.0940003 -0.49243894 0.21742852 0
4.092 -0.4988569 0.21752954 0
4.092 -0.50551653 0.21752954 0
4.0929999 -0.51230246 0.21747904 0
4.0970001 -0.51947623 0.21727701 0
4.1040001 -0.52705401 0.21692346 0
4.3060002 -0.70124781 0.20672111 0
4.2990003 -0.70710653 0.20707466 0
4.296 -0.71362555 0.20722619 0
4.2930002 -0.72013366 0.2073777 0
4.2930002 -0.72715586 0.2073777 0
4.2940001 -0.73435491 0.2073272 0
4.2980003 -0.74209327 0.20712517 0
3.8910003 -0.67570943 0.22768137 0
3.8820002 -0.68036687 0.22813593 0
3.8760002 -0.68554378 0.22843897 0
3.8720002 -0.69107074 0.22864099 0
3.8700004 -0.69695836 0.228742 0
3.8690002 -0.70302814 0.22879252 0
3.8700004 -0.70947677 0.228742 0
3.8720002 -0.71612197 0.22864099 0
3.8760002 -0.72316402 0.22843897 0
3.8860002 -0.73140019 0.2279339 0
4.3860002 -0.83689779 0.20268057 0
4.381 -0.8430866 0.20293312 0
4.3770003 -0.84945947 0.20313515 0
4.3740001 -0.8560217 0.20328666 0
4.3730001 -0.86298442 0.20333716 0
4.3720002 -0.86994356 0.20338768 0
4.3720002 -0.87710822 0.20338768 0
4.3730001 -0.88448405 0.20333716 0
4.3759999 -0.89228904 0.20318566 0
4.3800001 -0.90031964 0.20298362 0
4.092 -0.89843649 0.21752954 0
4.0820003 -0.90276927 0.2180346 0
4.0770001 -0.90823841 0.21828713 0
4.073 -0.91392577 0.21848917 0
4.0710001 -0.92007494 0.21859017 0
4.0700002 -0.92645681 0.21864069 0
4.0710001 -0.93331856 0.21859017 0
4.073 -0.9404273 0.21848917 0
4.079 -0.94852465 0.21818613 0
4.2140002 -0.99540204 0.21136773 0
4.2060003 -1.000276 0.21177177 0
4.2000003 -1.005626 0.21207482 0
4.1950002 -1.0112088 0.21232736 0
4.1920004 -1.0172858 0.21247886 0
4.1890001 -1.023352 0.21263038 0
4.1870003 -1.029667 0.21273141 0
4.1860003 -1.0362366 0.21278191 0
4.1860003 -1.0430658 0.21278191 0
4.1870003 -1.0501602 0.21273141 0
4.1890001 -1.0575252 0.21263038 0
4.1930003 -1.0654349 0.21242836 0
4.1990004 -1.0739001 0.21212532 0
4.1129999 -0.47464254 0.20977136 0
4.1030002 -0.48016763 0.21029447 0
4.0970001 -0.48613283 0.21060832 0
4.0940003 -0.49243894 0.21076524 0
4.092 -0.4988569 0.21086988 0
4.092 -0.50551653 0.21086988 0
4.0929999 -0.51230246 0.21081758 0
4.0970001 -0.51947623 0.21060832 0
4.1040001 -0.52705401 0.21024214 0
4.3060002 -0.70124781 0.19967544 0
4.2990003 -0.70710653 0.20004161 0
4.296 -0.71362555 0.20019855 0
4.2930002 -0.72013366 0.20035549 0
4.2930002 -0.72715586 0.20035549 0
4.2940001 -0.73435491 0.20030315 0
4.2980003 -0.74209327 0.20009392 0
3.8910003 -0.67570943 0.22138427 0
3.8820002 -0.68036687 0.22185507 0
3.8760002 -0.68554378 0.22216894 0
3.8720002 -0.69107074 0.22237818 0
3.8700004 -0.69695836 0.22248279 0
3.8690002 -0.70302814 0.2225351 0
3.8700004 -0.70947677 0.22248279 0
3.8720002 -0.71612197 0.22237818 0
3.8760002 -0.72316402 0.22216894 0
3.8860002 -0.73140019 0.22164583 0
4.3860002 -0.83689779 0.1954906 0
4.381 -0.8430866 0.19575216 0
4.3770003 -0.84945947 0.1959614 0
4.3740001 -0.8560217 0.19611832 0
4.3730001 -0.86298442 0.19617063 0
4.3720002 -0.86994356 0.19622296 0
4.3720002 -0.87710822 0.19622296 0
4.3730001 -0.88448405 0.19617063 0
4.3759999 -0.89228904 0.19601372 0
4.3800001 -0.90031964 0.19580446 0
4.092 -0.89843649 0.21086988 0
4.0820003 -0.90276927 0.21139297 0
4.0770001 -0.90823841 0.21165451 0
4.073 -0.91392577 0.21186377 0
4.0710001 -0.92007494 0.21196839 0
4.0700002 -0.92645681 0.21202071 0
4.0710001 -0.93331856 0.21196839 0
4.073 -0.9404273 0.21186377 0
4.079 -0.94852465 0.21154992 0
4.2140002 -0.99540204 0.20448801 0
4.2060003 -1.000276 0.20490648 0
4.2000003 -1.005626 0.20522034 0
4.1950002 -1.0112088 0.2054819 0
4.1920004 -1.0172858 0.20563883 0
4.1890001 -1.023352 0.20579576 0
4.1870003 -1.029667 0.20590039 0
4.1860003 -1.0362366 0.20595269 0
4.1860003 -1.0430658 0.20595269 0
4.1870003 -1.0501602 0.20590039 0
4.1890001 -1.0575252 0.20579576 0
4.1930003 -1.0654349 0.20558651 0
4.1990004 -1.0739001 0.20527266 0
4.1129999 -0.47464254 0.20307383 0
4.1030002 -0.48016763 0.20361497 0
4.0970001 -0.48613283 0.20393963 0
4.0940003 -0.49243894 0.20410198 0
4.092 -0.4988569 0.20421022 0
4.092 -0.50551653 0.20421022 0
4.0929999 -0.51230246 0.2041561 0
4.0970001 -0.51947623 0.20393963 0
4.1040001 -0.52705401 0.20356083 0
4.3060002 -0.70124781 0.19262975 0
4.2990003 -0.70710653 0.19300857 0
4.296 -0.71362555 0.19317091 0
4.2930002 -0.72013366 0.19333325 0
4.2930002 -0.72715586 0.19333325 0
4.2940001 -0.73435491 0.19327913 0
4.2980003 -0.74209327 0.19306268 0
3.8910003 -0.67570943 0.21508718 0
3.8820002 -0.68036687 0.2155742 0
3.8760002 -0.68554378 0.2158989 0
3.8720002 -0.69107074 0.21611536 0
3.8700004 -0.69695836 0.21622357 0
3.8690002 -0.70302814 0.2162777 0
3.8700004 -0.70947677 0.21622357 0
3.8720002 -0.71612197 0.21611536 0
3.8760002 -0.72316402 0.2158989 0
3.8860002 -0.73140019 0.21535775 0
4.3860002 -0.83689779 0.18830062 0
4.381 -0.8430866 0.1885712 0
4.3770003 -0.84945947 0.18878765 0
4.3740001 -0.8560217 0.18894999 0
4.3730001 -0.86298442 0.18900411 0
4.3720002 -0.86994356 0.18905823 0
4.3720002 -0.87710822 0.18905823 0
4.3730001 -0.88448405 0.18900411 0
4.3759999 -0.89228904 0.18884178 0
4.3800001 -0.90031964 0.18862531 0
4.092 -0.89843649 0.20421022 0
4.0820003 -0.90276927 0.20475136 0
4.0770001 -0.90823841 0.20502193 0
4.073 -0.91392577 0.20523839 0
4.0710001 -0.92007494 0.20534661 0
4.0700002 -0.92645681 0.20540072 0
4.0710001 -0.93331856 0.20534661 0
4.073 -0.9404273 0.20523839 0
4.079 -0.94852465 0.20491371 0
4.2140002 -0.99540204 0.19760828 0
4.2060003 -1.000276 0.19804119 0
4.2000003 -1.005626 0.19836587 0
4.1950002 -1.0112088 0.19863644 0
4.1920004 -1.0172858 0.19879878 0
4.1890001 -1.023352 0.19896114 0
4.1870003 -1.029667 0.19906935 0
4.1860003 -1.0362366 0.19912347 0
4.1860003 -1.0430658 0.19912347 0
4.1870003 -1.0501602 0.19906935 0
4.1890001 -1.0575252 0.19896114 0
4.1930003 -1.0654349 0.19874467 0
4.1990004 -1.0739001 0.19841999 0
4.1129999 -0.47464254 0.19637628 0
4.1030002 -0.48016763 0.19693546 0
4.0970001 -0.48613283 0.19727096 0
4.0940003 -0.49243894 0.19743872 0
4.092 -0.4988569 0.19755057 0
4.092 -0.50551653 0.19755057 0
4.0929999 -0.51230246 0.19749464 0
4.0970001 -0.51947623 0.19727096 0
4.1040001 -0.52705401 0.19687954 0
4.3060002 -0.70124781 0.18558408 0
4.2990003 -0.70710653 0.18597552 0
4.296 -0.71362555 0.18614328 0
4.2930002 -0.72013366 0.18631102 0
4.2930002 -0.72715586 0.18631102 0
4.2940001 -0.73435491 0.1862551 0
4.2980003 -0.74209327 0.18603143 0
3.8910003 -0.67570943 0.20879008 0
3.8820002 -0.68036687 0.20929335 0
3.8760002 -0.68554378 0.20962885 0
3.8720002 -0.69107074 0.20985253 0
3.8700004 -0.69695836 0.20996436 0
3.8690002 -0.70302814 0.21002029 0
3.8700004 -0.70947677 0.20996436 0
3.8720002 -0.71612197 0.20985253 0
3.8760002 -0.72316402 0.20962885 0
3.8860002 -0.73140019 0.20906968 0
4.3860002 -0.83689779 0.18111064 0
4.381 -0.8430866 0.18139024 0
4.3770003 -0.84945947 0.18161391 0
4.3740001 -0.8560217 0.18178166 0
4.3730001 -0.86298442 0.18183757 0
4.3720002 -0.86994356 0.1818935 0
4.3720002 -0.87710822 0.1818935 0
4.3730001 -0.88448405 0.18183757 0
4.3759999 -0.89228904 0.18166983 0
4.3800001 -0.90031964 0.18144615 0
4.092 -0.89843649 0.19755057 0
4.0820003 -0.90276927 0.19810973 0
4.0770001 -0.90823841 0.19838932 0
4.073 -0.91392577 0.19861299 0
4.0710001 -0.92007494 0.19872482 0
4.0700002 -0.92645681 0.19878076 0
4.0710001 -0.93331856 0.19872482 0
4.073 -0.9404273 0.19861299 0
4.079 -0.94852465 0.19827749 0
4.2140002 -0.99540204 0.19072856 0
4.2060003 -1.000276 0.19117589 0
4.2000003 -1.005626 0.19151141 0
4.1950002 -1.0112088 0.191791 0
4.1920004 -1.0172858 0.19195874 0
4.1890001 -1.023352 0.1921265 0
4.1870003 -1.029667 0.19223835 0
4.1860003 -1.0362366 0.19229425 0
4.1860003 -1.0430658 0.19229425 0
4.1870003 -1.0501602 0.19223835 0
4.1890001 -1.0575252 0.1921265 0
4.1930003 -1.0654349 0.19190283 0
4.1990004 -1.0739001 0.19156732 0
4.1129999 -0.47464254 0.18967874 0
4.1030002 -0.48016763 0.19025595 0
4.0970001 -0.48613283 0.19060227 0
4.0940003 -0.49243894 0.19077544 0
4.092 -0.4988569 0.19089089 0
4.092 -0.50551653 0.19089089 0
4.0929999 -0.51230246 0.19083318 0
4.0970001 -0.51947623 0.19060227 0
4.1040001 -0.52705401 0.19019823 0
4.3060002 -0.70124781 0.17853841 0
4.2990003 -0.70710653 0.17894247 0
4.296 -0.71362555 0.17911564 0
4.2930002 -0.72013366 0.1792888 0
4.2930002 -0.72715586 0.1792888 0
4.2940001 -0.73435491 0.17923108 0
4.2980003 -0.74209327 0.17900018 0
3.8910003 -0.67570943 0.20249298 0
3.8820002 -0.68036687 0.20301248 0
3.8760002 -0.68554378 0.20335883 0
3.8720002 -0.69107074 0.20358971 0
3.8700004 -0.69695836 0.20370515 0
3.8690002 -0.70302814 0.20376287 0
3.8700004 -0.70947677 0.20370515 0
3.8720002 -0.71612197 0.20358971 0
3.8760002 -0.72316402 0.20335883 0
3.8860002 -0.73140019 0.2027816 0
4.3860002 -0.83689779 0.17392066 0
4.381 -0.8430866 0.17420928 0
4.3770003 -0.84945947 0.17444016 0
4.3740001 -0.8560217 0.17461333 0
4.3730001 -0.86298442 0.17467104 0
4.3720002 -0.86994356 0.17472878 0
4.3720002 -0.87710822 0.17472878 0
4.3730001 -0.88448405 0.17467104 0
4.3759999 -0.89228904 0.17449789 0
4.3800001 -0.90031964 0.17426699 0
4.092 -0.89843649 0.19089089 0
4.0820003 -0.90276927 0.19146812 0
4.0770001 -0.90823841 0.19175671 0
4.073 -0.91392577 0.19198762 0
4.0710001 -0.92007494 0.19210304 0
4.0700002 -0.92645681 0.19216079 0
4.0710001 -0.93331856 0.19210304 0
4.073 -0.9404273 0.19198762 0
4.079 -0.94852465 0.19164129 0
4.2140002 -0.99540204 0.18384883 0
4.2060003 -1.000276 0.1843106 0
4.2000003 -1.005626 0.18465693 0
4.1950002 -1.0112088 0.18494555 0
4.1920004 -1.0172858 0.18511871 0
4.1890001 -1.023352 0.18529187 0
4.1870003 -1.029667 0.18540731 0
4.1860003 -1.0362366 0.18546504 0
4.1860003 -1.0430658 0.18546504 0
4.1870003 -1.0501602 0.18540731 0
4.1890001 -1.0575252 0.18529187 0
4.1930003 -1.0654349 0.18506098 0
4.1990004 -1.0739001 0.18471465 0
4.1129999 -0.47464254 0.18298121 0
4.1030002 -0.48016763 0.18357645 0
4.0970001 -0.48613283 0.1839336 0
4.0940003 -0.49243894 0.18411218 0
4.092 -0.4988569 0.18423124 0
4.092 -0.50551653 0.18423124 0
4.0929999 -0.51230246 0.18417171 0
4.0970001 -0.51947623 0.1839336 0
4.1040001 -0.52705401 0.18351692 0
4.3060002 -0.70124781 0.17149273 0
4.2990003 -0.70710653 0.17190942 0
4.296 -0.71362555 0.172088 0
4.2930002 -0.72013366 0.17226657 0
4.2930002 -0.72715586 0.17226657 0
4.2940001 -0.73435491 0.17220703 0
4.2980003 -0.74209327 0.17196895 0
3.8910003 -0.67570943 0.1961959 0
3.8820002 -0.68036687 0.19673163 0
3.8760002 -0.68554378 0.19708879 0
3.8720002 -0.69107074 0.19732688 0
3.8700004 -0.69695836 0.19744593 0
3.8690002 -0.70302814 0.19750546 0
3.8700004 -0.70947677 0.19744593 0
3.8720002 -0.71612197 0.19732688 0
3.8760002 -0.72316402 0.19708879 0
3.8860002 -0.73140019 0.19649354 0
4.3860002 -0.83689779 0.16673069 0
4.381 -0.8430866 0.16702832 0
4.3770003 -0.84945947 0.16726641 0
4.3740001 -0.8560217 0.16744497 0
4.3730001 -0.86298442 0.16750452 0
4.3720002 -0.86994356 0.16756405 0
4.3720002 -0.87710822 0.16756405 0
4.3730001 -0.88448405 0.16750452 0
4.3759999 -0.89228904 0.16732594 0
4.3800001 -0.90031964 0.16708784 0
4.092 -0.89843649 0.18423124 0
4.0820003 -0.90276927 0.18482649 0
4.0770001 -0.90823841 0.18512411 0
4.073 -0.91392577 0.18536223 0
4.0710001 -0.92007494 0.18548128 0
4.0700002 -0.92645681 0.18554081 0
4.0710001 -0.93331856 0.18548128 0
4.073 -0.9404273 0.18536223 0
4.079 -0.94852465 0.18500507 0
4.2140002 -0.99540204 0.1769691 0
4.2060003 -1.000276 0.17744531 0
4.2000003 -1.005626 0.17780246 0
4.1950002 -1.0112088 0.17810009 0
4.1920004 -1.0172858 0.17827865 0
4.1890001 -1.023352 0.17845723 0
4.1870003 -1.029667 0.17857629 0
4.1860003 -1.0362366 0.17863581 0
4.1860003 -1.0430658 0.17863581 0
4.1870003 -1.0501602 0.17857629 0
4.1890001 -1.0575252 0.17845723 0
4.1930003 -1.0654349 0.17821914 0
4.1990004 -1.0739001 0.17786197 0
4.1129999 -0.47464254 0.17628366 0
4.1030002 -0.48016763 0.17689696 0
4.0970001 -0.48613283 0.17726493 0
4.0940003 -0.49243894 0.17744891 0
4.092 -0.4988569 0.17757156 0
4.092 -0.50551653 0.17757156 0
4.0929999 -0.51230246 0.17751025 0
4.0970001 -0.51947623 0.17726493 0
4.1040001 -0.52705401 0.17683563 0
4.3060002 -0.70124781 0.16444707 0
4.2990003 -0.70710653 0.16487637 0
4.296 -0.71362555 0.16506036 0
4.2930002 -0.72013366 0.16524436 0
4.2930002 -0.72715586 0.16524436 0
4.2940001 -0.73435491 0.16518301 0
4.2980003 -0.74209327 0.16493769 0
3.8910003 -0.67570943 0.18989879 0
3.8820002 -0.68036687 0.19045077 0
3.8760002 -0.68554378 0.19081874 0
3.8720002 -0.69107074 0.19106406 0
3.8700004 -0.69695836 0.19118671 0
3.8690002 -0.70302814 0.19124804 0
3.8700004 -0.70947677 0.19118671 0
3.8720002 -0.71612197 0.19106406 0
3.8760002 -0.72316402 0.19081874 0
3.8860002 -0.73140019 0.19020545 0
4.3860002 -0.83689779 0.15954068 0
4.381 -0.8430866 0.15984736 0
4.3770003 -0.84945947 0.16009268 0
4.3740001 -0.8560217 0.16027665 0
4.3730001 -0.86298442 0.16033797 0
4.3720002 -0.86994356 0.16039932 0
4.3720002 -0.87710822 0.16039932 0
4.3730001 -0.88448405 0.16033797 0
4.3759999 -0.89228904 0.160154 0
4.3800001 -0.90031964 0.15990868 0
4.092 -0.89843649 0.17757156 0
4.0820003 -0.90276927 0.17818487 0
4.0770001 -0.90823841 0.1784915 0
4.073 -0.91392577 0.17873684 0
4.0710001 -0.92007494 0.17885949 0
4.0700002 -0.92645681 0.17892084 0
4.0710001 -0.93331856 0.17885949 0
4.073 -0.9404273 0.17873684 0
4.079 -0.94852465 0.17836885 0
4.2140002 -0.99540204 0.17008936 0
4.2060003 -1.000276 0.17058001 0
4.2000003 -1.005626 0.17094798 0
4.1950002 -1.0112088 0.17125465 0
4.1920004 -1.0172858 0.17143862 0
4.1890001 -1.023352 0.17162262 0
4.1870003 -1.029667 0.17174527 0
4.1860003 -1.0362366 0.17180659 0
4.1860003 -1.0430658 0.17180659 0
4.1870003 -1.0501602 0.17174527 0
4.1890001 -1.0575252 0.17162262 0
4.1930003 -1.0654349 0.1713773 0
4.1990004 -1.0739001 0.1710093 0
4.1129999 -0.47464254 0.16958612 0
4.1030002 -0.48016763 0.17021747 0
4.0970001 -0.48613283 0.17059626 0
4.0940003 -0.49243894 0.17078565 0
4.092 -0.4988569 0.17091192 0
4.092 -0.50551653 0.17091192 0
4.0929999 -0.51230246 0.17084879 0
4.0970001 -0.51947623 0.17059626 0
4.1040001 -0.52705401 0.1701543 0
4.3060002 -0.70124781 0.15740138 0
4.2990003 -0.70710653 0.15784332 0
4.296 -0.71362555 0.15803273 0
4.2930002 -0.72013366 0.15822212 0
4.2930002 -0.72715586 0.15822212 0
4.2940001 -0.73435491 0.15815899 0
4.2980003 -0.74209327 0.15790646 0
3.8910003 -0.67570943 0.18360171 0
3.8820002 -0.68036687 0.1841699 0
3.8760002 -0.68554378 0.18454871 0
3.8720002 -0.69107074 0.18480124 0
3.8700004 -0.69695836 0.18492749 0
3.8690002 -0.70302814 0.18499064 0
3.8700004 -0.70947677 0.18492749 0
3.8720002 -0.71612197 0.18480124 0
3.8760002 -0.72316402 0.18454871 0
3.8860002 -0.73140019 0.18391737 0
4.3860002 -0.83689779 0.15235072 0
4.381 -0.8430866 0.15266639 0
4.3770003 -0.84945947 0.15291893 0
4.3740001 -0.8560217 0.15310833 0
4.3730001 -0.86298442 0.15317145 0
4.3720002 -0.86994356 0.1532346 0
4.3720002 -0.87710822 0.1532346 0
4.3730001 -0.88448405 0.15317145 0
4.3759999 -0.89228904 0.15298206 0
4.3800001 -0.90031964 0.15272954 0
4.092 -0.89843649 0.17091192 0
4.0820003 -0.90276927 0.17154324 0
4.0770001 -0.90823841 0.17185891 0
4.073 -0.91392577 0.17211144 0
4.0710001 -0.92007494 0.17223769 0
4.0700002 -0.92645681 0.17230086 0
4.0710001 -0.93331856 0.17223769 0
4.073 -0.9404273 0.17211144 0
4.079 -0.94852465 0.17173266 0
4.2140002 -0.99540204 0.16320966 0
4.2060003 -1.000276 0.16371472 0
4.2000003 -1.005626 0.16409352 0
4.1950002 -1.0112088 0.16440921 0
4.1920004 -1.0172858 0.16459857 0
4.1890001 -1.023352 0.16478799 0
4.1870003 -1.029667 0.16491424 0
4.1860003 -1.0362366 0.16497737 0
4.1860003 -1.0430658 0.16497737 0
4.1870003 -1.0501602 0.16491424 0
4.1890001 -1.0575252 0.16478799 0
4.1930003 -1.0654349 0.16453545 0
4.1990004 -1.0739001 0.16415665 0
4.1129999 -0.47464254 0.16288859 0
4.1030002 -0.48016763 0.16353796 0
4.0970001 -0.48613283 0.16392756 0
4.0940003 -0.49243894 0.16412237 0
4.092 -0.4988569 0.16425227 0
4.092 -0.50551653 0.16425227 0
4.0929999 -0.51230246 0.16418733 0
4.0970001 -0.51947623 0.16392756 0
4.1040001 -0.52705401 0.16347301 0
4.3060002 -0.70124781 0.15035573 0
4.2990003 -0.70710653 0.15081027 0
4.296 -0.71362555 0.15100509 0
4.2930002 -0.72013366 0.15119988 0
4.2930002 -0.72715586 0.15119988 0
4.2940001 -0.73435491 0.15113497 0
4.2980003 -0.74209327 0.15087521 0
3.8910003 -0.67570943 0.1773046 0
3.8820002 -0.68036687 0.17788905 0
3.8760002 -0.68554378 0.17827867 0
3.8720002 -0.69107074 0.17853841 0
3.8700004 -0.69695836 0.17866828 0
3.8690002 -0.70302814 0.17873323 0
3.8700004 -0.70947677 0.17866828 0
3.8720002 -0.71612197 0.17853841 0
3.8760002 -0.72316402 0.17827867 0
3.8860002 -0.73140019 0.17762931 0
4.3860002 -0.83689779 0.14516073 0
4.381 -0.8430866 0.14548543 0
4.3770003 -0.84945947 0.14574516 0
4.3740001 -0.8560217 0.14593998 0
4.3730001 -0.86298442 0.14600492 0
4.3720002 -0.86994356 0.14606988 0
4.3720002 -0.87710822 0.14606988 0
4.3730001 -0.88448405 0.14600492 0
4.3759999 -0.89228904 0.14581013 0
4.3800001 -0.90031964 0.14555037 0
4.092 -0.89843649 0.16425227 0
4.0820003 -0.90276927 0.16490163 0
4.0770001 -0.90823841 0.16522631 0
4.073 -0.91392577 0.16548608 0
4.0710001 -0.92007494 0.16561593 0
4.0700002 -0.92645681 0.16568089 0
4.0710001 -0.93331856 0.16561593 0
4.073 -0.9404273 0.16548608 0
4.079 -0.94852465 0.16509645 0
4.2140002 -0.99540204 0.15632994 0
4.2060003 -1.000276 0.15684943 0
4.2000003 -1.005626 0.15723905 0
4.1950002 -1.0112088 0.15756376 0
4.1920004 -1.0172858 0.15775853 0
4.1890001 -1.023352 0.15795335 0
4.1870003 -1.029667 0.15808325 0
4.1860003 -1.0362366 0.15814817 0
4.1860003 -1.0430658 0.15814817 0
4.1870003 -1.0501602 0.15808325 0
4.1890001 -1.0575252 0.15795335 0
4.1930003 -1.0654349 0.15769361 0
4.1990004 -1.0739001 0.15730399 0
4.1129999 -0.47464254 0.15619105 0
4.1030002 -0.48016763 0.15685846 0
4.0970001 -0.48613283 0.15725887 0
4.0940003 -0.49243894 0.15745911 0
4.092 -0.4988569 0.15759259 0
4.092 -0.50551653 0.15759259 0
4.0929999 -0.51230246 0.15752585 0
4.0970001 -0.51947623 0.15725887 0
4.1040001 -0.52705401 0.1567917 0
4.3060002 -0.70124781 0.14331004 0
4.2990003 -0.70710653 0.14377725 0
4.296 -0.71362555 0.14397743 0
4.2930002 -0.72013366 0.14417768 0
4.2930002 -0.72715586 0.14417768 0
4.2940001 -0.73435491 0.14411092 0
4.2980003 -0.74209327 0.14384395 0
3.8910003 -0.67570943 0.17100751 0
3.8820002 -0.68036687 0.17160819 0
3.8760002 -0.68554378 0.17200865 0
3.8720002 -0.69107074 0.1722756 0
3.8700004 -0.69695836 0.17240906 0
3.8690002 -0.70302814 0.17247583 0
3.8700004 -0.70947677 0.17240906 0
3.8720002 -0.71612197 0.1722756 0
3.8760002 -0.72316402 0.17200865 0
3.8860002 -0.73140019 0.17134124 0
4.3860002 -0.83689779 0.13797078 0
4.381 -0.8430866 0.13830447 0
4.3770003 -0.84945947 0.13857144 0
4.3740001 -0.8560217 0.13877165 0
4.3730001 -0.86298442 0.13883841 0
4.3720002 -0.86994356 0.13890514 0
4.3720002 -0.87710822 0.13890514 0
4.3730001 -0.88448405 0.13883841 0
4.3759999 -0.89228904 0.1386382 0
4.3800001 -0.90031964 0.1383712 0
4.092 -0.89843649 0.15759259 0
4.0820003 -0.90276927 0.15826 0
4.0770001 -0.90823841 0.1585937 0
4.073 -0.91392577 0.15886068 0
4.0710001 -0.92007494 0.15899414 0
4.0700002 -0.92645681 0.1590609 0
4.0710001 -0.93331856 0.15899414 0
4.073 -0.9404273 0.15886068 0
4.079 -0.94852465 0.15846023 0
4.2140002 -0.99540204 0.14945018 0
4.2060003 -1.000276 0.14998412 0
4.2000003 -1.005626 0.15038458 0
4.1950002 -1.0112088 0.15071827 0
4.1920004 -1.0172858 0.15091848 0
4.1890001 -1.023352 0.15111873 0
4.1870003 -1.029667 0.15125221 0
4.1860003 -1.0362366 0.15131894 0
4.1860003 -1.0430658 0.15131894 0
4.1870003 -1.0501602 0.15125221 0
4.1890001 -1.0575252 0.15111873 0
4.1930003 -1.0654349 0.15085176 0
4.1990004 -1.0739001 0.15045133 0
4.1129999 -0.47464254 0.14949349 0
4.1030002 -0.48016763 0.15017894 0
4.0970001 -0.48613283 0.15059021 0
4.0940003 -0.49243894 0.15079585 0
4.092 -0.4988569 0.15093294 0
4.092 -0.50551653 0.15093294 0
4.0929999 -0.51230246 0.15086439 0
4.0970001 -0.51947623 0.15059021 0
4.1040001 -0.52705401 0.15011039 0
4.3060002 -0.70124781 0.13626435 0
4.2990003 -0.70710653 0.1367442 0
4.296 -0.71362555 0.13694981 0
4.2930002 -0.72013366 0.13715544 0
4.2930002 -0.72715586 0.13715544 0
4.2940001 -0.73435491 0.1370869 0
4.2980003 -0.74209327 0.13681272 0
3.8910003 -0.67570943 0.16471042 0
3.8820002 -0.68036687 0.16532733 0
3.8760002 -0.68554378 0.16573861 0
3.8720002 -0.69107074 0.16601278 0
3.8700004 -0.69695836 0.16614984 0
3.8690002 -0.70302814 0.1662184 0
3.8700004 -0.70947677 0.16614984 0
3.8720002 -0.71612197 0.16601278 0
3.8760002 -0.72316402 0.16573861 0
3.8860002 -0.73140019 0.16505316 0
4.3860002 -0.83689779 0.13078076 0
4.381 -0.8430866 0.13112351 0
4.3770003 -0.84945947 0.13139769 0
4.3740001 -0.8560217 0.13160333 0
4.3730001 -0.86298442 0.13167185 0
4.3720002 -0.86994356 0.13174042 0
4.3720002 -0.87710822 0.13174042 0
4.3730001 -0.88448405 0.13167185 0
4.3759999 -0.89228904 0.13146624 0
4.3800001 -0.90031964 0.13119206 0
4.092 -0.89843649 0.15093294 0
4.0820003 -0.90276927 0.15161839 0
4.0770001 -0.90823841 0.15196109 0
4.073 -0.91392577 0.1522353 0
4.0710001 -0.92007494 0.15237236 0
4.0700002 -0.92645681 0.15244091 0
4.0710001 -0.93331856 0.15237236 0
4.073 -0.9404273 0.1522353 0
4.079 -0.94852465 0.15182403 0
4.2140002 -0.99540204 0.14257047 0
4.2060003 -1.000276 0.14311883 0
4.2000003 -1.005626 0.1435301 0
4.1950002 -1.0112088 0.14387283 0
4.1920004 -1.0172858 0.14407846 0
4.1890001 -1.023352 0.1442841 0
4.1870003 -1.029667 0.14442119 0
4.1860003 -1.0362366 0.14448974 0
4.1860003 -1.0430658 0.14448974 0
4.1870003 -1.0501602 0.14442119 0
4.1890001 -1.0575252 0.1442841 0
4.1930003 -1.0654349 0.14400992 0
4.1990004 -1.0739001 0.14359865 0
4.1129999 -0.47464254 0.14279595 0
4.1030002 -0.48016763 0.14349943 0
4.0970001 -0.48613283 0.14392152 0
4.0940003 -0.49243894 0.14413258 0
4.092 -0.4988569 0.14427328 0
4.092 -0.50551653 0.14427328 0
4.0929999 -0.51230246 0.14420292 0
4.0970001 -0.51947623 0.14392152 0
4.1040001 -0.52705401 0.1434291 0
4.3060002 -0.70124781 0.1292187 0
4.2990003 -0.70710653 0.12971112 0
4.296 -0.71362555 0.12992218 0
4.2930002 -0.72013366 0.13013321 0
4.2930002 -0.72715586 0.13013321 0
4.2940001 -0.73435491 0.13006288 0
4.2980003 -0.74209327 0.12978148 0
3.8910003 -0.67570943 0.15841334 0
3.8820002 -0.68036687 0.15904647 0
3.8760002 -0.68554378 0.15946858 0
3.8720002 -0.69107074 0.15974995 0
3.8700004 -0.69695836 0.15989062 0
3.8690002 -0.70302814 0.159961 0
3.8700004 -0.70947677 0.15989062 0
3.8720002 -0.71612197 0.15974995 0
3.8760002 -0.72316402 0.15946858 0
3.8860002 -0.73140019 0.15876506 0
4.3860002 -0.83689779 0.1235908 0
4.381 -0.8430866 0.12394255 0
4.3770003 -0.84945947 0.12422395 0
4.3740001 -0.8560217 0.12443498 0
4.3730001 -0.86298442 0.12450534 0
4.3720002 -0.86994356 0.1245757 0
4.3720002 -0.87710822 0.1245757 0
4.3730001 -0.88448405 0.12450534 0
4.3759999 -0.89228904 0.12429431 0
4.3800001 -0.90031964 0.12401289 0
4.092 -0.89843649 0.14427328 0
4.0820003 -0.90276927 0.14497676 0
4.0770001 -0.90823841 0.14532849 0
4.073 -0.91392577 0.14560989 0
4.0710001 -0.92007494 0.14575058 0
4.0700002 -0.92645681 0.14582095 0
4.0710001 -0.93331856 0.14575058 0
4.073 -0.9404273 0.14560989 0
4.079 -0.94852465 0.14518782 0
4.2140002 -0.99540204 0.13569075 0
4.2060003 -1.000276 0.13625354 0
4.2000003 -1.005626 0.13667563 0
4.1950002 -1.0112088 0.13702738 0
4.1920004 -1.0172858 0.13723841 0
4.1890001 -1.023352 0.13744947 0
4.1870003 -1.029667 0.13759017 0
4.1860003 -1.0362366 0.1376605 0
4.1860003 -1.0430658 0.1376605 0
4.1870003 -1.0501602 0.13759017 0
4.1890001 -1.0575252 0.13744947 0
4.1930003 -1.0654349 0.13716808 0
4.1990004 -1.0739001 0.13674599 0
4.1129999 -0.47464254 0.13609841 0
4.1030002 -0.48016763 0.13681996 0
4.0970001 -0.48613283 0.13725287 0
4.0940003 -0.49243894 0.13746929 0
4.092 -0.4988569 0.13761362 0
4.092 -0.50551653 0.13761362 0
4.0929999 -0.51230246 0.13754147 0
4.0970001 -0.51947623 0.13725287 0
4.1040001 -0.52705401 0.13674781 0
4.3060002 -0.70124781 0.12217301 0
4.2990003 -0.70710653 0.12267807 0
4.296 -0.71362555 0.12289453 0
4.2930002 -0.72013366 0.12311101 0
4.2930002 -0.72715586 0.12311101 0
4.2940001 -0.73435491 0.12303883 0
4.2980003 -0.74209327 0.12275022 0
3.8910003 -0.67570943 0.15211621 0
3.8820002 -0.68036687 0.15276563 0
3.8760002 -0.68554378 0.15319851 0
3.8720002 -0.69107074 0.15348712 0
3.8700004 -0.69695836 0.15363142 0
3.8690002 -0.70302814 0.15370357 0
3.8700004 -0.70947677 0.15363142 0
3.8720002 -0.71612197 0.15348712 0
3.8760002 -0.72316402 0.15319851 0
3.8860002 -0.73140019 0.152477 0
4.3860002 -0.83689779 0.11640081 0
4.381 -0.8430866 0.1167616 0
4.3770003 -0.84945947 0.11705017 0
4.3740001 -0.8560217 0.11726665 0
4.3730001 -0.86298442 0.11733881 0
4.3720002 -0.86994356 0.11741096 0
4.3720002 -0.87710822 0.11741096 0
4.3730001 -0.88448405 0.11733881 0
4.3759999 -0.89228904 0.11712235 0
4.3800001 -0.90031964 0.11683375 0
4.092 -0.89843649 0.13761362 0
4.0820003 -0.90276927 0.13833514 0
4.0770001 -0.90823841 0.1386959 0
4.073 -0.91392577 0.13898453 0
4.0710001 -0.92007494 0.1391288 0
4.0700002 -0.92645681 0.13920099 0
4.0710001 -0.93331856 0.1391288 0
4.073 -0.9404273 0.13898453 0
4.079 -0.94852465 0.13855159 0
4.2140002 -0.99540204 0.12881106 0
4.2060003 -1.000276 0.12938824 0
4.2000003 -1.005626 0.12982118 0
4.1950002 -1.0112088 0.13018194 0
4.1920004 -1.0172858 0.13039839 0
4.1890001 -1.023352 0.13061482 0
4.1870003 -1.029667 0.13075915 0
4.1860003 -1.0362366 0.1308313 0
4.1860003 -1.0430658 0.1308313 0
4.1870003 -1.0501602 0.13075915 0
4.1890001 -1.0575252 0.13061482 0
4.1930003 -1.0654349 0.13032624 0
4.1990004 -1.0739001 0.1298933 0
4.1129999 -0.47464254 0.12940088 0
4.1030002 -0.48016763 0.13014045 0
4.0970001 -0.48613283 0.13058418 0
4.0940003 -0.49243894 0.13080603 0
4.092 -0.4988569 0.13095394 0
4.092 -0.50551653 0.13095394 0
4.0929999 -0.51230246 0.13088 0
4.0970001 -0.51947623 0.13058418 0
4.1040001 -0.52705401 0.13006645 0
