# .PCD v0.7 - Point Cloud Data file format
VERSION 0.7
FIELDS x y z intensity
SIZE 4 4 4 4
TYPE F F F F
COUNT 1 1 1 1
WIDTH 1489
HEIGHT 1
VIEWPOINT 0 0 0 1 0 0 0
POINTS 1489
DATA ascii
4.223 1.7193655 0.6384626 0
4.2220001 1.7120095 0.63840127 0
4.2280002 1.7078643 0.63876927 0
4.2400002 1.7064357 0.63950521 0
4.2520003 1.7049638 0.64024115 0
4.2750001 1.7014393 0.64165175 0
4.2810001 1.6971444 0.64201975 0
4.2870002 1.6928278 0.64238769 0
4.2930002 1.6884897 0.64275569 0
4.2990003 1.6841298 0.64312363 0
4.3040004 1.6793065 0.64343029 0
4.198 1.7763296 0.63007849 0
4.1920004 1.7666109 0.6297214 0
4.197 1.7621517 0.63001895 0
4.2030001 1.7581491 0.63037616 0
4.2080002 1.7536522 0.63067377 0
4.2140002 1.7496082 0.63103092 0
4.2190003 1.7450733 0.63132858 0
4.2250004 1.7409878 0.63168573 0
4.2250004 1.7340883 0.63168573 0
4.224 1.726725 0.63162619 0
4.223 1.7193655 0.63156664 0
4.2220001 1.7120095 0.63150716 0
4.2280002 1.7078643 0.63186431 0
4.2400002 1.7064357 0.63257861 0
4.2520003 1.7049638 0.63329291 0
4.2750001 1.7014393 0.63466197 0
4.2810001 1.6971444 0.63501918 0
4.2870002 1.6928278 0.63537627 0
4.2930002 1.6884897 0.63573349 0
4.2990003 1.6841298 0.63609064 0
4.3040004 1.6793065 0.63638824 0
4.198 1.7763296 0.62322766 0
4.1920004 1.7666109 0.62288129 0
4.197 1.7621517 0.6231699 0
4.2030001 1.7581491 0.62351626 0
4.2080002 1.7536522 0.62380487 0
4.2140002 1.7496082 0.62415123 0
4.2190003 1.7450733 0.62443984 0
4.2250004 1.7409878 0.62478614 0
4.2250004 1.7340883 0.62478614 0
4.224 1.726725 0.62472844 0
4.223 1.7193655 0.62467068 0
4.2220001 1.7120095 0.62461299 0
4.2280002 1.7078643 0.62495929 0
4.2400002 1.7064357 0.62565196 0
4.2520003 1.7049638 0.62634462 0
4.2750001 1.7014393 0.62767226 0
4.2810001 1.6971444 0.62801856 0
4.2870002 1.6928278 0.62836492 0
4.2930002 1.6884897 0.62871122 0
4.2990003 1.6841298 0.62905753 0
4.3040004 1.6793065 0.62934619 0
4.198 1.7763296 0.61637676 0
4.1920004 1.7666109 0.6160413 0
4.197 1.7621517 0.61632085 0
4.2030001 1.7581491 0.61665636 0
4.2080002 1.7536522 0.61693597 0
4.2140002 1.7496082 0.61727148 0
4.2190003 1.7450733 0.61755109 0
4.2250004 1.7409878 0.6178866 0
4.2250004 1.7340883 0.6178866 0
4.224 1.726725 0.61783063 0
4.223 1.7193655 0.61777472 0
4.2220001 1.7120095 0.61771882 0
4.2280002 1.7078643 0.61805433 0
4.2400002 1.7064357 0.61872536 0
4.2520003 1.7049638 0.61939639 0
4.2750001 1.7014393 0.62068248 0
4.2810001 1.6971444 0.62101799 0
4.2870002 1.6928278 0.62135351 0
4.2930002 1.6884897 0.62168902 0
4.2990003 1.6841298 0.62202454 0
4.3040004 1.6793065 0.62230408 0
4.198 1.7763296 0.60952592 0
4.1920004 1.7666109 0.60920125 0
4.197 1.7621517 0.6094718 0
4.2030001 1.7581491 0.60979652 0
4.2080002 1.7536522 0.61006707 0
4.2140002 1.7496082 0.61039174 0
4.2190003 1.7450733 0.61066234 0
4.2250004 1.7409878 0.61098701 0
4.2250004 1.7340883 0.61098701 0
4.224 1.726725 0.61093289 0
4.223 1.7193655 0.61087877 0
4.2220001 1.7120095 0.6108247 0
4.2280002 1.7078643 0.61114937 0
4.2400002 1.7064357 0.6117987 0
4.2520003 1.7049638 0.6124481 0
4.2750001 1.7014393 0.61369276 0
4.2810001 1.6971444 0.61401743 0
4.2870002 1.6928278 0.61434209 0
4.2930002 1.6884897 0.61466676 0
4.2990003 1.6841298 0.61499143 0
4.3040004 1.6793065 0.61526203 0
4.198 1.7763296 0.60267508 0
4.1920004 1.7666109 0.6023612 0
4.197 1.7621517 0.60262275 0
4.2030001 1.7581491 0.60293663 0
4.2080002 1.7536522 0.60319817 0
4.2140002 1.7496082 0.60351205 0
4.2190003 1.7450733 0.60377359 0
4.2250004 1.7409878 0.60408747 0
4.2250004 1.7340883 0.60408747 0
4.224 1.726725 0.60403514 0
4.223 1.7193655 0.60398281 0
4.2220001 1.7120095 0.60393053 0
4.2280002 1.7078643 0.60424435 0
4.2400002 1.7064357 0.60487211 0
4.2520003 1.7049638 0.60549986 0
4.2750001 1.7014393 0.60670298 0
4.2810001 1.6971444 0.6070168 0
4.2870002 1.6928278 0.60733068 0
4.2930002 1.6884897 0.60764456 0
4.2990003 1.6841298 0.60795844 0
4.3040004 1.6793065 0.60821998 0
4.198 1.7763296 0.59582418 0
4.1920004 1.7666109 0.59552115 0
4.197 1.7621517 0.5957737 0
4.2030001 1.7581491 0.59607673 0
4.2080002 1.7536522 0.59632927 0
4.2140002 1.7496082 0.5966323 0
4.2190003 1.7450733 0.59688485 0
4.2250004 1.7409878 0.59718788 0
4.2250004 1.7340883 0.59718788 0
4.224 1.726725 0.59713739 0
4.223 1.7193655 0.59708685 0
4.2220001 1.7120095 0.59703636 0
4.2280002 1.7078643 0.59733939 0
4.2400002 1.7064357 0.59794545 0
4.2520003 1.7049638 0.59855157 0
4.2750001 1.7014393 0.59971321 0
4.2810001 1.6971444 0.60001624 0
4.2870002 1.6928278 0.60031927 0
4.2930002 1.6884897 0.6006223 0
4.2990003 1.6841298 0.60092539 0
4.3040004 1.6793065 0.60117793 0
4.198 1.7763296 0.58897334 0
4.1920004 1.7666109 0.5886811 0
4.197 1.7621517 0.58892465 0
4.2030001 1.7581491 0.58921683 0
4.2080002 1.7536522 0.58946037 0
4.2140002 1.7496082 0.58975255 0
4.2190003 1.7450733 0.5899961 0
4.2250004 1.7409878 0.59028828 0
4.2250004 1.7340883 0.59028828 0
4.224 1.726725 0.59023958 0
4.223 1.7193655 0.59019089 0
4.2220001 1.7120095 0.59014219 0
4.2280002 1.7078643 0.59043443 0
4.2400002 1.7064357 0.59101886 0
4.2520003 1.7049638 0.59160328 0
4.2750001 1.7014393 0.59272349 0
4.2810001 1.6971444 0.59301567 0
4.2870002 1.6928278 0.59330785 0
4.2930002 1.6884897 0.59360009 0
4.2990003 1.6841298 0.59389234 0
4.3040004 1.6793065 0.59413582 0
4.198 1.7763296 0.58212245 0
4.1920004 1.7666109 0.58184111 0
4.197 1.7621517 0.5820756 0
4.2030001 1.7581491 0.58235693 0
4.2080002 1.7536522 0.58259147 0
4.2140002 1.7496082 0.58287287 0
4.2190003 1.7450733 0.58310735 0
4.2250004 1.7409878 0.58338875 0
4.2250004 1.7340883 0.58338875 0
4.224 1.726725 0.58334184 0
4.223 1.7193655 0.58329493 0
4.2220001 1.7120095 0.58324802 0
4.2280002 1.7078643 0.58352941 0
4.2400002 1.7064357 0.58409226 0
4.2520003 1.7049638 0.58465505 0
4.2750001 1.7014393 0.58573371 0
4.2810001 1.6971444 0.58601511 0
4.2870002 1.6928278 0.5862965 0
4.2930002 1.6884897 0.58657789 0
4.2990003 1.6841298 0.58685929 0
4.3040004 1.6793065 0.58709377 0
4.198 1.7763296 0.57527161 0
4.1920004 1.7666109 0.57500106 0
4.197 1.7621517 0.57522649 0
4.2030001 1.7581491 0.57549709 0
4.2080002 1.7536522 0.57572258 0
4.2140002 1.7496082 0.57599312 0
4.2190003 1.7450733 0.57621861 0
4.2250004 1.7409878 0.57648921 0
4.2250004 1.7340883 0.57648921 0
4.224 1.726725 0.57644409 0
4.223 1.7193655 0.57639897 0
4.2220001 1.7120095 0.57635391 0
4.2280002 1.7078643 0.57662445 0
4.2400002 1.7064357 0.5771656 0
4.2520003 1.7049638 0.57770675 0
4.2750001 1.7014393 0.57874393 0
4.2810001 1.6971444 0.57901454 0
4.2870002 1.6928278 0.57928509 0
4.2930002 1.6884897 0.57955563 0
4.2990003 1.6841298 0.57982624 0
4.3040004 1.6793065 0.58005172 0
4.198 1.7763296 0.56842077 0
4.1920004 1.7666109 0.56816101 0
4.197 1.7621517 0.56837744 0
4.2030001 1.7581491 0.56863719 0
4.2080002 1.7536522 0.56885362 0
4.2140002 1.7496082 0.56911337 0
4.2190003 1.7450733 0.56932986 0
4.2250004 1.7409878 0.56958961 0
4.2250004 1.7340883 0.56958961 0
4.224 1.726725 0.56954634 0
4.223 1.7193655 0.56950301 0
4.2220001 1.7120095 0.56945974 0
4.2280002 1.7078643 0.56971949 0
4.2400002 1.7064357 0.57023895 0
4.2520003 1.7049638 0.57075846 0
4.2750001 1.7014393 0.57175422 0
4.2810001 1.6971444 0.57201391 0
4.2870002 1.6928278 0.57227367 0
4.2930002 1.6884897 0.57253343 0
4.2990003 1.6841298 0.57279319 0
4.3040004 1.6793065 0.57300961 0
4.198 1.7763296 0.56156987 0
4.1920004 1.7666109 0.56132096 0
4.197 1.7621517 0.56152838 0
4.2030001 1.7581491 0.56177729 0
4.2080002 1.7536522 0.56198478 0
4.2140002 1.7496082 0.56223369 0
4.2190003 1.7450733 0.56244111 0
4.2250004 1.7409878 0.56269002 0
4.2250004 1.7340883 0.56269002 0
4.224 1.726725 0.56264853 0
4.223 1.7193655 0.56260705 0
4.2220001 1.7120095 0.56256557 0
4.2280002 1.7078643 0.56281447 0
4.2400002 1.7064357 0.56331235 0
4.2520003 1.7049638 0.56381023 0
4.2750001 1.7014393 0.56476444 0
4.2810001 1.6971444 0.56501335 0
4.2870002 1.6928278 0.56526226 0
4.2930002 1.6884897 0.56551123 0
4.2990003 1.6841298 0.56576014 0
4.3040004 1.6793065 0.56596756 0
4.198 1.7763296 0.55471897 0
4.1920004 1.7666109 0.55448091 0
4.197 1.7621517 0.55467933 0
4.2030001 1.7581491 0.55491745 0
4.2080002 1.7536522 0.55511582 0
4.2140002 1.7496082 0.55535394 0
4.2190003 1.7450733 0.55555236 0
4.2250004 1.7409878 0.55579048 0
4.2250004 1.7340883 0.55579048 0
4.224 1.726725 0.55575079 0
4.223 1.7193655 0.55571109 0
4.2220001 1.7120095 0.55567145 0
4.2280002 1.7078643 0.55590951 0
4.2400002 1.7064357 0.55638576 0
4.2520003 1.7049638 0.55686194 0
4.2750001 1.7014393 0.55777466 0
4.2810001 1.6971444 0.55801278 0
4.2870002 1.6928278 0.55825084 0
4.2930002 1.6884897 0.55848897 0
4.2990003 1.6841298 0.55872709 0
4.3040004 1.6793065 0.55892551 0
4.198 1.7763296 0.54786813 0
4.1920004 1.7666109 0.54764086 0
4.197 1.7621517 0.54783028 0
4.2030001 1.7581491 0.54805756 0
4.2080002 1.7536522 0.54824698 0
4.2140002 1.7496082 0.54847419 0
4.2190003 1.7450733 0.54866362 0
4.2250004 1.7409878 0.54889095 0
4.2250004 1.7340883 0.54889095 0
4.224 1.726725 0.54885304 0
4.223 1.7193655 0.54881513 0
4.2220001 1.7120095 0.54877728 0
4.2280002 1.7078643 0.54900455 0
4.2400002 1.7064357 0.5494591 0
4.2520003 1.7049638 0.54991364 0
4.2750001 1.7014393 0.55078495 0
4.2810001 1.6971444 0.55101216 0
4.2870002 1.6928278 0.55123949 0
4.2930002 1.6884897 0.55146676 0
4.2990003 1.6841298 0.55169404 0
4.3040004 1.6793065 0.55188346 0
4.198 1.7763296 0.54101729 0
4.1920004 1.7666109 0.54080081 0
4.197 1.7621517 0.54098117 0
4.2030001 1.7581491 0.54119766 0
4.2080002 1.7536522 0.54137802 0
4.2140002 1.7496082 0.54159451 0
4.2190003 1.7450733 0.54177487 0
4.2250004 1.7409878 0.54199135 0
4.2250004 1.7340883 0.54199135 0
4.224 1.726725 0.54195523 0
4.223 1.7193655 0.54191923 0
4.2220001 1.7120095 0.54188311 0
4.2280002 1.7078643 0.5420996 0
4.2400002 1.7064357 0.5425325 0
4.2520003 1.7049638 0.54296541 0
4.2750001 1.7014393 0.54379517 0
4.2810001 1.6971444 0.54401159 0
4.2870002 1.6928278 0.54422808 0
4.2930002 1.6884897 0.5444445 0
4.2990003 1.6841298 0.54466099 0
4.3040004 1.6793065 0.54484135 0
4.198 1.7763296 0.53416646 0
4.1920004 1.7666109 0.53396082 0
4.197 1.7621517 0.53413212 0
4.2030001 1.7581491 0.53433776 0
4.2080002 1.7536522 0.53450918 0
4.2140002 1.7496082 0.53471482 0
4.2190003 1.7450733 0.53488612 0
4.2250004 1.7409878 0.53509176 0
4.2250004 1.7340883 0.53509176 0
4.224 1.726725 0.53505754 0
4.223 1.7193655 0.53502321 0
4.2220001 1.7120095 0.53498894 0
4.2280002 1.7078643 0.53519458 0
4.2400002 1.7064357 0.53560585 0
4.2520003 1.7049638 0.53601712 0
4.2750001 1.7014393 0.53680539 0
4.2810001 1.6971444 0.53701103 0
4.2870002 1.6928278 0.53721666 0
4.2930002 1.6884897 0.5374223 0
4.2990003 1.6841298 0.53762794 0
4.3040004 1.6793065 0.5377993 0
4.198 1.7763296 0.52731556 0
4.1920004 1.7666109 0.52712077 0
4.197 1.7621517 0.52728307 0
4.2030001 1.7581491 0.52747792 0
4.2080002 1.7536522 0.52764022 0
4.2140002 1.7496082 0.52783507 0
4.2190003 1.7450733 0.52799737 0
4.2250004 1.7409878 0.52819222 0
4.2250004 1.7340883 0.52819222 0
4.224 1.726725 0.52815974 0
4.223 1.7193655 0.52812725 0
4.2220001 1.7120095 0.52809483 0
4.2280002 1.7078643 0.52828962 0
4.2400002 1.7064357 0.52867925 0
4.2520003 1.7049638 0.52906889 0
4.2750001 1.7014393 0.52981567 0
4.2810001 1.6971444 0.53001046 0
4.2870002 1.6928278 0.53020525 0
4.2930002 1.6884897 0.5304001 0
4.2990003 1.6841298 0.53059489 0
4.3040004 1.6793065 0.53075719 0
4.198 1.7763296 0.52046472 0
4.1920004 1.7666109 0.52028072 0
4.197 1.7621517 0.52043402 0
4.2030001 1.7581491 0.52061802 0
4.2080002 1.7536522 0.52077132 0
4.2140002 1.7496082 0.52095532 0
4.2190003 1.7450733 0.52110863 0
4.2250004 1.7409878 0.52129263 0
4.2250004 1.7340883 0.52129263 0
4.224 1.726725 0.52126199 0
4.223 1.7193655 0.52123129 0
4.2220001 1.7120095 0.52120066 0
4.2280002 1.7078643 0.52138466 0
4.2400002 1.7064357 0.5217526 0
4.2520003 1.7049638 0.52212059 0
4.2750001 1.7014393 0.5228259 0
4.2810001 1.6971444 0.5230099 0
4.2870002 1.6928278 0.52319384 0
4.2930002 1.6884897 0.52337784 0
4.2990003 1.6841298 0.52356184 0
4.3040004 1.6793065 0.52371514 0
4.198 1.7763296 0.51361382 0
4.1920004 1.7666109 0.51344067 0
4.197 1.7621517 0.51358497 0
4.2030001 1.7581491 0.51375812 0
4.2080002 1.7536522 0.51390243 0
4.2140002 1.7496082 0.51407564 0
4.2190003 1.7450733 0.51421994 0
4.2250004 1.7409878 0.51439309 0
4.2250004 1.7340883 0.51439309 0
4.224 1.726725 0.51436424 0
4.223 1.7193655 0.51433533 0
4.2220001 1.7120095 0.51430649 0
4.2280002 1.7078643 0.51447964 0
4.2400002 1.7064357 0.514826 0
4.2520003 1.7049638 0.5151723 0
4.2750001 1.7014393 0.51583612 0
4.2810001 1.6971444 0.51600927 0
4.2870002 1.6928278 0.51618242 0
4.2930002 1.6884897 0.51635563 0
4.2990003 1.6841298 0.51652879 0
4.3040004 1.6793065 0.51667309 0
4.198 1.7763296 0.50676298 0
4.1920004 1.7666109 0.50660062 0
4.197 1.7621517 0.50673592 0
4.2030001 1.7581491 0.50689828 0
4.2080002 1.7536522 0.50703353 0
4.2140002 1.7496082 0.50719589 0
4.2190003 1.7450733 0.50733119 0
4.2250004 1.7409878 0.5074935 0
4.2250004 1.7340883 0.5074935 0
4.224 1.726725 0.50746644 0
4.223 1.7193655 0.50743937 0
4.2220001 1.7120095 0.50741231 0
4.2280002 1.7078643 0.50757468 0
4.2400002 1.7064357 0.50789934 0
4.2520003 1.7049638 0.50822407 0
4.2750001 1.7014393 0.5088464 0
4.2810001 1.6971444 0.50900871 0
4.2870002 1.6928278 0.50917107 0
4.2930002 1.6884897 0.50933337 0
4.2990003 1.6841298 0.50949574 0
4.3040004 1.6793065 0.50963104 0
4.198 1.7763296 0.49991211 0
4.1920004 1.7666109 0.4997606 0
4.197 1.7621517 0.49988684 0
4.2030001 1.7581491 0.50003839 0
4.2080002 1.7536522 0.50016463 0
4.2140002 1.7496082 0.50031614 0
4.2190003 1.7450733 0.50044245 0
4.2250004 1.7409878 0.50059396 0
4.2250004 1.7340883 0.50059396 0
4.224 1.726725 0.50056869 0
4.223 1.7193655 0.50054342 0
4.2220001 1.7120095 0.5005182 0
4.2280002 1.7078643 0.50066972 0
4.2400002 1.7064357 0.50097275 0
4.2520003 1.7049638 0.50127578 0
4.2750001 1.7014393 0.50185663 0
4.2810001 1.6971444 0.50200814 0
4.2870002 1.6928278 0.50215966 0
4.2930002 1.6884897 0.50231117 0
4.2990003 1.6841298 0.50246269 0
4.3040004 1.6793065 0.50258899 0
4.198 1.7763296 0.49306124 0
4.1920004 1.7666109 0.49292055 0
4.197 1.7621517 0.49303779 0
4.2030001 1.7581491 0.49317849 0
4.2080002 1.7536522 0.49329573 0
4.2140002 1.7496082 0.49343643 0
4.2190003 1.7450733 0.4935537 0
4.2250004 1.7409878 0.49369437 0
4.2250004 1.7340883 0.49369437 0
4.224 1.726725 0.49367094 0
4.223 1.7193655 0.49364749 0
4.2220001 1.7120095 0.49362403 0
4.2280002 1.7078643 0.49376473 0
4.2400002 1.7064357 0.49404612 0
4.2520003 1.7049638 0.49432752 0
4.2750001 1.7014393 0.49486685 0
4.2810001 1.6971444 0.49500754 0
4.2870002 1.6928278 0.49514824 0
4.2930002 1.6884897 0.49528894 0
4.2990003 1.6841298 0.49542964 0
4.3040004 1.6793065 0.49554688 0
4.198 1.7763296 0.48621038 0
4.1920004 1.7666109 0.48608053 0
4.197 1.7621517 0.48618874 0
4.2030001 1.7581491 0.48631859 0
4.2080002 1.7536522 0.48642683 0
4.2140002 1.7496082 0.48655671 0
4.2190003 1.7450733 0.48666495 0
4.2250004 1.7409878 0.48679483 0
4.2250004 1.7340883 0.48679483 0
4.224 1.726725 0.48677316 0
4.223 1.7193655 0.48675153 0
4.2220001 1.7120095 0.48672986 0
4.2280002 1.7078643 0.48685974 0
4.2400002 1.7064357 0.4871195 0
4.2520003 1.7049638 0.48737925 0
4.2750001 1.7014393 0.4878771 0
4.2810001 1.6971444 0.48800698 0
4.2870002 1.6928278 0.48813683 0
4.2930002 1.6884897 0.48826671 0
4.2990003 1.6841298 0.48839658 0
4.3040004 1.6793065 0.48850483 0
4.198 1.7763296 0.47935951 0
4.1920004 1.7666109 0.47924048 0
4.197 1.7621517 0.47933966 0
4.2030001 1.7581491 0.47945872 0
4.2080002 1.7536522 0.47955793 0
4.2140002 1.7496082 0.47967699 0
4.2190003 1.7450733 0.4797762 0
4.2250004 1.7409878 0.47989523 0
4.2250004 1.7340883 0.47989523 0
4.224 1.726725 0.47987542 0
4.223 1.7193655 0.47985557 0
4.2220001 1.7120095 0.47983572 0
4.2280002 1.7078643 0.47995478 0
4.2400002 1.7064357 0.48019287 0
4.2520003 1.7049638 0.48043096 0
4.2750001 1.7014393 0.48088735 0
4.2810001 1.6971444 0.48100638 0
4.2870002 1.6928278 0.48112544 0
4.2930002 1.6884897 0.4812445 0
4.2990003 1.6841298 0.48136353 0
4.3040004 1.6793065 0.48146278 0
4.198 1.7763296 0.47250864 0
4.1920004 1.7666109 0.47240043 0
4.197 1.7621517 0.47249061 0
4.2030001 1.7581491 0.47259885 0
4.2080002 1.7536522 0.47268903 0
4.2140002 1.7496082 0.47279724 0
4.2190003 1.7450733 0.47288746 0
4.2250004 1.7409878 0.4729957 0
4.2250004 1.7340883 0.4729957 0
4.224 1.726725 0.47297764 0
4.223 1.7193655 0.47295961 0
4.2220001 1.7120095 0.47294158 0
4.2280002 1.7078643 0.47304979 0
4.2400002 1.7064357 0.47326624 0
4.2520003 1.7049638 0.47348273 0
4.2750001 1.7014393 0.47389758 0
4.2810001 1.6971444 0.47400582 0
4.2870002 1.6928278 0.47411403 0
4.2930002 1.6884897 0.47422227 0
4.2990003 1.6841298 0.47433048 0
4.3040004 1.6793065 0.4744207 0
4.198 1.7763296 0.46565777 0
4.1920004 1.7666109 0.46556038 0
4.197 1.7621517 0.46564156 0
4.2030001 1.7581491 0.46573895 0
4.2080002 1.7536522 0.46582013 0
4.2140002 1.7496082 0.46591753 0
4.2190003 1.7450733 0.46599871 0
4.2250004 1.7409878 0.4660961 0
4.2250004 1.7340883 0.4660961 0
4.224 1.726725 0.46607989 0
4.223 1.7193655 0.46606365 0
4.2220001 1.7120095 0.46604741 0
4.2280002 1.7078643 0.4661448 0
4.2400002 1.7064357 0.46633962 0
4.2520003 1.7049638 0.46653444 0
4.2750001 1.7014393 0.46690783 0
4.2810001 1.6971444 0.46700522 0
4.2870002 1.6928278 0.46710265 0
4.2930002 1.6884897 0.46720004 0
4.2990003 1.6841298 0.46729743 0
4.3040004 1.6793065 0.46737862 0
4.198 1.7763296 0.45880693 0
4.1920004 1.7666109 0.45872033 0
4.197 1.7621517 0.45879251 0
4.2030001 1.7581491 0.45887908 0
4.2080002 1.7536522 0.45895123 0
4.2140002 1.7496082 0.45903781 0
4.2190003 1.7450733 0.45910996 0
4.2250004 1.7409878 0.45919654 0
4.2250004 1.7340883 0.45919654 0
4.224 1.726725 0.45918211 0
4.223 1.7193655 0.45916769 0
4.2220001 1.7120095 0.45915326 0
4.2280002 1.7078643 0.45923984 0
4.2400002 1.7064357 0.45941299 0
4.2520003 1.7049638 0.45958617 0
4.2750001 1.7014393 0.45991808 0
4.2810001 1.6971444 0.46000466 0
4.2870002 1.6928278 0.46009123 0
4.2930002 1.6884897 0.46017781 0
4.2990003 1.6841298 0.46026438 0
4.3040004 1.6793065 0.46033657 0
4.198 1.7763296 0.45195606 0
4.1920004 1.7666109 0.45188031 0
4.197 1.7621517 0.45194343 0
4.2030001 1.7581491 0.45201918 0
4.2080002 1.7536522 0.45208234 0
4.2140002 1.7496082 0.45215809 0
4.2190003 1.7450733 0.45222121 0
4.2250004 1.7409878 0.45229697 0
4.2250004 1.7340883 0.45229697 0
4.224 1.726725 0.45228437 0
4.223 1.7193655 0.45227173 0
4.2220001 1.7120095 0.45225909 0
4.2280002 1.7078643 0.45233485 0
4.2400002 1.7064357 0.45248637 0
4.2520003 1.7049638 0.45263791 0
4.2750001 1.7014393 0.4529283 0
4.2810001 1.6971444 0.45300406 0
4.2870002 1.6928278 0.45307982 0
4.2930002 1.6884897 0.45315558 0
4.2990003 1.6841298 0.45323136 0
4.3040004 1.6793065 0.45329449 0
4.198 1.7763296 0.4451052 0
4.1920004 1.7666109 0.44504026 0
4.197 1.7621517 0.44509438 0
4.2030001 1.7581491 0.44515932 0
4.2080002 1.7536522 0.44521344 0
4.2140002 1.7496082 0.44527835 0
4.2190003 1.7450733 0.44533247 0
4.2250004 1.7409878 0.44539741 0
4.2250004 1.7340883 0.44539741 0
4.224 1.726725 0.44538659 0
4.223 1.7193655 0.44537577 0
4.2220001 1.7120095 0.44536495 0
4.2280002 1.7078643 0.44542989 0
4.2400002 1.7064357 0.44555974 0
4.2520003 1.7049638 0.44568962 0
4.2750001 1.7014393 0.44593856 0
4.2810001 1.6971444 0.4460035 0
4.2870002 1.6928278 0.44606844 0
4.2930002 1.6884897 0.44613338 0
4.2990003 1.6841298 0.44619831 0
4.3040004 1.6793065 0.44625241 0
4.198 1.7763296 0.43825433 0
4.1920004 1.7666109 0.43820021 0
4.197 1.7621517 0.4382453 0
4.2030001 1.7581491 0.43829942 0
4.2080002 1.7536522 0.43834454 0
4.2140002 1.7496082 0.43839863 0
4.2190003 1.7450733 0.43844372 0
4.2250004 1.7409878 0.43849784 0
4.2250004 1.7340883 0.43849784 0
4.224 1.726725 0.43848884 0
4.223 1.7193655 0.43847981 0
4.2220001 1.7120095 0.43847078 0
4.2280002 1.7078643 0.4385249 0
4.2400002 1.7064357 0.43863314 0
4.2520003 1.7049638 0.43874136 0
4.2750001 1.7014393 0.43894881 0
4.2810001 1.6971444 0.4390029 0
4.2870002 1.6928278 0.43905702 0
4.2930002 1.6884897 0.43911114 0
4.2990003 1.6841298 0.43916526 0
4.3040004 1.6793065 0.43921036 0
4.198 1.7763296 0.43140346 0
4.1920004 1.7666109 0.43136019 0
4.197 1.7621517 0.43139625 0
4.2030001 1.7581491 0.43143955 0
4.2080002 1.7536522 0.43147561 0
4.2140002 1.7496082 0.43151891 0
4.2190003 1.7450733 0.431555 0
4.2250004 1.7409878 0.43159828 0
4.2250004 1.7340883 0.43159828 0
4.224 1.726725 0.43159106 0
4.223 1.7193655 0.43158385 0
4.2220001 1.7120095 0.43157664 0
4.2280002 1.7078643 0.43161991 0
4.2400002 1.7064357 0.43170652 0
4.2520003 1.7049638 0.43179309 0
4.2750001 1.7014393 0.43195903 0
4.2810001 1.6971444 0.43200234 0
4.2870002 1.6928278 0.43204564 0
4.2930002 1.6884897 0.43208891 0
4.2990003 1.6841298 0.43213221 0
4.3040004 1.6793065 0.43216828 0
4.198 1.7763296 0.42455262 0
4.1920004 1.7666109 0.42452013 0
4.197 1.7621517 0.4245472 0
4.2030001 1.7581491 0.42457965 0
4.2080002 1.7536522 0.42460671 0
4.2140002 1.7496082 0.4246392 0
4.2190003 1.7450733 0.42466626 0
4.2250004 1.7409878 0.42469871 0
4.2250004 1.7340883 0.42469871 0
4.224 1.726725 0.42469329 0
4.223 1.7193655 0.42468789 0
4.2220001 1.7120095 0.42468247 0
4.2280002 1.7078643 0.42471495 0
4.2400002 1.7064357 0.42477989 0
4.2520003 1.7049638 0.42484483 0
4.2750001 1.7014393 0.42496929 0
4.2810001 1.6971444 0.42500174 0
4.2870002 1.6928278 0.42503422 0
4.2930002 1.6884897 0.42506668 0
4.2990003 1.6841298 0.42509916 0
4.3040004 1.6793065 0.42512622 0
4.198 1.7763296 0.41770175 0
4.1920004 1.7666109 0.41768008 0
4.197 1.7621517 0.41769814 0
4.2030001 1.7581491 0.41771978 0
4.2080002 1.7536522 0.41773781 0
4.2140002 1.7496082 0.41775948 0
4.2190003 1.7450733 0.41777751 0
4.2250004 1.7409878 0.41779914 0
4.2250004 1.7340883 0.41779914 0
4.224 1.726725 0.41779554 0
4.223 1.7193655 0.41779193 0
4.2220001 1.7120095 0.41778833 0
4.2280002 1.7078643 0.41780996 0
4.2400002 1.7064357 0.41785327 0
4.2520003 1.7049638 0.41789654 0
4.2750001 1.7014393 0.41797954 0
4.2810001 1.6971444 0.41800117 0
4.2870002 1.6928278 0.41802281 0
4.2930002 1.6884897 0.41804448 0
4.2990003 1.6841298 0.41806611 0
4.3040004 1.6793065 0.41808414 0
4.198 1.7763296 0.41085088 0
4.1920004 1.7666109 0.41084006 0
4.197 1.7621517 0.41084906 0
4.2030001 1.7581491 0.41085988 0
4.2080002 1.7536522 0.41086891 0
4.2140002 1.7496082 0.41087973 0
4.2190003 1.7450733 0.41088876 0
4.2250004 1.7409878 0.41089958 0
4.2250004 1.7340883 0.41089958 0
4.224 1.726725 0.41089779 0
4.223 1.7193655 0.41089597 0
4.2220001 1.7120095 0.41089416 0
4.2280002 1.7078643 0.410905 0
4.2400002 1.7064357 0.41092664 0
4.2520003 1.7049638 0.41094828 0
4.2750001 1.7014393 0.41098976 0
4.2810001 1.6971444 0.41100058 0
4.2870002 1.6928278 0.41101143 0
4.2930002 1.6884897 0.41102225 0
4.2990003 1.6841298 0.41103306 0
4.3040004 1.6793065 0.41104209 0
4.198 1.7763296 0.40400001 0
4.1920004 1.7666109 0.40400001 0
4.197 1.7621517 0.40400001 0
4.2030001 1.7581491 0.40400001 0
4.2080002 1.7536522 0.40400001 0
4.2140002 1.7496082 0.40400001 0
4.2190003 1.7450733 0.40400001 0
4.2250004 1.7409878 0.40400001 0
4.2250004 1.7340883 0.40400001 0
4.224 1.726725 0.40400001 0
4.223 1.7193655 0.40400001 0
4.2220001 1.7120095 0.40400001 0
4.2280002 1.7078643 0.40400001 0
4.2400002 1.7064357 0.40400001 0
4.2520003 1.7049638 0.40400001 0
4.2750001 1.7014393 0.40400001 0
4.2810001 1.6971444 0.40400001 0
4.2870002 1.6928278 0.40400001 0
4.2930002 1.6884897 0.40400001 0
4.2990003 1.6841298 0.40400001 0
4.3040004 1.6793065 0.40400001 0
4.198 1.7763296 0.39714915 0
4.1920004 1.7666109 0.39715996 0
4.197 1.7621517 0.39715096 0
4.2030001 1.7581491 0.39714015 0
4.2080002 1.7536522 0.39713112 0
4.2140002 1.7496082 0.3971203 0
4.2190003 1.7450733 0.39711127 0
4.2250004 1.7409878 0.39710045 0
4.2250004 1.7340883 0.39710045 0
4.224 1.726725 0.39710224 0
4.223 1.7193655 0.39710405 0
4.2220001 1.7120095 0.39710587 0
4.2280002 1.7078643 0.39709502 0
4.2400002 1.7064357 0.39707339 0
4.2520003 1.7049638 0.39705175 0
4.2750001 1.7014393 0.39701027 0
4.2810001 1.6971444 0.39699945 0
4.2870002 1.6928278 0.3969886 0
4.2930002 1.6884897 0.39697778 0
4.2990003 1.6841298 0.39696696 0
4.3040004 1.6793065 0.39695793 0
4.198 1.7763296 0.39029828 0
4.1920004 1.7666109 0.39031994 0
4.197 1.7621517 0.39030188 0
4.2030001 1.7581491 0.39028025 0
4.2080002 1.7536522 0.39026222 0
4.2140002 1.7496082 0.39024055 0
4.2190003 1.7450733 0.39022252 0
4.2250004 1.7409878 0.39020088 0
4.2250004 1.7340883 0.39020088 0
4.224 1.726725 0.39020449 0
4.223 1.7193655 0.3902081 0
4.2220001 1.7120095 0.3902117 0
4.2280002 1.7078643 0.39019006 0
4.2400002 1.7064357 0.39014676 0
4.2520003 1.7049638 0.39010349 0
4.2750001 1.7014393 0.39002049 0
4.2810001 1.6971444 0.38999885 0
4.2870002 1.6928278 0.38997722 0
4.2930002 1.6884897 0.38995555 0
4.2990003 1.6841298 0.38993391 0
4.3040004 1.6793065 0.38991588 0
4.198 1.7763296 0.38344741 0
4.1920004 1.7666109 0.38347989 0
4.197 1.7621517 0.38345283 0
4.2030001 1.7581491 0.38342038 0
4.2080002 1.7536522 0.38339332 0
4.2140002 1.7496082 0.38336083 0
4.2190003 1.7450733 0.38333377 0
4.2250004 1.7409878 0.38330132 0
4.2250004 1.7340883 0.38330132 0
4.224 1.726725 0.38330674 0
4.223 1.7193655 0.38331214 0
4.2220001 1.7120095 0.38331756 0
4.2280002 1.7078643 0.38328508 0
4.2400002 1.7064357 0.38322014 0
4.2520003 1.7049638 0.3831552 0
4.2750001 1.7014393 0.38303074 0
4.2810001 1.6971444 0.38299829 0
4.2870002 1.6928278 0.3829658 0
4.2930002 1.6884897 0.38293335 0
4.2990003 1.6841298 0.38290086 0
4.3040004 1.6793065 0.3828738 0
4.198 1.7763296 0.37659657 0
4.1920004 1.7666109 0.37663984 0
4.197 1.7621517 0.37660378 0
4.2030001 1.7581491 0.37656048 0
4.2080002 1.7536522 0.37652442 0
4.2140002 1.7496082 0.37648112 0
4.2190003 1.7450733 0.37644503 0
4.2250004 1.7409878 0.37640175 0
4.2250004 1.7340883 0.37640175 0
4.224 1.726725 0.37640896 0
4.223 1.7193655 0.37641618 0
4.2220001 1.7120095 0.37642339 0
4.2280002 1.7078643 0.37638012 0
4.2400002 1.7064357 0.37629351 0
4.2520003 1.7049638 0.37620693 0
4.2750001 1.7014393 0.376041 0
4.2810001 1.6971444 0.37599769 0
4.2870002 1.6928278 0.37595439 0
4.2930002 1.6884897 0.37591112 0
4.2990003 1.6841298 0.37586781 0
4.3040004 1.6793065 0.37583175 0
4.198 1.7763296 0.3697457 0
4.1920004 1.7666109 0.36979982 0
4.197 1.7621517 0.36975473 0
4.2030001 1.7581491 0.36970061 0
4.2080002 1.7536522 0.36965549 0
4.2140002 1.7496082 0.3696014 0
4.2190003 1.7450733 0.36955631 0
4.2250004 1.7409878 0.36950219 0
4.2250004 1.7340883 0.36950219 0
4.224 1.726725 0.36951119 0
4.223 1.7193655 0.36952022 0
4.2220001 1.7120095 0.36952925 0
4.2280002 1.7078643 0.36947513 0
4.2400002 1.7064357 0.36936688 0
4.2520003 1.7049638 0.36925867 0
4.2750001 1.7014393 0.36905122 0
4.2810001 1.6971444 0.36899713 0
4.2870002 1.6928278 0.36894301 0
4.2930002 1.6884897 0.36888888 0
4.2990003 1.6841298 0.36883476 0
4.3040004 1.6793065 0.36878967 0
4.198 1.7763296 0.36289483 0
4.1920004 1.7666109 0.36295977 0
4.197 1.7621517 0.36290565 0
4.2030001 1.7581491 0.36284071 0
4.2080002 1.7536522 0.36278659 0
4.2140002 1.7496082 0.36272168 0
4.2190003 1.7450733 0.36266756 0
4.2250004 1.7409878 0.36260262 0
4.2250004 1.7340883 0.36260262 0
4.224 1.726725 0.36261344 0
4.223 1.7193655 0.36262426 0
4.2220001 1.7120095 0.36263508 0
4.2280002 1.7078643 0.36257014 0
4.2400002 1.7064357 0.36244029 0
4.2520003 1.7049638 0.36231041 0
4.2750001 1.7014393 0.36206147 0
4.2810001 1.6971444 0.36199653 0
4.2870002 1.6928278 0.36193159 0
4.2930002 1.6884897 0.36186665 0
4.2990003 1.6841298 0.36180171 0
4.3040004 1.6793065 0.36174762 0
4.198 1.7763296 0.35604396 0
4.1920004 1.7666109 0.35611972 0
4.197 1.7621517 0.3560566 0
4.2030001 1.7581491 0.35598084 0
4.2080002 1.7536522 0.35591769 0
4.2140002 1.7496082 0.35584193 0
4.2190003 1.7450733 0.35577881 0
4.2250004 1.7409878 0.35570306 0
4.2250004 1.7340883 0.35570306 0
4.224 1.726725 0.35571566 0
4.223 1.7193655 0.3557283 0
4.2220001 1.7120095 0.35574093 0
4.2280002 1.7078643 0.35566518 0
4.2400002 1.7064357 0.35551366 0
4.2520003 1.7049638 0.35536212 0
4.2750001 1.7014393 0.35507172 0
4.2810001 1.6971444 0.35499597 0
4.2870002 1.6928278 0.35492021 0
4.2930002 1.6884897 0.35484445 0
4.2990003 1.6841298 0.35476866 0
4.3040004 1.6793065 0.35470554 0
4.198 1.7763296 0.3491931 0
4.1920004 1.7666109 0.3492797 0
4.197 1.7621517 0.34920752 0
4.2030001 1.7581491 0.34912094 0
4.2080002 1.7536522 0.34904879 0
4.2140002 1.7496082 0.34896222 0
4.2190003 1.7450733 0.34889007 0
4.2250004 1.7409878 0.34880349 0
4.2250004 1.7340883 0.34880349 0
4.224 1.726725 0.34881791 0
4.223 1.7193655 0.34883234 0
4.2220001 1.7120095 0.34884676 0
4.2280002 1.7078643 0.34876019 0
4.2400002 1.7064357 0.34858704 0
4.2520003 1.7049638 0.34841385 0
4.2750001 1.7014393 0.34808195 0
4.2810001 1.6971444 0.34799537 0
4.2870002 1.6928278 0.34790879 0
4.2930002 1.6884897 0.34782222 0
4.2990003 1.6841298 0.34773564 0
4.3040004 1.6793065 0.34766346 0
4.198 1.7763296 0.34234226 0
4.1920004 1.7666109 0.34243965 0
4.197 1.7621517 0.34235847 0
4.2030001 1.7581491 0.34226108 0
4.2080002 1.7536522 0.34217989 0
4.2140002 1.7496082 0.3420825 0
4.2190003 1.7450733 0.34200132 0
4.2250004 1.7409878 0.34190392 0
4.2250004 1.7340883 0.34190392 0
4.224 1.726725 0.34192014 0
4.223 1.7193655 0.34193638 0
4.2220001 1.7120095 0.34195262 0
4.2280002 1.7078643 0.34185523 0
4.2400002 1.7064357 0.34166041 0
4.2520003 1.7049638 0.34146559 0
4.2750001 1.7014393 0.3410922 0
4.2810001 1.6971444 0.34099481 0
4.2870002 1.6928278 0.34089738 0
4.2930002 1.6884897 0.34079999 0
4.2990003 1.6841298 0.34070259 0
4.3040004 1.6793065 0.34062141 0
4.198 1.7763296 0.33549139 0
4.1920004 1.7666109 0.3355996 0
4.197 1.7621517 0.33550942 0
4.2030001 1.7581491 0.33540118 0
4.2080002 1.7536522 0.335311 0
4.2140002 1.7496082 0.33520278 0
4.2190003 1.7450733 0.33511257 0
4.2250004 1.7409878 0.33500433 0
4.2250004 1.7340883 0.33500433 0
4.224 1.726725 0.33502239 0
4.223 1.7193655 0.33504042 0
4.2220001 1.7120095 0.33505845 0
4.2280002 1.7078643 0.33495024 0
4.2400002 1.7064357 0.33473378 0
4.2520003 1.7049638 0.3345173 0
4.2750001 1.7014393 0.33410245 0
4.2810001 1.6971444 0.33399421 0
4.2870002 1.6928278 0.333886 0
4.2930002 1.6884897 0.33377776 0
4.2990003 1.6841298 0.33366954 0
4.3040004 1.6793065 0.33357933 0
4.198 1.7763296 0.32864052 0
4.1920004 1.7666109 0.32875955 0
4.197 1.7621517 0.32866037 0
4.2030001 1.7581491 0.32854131 0
4.2080002 1.7536522 0.3284421 0
4.2140002 1.7496082 0.32832304 0
4.2190003 1.7450733 0.32822382 0
4.2250004 1.7409878 0.32810479 0
4.2250004 1.7340883 0.32810479 0
4.224 1.726725 0.32812461 0
4.223 1.7193655 0.32814446 0
4.2220001 1.7120095 0.32816431 0
4.2280002 1.7078643 0.32804525 0
4.2400002 1.7064357 0.32780716 0
4.2520003 1.7049638 0.32756907 0
4.2750001 1.7014393 0.32711267 0
4.2810001 1.6971444 0.32699364 0
4.2870002 1.6928278 0.32687458 0
4.2930002 1.6884897 0.32675552 0
4.2990003 1.6841298 0.32663649 0
4.3040004 1.6793065 0.32653725 0
4.198 1.7763296 0.32178965 0
4.1920004 1.7666109 0.3219195 0
4.197 1.7621517 0.32181129 0
4.2030001 1.7581491 0.32168144 0
4.2080002 1.7536522 0.3215732 0
4.2140002 1.7496082 0.32144332 0
4.2190003 1.7450733 0.32133508 0
4.2250004 1.7409878 0.3212052 0
4.2250004 1.7340883 0.3212052 0
4.224 1.726725 0.32122687 0
4.223 1.7193655 0.3212485 0
4.2220001 1.7120095 0.32127017 0
4.2280002 1.7078643 0.32114029 0
4.2400002 1.7064357 0.32088053 0
4.2520003 1.7049638 0.32062078 0
4.2750001 1.7014393 0.32012293 0
4.2810001 1.6971444 0.31999305 0
4.2870002 1.6928278 0.3198632 0
4.2930002 1.6884897 0.31973332 0
4.2990003 1.6841298 0.31960344 0
4.3040004 1.6793065 0.3194952 0
4.198 1.7763296 0.31493878 0
4.1920004 1.7666109 0.31507948 0
4.197 1.7621517 0.31496224 0
4.2030001 1.7581491 0.31482154 0
4.2080002 1.7536522 0.3147043 0
4.2140002 1.7496082 0.3145636 0
4.2190003 1.7450733 0.31444633 0
4.2250004 1.7409878 0.31430566 0
4.2250004 1.7340883 0.31430566 0
4.224 1.726725 0.31432909 0
4.223 1.7193655 0.31435254 0
4.2220001 1.7120095 0.314376 0
4.2280002 1.7078643 0.3142353 0
4.2400002 1.7064357 0.31395391 0
4.2520003 1.7049638 0.31367251 0
4.2750001 1.7014393 0.31313318 0
4.2810001 1.6971444 0.31299248 0
4.2870002 1.6928278 0.31285179 0
4.2930002 1.6884897 0.31271109 0
4.2990003 1.6841298 0.31257039 0
4.3040004 1.6793065 0.31245315 0
4.198 1.7763296 0.30808792 0
4.1920004 1.7666109 0.30823943 0
4.197 1.7621517 0.30811319 0
4.2030001 1.7581491 0.30796164 0
4.2080002 1.7536522 0.3078354 0
4.2140002 1.7496082 0.30768389 0
4.2190003 1.7450733 0.30755761 0
4.2250004 1.7409878 0.30740607 0
4.2250004 1.7340883 0.30740607 0
4.224 1.726725 0.30743134 0
4.223 1.7193655 0.30745658 0
4.2220001 1.7120095 0.30748183 0
4.2280002 1.7078643 0.30733031 0
4.2400002 1.7064357 0.30702728 0
4.2520003 1.7049638 0.30672425 0
4.2750001 1.7014393 0.3061434 0
4.2810001 1.6971444 0.30599189 0
4.2870002 1.6928278 0.30584037 0
4.2930002 1.6884897 0.30568886 0
4.2990003 1.6841298 0.30553734 0
4.3040004 1.6793065 0.30541107 0
4.198 1.7763296 0.30123705 0
4.1920004 1.7666109 0.30139941 0
4.197 1.7621517 0.30126411 0
4.2030001 1.7581491 0.30110177 0
4.2080002 1.7536522 0.3009665 0
4.2140002 1.7496082 0.30080414 0
4.2190003 1.7450733 0.30066887 0
4.2250004 1.7409878 0.30050653 0
4.2250004 1.7340883 0.30050653 0
4.224 1.726725 0.30053359 0
4.223 1.7193655 0.30056062 0
4.2220001 1.7120095 0.30058768 0
4.2280002 1.7078643 0.30042535 0
4.2400002 1.7064357 0.30010065 0
4.2520003 1.7049638 0.29977596 0
4.2750001 1.7014393 0.29915366 0
4.2810001 1.6971444 0.29899132 0
4.2870002 1.6928278 0.29882899 0
4.2930002 1.6884897 0.29866663 0
4.2990003 1.6841298 0.29850429 0
4.3040004 1.6793065 0.29836899 0
4.198 1.7763296 0.29438621 0
4.1920004 1.7666109 0.29455936 0
4.197 1.7621517 0.29441506 0
4.2030001 1.7581491 0.29424191 0
4.2080002 1.7536522 0.2940976 0
4.2140002 1.7496082 0.29392442 0
4.2190003 1.7450733 0.29378012 0
4.2250004 1.7409878 0.29360694 0
4.2250004 1.7340883 0.29360694 0
4.224 1.726725 0.29363582 0
4.223 1.7193655 0.29366466 0
4.2220001 1.7120095 0.29369354 0
4.2280002 1.7078643 0.29352036 0
4.2400002 1.7064357 0.29317403 0
4.2520003 1.7049638 0.2928277 0
4.2750001 1.7014393 0.29216391 0
4.2810001 1.6971444 0.29199073 0
4.2870002 1.6928278 0.29181758 0
4.2930002 1.6884897 0.29164439 0
4.2990003 1.6841298 0.29147124 0
4.3040004 1.6793065 0.29132694 0
4.198 1.7763296 0.28753534 0
4.1920004 1.7666109 0.28771931 0
4.197 1.7621517 0.28756601 0
4.2030001 1.7581491 0.28738201 0
4.2080002 1.7536522 0.2872287 0
4.2140002 1.7496082 0.2870447 0
4.2190003 1.7450733 0.28689137 0
4.2250004 1.7409878 0.2867074 0
4.2250004 1.7340883 0.2867074 0
4.224 1.726725 0.28673804 0
4.223 1.7193655 0.2867687 0
4.2220001 1.7120095 0.28679937 0
4.2280002 1.7078643 0.28661537 0
4.2400002 1.7064357 0.28624743 0
4.2520003 1.7049638 0.28587943 0
4.2750001 1.7014393 0.28517413 0
4.2810001 1.6971444 0.28499016 0
4.2870002 1.6928278 0.28480616 0
4.2930002 1.6884897 0.28462219 0
4.2990003 1.6841298 0.28443819 0
4.3040004 1.6793065 0.28428486 0
4.198 1.7763296 0.28068447 0
4.1920004 1.7666109 0.28087926 0
4.197 1.7621517 0.28071696 0
4.2030001 1.7581491 0.28052214 0
4.2080002 1.7536522 0.2803598 0
4.2140002 1.7496082 0.28016499 0
4.2190003 1.7450733 0.28000262 0
4.2250004 1.7409878 0.27980781 0
4.2250004 1.7340883 0.27980781 0
4.224 1.726725 0.27984029 0
4.223 1.7193655 0.27987275 0
4.2220001 1.7120095 0.27990523 0
4.2280002 1.7078643 0.27971041 0
4.2400002 1.7064357 0.27932078 0
4.2520003 1.7049638 0.27893114 0
4.2750001 1.7014393 0.27818438 0
4.2810001 1.6971444 0.27798957 0
4.2870002 1.6928278 0.27779478 0
4.2930002 1.6884897 0.27759993 0
4.2990003 1.6841298 0.27740514 0
4.3040004 1.6793065 0.27724281 0
4.198 1.7763296 0.2738336 0
4.1920004 1.7666109 0.27403924 0
4.197 1.7621517 0.27386788 0
4.2030001 1.7581491 0.27366224 0
4.2080002 1.7536522 0.27349088 0
4.2140002 1.7496082 0.27328524 0
4.2190003 1.7450733 0.27311388 0
4.2250004 1.7409878 0.27290827 0
4.2250004 1.7340883 0.27290827 0
4.224 1.726725 0.27294251 0
4.223 1.7193655 0.27297682 0
4.2220001 1.7120095 0.27301109 0
4.2280002 1.7078643 0.27280545 0
4.2400002 1.7064357 0.27239418 0
4.2520003 1.7049638 0.27198291 0
4.2750001 1.7014393 0.27119464 0
4.2810001 1.6971444 0.270989 0
4.2870002 1.6928278 0.27078336 0
4.2930002 1.6884897 0.27057773 0
4.2990003 1.6841298 0.27037209 0
4.3040004 1.6793065 0.27020073 0
4.198 1.7763296 0.26698273 0
4.1920004 1.7666109 0.26719922 0
4.197 1.7621517 0.26701882 0
4.2030001 1.7581491 0.26680237 0
4.2080002 1.7536522 0.26662198 0
4.2140002 1.7496082 0.26640552 0
4.2190003 1.7450733 0.26622516 0
4.2250004 1.7409878 0.26600868 0
4.2250004 1.7340883 0.26600868 0
4.224 1.726725 0.26604477 0
4.223 1.7193655 0.26608083 0
4.2220001 1.7120095 0.26611692 0
4.2280002 1.7078643 0.26590046 0
4.2400002 1.7064357 0.26546752 0
4.2520003 1.7049638 0.26503462 0
4.2750001 1.7014393 0.26420486 0
4.2810001 1.6971444 0.26398844 0
4.2870002 1.6928278 0.26377195 0
4.2930002 1.6884897 0.26355553 0
4.2990003 1.6841298 0.26333904 0
4.3040004 1.6793065 0.26315868 0
4.198 1.7763296 0.2601319 0
4.1920004 1.7666109 0.26035917 0
4.197 1.7621517 0.26016974 0
4.2030001 1.7581491 0.25994247 0
4.2080002 1.7536522 0.25975308 0
4.2140002 1.7496082 0.25952581 0
4.2190003 1.7450733 0.25933641 0
4.2250004 1.7409878 0.25910911 0
4.2250004 1.7340883 0.25910911 0
4.224 1.726725 0.25914699 0
4.223 1.7193655 0.2591849 0
4.2220001 1.7120095 0.25922275 0
4.2280002 1.7078643 0.25899547 0
4.2400002 1.7064357 0.25854093 0
4.2520003 1.7049638 0.25808635 0
4.2750001 1.7014393 0.25721511 0
4.2810001 1.6971444 0.25698784 0
4.2870002 1.6928278 0.25676057 0
4.2930002 1.6884897 0.25653327 0
4.2990003 1.6841298 0.25630599 0
4.3040004 1.6793065 0.25611657 0
4.198 1.7763296 0.25328103 0
4.1920004 1.7666109 0.25351912 0
4.197 1.7621517 0.25332069 0
4.2030001 1.7581491 0.25308257 0
4.2080002 1.7536522 0.25288418 0
4.2140002 1.7496082 0.25264609 0
4.2190003 1.7450733 0.25244766 0
4.2250004 1.7409878 0.25220954 0
4.2250004 1.7340883 0.25220954 0
4.224 1.726725 0.25224924 0
4.223 1.7193655 0.25228894 0
4.2220001 1.7120095 0.25232857 0
4.2280002 1.7078643 0.25209051 0
4.2400002 1.7064357 0.2516143 0
4.2520003 1.7049638 0.25113809 0
4.2750001 1.7014393 0.25022537 0
4.2810001 1.6971444 0.24998726 0
4.2870002 1.6928278 0.24974917 0
4.2930002 1.6884897 0.24951105 0
4.2990003 1.6841298 0.24927296 0
4.3040004 1.6793065 0.24907452 0
4.198 1.7763296 0.24643014 0
4.1920004 1.7666109 0.24667908 0
4.197 1.7621517 0.24647164 0
4.2030001 1.7581491 0.24622272 0
4.2080002 1.7536522 0.24601528 0
4.2140002 1.7496082 0.24576636 0
4.2190003 1.7450733 0.2455589 0
4.2250004 1.7409878 0.24530998 0
4.2250004 1.7340883 0.24530998 0
4.224 1.726725 0.24535148 0
4.223 1.7193655 0.24539296 0
4.2220001 1.7120095 0.24543445 0
4.2280002 1.7078643 0.24518554 0
4.2400002 1.7064357 0.24468766 0
4.2520003 1.7049638 0.24418981 0
4.2750001 1.7014393 0.2432356 0
4.2810001 1.6971444 0.24298668 0
4.2870002 1.6928278 0.24273776 0
4.2930002 1.6884897 0.24248883 0
4.2990003 1.6841298 0.24223991 0
4.3040004 1.6793065 0.24203245 0
4.198 1.7763296 0.23957929 0
4.1920004 1.7666109 0.23983902 0
4.197 1.7621517 0.23962258 0
4.2030001 1.7581491 0.23936284 0
4.2080002 1.7536522 0.23914638 0
4.2140002 1.7496082 0.23888662 0
4.2190003 1.7450733 0.23867017 0
4.2250004 1.7409878 0.23841041 0
4.2250004 1.7340883 0.23841041 0
4.224 1.726725 0.23845372 0
4.223 1.7193655 0.238497 0
4.2220001 1.7120095 0.23854029 0
4.2280002 1.7078643 0.23828055 0
4.2400002 1.7064357 0.23776105 0
4.2520003 1.7049638 0.23724155 0
4.2750001 1.7014393 0.23624584 0
4.2810001 1.6971444 0.2359861 0
4.2870002 1.6928278 0.23572636 0
4.2930002 1.6884897 0.2354666 0
4.2990003 1.6841298 0.23520686 0
4.3040004 1.6793065 0.23499039 0
4.198 1.7763296 0.23272842 0
4.1920004 1.7666109 0.23299898 0
4.197 1.7621517 0.23277353 0
4.2030001 1.7581491 0.23250295 0
4.2080002 1.7536522 0.23227747 0
4.2140002 1.7496082 0.23200689 0
4.2190003 1.7450733 0.23178142 0
4.2250004 1.7409878 0.23151085 0
4.2250004 1.7340883 0.23151085 0
4.224 1.726725 0.23155594 0
4.223 1.7193655 0.23160104 0
4.2220001 1.7120095 0.23164614 0
4.2280002 1.7078643 0.23137556 0
4.2400002 1.7064357 0.23083442 0
4.2520003 1.7049638 0.23029329 0
4.2750001 1.7014393 0.22925609 0
4.2810001 1.6971444 0.22898552 0
4.2870002 1.6928278 0.22871496 0
4.2930002 1.6884897 0.22844438 0
4.2990003 1.6841298 0.22817381 0
4.3040004 1.6793065 0.22794832 0
4.198 1.7763296 0.22587757 0
4.1920004 1.7666109 0.22615895 0
4.197 1.7621517 0.22592445 0
4.2030001 1.7581491 0.22564307 0
4.2080002 1.7536522 0.22540857 0
4.2140002 1.7496082 0.22512718 0
4.2190003 1.7450733 0.22489268 0
4.2250004 1.7409878 0.22461128 0
4.2250004 1.7340883 0.22461128 0
4.224 1.726725 0.22465819 0
4.223 1.7193655 0.22470509 0
4.2220001 1.7120095 0.22475198 0
4.2280002 1.7078643 0.2244706 0
4.2400002 1.7064357 0.2239078 0
4.2520003 1.7049638 0.22334501 0
4.2750001 1.7014393 0.22226633 0
4.2810001 1.6971444 0.22198494 0
4.2870002 1.6928278 0.22170354 0
4.2930002 1.6884897 0.22142215 0
4.2990003 1.6841298 0.22114076 0
4.3040004 1.6793065 0.22090626 0
4.198 1.7763296 0.2190267 0
4.1920004 1.7666109 0.2193189 0
4.197 1.7621517 0.2190754 0
4.2030001 1.7581491 0.21878317 0
4.2080002 1.7536522 0.21853967 0
4.2140002 1.7496082 0.21824744 0
4.2190003 1.7450733 0.21800393 0
4.2250004 1.7409878 0.21771172 0
4.2250004 1.7340883 0.21771172 0
4.224 1.726725 0.21776043 0
4.223 1.7193655 0.21780913 0
4.2220001 1.7120095 0.21785782 0
4.2280002 1.7078643 0.21756561 0
4.2400002 1.7064357 0.21698117 0
4.2520003 1.7049638 0.21639675 0
4.2750001 1.7014393 0.21527657 0
4.2810001 1.6971444 0.21498436 0
4.2870002 1.6928278 0.21469215 0
4.2930002 1.6884897 0.21439993 0
4.2990003 1.6841298 0.21410771 0
4.3040004 1.6793065 0.21386419 0
4.198 1.7763296 0.21217583 0
4.1920004 1.7666109 0.21247886 0
4.197 1.7621517 0.21222635 0
4.2030001 1.7581491 0.21192329 0
4.2080002 1.7536522 0.21167077 0
4.2140002 1.7496082 0.21136773 0
4.2190003 1.7450733 0.2111152 0
4.2250004 1.7409878 0.21081215 0
4.2250004 1.7340883 0.21081215 0
4.224 1.726725 0.21086265 0
4.223 1.7193655 0.21091317 0
4.2220001 1.7120095 0.21096367 0
4.2280002 1.7078643 0.21066064 0
4.2400002 1.7064357 0.21005456 0
4.2520003 1.7049638 0.20944847 0
4.2750001 1.7014393 0.20828682 0
4.2810001 1.6971444 0.20798378 0
4.2870002 1.6928278 0.20768075 0
4.2930002 1.6884897 0.2073777 0
4.2990003 1.6841298 0.20707466 0
4.3040004 1.6793065 0.20682211 0
4.198 1.7763296 0.20532496 0
4.1920004 1.7666109 0.20563883 0
4.197 1.7621517 0.20537728 0
4.2030001 1.7581491 0.20506342 0
4.2080002 1.7536522 0.20480187 0
4.2140002 1.7496082 0.20448801 0
4.2190003 1.7450733 0.20422645 0
4.2250004 1.7409878 0.20391257 0
4.2250004 1.7340883 0.20391257 0
4.224 1.726725 0.2039649 0
4.223 1.7193655 0.20401721 0
4.2220001 1.7120095 0.20406951 0
4.2280002 1.7078643 0.20375566 0
4.2400002 1.7064357 0.20312794 0
4.2520003 1.7049638 0.20250019 0
4.2750001 1.7014393 0.20129706 0
4.2810001 1.6971444 0.2009832 0
4.2870002 1.6928278 0.20066935 0
4.2930002 1.6884897 0.20035549 0
4.2990003 1.6841298 0.20004161 0
4.3040004 1.6793065 0.19978005 0
4.198 1.7763296 0.19847411 0
4.1920004 1.7666109 0.19879878 0
4.197 1.7621517 0.19852822 0
4.2030001 1.7581491 0.19820353 0
4.2080002 1.7536522 0.19793296 0
4.2140002 1.7496082 0.19760828 0
4.2190003 1.7450733 0.1973377 0
4.2250004 1.7409878 0.19701302 0
4.2250004 1.7340883 0.19701302 0
4.224 1.726725 0.19706714 0
4.223 1.7193655 0.19712125 0
4.2220001 1.7120095 0.19717535 0
4.2280002 1.7078643 0.19685067 0
4.2400002 1.7064357 0.19620131 0
4.2520003 1.7049638 0.19555193 0
4.2750001 1.7014393 0.1943073 0
4.2810001 1.6971444 0.19398262 0
4.2870002 1.6928278 0.19365795 0
4.2930002 1.6884897 0.19333325 0
4.2990003 1.6841298 0.19300857 0
4.3040004 1.6793065 0.19273798 0
4.198 1.7763296 0.19162324 0
4.1920004 1.7666109 0.19195874 0
4.197 1.7621517 0.19167915 0
4.2030001 1.7581491 0.19134365 0
4.2080002 1.7536522 0.19106406 0
4.2140002 1.7496082 0.19072856 0
4.2190003 1.7450733 0.19044895 0
4.2250004 1.7409878 0.19011344 0
4.2250004 1.7340883 0.19011344 0
4.224 1.726725 0.19016936 0
4.223 1.7193655 0.19022529 0
4.2220001 1.7120095 0.1902812 0
4.2280002 1.7078643 0.18994571 0
4.2400002 1.7064357 0.18927468 0
4.2520003 1.7049638 0.18860365 0
4.2750001 1.7014393 0.18731755 0
4.2810001 1.6971444 0.18698204 0
4.2870002 1.6928278 0.18664654 0
4.2930002 1.6884897 0.18631102 0
4.2990003 1.6841298 0.18597552 0
4.3040004 1.6793065 0.18569592 0
4.198 1.7763296 0.18477239 0
4.1920004 1.7666109 0.18511871 0
4.197 1.7621517 0.1848301 0
4.2030001 1.7581491 0.18448377 0
4.2080002 1.7536522 0.18419516 0
4.2140002 1.7496082 0.18384883 0
4.2190003 1.7450733 0.18356021 0
4.2250004 1.7409878 0.18321387 0
4.2250004 1.7340883 0.18321387 0
4.224 1.726725 0.18327162 0
4.223 1.7193655 0.18332933 0
4.2220001 1.7120095 0.18338704 0
4.2280002 1.7078643 0.18304072 0
4.2400002 1.7064357 0.18234806 0
4.2520003 1.7049638 0.18165539 0
4.2750001 1.7014393 0.18032779 0
4.2810001 1.6971444 0.17998146 0
4.2870002 1.6928278 0.17963514 0
4.2930002 1.6884897 0.1792888 0
4.2990003 1.6841298 0.17894247 0
4.3040004 1.6793065 0.17865385 0
4.198 1.7763296 0.17792152 0
4.1920004 1.7666109 0.17827865 0
4.197 1.7621517 0.17798105 0
4.2030001 1.7581491 0.17762388 0
4.2080002 1.7536522 0.17732626 0
4.2140002 1.7496082 0.1769691 0
4.2190003 1.7450733 0.17667148 0
4.2250004 1.7409878 0.17631432 0
4.2250004 1.7340883 0.17631432 0
4.224 1.726725 0.17637385 0
4.223 1.7193655 0.17643337 0
4.2220001 1.7120095 0.1764929 0
4.2280002 1.7078643 0.17613575 0
4.2400002 1.7064357 0.17542145 0
4.2520003 1.7049638 0.17470713 0
4.2750001 1.7014393 0.17333804 0
4.2810001 1.6971444 0.17298087 0
4.2870002 1.6928278 0.17262375 0
4.2930002 1.6884897 0.17226657 0
4.2990003 1.6841298 0.17190942 0
4.3040004 1.6793065 0.17161177 0
4.198 1.7763296 0.17107065 0
4.1920004 1.7666109 0.17143862 0
4.197 1.7621517 0.17113198 0
4.2030001 1.7581491 0.17076401 0
4.2080002 1.7536522 0.17045736 0
4.2140002 1.7496082 0.17008936 0
4.2190003 1.7450733 0.16978273 0
4.2250004 1.7409878 0.16941476 0
4.2250004 1.7340883 0.16941476 0
4.224 1.726725 0.16947608 0
4.223 1.7193655 0.16953741 0
4.2220001 1.7120095 0.16959873 0
4.2280002 1.7078643 0.16923076 0
4.2400002 1.7064357 0.16849482 0
4.2520003 1.7049638 0.16775887 0
4.2750001 1.7014393 0.16634826 0
4.2810001 1.6971444 0.16598029 0
4.2870002 1.6928278 0.16561233 0
4.2930002 1.6884897 0.16524436 0
4.2990003 1.6841298 0.16487637 0
4.3040004 1.6793065 0.16456972 0
4.198 1.7763296 0.16421978 0
4.1920004 1.7666109 0.16459857 0
4.197 1.7621517 0.16428292 0
4.2030001 1.7581491 0.16390412 0
4.2080002 1.7536522 0.16358846 0
4.2140002 1.7496082 0.16320966 0
4.2190003 1.7450733 0.16289398 0
4.2250004 1.7409878 0.16251516 0
4.2250004 1.7340883 0.16251516 0
4.224 1.726725 0.16257831 0
4.223 1.7193655 0.16264145 0
4.2220001 1.7120095 0.16270459 0
4.2280002 1.7078643 0.1623258 0
4.2400002 1.7064357 0.16156818 0
4.2520003 1.7049638 0.16081059 0
4.2750001 1.7014393 0.1593585 0
4.2810001 1.6971444 0.15897973 0
4.2870002 1.6928278 0.15860094 0
4.2930002 1.6884897 0.15822212 0
4.2990003 1.6841298 0.15784332 0
4.3040004 1.6793065 0.15752764 0
4.198 1.7763296 0.15736894 0
4.1920004 1.7666109 0.15775853 0
4.197 1.7621517 0.15743387 0
4.2030001 1.7581491 0.15704425 0
4.2080002 1.7536522 0.15671957 0
4.2140002 1.7496082 0.15632994 0
4.2190003 1.7450733 0.15600523 0
4.2250004 1.7409878 0.15561561 0
4.2250004 1.7340883 0.15561561 0
4.224 1.726725 0.15568057 0
4.223 1.7193655 0.15574549 0
4.2220001 1.7120095 0.15581043 0
4.2280002 1.7078643 0.15542082 0
4.2400002 1.7064357 0.15464157 0
4.2520003 1.7049638 0.1538623 0
4.2750001 1.7014393 0.15236875 0
4.2810001 1.6971444 0.15197915 0
4.2870002 1.6928278 0.15158951 0
4.2930002 1.6884897 0.15119988 0
4.2990003 1.6841298 0.15081027 0
4.3040004 1.6793065 0.15048561 0
4.198 1.7763296 0.15051806 0
4.1920004 1.7666109 0.15091848 0
4.197 1.7621517 0.15058479 0
4.2030001 1.7581491 0.15018433 0
4.2080002 1.7536522 0.14985067 0
4.2140002 1.7496082 0.14945018 0
4.2190003 1.7450733 0.14911649 0
4.2250004 1.7409878 0.14871606 0
