# .PCD v0.7 - Point Cloud Data file format
VERSION 0.7
FIELDS x y z intensity
SIZE 4 4 4 4
TYPE F F F F
COUNT 1 1 1 1
WIDTH 1414
HEIGHT 1
VIEWPOINT 0 0 0 1 0 0 0
POINTS 1414
DATA ascii
2.8030002 0.40912789 0.70741856 0
2.8050003 0.40516853 0.70767117 0
2.8090003 0.40157354 0.7081762 0
2.8120003 0.39778012 0.70855498 0
2.8170002 0.39434025 0.70918632 0
2.8220003 0.39088234 0.70981765 0
2.8290002 0.38776356 0.71070153 0
2.8420002 0.38568017 0.71234298 0
2.8490002 0.37808251 0.71322685 0
2.8420002 0.37246549 0.71234298 0
2.8370001 0.36721277 0.71171165 0
2.8340001 0.36231363 0.71133286 0
2.8310003 0.35742533 0.71095407 0
2.8290002 0.35271198 0.71070153 0
2.8270001 0.34800583 0.71044898 0
2.8260002 0.34346744 0.71032274 0
2.8250003 0.33893269 0.7101965 0
2.8240001 0.33440149 0.71007019 0
2.8240001 0.33002907 0.71007019 0
2.8240001 0.32565665 0.71007019 0
2.8240001 0.3212842 0.71007019 0
2.8250003 0.31706148 0.7101965 0
2.8260002 0.31283516 0.71032274 0
2.8270001 0.30860522 0.71044898 0
2.8290002 0.30451602 0.71070153 0
2.8300002 0.30027705 0.71082783 0
2.8330002 0.29631588 0.71120661 0
2.8350003 0.29220504 0.71145916 0
2.8380003 0.28822401 0.71183795 0
2.8420002 0.28436747 0.71234298 0
2.8470001 0.28062996 0.71297431 0
2.8520002 0.27687448 0.71360564 0
2.8590002 0.27336064 0.71448952 0
2.7220001 0.60739702 0.69300258 0
2.7230003 0.60348821 0.69312704 0
2.7240002 0.59957576 0.69325149 0
2.7250001 0.59565967 0.69337595 0
2.7260003 0.59174001 0.6935004 0
2.7270002 0.58781672 0.69362485 0
2.7280002 0.58388984 0.69374931 0
2.7290001 0.57995927 0.69387376 0
2.7300003 0.57602525 0.69399822 0
2.7310002 0.57208753 0.69412273 0
2.8190002 0.47760946 0.70507544 0
2.8110001 0.47152877 0.70407975 0
2.8060002 0.46611559 0.70345747 0
2.8020003 0.46093148 0.70295954 0
2.8000002 0.45618021 0.70271063 0
2.7980001 0.45143616 0.70246172 0
2.7970002 0.44690499 0.70233727 0
2.7960002 0.44237748 0.70221281 0
2.7950003 0.43785354 0.70208836 0
2.7950003 0.43353343 0.70208836 0
2.7960002 0.42941171 0.70221281 0
2.7960002 0.42508975 0.70221281 0
2.7970002 0.42096266 0.70233727 0
2.7990003 0.41702497 0.70258617 0
2.8000002 0.4128888 0.70271063 0
2.8030002 0.40912789 0.70308405 0
2.8050003 0.40516853 0.70333296 0
2.8090003 0.40157354 0.70383084 0
2.8120003 0.39778012 0.7042042 0
2.8170002 0.39434025 0.70482653 0
2.8220003 0.39088234 0.70544887 0
2.8290002 0.38776356 0.70632005 0
2.8420002 0.38568017 0.70793808 0
2.8580003 0.37964103 0.70992953 0
2.8470001 0.37332225 0.70856041 0
2.8410003 0.36789104 0.70781362 0
2.8360002 0.36264914 0.70719135 0
2.8330002 0.35775721 0.70681792 0
2.8300002 0.3528761 0.7064445 0
2.8290002 0.34833053 0.70632005 0
2.8270001 0.34362799 0.70607114 0
2.8260002 0.33909139 0.70594668 0
2.8250003 0.33455846 0.70582223 0
2.8250003 0.33018422 0.70582223 0
2.8250003 0.32580999 0.70582223 0
2.8250003 0.32143575 0.70582223 0
2.8250003 0.31706148 0.70582223 0
2.8260002 0.31283516 0.70594668 0
2.8270001 0.30860522 0.70607114 0
2.8280003 0.30437171 0.70619559 0
2.8300002 0.30027705 0.7064445 0
2.8320003 0.29617521 0.70669347 0
2.8340001 0.2920661 0.70694238 0
2.8370001 0.28808692 0.7073158 0
2.8410003 0.2842322 0.70781362 0
2.8450003 0.28036302 0.7083115 0
2.8490002 0.27647942 0.70880932 0
2.8560002 0.272971 0.70968056 0
2.8650002 0.26969349 0.71080077 0
2.8620002 0.26042733 0.71042734 0
2.8700001 0.25696763 0.71142304 0
2.7220001 0.60739702 0.6888141 0
2.7230003 0.60348821 0.68893683 0
2.7240002 0.59957576 0.68905944 0
2.7250001 0.59565967 0.6891821 0
2.7260003 0.59174001 0.68930477 0
2.7270002 0.58781672 0.68942738 0
2.7280002 0.58388984 0.68955004 0
2.7290001 0.57995927 0.68967271 0
2.7300003 0.57602525 0.68979537 0
2.7310002 0.57208753 0.68991804 0
2.8190002 0.47760946 0.70071203 0
2.8110001 0.47152877 0.69973075 0
2.8060002 0.46611559 0.69911742 0
2.8020003 0.46093148 0.69862688 0
2.8000002 0.45618021 0.69838154 0
2.7980001 0.45143616 0.69813621 0
2.7970002 0.44690499 0.69801354 0
2.7960002 0.44237748 0.69789088 0
2.7950003 0.43785354 0.69776821 0
2.7950003 0.43353343 0.69776821 0
2.7960002 0.42941171 0.69789088 0
2.7960002 0.42508975 0.69789088 0
2.7970002 0.42096266 0.69801354 0
2.7990003 0.41702497 0.69825888 0
2.8000002 0.4128888 0.69838154 0
2.8030002 0.40912789 0.69874948 0
2.8050003 0.40516853 0.69899482 0
2.8090003 0.40157354 0.69948542 0
2.8120003 0.39778012 0.69985342 0
2.8170002 0.39434025 0.70046675 0
2.8220003 0.39088234 0.70108002 0
2.8290002 0.38776356 0.70193863 0
2.8420002 0.38568017 0.70353317 0
2.8520002 0.3741791 0.70475978 0
2.8440001 0.36839968 0.70377851 0
2.8390002 0.36315241 0.70316517 0
2.8350003 0.35808912 0.70267463 0
2.8330002 0.35336855 0.70242923 0
2.8300002 0.34849286 0.7020613 0
2.8290002 0.34394908 0.70193863 0
2.8270001 0.33925012 0.7016933 0
2.8260002 0.33471537 0.70157063 0
2.8260002 0.33033934 0.70157063 0
2.8250003 0.32580999 0.70144796 0
2.8250003 0.32143575 0.70144796 0
2.8260002 0.31721124 0.70157063 0
2.8260002 0.31283516 0.70157063 0
2.8270001 0.30860522 0.7016933 0
2.8280003 0.30437171 0.70181596 0
2.8300002 0.30027705 0.7020613 0
2.8310003 0.29603451 0.70218396 0
2.8340001 0.2920661 0.7025519 0
2.8360002 0.28794983 0.70279723 0
2.8390002 0.28396159 0.70316517 0
2.8430002 0.28009605 0.70365584 0
2.8470001 0.27621603 0.7041465 0
2.8520002 0.27245152 0.70475978 0
2.8600001 0.26905313 0.70574105 0
2.8750002 0.26650977 0.70758092 0
2.8560002 0.25968054 0.70525038 0
2.8610003 0.2558637 0.70586371 0
2.8670001 0.25214964 0.70659965 0
2.8740003 0.24853304 0.70745826 0
2.7220001 0.60739702 0.68462569 0
2.7230003 0.60348821 0.6847465 0
2.7240002 0.59957576 0.68486738 0
2.7250001 0.59565967 0.68498826 0
2.7260003 0.59174001 0.68510914 0
2.7270002 0.58781672 0.68522996 0
2.7280002 0.58388984 0.68535078 0
2.7290001 0.57995927 0.68547165 0
2.7300003 0.57602525 0.68559253 0
2.7310002 0.57208753 0.68571335 0
2.8190002 0.47760946 0.69634867 0
2.8110001 0.47152877 0.69538176 0
2.8060002 0.46611559 0.69477749 0
2.8020003 0.46093148 0.6942941 0
2.8000002 0.45618021 0.69405234 0
2.7980001 0.45143616 0.69381064 0
2.7970002 0.44690499 0.69368982 0
2.7960002 0.44237748 0.69356894 0
2.7950003 0.43785354 0.69344807 0
2.7950003 0.43353343 0.69344807 0
2.7960002 0.42941171 0.69356894 0
2.7960002 0.42508975 0.69356894 0
2.7970002 0.42096266 0.69368982 0
2.7990003 0.41702497 0.69393158 0
2.8000002 0.4128888 0.69405234 0
2.8030002 0.40912789 0.69441497 0
2.8050003 0.40516853 0.69465667 0
2.8090003 0.40157354 0.69514012 0
2.8120003 0.39778012 0.69550264 0
2.8170002 0.39434025 0.69610691 0
2.8220003 0.39088234 0.69671118 0
2.8290002 0.38776356 0.69755721 0
2.8420002 0.38568017 0.69912827 0
2.8490002 0.36924747 0.6999743 0
2.8430002 0.36382341 0.69924915 0
2.8380003 0.358587 0.69864488 0
2.8350003 0.35369685 0.69828236 0
2.8320003 0.34881756 0.69791973 0
2.8300002 0.34410959 0.69767797 0
2.8280003 0.3394089 0.69743633 0
2.8270001 0.33487228 0.69731545 0
2.8270001 0.33049443 0.69731545 0
2.8260002 0.32596329 0.69719458 0
2.8260002 0.32158726 0.69719458 0
2.8260002 0.31721124 0.69719458 0
2.8260002 0.31283516 0.69719458 0
2.8270001 0.30860522 0.69731545 0
2.8280003 0.30437171 0.69743633 0
2.8300002 0.30027705 0.69767797 0
2.8310003 0.29603451 0.69779891 0
2.8330002 0.29192722 0.6980406 0
2.8350003 0.28781277 0.69828236 0
2.8380003 0.28382635 0.69864488 0
2.8410003 0.27982911 0.69900745 0
2.8450003 0.27595273 0.6994909 0
2.8500001 0.27219176 0.70009518 0
2.8570001 0.26866892 0.70094109 0
2.8490002 0.26322684 0.6999743 0
2.8520002 0.25918269 0.70033681 0
2.8560002 0.25525039 0.70082027 0
2.8600001 0.25130367 0.70130372 0
2.8650002 0.24746156 0.70190799 0
2.8710003 0.24371865 0.70263308 0
2.7220001 0.60739702 0.68043721 0
2.7230003 0.60348821 0.6805563 0
2.7240002 0.59957576 0.68067533 0
2.7250001 0.59565967 0.68079436 0
2.7260003 0.59174001 0.68091345 0
2.7270002 0.58781672 0.68103254 0
2.7280002 0.58388984 0.68115151 0
2.7290001 0.57995927 0.6812706 0
2.7300003 0.57602525 0.68138969 0
2.7310002 0.57208753 0.68150866 0
2.8190002 0.47760946 0.69198525 0
2.8110001 0.47152877 0.69103277 0
2.8060002 0.46611559 0.69043756 0
2.8020003 0.46093148 0.68996131 0
2.8000002 0.45618021 0.68972325 0
2.7980001 0.45143616 0.68948513 0
2.7970002 0.44690499 0.6893661 0
2.7960002 0.44237748 0.68924701 0
2.7950003 0.43785354 0.68912798 0
2.7950003 0.43353343 0.68912798 0
2.7960002 0.42941171 0.68924701 0
2.7960002 0.42508975 0.68924701 0
2.7970002 0.42096266 0.6893661 0
2.7990003 0.41702497 0.68960416 0
2.8000002 0.4128888 0.68972325 0
2.8030002 0.40912789 0.6900804 0
2.8050003 0.40516853 0.69031847 0
2.8090003 0.40157354 0.69079471 0
2.8120003 0.39778012 0.69115186 0
2.8170002 0.39434025 0.69174707 0
2.8220003 0.39088234 0.6923424 0
2.8290002 0.38776356 0.69317573 0
2.8420002 0.38568017 0.69472337 0
2.8560002 0.37043437 0.69639015 0
2.8470001 0.36449441 0.69531864 0
2.8410003 0.35908484 0.6946044 0
2.8370001 0.35402513 0.69412816 0
2.8340001 0.34914219 0.693771 0
2.8320003 0.34443069 0.69353288 0
2.8300002 0.33972636 0.69329476 0
2.8280003 0.33502924 0.6930567 0
2.8280003 0.33064958 0.6930567 0
2.8270001 0.32611659 0.69293761 0
2.8270001 0.32173878 0.69293761 0
2.8270001 0.31736094 0.69293761 0
2.8270001 0.3129831 0.69293761 0
2.8270001 0.30860522 0.69293761 0
2.8280003 0.30437171 0.6930567 0
2.8290002 0.30013457 0.69317573 0
2.8310003 0.29603451 0.69341385 0
2.8320003 0.29178834 0.69353288 0
2.8340001 0.28767565 0.693771 0
2.8370001 0.28369105 0.69412816 0
2.8400002 0.2796956 0.69448531 0
2.8440001 0.27582103 0.69496149 0
2.8490002 0.27206188 0.69555676 0
2.8550003 0.2684128 0.69627106 0
2.8460002 0.26284802 0.69519961 0
2.8490002 0.2588093 0.69555676 0
2.8520002 0.25475976 0.69591391 0
2.8550003 0.2506994 0.69627106 0
2.8590002 0.24674726 0.6967473 0
2.8630002 0.24278066 0.69722342 0
2.8680003 0.23891512 0.69781876 0
2.8760002 0.23537242 0.69877112 0
2.7220001 0.60739702 0.67624879 0
2.7230003 0.60348821 0.67636603 0
2.7240002 0.59957576 0.67648327 0
2.7250001 0.59565967 0.67660052 0
2.7260003 0.59174001 0.67671776 0
2.7270002 0.58781672 0.67683506 0
2.7280002 0.58388984 0.67695224 0
2.7290001 0.57995927 0.67706954 0
2.7300003 0.57602525 0.67718679 0
2.7310002 0.57208753 0.67730403 0
2.8190002 0.47760946 0.68762183 0
2.8110001 0.47152877 0.68668377 0
2.8060002 0.46611559 0.68609762 0
2.8020003 0.46093148 0.68562859 0
2.8000002 0.45618021 0.68539405 0
2.7980001 0.45143616 0.68515956 0
2.7970002 0.44690499 0.68504238 0
2.7960002 0.44237748 0.68492508 0
2.7950003 0.43785354 0.6848079 0
2.7950003 0.43353343 0.6848079 0
2.7960002 0.42941171 0.68492508 0
2.7960002 0.42508975 0.68492508 0
2.7970002 0.42096266 0.68504238 0
2.7990003 0.41702497 0.68527687 0
2.8000002 0.4128888 0.68539405 0
2.8030002 0.40912789 0.68574584 0
2.8050003 0.40516853 0.68598032 0
2.8090003 0.40157354 0.68644929 0
2.8120003 0.39778012 0.68680108 0
2.8170002 0.39434025 0.68738735 0
2.8220003 0.39088234 0.68797356 0
2.8290002 0.38776356 0.68879426 0
2.8420002 0.38568017 0.69031847 0
2.8520002 0.3653332 0.69149101 0
2.8450003 0.35974863 0.69067025 0
2.8400002 0.35451758 0.69008398 0
2.8360002 0.34946689 0.68961501 0
2.8340001 0.34475175 0.68938053 0
2.8320003 0.34004384 0.68914604 0
2.8300002 0.33534309 0.6889115 0
2.8290002 0.33080471 0.68879426 0
2.8280003 0.32626995 0.68867707 0
2.8270001 0.32173878 0.68855977 0
2.8270001 0.31736094 0.68855977 0
2.8270001 0.3129831 0.68855977 0
2.8280003 0.30875137 0.68867707 0
2.8280003 0.30437171 0.68867707 0
2.8290002 0.30013457 0.68879426 0
2.8300002 0.29589382 0.6889115 0
2.8320003 0.29178834 0.68914604 0
2.8340001 0.28767565 0.68938053 0
2.8370001 0.28369105 0.68973225 0
2.8400002 0.2796956 0.69008398 0
2.8430002 0.27568933 0.69043577 0
2.8480003 0.27193204 0.69102198 0
2.8420002 0.26674786 0.69031847 0
2.8440001 0.2625955 0.69055295 0
2.8460002 0.2584359 0.69078749 0
2.8490002 0.25439179 0.69113922 0
2.8520002 0.25033683 0.69149101 0
2.8550003 0.24627104 0.69184273 0
2.8580003 0.24219447 0.69219446 0
2.8620002 0.23822245 0.69266343 0
2.8670001 0.23434967 0.6932497 0
2.8730001 0.2305707 0.69395316 0
2.8810003 0.22699016 0.69489115 0
2.7220001 0.60739702 0.67206037 0
2.7230003 0.60348821 0.67217577 0
2.7240002 0.59957576 0.67229128 0
2.7250001 0.59565967 0.67240667 0
2.7260003 0.59174001 0.67252213 0
2.7270002 0.58781672 0.67263758 0
2.7280002 0.58388984 0.67275298 0
2.7290001 0.57995927 0.67286843 0
2.7300003 0.57602525 0.67298388 0
2.7310002 0.57208753 0.67309934 0
2.8190002 0.47760946 0.68325841 0
2.8110001 0.47152877 0.68233484 0
2.8060002 0.46611559 0.68175763 0
2.8020003 0.46093148 0.68129587 0
2.8000002 0.45618021 0.68106496 0
2.7980001 0.45143616 0.68083405 0
2.7970002 0.44690499 0.68071866 0
2.7960002 0.44237748 0.68060315 0
2.7950003 0.43785354 0.68048775 0
2.7950003 0.43353343 0.68048775 0
2.7960002 0.42941171 0.68060315 0
2.7960002 0.42508975 0.68060315 0
2.7970002 0.42096266 0.68071866 0
2.7990003 0.41702497 0.68094951 0
2.8000002 0.4128888 0.68106496 0
2.8030002 0.40912789 0.68141127 0
2.8050003 0.40516853 0.68164217 0
2.8090003 0.40157354 0.68210399 0
2.8120003 0.39778012 0.68245029 0
2.8170002 0.39434025 0.68302751 0
2.8220003 0.39088234 0.68360472 0
2.8290002 0.38776356 0.68441284 0
2.8420002 0.38568017 0.68591356 0
2.8590002 0.3665075 0.68787611 0
2.8490002 0.36041242 0.68672168 0
2.8430002 0.35501 0.68602908 0
2.8390002 0.34995395 0.68556726 0
2.8360002 0.34507284 0.68522096 0
2.8330002 0.34020254 0.68487459 0
2.8320003 0.33565697 0.68475914 0
2.8300002 0.33095986 0.68452823 0
2.8290002 0.32642326 0.68441284 0
2.8280003 0.32189029 0.68429738 0
2.8280003 0.31751066 0.68429738 0
2.8280003 0.31313103 0.68429738 0
2.8280003 0.30875137 0.68429738 0
2.8280003 0.30437171 0.68429738 0
2.8290002 0.30013457 0.68441284 0
2.8300002 0.29589382 0.68452823 0
2.8320003 0.29178834 0.68475914 0
2.8340001 0.28767565 0.68499005 0
2.8370001 0.28369105 0.68533635 0
2.8400002 0.2796956 0.68568271 0
2.8430002 0.27568933 0.68602908 0
2.8480003 0.27193204 0.68660629 0
2.8400002 0.26649174 0.68568271 0
2.8420002 0.26234299 0.68591356 0
2.8440001 0.258187 0.68614447 0
2.8470001 0.25414646 0.68649077 0
2.8490002 0.24997425 0.68672168 0
2.8520002 0.24591389 0.68706805 0
2.8550003 0.24184272 0.68741441 0
2.8580003 0.23776069 0.68776071 0
2.8610003 0.23366785 0.68810701 0
2.8660002 0.22978783 0.68868423 0
2.8710003 0.22588983 0.68926144 0
2.8780003 0.2221902 0.69006956 0
2.7220001 0.60739702 0.66787189 0
2.7230003 0.60348821 0.66798556 0
2.7240002 0.59957576 0.66809916 0
2.7250001 0.59565967 0.66821283 0
2.7260003 0.59174001 0.6683265 0
2.7270002 0.58781672 0.6684401 0
2.7280002 0.58388984 0.66855371 0
2.7290001 0.57995927 0.66866738 0
2.7300003 0.57602525 0.66878104 0
2.7310002 0.57208753 0.66889465 0
2.8190002 0.47760946 0.678895 0
2.8110001 0.47152877 0.67798585 0
2.8060002 0.46611559 0.67741764 0
2.8020003 0.46093148 0.67696309 0
2.8000002 0.45618021 0.67673582 0
2.7980001 0.45143616 0.67650855 0
2.7970002 0.44690499 0.67639488 0
2.7960002 0.44237748 0.67628127 0
2.7950003 0.43785354 0.67616761 0
2.7950003 0.43353343 0.67616761 0
2.7960002 0.42941171 0.67628127 0
2.7960002 0.42508975 0.67628127 0
2.7970002 0.42096266 0.67639488 0
2.7990003 0.41702497 0.67662215 0
2.8000002 0.4128888 0.67673582 0
2.8030002 0.40912789 0.6770767 0
2.8050003 0.40516853 0.67730403 0
2.8090003 0.40157354 0.67775857 0
2.8120003 0.39778012 0.67809951 0
2.8170002 0.39434025 0.67866766 0
2.8220003 0.39088234 0.67923594 0
2.8290002 0.38776356 0.68003142 0
2.8420002 0.38568017 0.68150866 0
3.0720003 0.41669849 0.70764589 0
3.0700002 0.41153595 0.70741856 0
3.0680003 0.40638068 0.70719135 0
3.0670002 0.40140036 0.70707762 0
2.8540003 0.3612422 0.68287241 0
2.8460002 0.35550246 0.68196326 0
2.8420002 0.35044098 0.68150866 0
2.8380003 0.34539396 0.68105412 0
2.8350003 0.34052002 0.68071324 0
2.8330002 0.33581388 0.68048596 0
2.8310003 0.33111501 0.68025863 0
2.8300002 0.32657656 0.68014503 0
2.8290002 0.32204181 0.68003142 0
2.8290002 0.31766036 0.68003142 0
2.8280003 0.31313103 0.67991775 0
2.8280003 0.30875137 0.67991775 0
2.8290002 0.30451602 0.68003142 0
2.8300002 0.30027705 0.68014503 0
2.8310003 0.29603451 0.68025863 0
2.8330002 0.29192722 0.68048596 0
2.8350003 0.28781277 0.68071324 0
2.8370001 0.28369105 0.68094051 0
2.8400002 0.2796956 0.68128145 0
2.8440001 0.27582103 0.68173599 0
2.8380003 0.27063328 0.68105412 0
2.8390002 0.26636365 0.68116778 0
2.8410003 0.26221672 0.68139505 0
2.8430002 0.25806251 0.68162239 0
2.8450003 0.25390115 0.6818496 0
2.8470001 0.24973255 0.68207687 0
2.8490002 0.24555674 0.68230414 0
2.8520002 0.24149096 0.68264508 0
2.8540003 0.23729891 0.68287241 0
2.8580003 0.23332691 0.68332696 0
2.8610003 0.22922868 0.6836679 0
2.8650002 0.22522962 0.68412244 0
2.8690002 0.22121614 0.68457699 0
2.8750002 0.21740109 0.68525881 0
2.8820002 0.21366903 0.68605429 0
2.7220001 0.60739702 0.66368341 0
2.7230003 0.60348821 0.66379535 0
2.7240002 0.59957576 0.66390717 0
2.7250001 0.59565967 0.66401899 0
2.7260003 0.59174001 0.66413081 0
2.7270002 0.58781672 0.66424263 0
2.7280002 0.58388984 0.66435444 0
2.7290001 0.57995927 0.66446626 0
2.7300003 0.57602525 0.66457814 0
2.7310002 0.57208753 0.66469002 0
2.8190002 0.47760946 0.67453158 0
2.8110001 0.47152877 0.67363685 0
2.8060002 0.46611559 0.6730777 0
2.8020003 0.46093148 0.67263037 0
2.8000002 0.45618021 0.67240667 0
2.7980001 0.45143616 0.67218298 0
2.7970002 0.44690499 0.67207116 0
2.7960002 0.44237748 0.67195928 0
2.7950003 0.43785354 0.67184752 0
2.7950003 0.43353343 0.67184752 0
2.7960002 0.42941171 0.67195928 0
2.7960002 0.42508975 0.67195928 0
2.7970002 0.42096266 0.67207116 0
2.7990003 0.41702497 0.67229486 0
2.8000002 0.4128888 0.67240667 0
2.8030002 0.40912789 0.67274219 0
2.8050003 0.40516853 0.67296588 0
2.8090003 0.40157354 0.67341322 0
2.8120003 0.39778012 0.67374873 0
2.8170002 0.39434025 0.67430788 0
2.8220003 0.39088234 0.67486709 0
2.8290002 0.38776356 0.67564994 0
2.8420002 0.38568017 0.67710376 0
3.0770001 0.42239305 0.70338523 0
3.0740001 0.41704479 0.70304978 0
3.0710003 0.41170734 0.70271432 0
3.0700002 0.40671977 0.70260239 0
3.0680003 0.40156814 0.70237875 0
2.8630002 0.36273572 0.67945236 0
2.8510003 0.35632318 0.67811036 0
2.8450003 0.35092801 0.67743933 0
2.8410003 0.34587556 0.67699194 0
2.8380003 0.34099624 0.67665648 0
2.8350003 0.33612776 0.67632097 0
2.8330002 0.33142522 0.67609727 0
2.8310003 0.32672992 0.67587364 0
2.8300002 0.32219332 0.67576176 0
2.8300002 0.31781006 0.67576176 0
2.8290002 0.31327891 0.67564994 0
2.8290002 0.30889747 0.67564994 0
2.8300002 0.30466032 0.67576176 0
2.8310003 0.30041957 0.67587364 0
2.8320003 0.29617521 0.67598546 0
2.8330002 0.29192722 0.67609727 0
2.8350003 0.28781277 0.67632097 0
2.8380003 0.28382635 0.67665648 0
2.8410003 0.27982911 0.67699194 0
2.8390002 0.27516264 0.6767683 0
2.8370001 0.2705034 0.67654461 0
2.8390002 0.26636365 0.6767683 0
2.8400002 0.26209044 0.67688012 0
2.8420002 0.25793809 0.67710376 0
2.8440001 0.25377849 0.67732745 0
2.8450003 0.24949086 0.67743933 0
2.8470001 0.24531862 0.67766297 0
2.8500001 0.24125645 0.67799848 0
2.8520002 0.23706803 0.67822218 0
2.8550003 0.232986 0.67855763 0
2.8570001 0.22878131 0.67878133 0
2.8610003 0.2247895 0.67922866 0
2.8640003 0.22067502 0.67956424 0
2.8680003 0.21665615 0.68001151 0
2.8730001 0.21272743 0.68057072 0
2.8790002 0.20888352 0.68124175 0
2.7220001 0.60739702 0.659495 0
2.7230003 0.60348821 0.65960509 0
2.7240002 0.59957576 0.65971506 0
2.7250001 0.59565967 0.65982509 0
2.7260003 0.59174001 0.65993518 0
2.7270002 0.58781672 0.66004515 0
2.7280002 0.58388984 0.66015518 0
2.7290001 0.57995927 0.66026521 0
2.7300003 0.57602525 0.66037524 0
2.7310002 0.57208753 0.66048533 0
2.8190002 0.47760946 0.67016816 0
2.8110001 0.47152877 0.66928792 0
2.8060002 0.46611559 0.66873777 0
2.8020003 0.46093148 0.66829765 0
2.8000002 0.45618021 0.66807753 0
2.7980001 0.45143616 0.66785747 0
2.7970002 0.44690499 0.66774744 0
2.7960002 0.44237748 0.66763741 0
2.7950003 0.43785354 0.66752744 0
2.7950003 0.43353343 0.66752744 0
2.7960002 0.42941171 0.66763741 0
2.7960002 0.42508975 0.66763741 0
2.7970002 0.42096266 0.66774744 0
2.7990003 0.41702497 0.6679675 0
2.8000002 0.4128888 0.66807753 0
2.8030002 0.40912789 0.66840768 0
2.8050003 0.40516853 0.66862774 0
2.8090003 0.40157354 0.66906786 0
2.8120003 0.39778012 0.66939795 0
2.8170002 0.39434025 0.6699481 0
2.8220003 0.39088234 0.67049825 0
2.8290002 0.38776356 0.67126846 0
2.8420002 0.38568017 0.67269886 0
3.0800002 0.42291793 0.69888663 0
3.0760002 0.41739109 0.69844645 0
3.0730002 0.41205004 0.69811636 0
3.0710003 0.40688935 0.6978963 0
3.0700002 0.40190363 0.69778627 0
3.0690002 0.39692152 0.69767618 0
2.8570001 0.35730806 0.67434937 0
2.8490002 0.35157737 0.67346913 0
2.8440001 0.34635714 0.67291892 0
2.8400002 0.34131369 0.6724788 0
2.8370001 0.33644158 0.6721487 0
2.8350003 0.33173549 0.67192864 0
2.8330002 0.32703656 0.67170858 0
2.8320003 0.32249638 0.67159855 0
2.8310003 0.31795982 0.67148852 0
2.8310003 0.31357476 0.67148852 0
2.8310003 0.30918971 0.67148852 0
2.8310003 0.30480462 0.67148852 0
2.8320003 0.30056205 0.67159855 0
2.8330002 0.29631588 0.67170858 0
2.8350003 0.29220504 0.67192864 0
2.8370001 0.28808692 0.6721487 0
2.8390002 0.28396159 0.67236876 0
2.8420002 0.27996257 0.67269886 0
2.8360002 0.27476761 0.67203867 0
2.8370001 0.2705034 0.6721487 0
2.8380003 0.26623559 0.67225879 0
2.8400002 0.26209044 0.6724788 0
2.8410003 0.25781363 0.67258888 0
2.8420002 0.25353318 0.67269886 0
2.8440001 0.24936998 0.67291892 0
2.8460002 0.24519959 0.67313904 0
2.8480003 0.24102196 0.6733591 0
2.8500001 0.23683712 0.6735791 0
2.8520002 0.23264509 0.67379922 0
2.8550003 0.22855765 0.67412931 0
2.8570001 0.22434935 0.67434937 0
2.8600001 0.22024208 0.67467946 0
2.8640003 0.21623042 0.67511964 0
2.8670001 0.21209967 0.67544973 0
2.8720002 0.2081638 0.67599988 0
2.8770003 0.20420983 0.67655003 0
2.8840003 0.20043628 0.67732024 0
2.7220001 0.60739702 0.65530658 0
2.7230003 0.60348821 0.65541482 0
2.7240002 0.59957576 0.65552306 0
2.7250001 0.59565967 0.65563124 0
2.7260003 0.59174001 0.65573955 0
2.7270002 0.58781672 0.65584773 0
2.7280002 0.58388984 0.65595591 0
2.7290001 0.57995927 0.65606415 0
2.7300003 0.57602525 0.65617239 0
2.7310002 0.57208753 0.65628064 0
2.8190002 0.47760946 0.66580474 0
2.8110001 0.47152877 0.66493893 0
2.8060002 0.46611559 0.66439778 0
2.8020003 0.46093148 0.66396487 0
2.8000002 0.45618021 0.66374838 0
2.7980001 0.45143616 0.6635319 0
2.7970002 0.44690499 0.66342372 0
2.7960002 0.44237748 0.66331553 0
2.7950003 0.43785354 0.66320729 0
2.7950003 0.43353343 0.66320729 0
2.7960002 0.42941171 0.66331553 0
2.7960002 0.42508975 0.66331553 0
2.7970002 0.42096266 0.66342372 0
2.7990003 0.41702497 0.66364014 0
2.8000002 0.4128888 0.66374838 0
2.8030002 0.40912789 0.66407311 0
2.8050003 0.40516853 0.66428959 0
2.8090003 0.40157354 0.66472244 0
2.8120003 0.39778012 0.66504717 0
2.8170002 0.39434025 0.66558826 0
2.8220003 0.39088234 0.66612947 0
2.8290002 0.38776356 0.66688704 0
2.8420002 0.38568017 0.66829395 0
3.0840001 0.42361784 0.69448531 0
3.0790002 0.41791064 0.69394416 0
3.0760002 0.41256413 0.69361949 0
3.0730002 0.40722844 0.69329476 0
3.0710003 0.40207139 0.69307834 0
3.0700002 0.39708745 0.6929701 0
2.8540003 0.3523891 0.66959274 0
2.8470001 0.34683874 0.66883516 0
2.8430002 0.3417899 0.66840219 0
2.8390002 0.33675548 0.66796935 0
2.8370001 0.3320457 0.66775286 0
2.8350003 0.32734323 0.66753638 0
2.8330002 0.3226479 0.66731995 0
2.8330002 0.31825924 0.66731995 0
2.8320003 0.31372264 0.66721171 0
2.8320003 0.3093358 0.66721171 0
2.8330002 0.30509323 0.66731995 0
2.8330002 0.30070454 0.66731995 0
2.8350003 0.2965973 0.66753638 0
2.8360002 0.29234391 0.66764462 0
2.8380003 0.28822401 0.6678611 0
2.8410003 0.2842322 0.66818577 0
2.8350003 0.27902821 0.66753638 0
2.8360002 0.27476761 0.66764462 0
2.8370001 0.2705034 0.66775286 0
2.8380003 0.26623559 0.6678611 0
2.8390002 0.26196417 0.66796935 0
2.8410003 0.25781363 0.66818577 0
2.8420002 0.25353318 0.66829395 0
2.8430002 0.24924913 0.66840219 0
2.8450003 0.24508053 0.66861868 0
2.8470001 0.24090472 0.66883516 0
2.8490002 0.23672169 0.66905159 0
2.8500001 0.23241779 0.66915977 0
2.8530002 0.22833395 0.6694845 0
2.8550003 0.22412929 0.66970098 0
2.8580003 0.22002563 0.67002565 0
2.8600001 0.2158047 0.67024207 0
2.8640003 0.21178585 0.67067504 0
2.8670001 0.20764971 0.67099971 0
2.8710003 0.20360376 0.67143261 0
2.8750002 0.1995434 0.67186558 0
2.8810003 0.19566341 0.67251492 0
2.8890002 0.19195297 0.67338073 0
2.7220001 0.60739702 0.65111816 0
2.7230003 0.60348821 0.65122455 0
2.7240002 0.59957576 0.65133101 0
2.7250001 0.59565967 0.6514374 0
2.7260003 0.59174001 0.65154386 0
2.7270002 0.58781672 0.65165025 0
2.7280002 0.58388984 0.65175664 0
2.7290001 0.57995927 0.6518631 0
2.7300003 0.57602525 0.65196955 0
2.7310002 0.57208753 0.65207595 0
2.8190002 0.47760946 0.66144133 0
2.8110001 0.47152877 0.66058993 0
2.8060002 0.46611559 0.66005778 0
2.8020003 0.46093148 0.65963209 0
2.8000002 0.45618021 0.6594193 0
2.7980001 0.45143616 0.65920639 0
2.7970002 0.44690499 0.65909994 0
2.7960002 0.44237748 0.6589936 0
2.7950003 0.43785354 0.65888715 0
2.7950003 0.43353343 0.65888715 0
2.7960002 0.42941171 0.6589936 0
2.7960002 0.42508975 0.6589936 0
2.7970002 0.42096266 0.65909994 0
2.7990003 0.41702497 0.65931284 0
2.8000002 0.4128888 0.6594193 0
2.8030002 0.40912789 0.65973854 0
2.8050003 0.40516853 0.65995145 0
2.8090003 0.40157354 0.66037709 0
2.8120003 0.39778012 0.66069639 0
2.8170002 0.39434025 0.66122842 0
2.8220003 0.39088234 0.66176057 0
2.8290002 0.38776356 0.66250557 0
2.8420002 0.38568017 0.66388905 0
3.0870001 0.42414275 0.6899631 0
3.0820003 0.41843012 0.68943101 0
3.0780003 0.41290686 0.68900537 0
3.0750003 0.40756759 0.68868601 0
3.0730002 0.40240687 0.68847322 0
3.0710003 0.39725342 0.68826038 0
3.0700002 0.39227125 0.68815392 0
2.8610003 0.35352549 0.6659112 0
2.8510003 0.34748095 0.6648469 0
2.8460002 0.34226611 0.66431481 0
2.8420002 0.33722627 0.66388905 0
2.8390002 0.33235601 0.66356981 0
2.8370001 0.32764983 0.66335696 0
2.8360002 0.32310244 0.66325057 0
2.8350003 0.31855866 0.66314411 0
2.8340001 0.31401846 0.66303766 0
2.8340001 0.30962801 0.66303766 0
2.8350003 0.30538186 0.66314411 0
2.8360002 0.30113208 0.66325057 0
2.8370001 0.29687867 0.66335696 0
2.8390002 0.29276058 0.66356981 0
2.8410003 0.28863531 0.66378272 0
2.8430002 0.28450274 0.6639955 0
2.8360002 0.27916169 0.66325057 0
2.8370001 0.27489927 0.66335696 0
2.8380003 0.27063328 0.66346341 0
2.8390002 0.26636365 0.66356981 0
2.8390002 0.26196417 0.66356981 0
2.8400002 0.25768915 0.66367626 0
2.8420002 0.25353318 0.66388905 0
2.8430002 0.24924913 0.6639955 0
2.8440001 0.24496147 0.66410196 0
2.8460002 0.24078748 0.66431481 0
2.8470001 0.23649079 0.6644212 0
2.8490002 0.23230416 0.66463411 0
2.8510003 0.22811031 0.6648469 0
2.8530002 0.22390923 0.6650598 0
2.8550003 0.21970093 0.66527259 0
2.8580003 0.21559188 0.6655919 0
2.8600001 0.21136737 0.66580474 0
2.8630002 0.20723844 0.66612399 0
2.8670001 0.20319971 0.66654968 0
2.8700001 0.19904734 0.66686893 0
2.8740003 0.19498156 0.66729474 0
2.8790002 0.19099696 0.66782677 0
2.8860002 0.18718189 0.66857183 0
2.7220001 0.60739702 0.64692968 0
2.7230003 0.60348821 0.64703429 0
2.7240002 0.59957576 0.64713895 0
2.7250001 0.59565967 0.64724356 0
2.7260003 0.59174001 0.64734817 0
2.7270002 0.58781672 0.64745277 0
2.7280002 0.58388984 0.64755738 0
2.7290001 0.57995927 0.64766204 0
2.7300003 0.57602525 0.64776671 0
2.7310002 0.57208753 0.64787126 0
2.8190002 0.47760946 0.65707791 0
2.8110001 0.47152877 0.65624094 0
2.8060002 0.46611559 0.65571785 0
2.8020003 0.46093148 0.65529937 0
2.8000002 0.45618021 0.65509009 0
2.7980001 0.45143616 0.65488088 0
2.7970002 0.44690499 0.65477622 0
2.7960002 0.44237748 0.65467167 0
2.7950003 0.43785354 0.654567 0
2.7950003 0.43353343 0.654567 0
2.7960002 0.42941171 0.65467167 0
2.7960002 0.42508975 0.65467167 0
2.7970002 0.42096266 0.65477622 0
2.7990003 0.41702497 0.65498555 0
2.8000002 0.4128888 0.65509009 0
2.8030002 0.40912789 0.65540397 0
2.8050003 0.40516853 0.65561318 0
2.8090003 0.40157354 0.65603173 0
2.8120003 0.39778012 0.65634561 0
2.8170002 0.39434025 0.6568687 0
2.8220003 0.39088234 0.65739179 0
2.8290002 0.38776356 0.65812409 0
2.8410003 0.38550341 0.6593796 0
3.0860002 0.41912279 0.68501168 0
3.0810003 0.41342095 0.68448859 0
3.0780003 0.40807629 0.68417472 0
3.0750003 0.40274242 0.6838609 0
3.0730002 0.3975853 0.68365163 0
3.0710003 0.39243543 0.68344235 0
3.0710003 0.38761747 0.68344235 0
2.8570001 0.34844413 0.66105348 0
2.8500001 0.34290105 0.66032118 0
2.8450003 0.33769706 0.65979803 0
2.8420002 0.33282137 0.65948415 0
2.8400002 0.32810983 0.65927494 0
2.8380003 0.3234055 0.65906572 0
2.8380003 0.31900781 0.65906572 0
2.8370001 0.31446218 0.65896106 0
2.8370001 0.31006631 0.65896106 0
2.8370001 0.30567044 0.65896106 0
2.8380003 0.30141708 0.65906572 0
2.8390002 0.29716006 0.65917033 0
2.8410003 0.2930384 0.6593796 0
2.8430002 0.28890944 0.65958881 0
2.8370001 0.28369105 0.65896106 0
2.8370001 0.27929515 0.65896106 0
2.8380003 0.27503097 0.65906572 0
2.8380003 0.27063328 0.65906572 0
2.8390002 0.26636365 0.65917033 0
2.8400002 0.26209044 0.65927494 0
2.8410003 0.25781363 0.6593796 0
2.8420002 0.25353318 0.65948415 0
2.8430002 0.24924913 0.65958881 0
2.8440001 0.24496147 0.65969342 0
2.8450003 0.24067023 0.65979803 0
2.8470001 0.23649079 0.66000724 0
2.8480003 0.23219052 0.6601119 0
2.8500001 0.22799847 0.66032118 0
2.8520002 0.2237992 0.66053039 0
2.8540003 0.21959275 0.66073966 0
2.8560002 0.21537903 0.66094887 0
2.8580003 0.21115813 0.66115814 0
2.8610003 0.2070328 0.66147196 0
2.8630002 0.20279567 0.66168123 0
2.8660002 0.19865051 0.66199505 0
2.8700001 0.19459194 0.6624136 0
2.8730001 0.19042332 0.66272748 0
2.8780003 0.1864315 0.66325057 0
2.8830001 0.18242164 0.66377366 0
2.8900001 0.17857412 0.66450596 0
2.7220001 0.60739702 0.64274126 0
2.7230003 0.60348821 0.64284408 0
2.7240002 0.59957576 0.64294684 0
2.7250001 0.59565967 0.64304972 0
2.7260003 0.59174001 0.64315253 0
2.7270002 0.58781672 0.64325535 0
2.7280002 0.58388984 0.64335811 0
2.7290001 0.57995927 0.64346099 0
2.7300003 0.57602525 0.64356381 0
2.7310002 0.57208753 0.64366663 0
2.8190002 0.47760946 0.65271449 0
2.8110001 0.47152877 0.65189195 0
2.8060002 0.46611559 0.65137792 0
2.8020003 0.46093148 0.65096664 0
2.8000002 0.45618021 0.65076101 0
2.7980001 0.45143616 0.65055537 0
2.7970002 0.44690499 0.65045249 0
2.7960002 0.44237748 0.65034974 0
2.7950003 0.43785354 0.65024692 0
2.7950003 0.43353343 0.65024692 0
2.7960002 0.42941171 0.65034974 0
2.7960002 0.42508975 0.65034974 0
2.7970002 0.42096266 0.65045249 0
2.7990003 0.41702497 0.65065819 0
2.8000002 0.4128888 0.65076101 0
2.8030002 0.40912789 0.6510694 0
2.8050003 0.40516853 0.65127504 0
2.8090003 0.40157354 0.65168631 0
2.8120003 0.39778012 0.65199482 0
2.8170002 0.39434025 0.65250885 0
2.8220003 0.39088234 0.653023 0
2.8290002 0.38776356 0.65374267 0
2.8410003 0.38550341 0.65497649 0
3.0900002 0.41981539 0.68057793 0
3.0840001 0.41393498 0.67996103 0
3.0800002 0.40841538 0.67954975 0
3.0770001 0.40307787 0.6792413 0
3.0750003 0.39791721 0.67903566 0
3.0730002 0.39276373 0.67883003 0
3.0720003 0.3877798 0.67872727 0
2.8550003 0.34369472 0.65641594 0
2.8500001 0.33848172 0.65590185 0
2.8460002 0.33344185 0.65549058 0
2.8440001 0.3287231 0.65528488 0
2.8420002 0.32401156 0.65507931 0
2.8410003 0.31945696 0.65497649 0
2.8400002 0.31490594 0.65487367 0
2.8400002 0.31050465 0.65487367 0
2.8410003 0.30624768 0.65497649 0
2.8410003 0.3018446 0.65497649 0
2.8430002 0.29772285 0.65518212 0
2.8450003 0.29359397 0.65538776 0
2.8400002 0.28849819 0.65487367 0
2.8390002 0.28396159 0.65477085 0
2.8380003 0.27942866 0.65466809 0
2.8390002 0.27516264 0.65477085 0
2.8390002 0.27076313 0.65477085 0
2.8400002 0.26649174 0.65487367 0
2.8400002 0.26209044 0.65487367 0
2.8410003 0.25781363 0.65497649 0
2.8420002 0.25353318 0.65507931 0
2.8430002 0.24924913 0.65518212 0
2.8440001 0.24496147 0.65528488 0
2.8450003 0.24067023 0.65538776 0
2.8460002 0.23637536 0.65549058 0
2.8480003 0.23219052 0.65569621 0
2.8490002 0.22788665 0.65579903 0
2.8510003 0.2236892 0.65600467 0
2.8520002 0.21937627 0.65610743 0
2.8540003 0.21516618 0.65631306 0
2.8560002 0.21094885 0.6565187 0
2.8580003 0.20672438 0.65672439 0
2.8610003 0.20259364 0.65703285 0
2.8630002 0.19835286 0.65723848 0
2.8660002 0.1942023 0.65754688 0
2.8690002 0.19004093 0.65785539 0
2.8730001 0.18596253 0.6582666 0
2.8770003 0.18186969 0.65867794 0
2.8820002 0.1778526 0.65919197 0
2.8870003 0.1738175 0.65970612 0
2.8950002 0.17002408 0.6605286 0
2.7220001 0.60739702 0.63855278 0
2.7230003 0.60348821 0.63865381 0
2.7240002 0.59957576 0.63875484 0
2.7250001 0.59565967 0.63885581 0
2.7260003 0.59174001 0.6389569 0
2.7270002 0.58781672 0.63905787 0
2.7280002 0.58388984 0.6391589 0
2.7290001 0.57995927 0.63925987 0
2.7300003 0.57602525 0.6393609 0
2.7310002 0.57208753 0.63946193 0
2.8190002 0.47760946 0.64835107 0
2.8110001 0.47152877 0.64754295 0
2.8060002 0.46611559 0.64703792 0
2.8020003 0.46093148 0.64663386 0
2.8000002 0.45618021 0.64643186 0
2.7980001 0.45143616 0.6462298 0
2.7970002 0.44690499 0.64612877 0
2.7960002 0.44237748 0.6460278 0
2.7950003 0.43785354 0.64592677 0
2.7950003 0.43353343 0.64592677 0
2.7960002 0.42941171 0.6460278 0
2.7960002 0.42508975 0.6460278 0
2.7970002 0.42096266 0.64612877 0
2.7990003 0.41702497 0.64633083 0
2.8000002 0.4128888 0.64643186 0
2.8030002 0.40912789 0.64673489 0
2.8050003 0.40516853 0.64693689 0
2.8090003 0.40157354 0.64734095 0
2.8120003 0.39778012 0.64764398 0
2.8170002 0.39434025 0.64814907 0
2.8220003 0.39088234 0.6486541 0
2.8290002 0.38776356 0.64936125 0
2.8410003 0.38550341 0.65057337 0
3.0960002 0.42085442 0.67633176 0
3.0880003 0.41462046 0.67552364 0
3.0830002 0.40892404 0.67501855 0
3.0790002 0.40341341 0.67461455 0
3.0760002 0.39808315 0.67431152 0
3.0750003 0.39309204 0.67421055 0
3.0730002 0.38794214 0.67400849 0
3.0720003 0.38296002 0.6739074 0
2.8650002 0.34528208 0.65299773 0
2.8560002 0.3394233 0.65208858 0
2.8510003 0.33421752 0.65158355 0
2.8480003 0.32933643 0.65128052 0
2.8460002 0.32461765 0.65107846 0
2.8450003 0.32005581 0.65097743 0
2.8440001 0.31549758 0.6508764 0
2.8440001 0.31108907 0.6508764 0
2.8440001 0.30668056 0.6508764 0
2.8450003 0.3024146 0.65097743 0
2.8470001 0.29828563 0.65117943 0
2.8490002 0.29414955 0.65138149 0
2.8400002 0.28849819 0.65047234 0
2.8400002 0.2840969 0.65047234 0
2.8400002 0.2796956 0.65047234 0
2.8400002 0.27529433 0.65047234 0
2.8410003 0.27102292 0.65057337 0
2.8410003 0.26661983 0.65057337 0
2.8410003 0.26221672 0.65057337 0
2.8420002 0.25793809 0.6506744 0
2.8420002 0.25353318 0.6506744 0
2.8430002 0.24924913 0.65077543 0
2.8440001 0.24496147 0.6508764 0
2.8450003 0.24067023 0.65097743 0
2.8460002 0.23637536 0.65107846 0
2.8470001 0.23207685 0.65117943 0
2.8490002 0.22788665 0.65138149 0
2.8500001 0.22357911 0.65148246 0
2.8510003 0.21926805 0.65158355 0
2.8530002 0.21505976 0.65178555 0
2.8550003 0.21084428 0.65198755 0
2.8570001 0.20662153 0.65218961 0
2.8590002 0.20239161 0.65239161 0
2.8610003 0.19815446 0.65259367 0
2.8640003 0.19400752 0.6528967 0
2.8660002 0.18975411 0.6530987 0
2.8690002 0.18558732 0.65340173 0
2.8730001 0.18150169 0.65380579 0
2.8760002 0.17731145 0.65410888 0
2.8800001 0.17319877 0.65451288 0
2.8850002 0.16915825 0.65501797 0
2.8920002 0.16526924 0.65572506 0
2.7220001 0.60739702 0.63436437 0
2.7230003 0.60348821 0.63446355 0
2.7240002 0.59957576 0.63456279 0
2.7250001 0.59565967 0.63466197 0
2.7260003 0.59174001 0.63476121 0
2.7270002 0.58781672 0.6348604 0
2.7280002 0.58388984 0.63495964 0
2.7290001 0.57995927 0.63505882 0
2.7300003 0.57602525 0.63515806 0
2.7310002 0.57208753 0.63525724 0
2.8190002 0.47760946 0.64398772 0
2.8110001 0.47152877 0.64319396 0
2.8060002 0.46611559 0.64269793 0
2.8020003 0.46093148 0.64230114 0
2.8000002 0.45618021 0.64210272 0
2.7980001 0.45143616 0.64190423 0
2.7970002 0.44690499 0.64180505 0
2.7960002 0.44237748 0.64170587 0
2.7950003 0.43785354 0.64160669 0
2.7950003 0.43353343 0.64160669 0
2.7960002 0.42941171 0.64170587 0
2.7960002 0.42508975 0.64170587 0
2.7970002 0.42096266 0.64180505 0
2.7990003 0.41702497 0.64200348 0
2.8000002 0.4128888 0.64210272 0
2.8030002 0.40912789 0.64240032 0
2.8050003 0.40516853 0.64259875 0
2.8090003 0.40157354 0.6429956 0
2.8120003 0.39778012 0.6432932 0
2.8170002 0.39434025 0.64378923 0
2.8220003 0.39088234 0.64428532 0
2.8290002 0.38776356 0.64497977 0
2.8410003 0.38550341 0.64617026 0
3.0930002 0.41547728 0.67117107 0
3.0860002 0.40943271 0.67047662 0
3.0820003 0.40391666 0.67007977 0
3.0790002 0.39858103 0.66978216 0
3.0760002 0.39325616 0.6694845 0
3.0750003 0.38826683 0.66938531 0
3.0740001 0.38328108 0.66928613 0
3.0730002 0.378299 0.66918683 0
2.8590002 0.33545855 0.64795607 0
2.8550003 0.33040971 0.64755923 0
2.8520002 0.32552677 0.64726156 0
2.8500001 0.32080439 0.64706314 0
2.8490002 0.31623715 0.64696395 0
2.8490002 0.31181961 0.64696395 0
2.8490002 0.3074021 0.64696395 0
2.8500001 0.30312708 0.64706314 0
2.8520002 0.29898915 0.64726156 0
2.8440001 0.29345506 0.64646792 0
2.8430002 0.28890944 0.64636874 0
2.8420002 0.28436747 0.6462695 0
2.8420002 0.27996257 0.6462695 0
2.8420002 0.27555767 0.6462695 0
2.8420002 0.27115276 0.6462695 0
2.8420002 0.26674786 0.6462695 0
2.8430002 0.26246923 0.64636874 0
2.8430002 0.25806251 0.64636874 0
2.8430002 0.25365582 0.64636874 0
2.8440001 0.24936998 0.64646792 0
2.8450003 0.24508053 0.64656711 0
2.8450003 0.24067023 0.64656711 0
2.8460002 0.23637536 0.64666629 0
2.8470001 0.23207685 0.64676553 0
2.8480003 0.2277748 0.64686477 0
2.8500001 0.22357911 0.64706314 0
2.8510003 0.21926805 0.64716238 0
2.8520002 0.21495333 0.64726156 0
2.8540003 0.21073964 0.64746004 0
2.8560002 0.20651871 0.64765841 0
2.8570001 0.20218956 0.64775765 0
2.8590002 0.19795604 0.64795607 0
2.8610003 0.1937153 0.6481545 0
2.8640003 0.18956293 0.64845216 0
2.8660002 0.18530594 0.64865053 0
2.8690002 0.18113373 0.64894813 0
2.8720002 0.17695069 0.6492458 0
2.8760002 0.17284523 0.64964259 0
2.8790002 0.16863874 0.64994025 0
2.8840003 0.164591 0.65043628 0
2.8890002 0.16052522 0.65093231 0
2.8970003 0.15668492 0.65172601 0
2.7220001 0.60739702 0.63017595 0
2.7230003 0.60348821 0.63027334 0
2.7240002 0.59957576 0.63037074 0
2.7250001 0.59565967 0.63046813 0
2.7260003 0.59174001 0.63056552 0
2.7270002 0.58781672 0.63066292 0
2.7280002 0.58388984 0.63076037 0
2.7290001 0.57995927 0.63085777 0
2.7300003 0.57602525 0.63095516 0
2.7310002 0.57208753 0.63105255 0
2.8190002 0.47760946 0.63962424 0
2.8110001 0.47152877 0.63884503 0
2.8060002 0.46611559 0.638358 0
2.8020003 0.46093148 0.63796836 0
2.8000002 0.45618021 0.63777357 0
2.7980001 0.45143616 0.63757873 0
2.7970002 0.44690499 0.63748133 0
2.7960002 0.44237748 0.63738394 0
2.7950003 0.43785354 0.63728654 0
2.7950003 0.43353343 0.63728654 0
2.7960002 0.42941171 0.63738394 0
2.7960002 0.42508975 0.63738394 0
2.7970002 0.42096266 0.63748133 0
2.7990003 0.41702497 0.63767612 0
2.8000002 0.4128888 0.63777357 0
2.8030002 0.40912789 0.63806581 0
2.8050003 0.40516853 0.6382606 0
2.8090003 0.40157354 0.63865024 0
2.8120003 0.39778012 0.63894248 0
2.8170002 0.39434025 0.63942945 0
2.8220003 0.39088234 0.63991648 0
2.8290002 0.38776356 0.6405983 0
2.8410003 0.38550341 0.6417672 0
3.0980003 0.41633412 0.6668005 0
3.0900002 0.41011092 0.66602123 0
3.0850003 0.40441993 0.66553414 0
3.0810003 0.39891294 0.66514456 0
3.0790002 0.39374861 0.66494972 0
3.0770001 0.3885915 0.66475487 0
3.0760002 0.3836022 0.66465753 0
3.0750003 0.37861648 0.66456008 0
3.0750003 0.37379128 0.66456008 0
3.0760002 0.36912122 0.66465753 0
2.8640003 0.33178961 0.64400756 0
2.8600001 0.32673892 0.64361787 0
2.8570001 0.32185239 0.64332569 0
2.8560002 0.31727254 0.64322829 0
2.8560002 0.31284237 0.64322829 0
2.8560002 0.30841225 0.64322829 0
2.8570001 0.30412456 0.64332569 0
2.8540003 0.29927054 0.64303344 0
2.8460002 0.29373285 0.64225423 0
2.8460002 0.28932074 0.64225423 0
2.8450003 0.28477335 0.64215684 0
2.8450003 0.28036302 0.64215684 0
2.8440001 0.27582103 0.64205939 0
2.8440001 0.27141252 0.64205939 0
2.8440001 0.26700401 0.64205939 0
2.8440001 0.2625955 0.64205939 0
2.8440001 0.258187 0.64205939 0
2.8450003 0.25390115 0.64215684 0
2.8450003 0.24949086 0.64215684 0
2.8450003 0.24508053 0.64215684 0
2.8460002 0.24078748 0.64225423 0
2.8470001 0.23649079 0.64235163 0
2.8480003 0.23219052 0.64244902 0
2.8490002 0.22788665 0.64254642 0
2.8490002 0.22346911 0.64254642 0
2.8510003 0.21926805 0.64274126 0
2.8520002 0.21495333 0.64283866 0
2.8530002 0.21063501 0.64293605 0
2.8550003 0.20641592 0.6431309 0
2.8560002 0.20208858 0.64322829 0
2.8580003 0.19785683 0.64342308 0
2.8600001 0.19361787 0.64361787 0
2.8620002 0.18937172 0.64381272 0
2.8640003 0.18511833 0.64400756 0
2.8670001 0.18094973 0.64429975 0
2.8690002 0.17668012 0.64449453 0
2.8720002 0.17249168 0.64478678 0
2.8750002 0.1682924 0.64507902 0
2.8790002 0.16416709 0.64546859 0
2.8830001 0.16002735 0.64585823 0
2.8880002 0.15595438 0.64634526 0
2.8930001 0.15186332 0.64683229 0
2.9020002 0.14806451 0.64770889 0
2.7220001 0.60739702 0.62598747 0
2.7230003 0.60348821 0.62608308 0
2.7240002 0.59957576 0.62617868 0
2.7250001 0.59565967 0.62627429 0
2.7260003 0.59174001 0.62636989 0
2.7270002 0.58781672 0.6264655 0
2.7280002 0.58388984 0.62656111 0
2.7290001 0.57995927 0.62665665 0
2.7300003 0.57602525 0.62675226 0
2.7310002 0.57208753 0.62684786 0
2.8190002 0.47760946 0.63526082 0
2.8110001 0.47152877 0.63449603 0
2.8060002 0.46611559 0.63401806 0
2.8020003 0.46093148 0.63363564 0
2.8000002 0.45618021 0.63344443 0
2.7980001 0.45143616 0.63325322 0
2.7970002 0.44690499 0.63315761 0
2.7960002 0.44237748 0.63306201 0
2.7950003 0.43785354 0.6329664 0
2.7950003 0.43353343 0.6329664 0
2.7960002 0.42941171 0.63306201 0
2.7960002 0.42508975 0.63306201 0
2.7970002 0.42096266 0.63315761 0
2.7990003 0.41702497 0.63334882 0
2.8000002 0.4128888 0.63344443 0
2.8030002 0.40912789 0.63373125 0
2.8050003 0.40516853 0.63392246 0
2.8090003 0.40157354 0.63430488 0
2.8120003 0.39778012 0.63459164 0
2.8170002 0.39434025 0.63506961 0
2.8220003 0.39088234 0.63554764 0
2.8290002 0.38776356 0.63621688 0
2.8410003 0.38550341 0.63736415 0
3.0960002 0.41112828 0.66174257 0
3.0890002 0.40509096 0.66107333 0
3.0850003 0.39957672 0.6606909 0
3.0820003 0.39424103 0.66040415 0
3.0800002 0.38907856 0.66021293 0
3.0790002 0.38408381 0.66011739 0
3.0780003 0.37909266 0.66002172 0
3.0780003 0.37426209 0.66002172 0
3.0780003 0.36943147 0.66002172 0
3.0790002 0.3647542 0.66011739 0
3.0810003 0.36022484 0.6603086 0
2.8690002 0.32364899 0.64004093 0
2.8660002 0.31875166 0.63975412 0
2.8650002 0.31415737 0.63965857 0
2.8650002 0.30971098 0.63965857 0
2.8660002 0.30540711 0.63975412 0
2.8520002 0.29898915 0.63841569 0
2.8500001 0.29428843 0.63822448 0
2.8490002 0.28973201 0.63812894 0
2.8480003 0.2851792 0.63803327 0
2.8470001 0.28062996 0.63793766 0
2.8470001 0.27621603 0.63793766 0
2.8460002 0.27167225 0.63784206 0
2.8460002 0.26726013 0.63784206 0
2.8460002 0.26284802 0.63784206 0
2.8460002 0.2584359 0.63784206 0
2.8460002 0.25402379 0.63784206 0
2.8460002 0.24961168 0.63784206 0
2.8470001 0.24531862 0.63793766 0
2.8470001 0.24090472 0.63793766 0
2.8480003 0.23660624 0.63803327 0
2.8480003 0.23219052 0.63803327 0
2.8490002 0.22788665 0.63812894 0
2.8500001 0.22357911 0.63822448 0
2.8510003 0.21926805 0.63832015 0
2.8520002 0.21495333 0.63841569 0
2.8530002 0.21063501 0.6385113 0
2.8540003 0.20631307 0.63860691 0
2.8560002 0.20208858 0.63879812 0
2.8570001 0.1977576 0.63889372 0
2.8590002 0.19352049 0.63908494 0
2.8610003 0.18927613 0.63927615 0
2.8630002 0.18502453 0.63946736 0
2.8640003 0.18067376 0.63956296 0
2.8670001 0.17649972 0.63984978 0
2.8690002 0.17222652 0.64004093 0
2.8720002 0.16803266 0.64032775 0
2.8750002 0.16382799 0.64061457 0
2.8780003 0.15961249 0.64090139 0
2.8820002 0.15546733 0.64128375 0
2.8860002 0.15130775 0.64166617 0
2.8910003 0.14721131 0.6421442 0
2.8980002 0.14324835 0.64281344 0
2.7220001 0.60739702 0.62179905 0
2.7230003 0.60348821 0.62189281 0
2.7240002 0.59957576 0.62198663 0
2.7250001 0.59565967 0.62208045 0
2.7260003 0.59174001 0.62217426 0
2.7270002 0.58781672 0.62226802 0
2.7280002 0.58388984 0.62236178 0
2.7290001 0.57995927 0.6224556 0
2.7300003 0.57602525 0.62254941 0
2.7310002 0.57208753 0.62264323 0
2.8190002 0.47760946 0.63089746 0
2.8110001 0.47152877 0.63014704 0
2.8060002 0.46611559 0.62967807 0
2.8020003 0.46093148 0.62930286 0
2.8000002 0.45618021 0.62911528 0
2.7980001 0.45143616 0.62892771 0
2.7970002 0.44690499 0.62883389 0
2.7960002 0.44237748 0.62874007 0
2.7950003 0.43785354 0.62864631 0
2.7950003 0.43353343 0.62864631 0
2.7960002 0.42941171 0.62874007 0
2.7960002 0.42508975 0.62874007 0
2.7970002 0.42096266 0.62883389 0
2.7990003 0.41702497 0.62902153 0
2.8000002 0.4128888 0.62911528 0
2.8030002 0.40912789 0.62939668 0
2.8050003 0.40516853 0.62958431 0
2.8090003 0.40157354 0.62995946 0
2.8120003 0.39778012 0.63024086 0
2.8170002 0.39434025 0.63070983 0
2.8220003 0.39088234 0.63117886 0
2.8290002 0.38776356 0.63183546 0
2.8410003 0.38550341 0.63296103 0
3.0940003 0.40592974 0.65669191 0
3.0900002 0.40040645 0.6563167 0
3.0860002 0.39489761 0.65594149 0
3.0840001 0.38972789 0.65575391 0
3.0820003 0.38456541 0.65556633 0
3.0820003 0.37972763 0.65556633 0
3.0810003 0.37473288 0.65547252 0
3.0820003 0.37005198 0.65556633 0
3.0830002 0.36536747 0.65566015 0
3.0840001 0.36067936 0.65575391 0
3.0860002 0.35613739 0.65594149 0
3.0800002 0.35040489 0.6553787 0
3.0800002 0.34557068 0.6553787 0
3.0800002 0.34073648 0.6553787 0
2.8590002 0.30440956 0.6346494 0
2.8570001 0.2996926 0.63446176 0
2.8550003 0.29498291 0.63427418 0
2.8530002 0.29028037 0.63408655 0
2.8520002 0.28572032 0.63399279 0
2.8510003 0.28116393 0.63389897 0
2.8500001 0.27661109 0.63380516 0
2.8490002 0.27206188 0.6337114 0
2.8490002 0.26764438 0.6337114 0
2.8480003 0.26310059 0.63361758 0
2.8480003 0.25868487 0.63361758 0
2.8480003 0.25426915 0.63361758 0
2.8480003 0.2498534 0.63361758 0
2.8480003 0.24543768 0.63361758 0
2.8480003 0.24102196 0.63361758 0
2.8490002 0.23672169 0.6337114 0
2.8490002 0.23230416 0.6337114 0
2.8500001 0.22799847 0.63380516 0
2.8500001 0.22357911 0.63380516 0
2.8510003 0.21926805 0.63389897 0
2.8520002 0.21495333 0.63399279 0
2.8530002 0.21063501 0.63408655 0
2.8540003 0.20631307 0.63418037 0
2.8550003 0.20198756 0.63427418 0
2.8570001 0.1977576 0.63446176 0
2.8580003 0.19342308 0.63455558 0
2.8590002 0.18908492 0.6346494 0
2.8610003 0.18483694 0.63483697 0
2.8630002 0.18058176 0.63502455 0
2.8650002 0.17631936 0.63521218 0
2.8670001 0.17204975 0.6353997 0
2.8700001 0.16785948 0.63568115 0
2.8720002 0.16357365 0.63586873 0
2.8750002 0.15936357 0.63615012 0
2.8780003 0.15514266 0.63643152 0
2.8820002 0.15099029 0.63680673 0
2.8850002 0.14674592 0.63708812 0
2.8900001 0.14264226 0.63755709 0
2.8950002 0.13852055 0.63802612 0
2.9030001 0.13459727 0.63877648 0
2.7220001 0.60739702 0.61761057 0
2.7230003 0.60348821 0.6177026 0
2.7240002 0.59957576 0.61779457 0
2.7250001 0.59565967 0.61788654 0
2.7260003 0.59174001 0.61797857 0
2.7270002 0.58781672 0.6180706 0
2.7280002 0.58388984 0.61816257 0
2.7290001 0.57995927 0.61825454 0
2.7300003 0.57602525 0.61834657 0
2.7310002 0.57208753 0.61843854 0
2.8190002 0.47760946 0.62653404 0
2.8110001 0.47152877 0.62579805 0
2.8060002 0.46611559 0.62533808 0
2.8020003 0.46093148 0.62497014 0
2.8000002 0.45618021 0.62478614 0
2.7980001 0.45143616 0.62460214 0
2.7970002 0.44690499 0.62451017 0
2.7960002 0.44237748 0.62441814 0
2.7950003 0.43785354 0.62432617 0
2.7950003 0.43353343 0.62432617 0
2.7960002 0.42941171 0.62441814 0
2.7960002 0.42508975 0.62441814 0
2.7970002 0.42096266 0.62451017 0
2.7990003 0.41702497 0.62469417 0
2.8000002 0.4128888 0.62478614 0
2.8030002 0.40912789 0.62506211 0
2.8050003 0.40516853 0.62524611 0
2.8090003 0.40157354 0.62561411 0
2.8120003 0.39778012 0.62589008 0
2.8170002 0.39434025 0.62635005 0
2.8220003 0.39088234 0.62681001 0
2.8290002 0.38776356 0.62745398 0
