# .PCD v0.7 - Point Cloud Data file format
VERSION 0.7
FIELDS x y z intensity
SIZE 4 4 4 4
TYPE F F F F
COUNT 1 1 1 1
WIDTH 1453
HEIGHT 1
VIEWPOINT 0 0 0 1 0 0 0
POINTS 1453
DATA ascii
5.1460004 -2.1348531 1.7994225 0
5.1390004 -2.1403205 1.7973644 0
5.1330004 -2.1462066 1.7956003 0
5.1270003 -2.1520708 1.7938361 0
5.1200004 -2.1574657 1.791778 0
5.1140003 -2.1632848 1.7900138 0
5.1150002 -2.1722388 1.7903079 0
5.1280003 -2.1866298 1.7941301 0
5.1750002 -2.0787115 1.7993358 0
5.1880002 -2.0928822 1.8031347 0
5.1840005 -2.0998015 1.8019658 0
5.1780005 -2.1058445 1.8002126 0
5.1710005 -2.1114326 1.798167 0
5.1650004 -2.1174304 1.7964138 0
5.1580005 -2.1229696 1.7943683 0
5.1520004 -2.1289225 1.7926149 0
5.1460004 -2.1348531 1.7908616 0
5.1390004 -2.1403205 1.7888162 0
5.1330004 -2.1462066 1.7870628 0
5.1270003 -2.1520708 1.7853096 0
5.1200004 -2.1574657 1.7832639 0
5.1140003 -2.1632848 1.7815107 0
5.1150002 -2.1722388 1.7818029 0
5.1280003 -2.1866298 1.7856017 0
5.1750002 -2.0787115 1.7907227 0
5.1880002 -2.0928822 1.7944981 0
5.1840005 -2.0998015 1.7933365 0
5.1780005 -2.1058445 1.791594 0
5.1710005 -2.1114326 1.789561 0
5.1650004 -2.1174304 1.7878186 0
5.1580005 -2.1229696 1.7857858 0
5.1520004 -2.1289225 1.7840433 0
5.1460004 -2.1348531 1.7823007 0
5.1390004 -2.1403205 1.780268 0
5.1330004 -2.1462066 1.7785255 0
5.1270003 -2.1520708 1.7767829 0
5.1200004 -2.1574657 1.77475 0
5.1140003 -2.1632848 1.7730075 0
5.1150002 -2.1722388 1.7732979 0
5.1280003 -2.1866298 1.7770733 0
5.1750002 -2.0787115 1.7821095 0
5.1880002 -2.0928822 1.7858614 0
5.1840005 -2.0998015 1.7847071 0
5.1780005 -2.1058445 1.7829753 0
5.1710005 -2.1114326 1.7809551 0
5.1650004 -2.1174304 1.7792234 0
5.1580005 -2.1229696 1.7772032 0
5.1520004 -2.1289225 1.7754716 0
5.1460004 -2.1348531 1.7737399 0
5.1390004 -2.1403205 1.7717196 0
5.1330004 -2.1462066 1.7699879 0
5.1270003 -2.1520708 1.7682563 0
5.1200004 -2.1574657 1.7662361 0
5.1140003 -2.1632848 1.7645044 0
5.1150002 -2.1722388 1.7647929 0
5.1280003 -2.1866298 1.7685449 0
5.1750002 -2.0787115 1.7734964 0
5.1880002 -2.0928822 1.7772248 0
5.1840005 -2.0998015 1.7760776 0
5.1780005 -2.1058445 1.7743567 0
5.1710005 -2.1114326 1.7723491 0
5.1650004 -2.1174304 1.7706283 0
5.1580005 -2.1229696 1.7686206 0
5.1520004 -2.1289225 1.7668998 0
5.1460004 -2.1348531 1.765179 0
5.1390004 -2.1403205 1.7631713 0
5.1330004 -2.1462066 1.7614505 0
5.1270003 -2.1520708 1.7597296 0
5.1200004 -2.1574657 1.757722 0
5.1140003 -2.1632848 1.7560012 0
5.1150002 -2.1722388 1.7562879 0
5.1280003 -2.1866298 1.7600164 0
5.1750002 -2.0787115 1.7648832 0
5.1880002 -2.0928822 1.7685882 0
5.1840005 -2.0998015 1.7674482 0
5.1780005 -2.1058445 1.7657382 0
5.1710005 -2.1114326 1.7637432 0
5.1650004 -2.1174304 1.7620332 0
5.1580005 -2.1229696 1.7600381 0
5.1520004 -2.1289225 1.7583281 0
5.1460004 -2.1348531 1.7566181 0
5.1390004 -2.1403205 1.7546231 0
5.1330004 -2.1462066 1.7529131 0
5.1270003 -2.1520708 1.7512031 0
5.1200004 -2.1574657 1.7492081 0
5.1140003 -2.1632848 1.747498 0
5.1150002 -2.1722388 1.7477831 0
5.1280003 -2.1866298 1.7514881 0
5.1750002 -2.0787115 1.7562699 0
5.1880002 -2.0928822 1.7599515 0
5.1840005 -2.0998015 1.7588189 0
5.1780005 -2.1058445 1.7571197 0
5.1710005 -2.1114326 1.7551372 0
5.1650004 -2.1174304 1.753438 0
5.1580005 -2.1229696 1.7514557 0
5.1520004 -2.1289225 1.7497565 0
5.1460004 -2.1348531 1.7480572 0
5.1390004 -2.1403205 1.7460749 0
5.1330004 -2.1462066 1.7443757 0
5.1270003 -2.1520708 1.7426765 0
5.1200004 -2.1574657 1.740694 0
5.1140003 -2.1632848 1.7389948 0
5.1150002 -2.1722388 1.7392781 0
5.1280003 -2.1866298 1.7429596 0
5.1750002 -2.0787115 1.7476568 0
5.1880002 -2.0928822 1.7513149 0
5.1840005 -2.0998015 1.7501894 0
5.1780005 -2.1058445 1.7485009 0
5.1710005 -2.1114326 1.7465312 0
5.1650004 -2.1174304 1.7448429 0
5.1580005 -2.1229696 1.7428731 0
5.1520004 -2.1289225 1.7411848 0
5.1460004 -2.1348531 1.7394964 0
5.1390004 -2.1403205 1.7375267 0
5.1330004 -2.1462066 1.7358382 0
5.1270003 -2.1520708 1.7341499 0
5.1200004 -2.1574657 1.7321802 0
5.1140003 -2.1632848 1.7304918 0
5.1150002 -2.1722388 1.7307732 0
5.1280003 -2.1866298 1.7344313 0
5.1750002 -2.0787115 1.7390436 0
5.1880002 -2.0928822 1.7426783 0
5.1840005 -2.0998015 1.74156 0
5.1780005 -2.1058445 1.7398823 0
5.1710005 -2.1114326 1.7379253 0
5.1650004 -2.1174304 1.7362478 0
5.1580005 -2.1229696 1.7342906 0
5.1520004 -2.1289225 1.7326131 0
5.1460004 -2.1348531 1.7309356 0
5.1390004 -2.1403205 1.7289784 0
5.1330004 -2.1462066 1.7273009 0
5.1270003 -2.1520708 1.7256234 0
5.1200004 -2.1574657 1.7236662 0
5.1140003 -2.1632848 1.7219887 0
5.1150002 -2.1722388 1.7222681 0
5.1280003 -2.1866298 1.7259028 0
5.1750002 -2.0787115 1.7304305 0
5.1880002 -2.0928822 1.7340416 0
5.1840005 -2.0998015 1.7329305 0
5.1780005 -2.1058445 1.7312639 0
5.1710005 -2.1114326 1.7293193 0
5.1650004 -2.1174304 1.7276525 0
5.1580005 -2.1229696 1.7257081 0
5.1520004 -2.1289225 1.7240413 0
5.1460004 -2.1348531 1.7223746 0
5.1390004 -2.1403205 1.7204301 0
5.1330004 -2.1462066 1.7187634 0
5.1270003 -2.1520708 1.7170967 0
5.1200004 -2.1574657 1.7151523 0
5.1140003 -2.1632848 1.7134855 0
5.1150002 -2.1722388 1.7137632 0
5.1280003 -2.1866298 1.7173744 0
5.1750002 -2.0787115 1.7218173 0
5.1880002 -2.0928822 1.725405 0
5.1840005 -2.0998015 1.7243012 0
5.1780005 -2.1058445 1.7226453 0
5.1710005 -2.1114326 1.7207134 0
5.1650004 -2.1174304 1.7190574 0
5.1580005 -2.1229696 1.7171255 0
5.1520004 -2.1289225 1.7154696 0
5.1460004 -2.1348531 1.7138138 0
5.1390004 -2.1403205 1.711882 0
5.1330004 -2.1462066 1.7102259 0
5.1270003 -2.1520708 1.70857 0
5.1200004 -2.1574657 1.7066382 0
5.1140003 -2.1632848 1.7049823 0
5.1150002 -2.1722388 1.7052583 0
5.1280003 -2.1866298 1.7088461 0
5.1750002 -2.0787115 1.713204 0
5.1880002 -2.0928822 1.7167683 0
5.1840005 -2.0998015 1.7156718 0
5.1780005 -2.1058445 1.7140266 0
5.1710005 -2.1114326 1.7121074 0
5.1650004 -2.1174304 1.7104622 0
5.1580005 -2.1229696 1.7085431 0
5.1520004 -2.1289225 1.706898 0
5.1460004 -2.1348531 1.7052529 0
5.1390004 -2.1403205 1.7033336 0
5.1330004 -2.1462066 1.7016885 0
5.1270003 -2.1520708 1.7000434 0
5.1200004 -2.1574657 1.6981243 0
5.1140003 -2.1632848 1.6964791 0
5.1150002 -2.1722388 1.6967534 0
5.1280003 -2.1866298 1.7003176 0
5.1750002 -2.0787115 1.7045909 0
5.1880002 -2.0928822 1.7081318 0
5.1840005 -2.0998015 1.7070422 0
5.1780005 -2.1058445 1.705408 0
5.1710005 -2.1114326 1.7035015 0
5.1650004 -2.1174304 1.7018672 0
5.1580005 -2.1229696 1.6999606 0
5.1520004 -2.1289225 1.6983263 0
5.1460004 -2.1348531 1.696692 0
5.1390004 -2.1403205 1.6947854 0
5.1330004 -2.1462066 1.6931511 0
5.1270003 -2.1520708 1.6915169 0
5.1200004 -2.1574657 1.6896102 0
5.1140003 -2.1632848 1.687976 0
5.1150002 -2.1722388 1.6882484 0
5.1280003 -2.1866298 1.6917893 0
5.1750002 -2.0787115 1.6959777 0
5.1880002 -2.0928822 1.6994951 0
5.1840005 -2.0998015 1.6984129 0
5.1780005 -2.1058445 1.6967895 0
5.1710005 -2.1114326 1.6948955 0
5.1650004 -2.1174304 1.693272 0
5.1580005 -2.1229696 1.691378 0
5.1520004 -2.1289225 1.6897546 0
5.1460004 -2.1348531 1.6881311 0
5.1390004 -2.1403205 1.6862371 0
5.1330004 -2.1462066 1.6846137 0
5.1270003 -2.1520708 1.6829903 0
5.1200004 -2.1574657 1.6810963 0
5.1140003 -2.1632848 1.6794728 0
5.1150002 -2.1722388 1.6797434 0
5.1280003 -2.1866298 1.6832608 0
5.1750002 -2.0787115 1.6873645 0
5.1880002 -2.0928822 1.6908584 0
5.1840005 -2.0998015 1.6897835 0
5.1780005 -2.1058445 1.6881709 0
5.1710005 -2.1114326 1.6862894 0
5.1650004 -2.1174304 1.6846769 0
5.1580005 -2.1229696 1.6827955 0
5.1520004 -2.1289225 1.6811829 0
5.1460004 -2.1348531 1.6795703 0
5.1390004 -2.1403205 1.6776888 0
5.1330004 -2.1462066 1.6760763 0
5.1270003 -2.1520708 1.6744637 0
5.1200004 -2.1574657 1.6725823 0
5.1140003 -2.1632848 1.6709697 0
5.1150002 -2.1722388 1.6712384 0
5.1280003 -2.1866298 1.6747324 0
5.1750002 -2.0787115 1.6787512 0
5.1880002 -2.0928822 1.6822219 0
5.1840005 -2.0998015 1.681154 0
5.1780005 -2.1058445 1.6795522 0
5.1710005 -2.1114326 1.6776835 0
5.1650004 -2.1174304 1.6760817 0
5.1580005 -2.1229696 1.6742131 0
5.1520004 -2.1289225 1.6726111 0
5.1460004 -2.1348531 1.6710093 0
5.1390004 -2.1403205 1.6691407 0
5.1330004 -2.1462066 1.6675389 0
5.1270003 -2.1520708 1.6659371 0
5.1200004 -2.1574657 1.6640683 0
5.1140003 -2.1632848 1.6624666 0
5.1150002 -2.1722388 1.6627334 0
5.1280003 -2.1866298 1.666204 0
5.1750002 -2.0787115 1.670138 0
5.1880002 -2.0928822 1.6735852 0
5.1840005 -2.0998015 1.6725246 0
5.1780005 -2.1058445 1.6709336 0
5.1710005 -2.1114326 1.6690775 0
5.1650004 -2.1174304 1.6674867 0
5.1580005 -2.1229696 1.6656305 0
5.1520004 -2.1289225 1.6640395 0
5.1460004 -2.1348531 1.6624485 0
5.1390004 -2.1403205 1.6605924 0
5.1330004 -2.1462066 1.6590015 0
5.1270003 -2.1520708 1.6574104 0
5.1200004 -2.1574657 1.6555543 0
5.1140003 -2.1632848 1.6539633 0
5.1150002 -2.1722388 1.6542286 0
5.1280003 -2.1866298 1.6576756 0
5.1750002 -2.0787115 1.6615249 0
5.1880002 -2.0928822 1.6649486 0
5.1840005 -2.0998015 1.6638951 0
5.1780005 -2.1058445 1.6623151 0
5.1710005 -2.1114326 1.6604716 0
5.1650004 -2.1174304 1.6588914 0
5.1580005 -2.1229696 1.6570479 0
5.1520004 -2.1289225 1.6554677 0
5.1460004 -2.1348531 1.6538876 0
5.1390004 -2.1403205 1.6520442 0
5.1330004 -2.1462066 1.6504641 0
5.1270003 -2.1520708 1.6488838 0
5.1200004 -2.1574657 1.6470404 0
5.1140003 -2.1632848 1.6454602 0
5.1150002 -2.1722388 1.6457236 0
5.1280003 -2.1866298 1.6491472 0
5.1750002 -2.0787115 1.6529117 0
5.1880002 -2.0928822 1.6563119 0
5.1840005 -2.0998015 1.6552658 0
5.1780005 -2.1058445 1.6536964 0
5.1710005 -2.1114326 1.6518656 0
5.1650004 -2.1174304 1.6502963 0
5.1580005 -2.1229696 1.6484654 0
5.1520004 -2.1289225 1.6468961 0
5.1460004 -2.1348531 1.6453267 0
5.1390004 -2.1403205 1.6434959 0
5.1330004 -2.1462066 1.6419265 0
5.1270003 -2.1520708 1.6403573 0
5.1200004 -2.1574657 1.6385264 0
5.1140003 -2.1632848 1.636957 0
5.1150002 -2.1722388 1.6372187 0
5.1280003 -2.1866298 1.6406188 0
5.1750002 -2.0787115 1.6442986 0
5.1880002 -2.0928822 1.6476754 0
5.1840005 -2.0998015 1.6466364 0
5.1780005 -2.1058445 1.6450778 0
5.1710005 -2.1114326 1.6432596 0
5.1650004 -2.1174304 1.6417011 0
5.1580005 -2.1229696 1.6398829 0
5.1520004 -2.1289225 1.6383244 0
5.1460004 -2.1348531 1.636766 0
5.1390004 -2.1403205 1.6349477 0
5.1330004 -2.1462066 1.6333892 0
5.1270003 -2.1520708 1.6318307 0
5.1200004 -2.1574657 1.6300125 0
5.1140003 -2.1632848 1.628454 0
5.1150002 -2.1722388 1.6287136 0
5.1280003 -2.1866298 1.6320904 0
5.1750002 -2.0787115 1.6356853 0
5.1880002 -2.0928822 1.6390387 0
5.1840005 -2.0998015 1.6380069 0
5.1780005 -2.1058445 1.6364592 0
5.1710005 -2.1114326 1.6346537 0
5.1650004 -2.1174304 1.6331059 0
5.1580005 -2.1229696 1.6313003 0
5.1520004 -2.1289225 1.6297528 0
5.1460004 -2.1348531 1.6282051 0
5.1390004 -2.1403205 1.6263994 0
5.1330004 -2.1462066 1.6248517 0
5.1270003 -2.1520708 1.6233041 0
5.1200004 -2.1574657 1.6214985 0
5.1140003 -2.1632848 1.6199508 0
5.1150002 -2.1722388 1.6202086 0
5.1280003 -2.1866298 1.623562 0
5.1750002 -2.0787115 1.6270721 0
5.1880002 -2.0928822 1.630402 0
5.1840005 -2.0998015 1.6293775 0
5.1780005 -2.1058445 1.6278408 0
5.1710005 -2.1114326 1.6260477 0
5.1650004 -2.1174304 1.6245109 0
5.1580005 -2.1229696 1.6227179 0
5.1520004 -2.1289225 1.621181 0
5.1460004 -2.1348531 1.6196442 0
5.1390004 -2.1403205 1.6178511 0
5.1330004 -2.1462066 1.6163144 0
5.1270003 -2.1520708 1.6147774 0
5.1200004 -2.1574657 1.6129845 0
5.1140003 -2.1632848 1.6114477 0
5.1150002 -2.1722388 1.6117038 0
5.1280003 -2.1866298 1.6150336 0
5.1750002 -2.0787115 1.618459 0
5.1880002 -2.0928822 1.6217654 0
5.1840005 -2.0998015 1.6207482 0
5.1780005 -2.1058445 1.619222 0
5.1710005 -2.1114326 1.6174418 0
5.1650004 -2.1174304 1.6159157 0
5.1580005 -2.1229696 1.6141354 0
5.1520004 -2.1289225 1.6126093 0
5.1460004 -2.1348531 1.6110833 0
5.1390004 -2.1403205 1.6093029 0
5.1330004 -2.1462066 1.6077769 0
5.1270003 -2.1520708 1.6062509 0
5.1200004 -2.1574657 1.6044705 0
5.1140003 -2.1632848 1.6029445 0
5.1150002 -2.1722388 1.6031988 0
5.1280003 -2.1866298 1.6065052 0
5.1750002 -2.0787115 1.6098458 0
5.1880002 -2.0928822 1.6131288 0
5.1840005 -2.0998015 1.6121187 0
5.1780005 -2.1058445 1.6106035 0
5.1710005 -2.1114326 1.6088358 0
5.1650004 -2.1174304 1.6073205 0
5.1580005 -2.1229696 1.6055528 0
5.1520004 -2.1289225 1.6040375 0
5.1460004 -2.1348531 1.6025225 0
5.1390004 -2.1403205 1.6007546 0
5.1330004 -2.1462066 1.5992395 0
5.1270003 -2.1520708 1.5977242 0
5.1200004 -2.1574657 1.5959566 0
5.1140003 -2.1632848 1.5944413 0
5.1150002 -2.1722388 1.5946939 0
5.1280003 -2.1866298 1.5979768 0
5.1750002 -2.0787115 1.6012326 0
5.1880002 -2.0928822 1.6044922 0
5.1840005 -2.0998015 1.6034893 0
5.1780005 -2.1058445 1.6019849 0
5.1710005 -2.1114326 1.6002299 0
5.1650004 -2.1174304 1.5987253 0
5.1580005 -2.1229696 1.5969703 0
5.1520004 -2.1289225 1.595466 0
5.1460004 -2.1348531 1.5939615 0
5.1390004 -2.1403205 1.5922065 0
5.1330004 -2.1462066 1.5907021 0
5.1270003 -2.1520708 1.5891976 0
5.1200004 -2.1574657 1.5874425 0
5.1140003 -2.1632848 1.5859382 0
5.1150002 -2.1722388 1.5861889 0
5.1280003 -2.1866298 1.5894483 0
5.1750002 -2.0787115 1.5926194 0
5.1880002 -2.0928822 1.5958555 0
5.1840005 -2.0998015 1.5948598 0
5.1780005 -2.1058445 1.5933664 0
5.1710005 -2.1114326 1.5916239 0
5.1650004 -2.1174304 1.5901303 0
5.1580005 -2.1229696 1.5883878 0
5.1520004 -2.1289225 1.5868943 0
5.1460004 -2.1348531 1.5854007 0
5.1390004 -2.1403205 1.5836582 0
5.1330004 -2.1462066 1.5821646 0
5.1270003 -2.1520708 1.5806711 0
5.1200004 -2.1574657 1.5789286 0
5.1140003 -2.1632848 1.577435 0
5.1150002 -2.1722388 1.5776839 0
5.1280003 -2.1866298 1.58092 0
5.1750002 -2.0787115 1.5840062 0
5.1880002 -2.0928822 1.5872188 0
5.1840005 -2.0998015 1.5862305 0
5.1780005 -2.1058445 1.5847477 0
5.1710005 -2.1114326 1.5830179 0
5.1650004 -2.1174304 1.5815351 0
5.1580005 -2.1229696 1.5798053 0
5.1520004 -2.1289225 1.5783225 0
5.1460004 -2.1348531 1.5768398 0
5.1390004 -2.1403205 1.57511 0
5.1330004 -2.1462066 1.5736271 0
5.1270003 -2.1520708 1.5721445 0
5.1200004 -2.1574657 1.5704145 0
5.1140003 -2.1632848 1.5689319 0
5.1150002 -2.1722388 1.5691789 0
5.1280003 -2.1866298 1.5723915 0
5.1750002 -2.0787115 1.5753931 0
5.1880002 -2.0928822 1.5785823 0
5.1840005 -2.0998015 1.577601 0
5.1780005 -2.1058445 1.5761291 0
5.1710005 -2.1114326 1.5744119 0
5.1650004 -2.1174304 1.57294 0
5.1580005 -2.1229696 1.5712228 0
5.1520004 -2.1289225 1.5697508 0
5.1460004 -2.1348531 1.5682789 0
5.1390004 -2.1403205 1.5665617 0
5.1330004 -2.1462066 1.5650898 0
5.1270003 -2.1520708 1.5636178 0
5.1200004 -2.1574657 1.5619006 0
5.1140003 -2.1632848 1.5604286 0
5.1150002 -2.1722388 1.560674 0
5.1280003 -2.1866298 1.5638632 0
5.1750002 -2.0787115 1.5667799 0
5.1880002 -2.0928822 1.5699456 0
5.1840005 -2.0998015 1.5689715 0
5.1780005 -2.1058445 1.5675105 0
5.1710005 -2.1114326 1.5658059 0
5.1650004 -2.1174304 1.5643448 0
5.1580005 -2.1229696 1.5626403 0
5.1520004 -2.1289225 1.561179 0
5.1460004 -2.1348531 1.559718 0
5.1390004 -2.1403205 1.5580134 0
5.1330004 -2.1462066 1.5565523 0
5.1270003 -2.1520708 1.5550913 0
5.1200004 -2.1574657 1.5533866 0
5.1140003 -2.1632848 1.5519255 0
5.1150002 -2.1722388 1.5521691 0
5.1280003 -2.1866298 1.5553348 0
5.1750002 -2.0787115 1.5581667 0
5.1880002 -2.0928822 1.561309 0
5.1840005 -2.0998015 1.5603422 0
5.1780005 -2.1058445 1.558892 0
5.1710005 -2.1114326 1.5571998 0
5.1650004 -2.1174304 1.5557497 0
5.1580005 -2.1229696 1.5540576 0
5.1520004 -2.1289225 1.5526074 0
5.1460004 -2.1348531 1.5511572 0
5.1390004 -2.1403205 1.5494652 0
5.1330004 -2.1462066 1.5480149 0
5.1270003 -2.1520708 1.5465647 0
5.1200004 -2.1574657 1.5448726 0
5.1140003 -2.1632848 1.5434225 0
5.1150002 -2.1722388 1.5436641 0
5.1280003 -2.1866298 1.5468063 0
5.1750002 -2.0787115 1.5495535 0
5.1880002 -2.0928822 1.5526723 0
5.1840005 -2.0998015 1.5517128 0
5.1780005 -2.1058445 1.5502733 0
5.1710005 -2.1114326 1.5485939 0
5.1650004 -2.1174304 1.5471545 0
5.1580005 -2.1229696 1.5454751 0
5.1520004 -2.1289225 1.5440358 0
5.1460004 -2.1348531 1.5425962 0
5.1390004 -2.1403205 1.5409169 0
5.1330004 -2.1462066 1.5394775 0
5.1270003 -2.1520708 1.538038 0
5.1200004 -2.1574657 1.5363587 0
5.1140003 -2.1632848 1.5349193 0
5.1150002 -2.1722388 1.5351592 0
5.1280003 -2.1866298 1.538278 0
5.1750002 -2.0787115 1.5409403 0
5.1880002 -2.0928822 1.5440357 0
5.1840005 -2.0998015 1.5430833 0
5.1780005 -2.1058445 1.5416547 0
5.1710005 -2.1114326 1.5399879 0
5.1650004 -2.1174304 1.5385593 0
5.1580005 -2.1229696 1.5368927 0
5.1520004 -2.1289225 1.535464 0
5.1460004 -2.1348531 1.5340354 0
5.1390004 -2.1403205 1.5323687 0
5.1330004 -2.1462066 1.5309401 0
5.1270003 -2.1520708 1.5295115 0
5.1200004 -2.1574657 1.5278448 0
5.1140003 -2.1632848 1.5264162 0
5.1150002 -2.1722388 1.5266541 0
5.1280003 -2.1866298 1.5297495 0
5.1750002 -2.0787115 1.5323272 0
5.1880002 -2.0928822 1.5353991 0
5.1840005 -2.0998015 1.5344539 0
5.1780005 -2.1058445 1.5330361 0
5.1710005 -2.1114326 1.531382 0
5.1650004 -2.1174304 1.5299642 0
5.1580005 -2.1229696 1.5283101 0
5.1520004 -2.1289225 1.5268923 0
5.1460004 -2.1348531 1.5254745 0
5.1390004 -2.1403205 1.5238204 0
5.1330004 -2.1462066 1.5224026 0
5.1270003 -2.1520708 1.5209849 0
5.1200004 -2.1574657 1.5193307 0
5.1140003 -2.1632848 1.517913 0
5.1150002 -2.1722388 1.5181493 0
5.1280003 -2.1866298 1.5212212 0
5.1750002 -2.0787115 1.5237139 0
5.1880002 -2.0928822 1.5267624 0
5.1840005 -2.0998015 1.5258244 0
5.1780005 -2.1058445 1.5244175 0
5.1710005 -2.1114326 1.522776 0
5.1650004 -2.1174304 1.5213691 0
5.1580005 -2.1229696 1.5197276 0
5.1520004 -2.1289225 1.5183207 0
5.1460004 -2.1348531 1.5169137 0
5.1390004 -2.1403205 1.5152723 0
5.1330004 -2.1462066 1.5138652 0
5.1270003 -2.1520708 1.5124582 0
5.1200004 -2.1574657 1.5108168 0
5.1140003 -2.1632848 1.5094098 0
5.1150002 -2.1722388 1.5096443 0
5.1280003 -2.1866298 1.5126927 0
5.1750002 -2.0787115 1.5151008 0
5.1880002 -2.0928822 1.5181258 0
5.1840005 -2.0998015 1.5171951 0
5.1780005 -2.1058445 1.5157989 0
5.1710005 -2.1114326 1.5141701 0
5.1650004 -2.1174304 1.512774 0
5.1580005 -2.1229696 1.5111451 0
5.1520004 -2.1289225 1.5097489 0
5.1460004 -2.1348531 1.5083528 0
5.1390004 -2.1403205 1.506724 0
5.1330004 -2.1462066 1.5053277 0
5.1270003 -2.1520708 1.5039316 0
5.1200004 -2.1574657 1.5023028 0
5.1140003 -2.1632848 1.5009066 0
5.1150002 -2.1722388 1.5011394 0
5.1280003 -2.1866298 1.5041643 0
5.1750002 -2.0787115 1.5064876 0
5.1880002 -2.0928822 1.5094892 0
5.1840005 -2.0998015 1.5085657 0
5.1780005 -2.1058445 1.5071803 0
5.1710005 -2.1114326 1.5055641 0
5.1650004 -2.1174304 1.5041788 0
5.1580005 -2.1229696 1.5025626 0
5.1520004 -2.1289225 1.5011772 0
5.1460004 -2.1348531 1.4997919 0
5.1390004 -2.1403205 1.4981757 0
5.1330004 -2.1462066 1.4967904 0
5.1270003 -2.1520708 1.4954051 0
5.1200004 -2.1574657 1.4937888 0
5.1140003 -2.1632848 1.4924035 0
5.1150002 -2.1722388 1.4926344 0
5.1280003 -2.1866298 1.4956359 0
5.1750002 -2.0787115 1.4978744 0
5.1880002 -2.0928822 1.5008525 0
5.1840005 -2.0998015 1.4999362 0
5.1780005 -2.1058445 1.4985617 0
5.1710005 -2.1114326 1.4969581 0
5.1650004 -2.1174304 1.4955837 0
5.1580005 -2.1229696 1.4939801 0
5.1520004 -2.1289225 1.4926056 0
5.1460004 -2.1348531 1.4912311 0
5.1390004 -2.1403205 1.4896275 0
5.1330004 -2.1462066 1.488253 0
5.1270003 -2.1520708 1.4868785 0
5.1200004 -2.1574657 1.4852749 0
5.1140003 -2.1632848 1.4839004 0
5.1150002 -2.1722388 1.4841293 0
5.1280003 -2.1866298 1.4871075 0
5.1750002 -2.0787115 1.4892613 0
5.1880002 -2.0928822 1.4922159 0
5.1840005 -2.0998015 1.4913068 0
5.1780005 -2.1058445 1.489943 0
5.1710005 -2.1114326 1.4883522 0
5.1650004 -2.1174304 1.4869884 0
5.1580005 -2.1229696 1.4853976 0
5.1520004 -2.1289225 1.4840338 0
5.1460004 -2.1348531 1.4826702 0
5.1390004 -2.1403205 1.4810792 0
5.1330004 -2.1462066 1.4797155 0
5.1270003 -2.1520708 1.4783518 0
5.1200004 -2.1574657 1.4767609 0
5.1140003 -2.1632848 1.4753972 0
5.1150002 -2.1722388 1.4756244 0
5.1280003 -2.1866298 1.4785792 0
5.1750002 -2.0787115 1.480648 0
5.1880002 -2.0928822 1.4835793 0
5.1840005 -2.0998015 1.4826775 0
5.1780005 -2.1058445 1.4813246 0
5.1710005 -2.1114326 1.4797462 0
5.1650004 -2.1174304 1.4783934 0
5.1580005 -2.1229696 1.4768151 0
5.1520004 -2.1289225 1.4754622 0
5.1460004 -2.1348531 1.4741093 0
5.1390004 -2.1403205 1.472531 0
5.1330004 -2.1462066 1.4711782 0
5.1270003 -2.1520708 1.4698251 0
5.1200004 -2.1574657 1.4682469 0
5.1140003 -2.1632848 1.466894 0
5.1150002 -2.1722388 1.4671195 0
5.1280003 -2.1866298 1.4700507 0
5.1750002 -2.0787115 1.4720349 0
5.1880002 -2.0928822 1.4749427 0
5.1840005 -2.0998015 1.474048 0
5.1780005 -2.1058445 1.472706 0
5.1710005 -2.1114326 1.4711403 0
5.1650004 -2.1174304 1.4697982 0
5.1580005 -2.1229696 1.4682325 0
5.1520004 -2.1289225 1.4668905 0
5.1460004 -2.1348531 1.4655484 0
5.1390004 -2.1403205 1.4639827 0
5.1330004 -2.1462066 1.4626406 0
5.1270003 -2.1520708 1.4612986 0
5.1200004 -2.1574657 1.4597329 0
5.1140003 -2.1632848 1.4583908 0
5.1150002 -2.1722388 1.4586146 0
5.1280003 -2.1866298 1.4615223 0
5.1750002 -2.0787115 1.4634217 0
5.1880002 -2.0928822 1.466306 0
5.1840005 -2.0998015 1.4654186 0
5.1780005 -2.1058445 1.4640874 0
5.1710005 -2.1114326 1.4625343 0
5.1650004 -2.1174304 1.461203 0
5.1580005 -2.1229696 1.45965 0
5.1520004 -2.1289225 1.4583187 0
5.1460004 -2.1348531 1.4569876 0
5.1390004 -2.1403205 1.4554344 0
5.1330004 -2.1462066 1.4541034 0
5.1270003 -2.1520708 1.452772 0
5.1200004 -2.1574657 1.451219 0
5.1140003 -2.1632848 1.4498878 0
5.1150002 -2.1722388 1.4501096 0
5.1280003 -2.1866298 1.4529939 0
5.1750002 -2.0787115 1.4548085 0
5.1880002 -2.0928822 1.4576693 0
5.1840005 -2.0998015 1.4567891 0
5.1780005 -2.1058445 1.4554687 0
5.1710005 -2.1114326 1.4539284 0
5.1650004 -2.1174304 1.4526079 0
5.1580005 -2.1229696 1.4510676 0
5.1520004 -2.1289225 1.4497471 0
5.1460004 -2.1348531 1.4484266 0
5.1390004 -2.1403205 1.4468862 0
5.1330004 -2.1462066 1.4455658 0
5.1270003 -2.1520708 1.4442455 0
5.1200004 -2.1574657 1.442705 0
5.1140003 -2.1632848 1.4413846 0
5.1150002 -2.1722388 1.4416047 0
5.1280003 -2.1866298 1.4444655 0
5.1750002 -2.0787115 1.4461954 0
5.1880002 -2.0928822 1.4490328 0
5.1840005 -2.0998015 1.4481598 0
5.1780005 -2.1058445 1.4468502 0
5.1710005 -2.1114326 1.4453224 0
5.1650004 -2.1174304 1.4440128 0
5.1580005 -2.1229696 1.4424849 0
5.1520004 -2.1289225 1.4411755 0
5.1460004 -2.1348531 1.4398658 0
5.1390004 -2.1403205 1.438338 0
5.1330004 -2.1462066 1.4370284 0
5.1270003 -2.1520708 1.4357189 0
5.1200004 -2.1574657 1.4341911 0
5.1140003 -2.1632848 1.4328815 0
5.1150002 -2.1722388 1.4330996 0
5.1280003 -2.1866298 1.435937 0
5.1750002 -2.0787115 1.4375821 0
5.1880002 -2.0928822 1.4403961 0
5.1840005 -2.0998015 1.4395304 0
5.1780005 -2.1058445 1.4382316 0
5.1710005 -2.1114326 1.4367163 0
5.1650004 -2.1174304 1.4354177 0
5.1580005 -2.1229696 1.4339024 0
5.1520004 -2.1289225 1.4326037 0
5.1460004 -2.1348531 1.4313049 0
5.1390004 -2.1403205 1.4297898 0
5.1330004 -2.1462066 1.428491 0
5.1270003 -2.1520708 1.4271922 0
5.1200004 -2.1574657 1.4256771 0
5.1140003 -2.1632848 1.4243783 0
5.1150002 -2.1722388 1.4245948 0
5.1280003 -2.1866298 1.4274087 0
5.1750002 -2.0787115 1.428969 0
5.1880002 -2.0928822 1.4317595 0
5.1840005 -2.0998015 1.4309008 0
5.1780005 -2.1058445 1.429613 0
5.1710005 -2.1114326 1.4281104 0
5.1650004 -2.1174304 1.4268224 0
5.1580005 -2.1229696 1.4253199 0
5.1520004 -2.1289225 1.424032 0
5.1460004 -2.1348531 1.422744 0
5.1390004 -2.1403205 1.4212415 0
5.1330004 -2.1462066 1.4199536 0
5.1270003 -2.1520708 1.4186655 0
5.1200004 -2.1574657 1.4171631 0
5.1140003 -2.1632848 1.4158751 0
5.1150002 -2.1722388 1.4160898 0
5.1280003 -2.1866298 1.4188802 0
5.1750002 -2.0787115 1.4203558 0
5.1880002 -2.0928822 1.4231228 0
5.1840005 -2.0998015 1.4222715 0
5.1780005 -2.1058445 1.4209943 0
5.1710005 -2.1114326 1.4195044 0
5.1650004 -2.1174304 1.4182273 0
5.1580005 -2.1229696 1.4167373 0
5.1520004 -2.1289225 1.4154602 0
5.1460004 -2.1348531 1.4141831 0
5.1390004 -2.1403205 1.4126933 0
5.1330004 -2.1462066 1.4114161 0
5.1270003 -2.1520708 1.410139 0
5.1200004 -2.1574657 1.4086491 0
5.1140003 -2.1632848 1.407372 0
5.1150002 -2.1722388 1.4075848 0
5.1280003 -2.1866298 1.4103518 0
5.1750002 -2.0787115 1.4117426 0
5.1880002 -2.0928822 1.4144862 0
5.1840005 -2.0998015 1.413642 0
5.1780005 -2.1058445 1.4123758 0
5.1710005 -2.1114326 1.4108984 0
5.1650004 -2.1174304 1.4096322 0
5.1580005 -2.1229696 1.4081548 0
5.1520004 -2.1289225 1.4068885 0
5.1460004 -2.1348531 1.4056224 0
5.1390004 -2.1403205 1.404145 0
5.1330004 -2.1462066 1.4028788 0
5.1270003 -2.1520708 1.4016124 0
5.1200004 -2.1574657 1.4001352 0
5.1140003 -2.1632848 1.3988688 0
5.1150002 -2.1722388 1.3990798 0
5.1280003 -2.1866298 1.4018234 0
5.1750002 -2.0787115 1.4031293 0
5.1880002 -2.0928822 1.4058496 0
5.1840005 -2.0998015 1.4050126 0
5.1780005 -2.1058445 1.4037572 0
5.1710005 -2.1114326 1.4022925 0
5.1650004 -2.1174304 1.401037 0
5.1580005 -2.1229696 1.3995723 0
5.1520004 -2.1289225 1.3983169 0
5.1460004 -2.1348531 1.3970613 0
5.1390004 -2.1403205 1.3955967 0
5.1330004 -2.1462066 1.3943412 0
5.1270003 -2.1520708 1.3930858 0
5.1200004 -2.1574657 1.3916211 0
5.1140003 -2.1632848 1.3903657 0
5.1150002 -2.1722388 1.3905748 0
5.1280003 -2.1866298 1.3932949 0
5.1750002 -2.0787115 1.3945161 0
5.1880002 -2.0928822 1.3972129 0
5.1840005 -2.0998015 1.3963832 0
5.1780005 -2.1058445 1.3951385 0
5.1710005 -2.1114326 1.3936865 0
5.1650004 -2.1174304 1.3924419 0
5.1580005 -2.1229696 1.3909898 0
5.1520004 -2.1289225 1.3897451 0
5.1460004 -2.1348531 1.3885006 0
5.1390004 -2.1403205 1.3870485 0
5.1330004 -2.1462066 1.3858038 0
5.1270003 -2.1520708 1.3845593 0
5.1200004 -2.1574657 1.3831072 0
5.1140003 -2.1632848 1.3818625 0
5.1150002 -2.1722388 1.3820699 0
5.1280003 -2.1866298 1.3847666 0
5.1750002 -2.0787115 1.385903 0
5.1880002 -2.0928822 1.3885763 0
5.1840005 -2.0998015 1.3877537 0
5.1780005 -2.1058445 1.3865199 0
5.1710005 -2.1114326 1.3850806 0
5.1650004 -2.1174304 1.3838466 0
5.1580005 -2.1229696 1.3824073 0
5.1520004 -2.1289225 1.3811735 0
5.1460004 -2.1348531 1.3799396 0
5.1390004 -2.1403205 1.3785002 0
5.1330004 -2.1462066 1.3772664 0
5.1270003 -2.1520708 1.3760326 0
5.1200004 -2.1574657 1.3745931 0
5.1140003 -2.1632848 1.3733593 0
5.1150002 -2.1722388 1.373565 0
5.1280003 -2.1866298 1.3762382 0
5.1750002 -2.0787115 1.3772898 0
5.1880002 -2.0928822 1.3799396 0
5.1840005 -2.0998015 1.3791243 0
5.1780005 -2.1058445 1.3779014 0
5.1710005 -2.1114326 1.3764745 0
5.1650004 -2.1174304 1.3752517 0
5.1580005 -2.1229696 1.3738247 0
5.1520004 -2.1289225 1.3726017 0
5.1460004 -2.1348531 1.3713788 0
5.1390004 -2.1403205 1.369952 0
5.1330004 -2.1462066 1.368729 0
5.1270003 -2.1520708 1.3675059 0
5.1200004 -2.1574657 1.3660792 0
5.1140003 -2.1632848 1.3648561 0
5.1150002 -2.1722388 1.3650601 0
5.1280003 -2.1866298 1.3677099 0
5.1750002 -2.0787115 1.3686765 0
5.1880002 -2.0928822 1.371303 0
5.1840005 -2.0998015 1.370495 0
5.1780005 -2.1058445 1.3692827 0
5.1710005 -2.1114326 1.3678685 0
5.1650004 -2.1174304 1.3666564 0
5.1580005 -2.1229696 1.3652422 0
5.1520004 -2.1289225 1.3640301 0
5.1460004 -2.1348531 1.3628179 0
5.1390004 -2.1403205 1.3614038 0
5.1330004 -2.1462066 1.3601915 0
5.1270003 -2.1520708 1.3589793 0
5.1200004 -2.1574657 1.3575652 0
5.1140003 -2.1632848 1.356353 0
5.1150002 -2.1722388 1.3565551 0
5.1280003 -2.1866298 1.3591814 0
5.1750002 -2.0787115 1.3600634 0
5.1880002 -2.0928822 1.3626664 0
5.1840005 -2.0998015 1.3618655 0
5.1780005 -2.1058445 1.3606641 0
5.1710005 -2.1114326 1.3592626 0
5.1650004 -2.1174304 1.3580613 0
5.1580005 -2.1229696 1.3566598 0
5.1520004 -2.1289225 1.3554584 0
5.1460004 -2.1348531 1.354257 0
5.1390004 -2.1403205 1.3528556 0
5.1330004 -2.1462066 1.3516542 0
5.1270003 -2.1520708 1.3504528 0
5.1200004 -2.1574657 1.3490512 0
5.1140003 -2.1632848 1.3478498 0
5.1150002 -2.1722388 1.34805 0
5.1280003 -2.1866298 1.3506531 0
5.1750002 -2.0787115 1.3514502 0
5.1880002 -2.0928822 1.3540297 0
5.1840005 -2.0998015 1.3532361 0
5.1780005 -2.1058445 1.3520455 0
5.1710005 -2.1114326 1.3506566 0
5.1650004 -2.1174304 1.3494661 0
5.1580005 -2.1229696 1.3480773 0
5.1520004 -2.1289225 1.3468866 0
5.1460004 -2.1348531 1.3456962 0
5.1390004 -2.1403205 1.3443072 0
5.1330004 -2.1462066 1.3431166 0
5.1270003 -2.1520708 1.3419262 0
5.1200004 -2.1574657 1.3405372 0
5.1140003 -2.1632848 1.3393468 0
5.1150002 -2.1722388 1.3395451 0
5.1280003 -2.1866298 1.3421246 0
5.1750002 -2.0787115 1.3428371 0
5.1880002 -2.0928822 1.3453931 0
5.1840005 -2.0998015 1.3446066 0
5.1780005 -2.1058445 1.3434271 0
5.1710005 -2.1114326 1.3420507 0
5.1650004 -2.1174304 1.340871 0
5.1580005 -2.1229696 1.3394947 0
5.1520004 -2.1289225 1.3383149 0
5.1460004 -2.1348531 1.3371353 0
5.1390004 -2.1403205 1.3357589 0
5.1330004 -2.1462066 1.3345792 0
5.1270003 -2.1520708 1.3333997 0
5.1200004 -2.1574657 1.3320233 0
5.1140003 -2.1632848 1.3308437 0
5.1150002 -2.1722388 1.3310401 0
5.1280003 -2.1866298 1.3335961 0
5.1750002 -2.0787115 1.3342239 0
5.1880002 -2.0928822 1.3367565 0
5.1840005 -2.0998015 1.3359773 0
5.1780005 -2.1058445 1.3348083 0
5.1710005 -2.1114326 1.3334447 0
5.1650004 -2.1174304 1.3322759 0
5.1580005 -2.1229696 1.3309121 0
5.1520004 -2.1289225 1.3297434 0
5.1460004 -2.1348531 1.3285744 0
5.1390004 -2.1403205 1.3272108 0
5.1330004 -2.1462066 1.3260418 0
5.1270003 -2.1520708 1.324873 0
5.1200004 -2.1574657 1.3235093 0
5.1140003 -2.1632848 1.3223405 0
5.1150002 -2.1722388 1.3225353 0
5.1280003 -2.1866298 1.3250678 0
5.1750002 -2.0787115 1.3256108 0
5.1880002 -2.0928822 1.3281199 0
5.1840005 -2.0998015 1.3273478 0
5.1780005 -2.1058445 1.3261898 0
5.1710005 -2.1114326 1.3248388 0
5.1650004 -2.1174304 1.3236806 0
5.1580005 -2.1229696 1.3223296 0
5.1520004 -2.1289225 1.3211716 0
5.1460004 -2.1348531 1.3200135 0
5.1390004 -2.1403205 1.3186625 0
5.1330004 -2.1462066 1.3175044 0
5.1270003 -2.1520708 1.3163464 0
5.1200004 -2.1574657 1.3149954 0
5.1140003 -2.1632848 1.3138373 0
5.1150002 -2.1722388 1.3140303 0
5.1280003 -2.1866298 1.3165394 0
5.1750002 -2.0787115 1.3169975 0
5.1880002 -2.0928822 1.3194832 0
5.1840005 -2.0998015 1.3187184 0
5.1780005 -2.1058445 1.3175712 0
5.1710005 -2.1114326 1.3162328 0
5.1650004 -2.1174304 1.3150855 0
5.1580005 -2.1229696 1.3137472 0
5.1520004 -2.1289225 1.3125999 0
5.1460004 -2.1348531 1.3114526 0
5.1390004 -2.1403205 1.3101143 0
5.1330004 -2.1462066 1.308967 0
5.1270003 -2.1520708 1.3078197 0
5.1200004 -2.1574657 1.3064814 0
5.1140003 -2.1632848 1.3053341 0
5.1150002 -2.1722388 1.3055253 0
5.1280003 -2.1866298 1.3080109 0
5.1750002 -2.0787115 1.3083843 0
5.1880002 -2.0928822 1.3108466 0
5.1840005 -2.0998015 1.310089 0
5.1780005 -2.1058445 1.3089526 0
5.1710005 -2.1114326 1.3076268 0
5.1650004 -2.1174304 1.3064904 0
5.1580005 -2.1229696 1.3051646 0
5.1520004 -2.1289225 1.3040282 0
5.1460004 -2.1348531 1.3028917 0
5.1390004 -2.1403205 1.301566 0
5.1330004 -2.1462066 1.3004296 0
5.1270003 -2.1520708 1.2992932 0
5.1200004 -2.1574657 1.2979674 0
5.1140003 -2.1632848 1.296831 0
5.1150002 -2.1722388 1.2970203 0
5.1280003 -2.1866298 1.2994826 0
5.1750002 -2.0787115 1.2997712 0
5.1880002 -2.0928822 1.30221 0
5.1840005 -2.0998015 1.3014596 0
5.1780005 -2.1058445 1.300334 0
5.1710005 -2.1114326 1.2990209 0
5.1650004 -2.1174304 1.2978952 0
5.1580005 -2.1229696 1.2965821 0
5.1520004 -2.1289225 1.2954565 0
5.1460004 -2.1348531 1.294331 0
5.1390004 -2.1403205 1.2930177 0
5.1330004 -2.1462066 1.2918922 0
5.1270003 -2.1520708 1.2907666 0
5.1200004 -2.1574657 1.2894534 0
5.1140003 -2.1632848 1.2883278 0
5.1150002 -2.1722388 1.2885154 0
5.1280003 -2.1866298 1.2909541 0
5.1750002 -2.0787115 1.291158 0
5.1880002 -2.0928822 1.2935733 0
5.1840005 -2.0998015 1.2928301 0
5.1780005 -2.1058445 1.2917154 0
5.1710005 -2.1114326 1.2904148 0
5.1650004 -2.1174304 1.2893001 0
5.1580005 -2.1229696 1.2879995 0
5.1520004 -2.1289225 1.2868848 0
5.1460004 -2.1348531 1.2857701 0
5.1390004 -2.1403205 1.2844695 0
5.1330004 -2.1462066 1.2833548 0
5.1270003 -2.1520708 1.2822399 0
5.1200004 -2.1574657 1.2809395 0
5.1140003 -2.1632848 1.2798246 0
5.1150002 -2.1722388 1.2800105 0
5.1280003 -2.1866298 1.2824258 0
5.1750002 -2.0787115 1.2825449 0
5.1880002 -2.0928822 1.2849367 0
5.1840005 -2.0998015 1.2842008 0
5.1780005 -2.1058445 1.2830968 0
5.1710005 -2.1114326 1.2818089 0
5.1650004 -2.1174304 1.280705 0
5.1580005 -2.1229696 1.279417 0
5.1520004 -2.1289225 1.2783132 0
5.1460004 -2.1348531 1.2772092 0
5.1390004 -2.1403205 1.2759212 0
5.1330004 -2.1462066 1.2748173 0
5.1270003 -2.1520708 1.2737134 0
5.1200004 -2.1574657 1.2724254 0
5.1140003 -2.1632848 1.2713215 0
5.1150002 -2.1722388 1.2715055 0
5.1280003 -2.1866298 1.2738973 0
5.1750002 -2.0787115 1.2739316 0
5.1880002 -2.0928822 1.2763 0
5.1840005 -2.0998015 1.2755713 0
5.1780005 -2.1058445 1.2744782 0
5.1710005 -2.1114326 1.2732029 0
5.1650004 -2.1174304 1.2721099 0
5.1580005 -2.1229696 1.2708346 0
5.1520004 -2.1289225 1.2697414 0
5.1460004 -2.1348531 1.2686483 0
5.1390004 -2.1403205 1.267373 0
5.1330004 -2.1462066 1.2662798 0
5.1270003 -2.1520708 1.2651868 0
5.1200004 -2.1574657 1.2639115 0
5.1140003 -2.1632848 1.2628183 0
5.1150002 -2.1722388 1.2630006 0
5.1280003 -2.1866298 1.2653689 0
5.1750002 -2.0787115 1.2653184 0
5.1880002 -2.0928822 1.2676634 0
5.1840005 -2.0998015 1.2669419 0
5.1780005 -2.1058445 1.2658596 0
5.1710005 -2.1114326 1.2645969 0
5.1650004 -2.1174304 1.2635146 0
5.1580005 -2.1229696 1.262252 0
5.1520004 -2.1289225 1.2611697 0
5.1460004 -2.1348531 1.2600874 0
5.1390004 -2.1403205 1.2588247 0
5.1330004 -2.1462066 1.2577424 0
5.1270003 -2.1520708 1.2566601 0
5.1200004 -2.1574657 1.2553976 0
5.1140003 -2.1632848 1.2543153 0
5.1150002 -2.1722388 1.2544955 0
5.1280003 -2.1866298 1.2568406 0
5.1750002 -2.0787115 1.2567053 0
5.1880002 -2.0928822 1.2590268 0
5.1840005 -2.0998015 1.2583125 0
5.1780005 -2.1058445 1.257241 0
5.1710005 -2.1114326 1.255991 0
5.1650004 -2.1174304 1.2549195 0
5.1580005 -2.1229696 1.2536695 0
5.1520004 -2.1289225 1.252598 0
5.1460004 -2.1348531 1.2515266 0
5.1390004 -2.1403205 1.2502766 0
5.1330004 -2.1462066 1.249205 0
5.1270003 -2.1520708 1.2481335 0
5.1200004 -2.1574657 1.2468835 0
5.1140003 -2.1632848 1.2458121 0
5.1150002 -2.1722388 1.2459906 0
5.1280003 -2.1866298 1.2483121 0
5.1750002 -2.0787115 1.2480921 0
5.1880002 -2.0928822 1.2503901 0
5.1840005 -2.0998015 1.249683 0
5.1780005 -2.1058445 1.2486224 0
5.1710005 -2.1114326 1.247385 0
5.1650004 -2.1174304 1.2463244 0
5.1580005 -2.1229696 1.2450869 0
5.1520004 -2.1289225 1.2440263 0
5.1460004 -2.1348531 1.2429657 0
5.1390004 -2.1403205 1.2417283 0
5.1330004 -2.1462066 1.2406676 0
5.1270003 -2.1520708 1.239607 0
5.1200004 -2.1574657 1.2383696 0
5.1140003 -2.1632848 1.2373089 0
5.1150002 -2.1722388 1.2374856 0
5.1280003 -2.1866298 1.2397838 0
5.1750002 -2.0787115 1.2394788 0
5.1880002 -2.0928822 1.2417535 0
5.1840005 -2.0998015 1.2410536 0
5.1780005 -2.1058445 1.2400038 0
5.1710005 -2.1114326 1.2387791 0
5.1650004 -2.1174304 1.2377292 0
5.1580005 -2.1229696 1.2365044 0
5.1520004 -2.1289225 1.2354546 0
5.1460004 -2.1348531 1.2344048 0
5.1390004 -2.1403205 1.23318 0
5.1330004 -2.1462066 1.2321302 0
5.1270003 -2.1520708 1.2310803 0
5.1200004 -2.1574657 1.2298555 0
5.1140003 -2.1632848 1.2288058 0
5.1150002 -2.1722388 1.2289807 0
5.1280003 -2.1866298 1.2312553 0
5.1750002 -2.0787115 1.2308657 0
5.1880002 -2.0928822 1.2331169 0
5.1840005 -2.0998015 1.2324243 0
5.1780005 -2.1058445 1.2313852 0
5.1710005 -2.1114326 1.2301731 0
5.1650004 -2.1174304 1.2291341 0
5.1580005 -2.1229696 1.227922 0
5.1520004 -2.1289225 1.2268829 0
5.1460004 -2.1348531 1.2258439 0
5.1390004 -2.1403205 1.2246318 0
5.1330004 -2.1462066 1.2235928 0
5.1270003 -2.1520708 1.2225537 0
5.1200004 -2.1574657 1.2213416 0
5.1140003 -2.1632848 1.2203026 0
5.1150002 -2.1722388 1.2204758 0
5.1280003 -2.1866298 1.2227269 0
5.1750002 -2.0787115 1.2222525 0
5.1880002 -2.0928822 1.2244803 0
5.1840005 -2.0998015 1.2237948 0
5.1780005 -2.1058445 1.2227666 0
5.1710005 -2.1114326 1.221567 0
5.1650004 -2.1174304 1.2205389 0
5.1580005 -2.1229696 1.2193394 0
5.1520004 -2.1289225 1.2183112 0
5.1460004 -2.1348531 1.217283 0
5.1390004 -2.1403205 1.2160835 0
5.1330004 -2.1462066 1.2150553 0
5.1270003 -2.1520708 1.2140272 0
5.1200004 -2.1574657 1.2128277 0
5.1140003 -2.1632848 1.2117995 0
5.1150002 -2.1722388 1.2119708 0
5.1280003 -2.1866298 1.2141985 0
5.1750002 -2.0787115 1.2136393 0
5.1880002 -2.0928822 1.2158436 0
5.1840005 -2.0998015 1.2151654 0
5.1780005 -2.1058445 1.214148 0
5.1710005 -2.1114326 1.2129611 0
5.1650004 -2.1174304 1.2119437 0
5.1580005 -2.1229696 1.2107569 0
5.1520004 -2.1289225 1.2097394 0
5.1460004 -2.1348531 1.2087221 0
5.1390004 -2.1403205 1.2075353 0
5.1330004 -2.1462066 1.2065179 0
5.1270003 -2.1520708 1.2055005 0
5.1200004 -2.1574657 1.2043136 0
5.1140003 -2.1632848 1.2032963 0
5.1150002 -2.1722388 1.2034658 0
5.1280003 -2.1866298 1.2056701 0
5.1750002 -2.0787115 1.2050261 0
5.1880002 -2.0928822 1.207207 0
5.1840005 -2.0998015 1.2065359 0
5.1780005 -2.1058445 1.2055295 0
5.1710005 -2.1114326 1.2043551 0
5.1650004 -2.1174304 1.2033486 0
5.1580005 -2.1229696 1.2021744 0
5.1520004 -2.1289225 1.2011678 0
5.1460004 -2.1348531 1.2001613 0
5.1390004 -2.1403205 1.198987 0
5.1330004 -2.1462066 1.1979805 0
5.1270003 -2.1520708 1.1969739 0
5.1200004 -2.1574657 1.1957997 0
5.1140003 -2.1632848 1.1947931 0
5.1150002 -2.1722388 1.194961 0
5.1280003 -2.1866298 1.1971416 0
5.1750002 -2.0787115 1.1964129 0
5.1880002 -2.0928822 1.1985703 0
5.1840005 -2.0998015 1.1979066 0
5.1780005 -2.1058445 1.1969109 0
5.1710005 -2.1114326 1.1957492 0
5.1650004 -2.1174304 1.1947535 0
5.1580005 -2.1229696 1.1935918 0
5.1520004 -2.1289225 1.1925961 0
5.1460004 -2.1348531 1.1916004 0
5.1390004 -2.1403205 1.1904387 0
5.1330004 -2.1462066 1.1894431 0
5.1270003 -2.1520708 1.1884474 0
5.1200004 -2.1574657 1.1872857 0
5.1140003 -2.1632848 1.18629 0
5.1150002 -2.1722388 1.186456 0
5.1280003 -2.1866298 1.1886133 0
5.1750002 -2.0787115 1.1877997 0
5.1880002 -2.0928822 1.1899337 0
5.1840005 -2.0998015 1.1892772 0
5.1780005 -2.1058445 1.1882923 0
5.1710005 -2.1114326 1.1871432 0
5.1650004 -2.1174304 1.1861583 0
5.1580005 -2.1229696 1.1850094 0
5.1520004 -2.1289225 1.1840245 0
5.1460004 -2.1348531 1.1830395 0
5.1390004 -2.1403205 1.1818905 0
5.1330004 -2.1462066 1.1809057 0
5.1270003 -2.1520708 1.1799208 0
5.1200004 -2.1574657 1.1787717 0
5.1140003 -2.1632848 1.1777868 0
5.1150002 -2.1722388 1.177951 0
5.1280003 -2.1866298 1.1800849 0
5.1750002 -2.0787115 1.1791866 0
5.1880002 -2.0928822 1.1812971 0
5.1840005 -2.0998015 1.1806477 0
5.1780005 -2.1058445 1.1796737 0
5.1710005 -2.1114326 1.1785372 0
5.1650004 -2.1174304 1.1775632 0
5.1580005 -2.1229696 1.1764268 0
5.1520004 -2.1289225 1.1754527 0
5.1460004 -2.1348531 1.1744787 0
5.1390004 -2.1403205 1.1733423 0
5.1330004 -2.1462066 1.1723682 0
5.1270003 -2.1520708 1.1713941 0
5.1200004 -2.1574657 1.1702578 0
5.1140003 -2.1632848 1.1692836 0
5.1150002 -2.1722388 1.169446 0
5.1280003 -2.1866298 1.1715565 0
5.1750002 -2.0787115 1.1705734 0
5.1880002 -2.0928822 1.1726605 0
5.1840005 -2.0998015 1.1720183 0
5.1780005 -2.1058445 1.1710551 0
5.1710005 -2.1114326 1.1699313 0
5.1650004 -2.1174304 1.1689681 0
5.1580005 -2.1229696 1.1678443 0
5.1520004 -2.1289225 1.1668811 0
5.1460004 -2.1348531 1.1659178 0
5.1390004 -2.1403205 1.1647941 0
5.1330004 -2.1462066 1.1638308 0
5.1270003 -2.1520708 1.1628675 0
5.1200004 -2.1574657 1.1617438 0
5.1140003 -2.1632848 1.1607805 0
5.1150002 -2.1722388 1.160941 0
5.1280003 -2.1866298 1.1630281 0
5.1750002 -2.0787115 1.1619602 0
5.1880002 -2.0928822 1.1640238 0
5.1840005 -2.0998015 1.1633888 0
5.1780005 -2.1058445 1.1624365 0
5.1710005 -2.1114326 1.1613253 0
5.1650004 -2.1174304 1.160373 0
5.1580005 -2.1229696 1.1592618 0
5.1520004 -2.1289225 1.1583093 0
5.1460004 -2.1348531 1.1573569 0
5.1390004 -2.1403205 1.1562458 0
5.1330004 -2.1462066 1.1552933 0
5.1270003 -2.1520708 1.154341 0
5.1200004 -2.1574657 1.1532298 0
5.1140003 -2.1632848 1.1522775 0
5.1150002 -2.1722388 1.1524361 0
5.1280003 -2.1866298 1.1544997 0
5.1750002 -2.0787115 1.153347 0
5.1880002 -2.0928822 1.1553872 0
5.1840005 -2.0998015 1.1547594 0
5.1780005 -2.1058445 1.1538179 0
5.1710005 -2.1114326 1.1527194 0
5.1650004 -2.1174304 1.1517777 0
5.1580005 -2.1229696 1.1506792 0
5.1520004 -2.1289225 1.1497377 0
5.1460004 -2.1348531 1.1487961 0
5.1390004 -2.1403205 1.1476976 0
5.1330004 -2.1462066 1.1467559 0
5.1270003 -2.1520708 1.1458143 0
5.1200004 -2.1574657 1.1447158 0
5.1140003 -2.1632848 1.1437743 0
5.1150002 -2.1722388 1.1439312 0
5.1280003 -2.1866298 1.1459713 0
5.1750002 -2.0787115 1.1447338 0
5.1880002 -2.0928822 1.1467505 0
5.1840005 -2.0998015 1.1461301 0
5.1780005 -2.1058445 1.1451993 0
5.1710005 -2.1114326 1.1441134 0
5.1650004 -2.1174304 1.1431826 0
5.1580005 -2.1229696 1.1420966 0
5.1520004 -2.1289225 1.141166 0
5.1460004 -2.1348531 1.1402352 0
5.1390004 -2.1403205 1.1391493 0
5.1330004 -2.1462066 1.1382185 0
5.1270003 -2.1520708 1.1372877 0
5.1200004 -2.1574657 1.1362019 0
5.1140003 -2.1632848 1.1352711 0
5.1150002 -2.1722388 1.1354262 0
5.1280003 -2.1866298 1.1374428 0
5.1750002 -2.0787115 1.1361207 0
5.1880002 -2.0928822 1.1381139 0
5.1840005 -2.0998015 1.1375006 0
5.1780005 -2.1058445 1.1365807 0
5.1710005 -2.1114326 1.1355075 0
5.1650004 -2.1174304 1.1345874 0
5.1580005 -2.1229696 1.1335142 0
5.1520004 -2.1289225 1.1325942 0
5.1460004 -2.1348531 1.1316743 0
5.1390004 -2.1403205 1.130601 0
5.1330004 -2.1462066 1.1296811 0
5.1270003 -2.1520708 1.1287612 0
5.1200004 -2.1574657 1.1276878 0
5.1140003 -2.1632848 1.126768 0
5.1150002 -2.1722388 1.1269213 0
5.1280003 -2.1866298 1.1289145 0
5.1750002 -2.0787115 1.1275074 0
5.1880002 -2.0928822 1.1294773 0
5.1840005 -2.0998015 1.1288712 0
5.1780005 -2.1058445 1.1279621 0
5.1710005 -2.1114326 1.1269015 0
5.1650004 -2.1174304 1.1259923 0
5.1580005 -2.1229696 1.1249317 0
5.1520004 -2.1289225 1.1240226 0
5.1460004 -2.1348531 1.1231134 0
5.1390004 -2.1403205 1.1220528 0
5.1330004 -2.1462066 1.1211437 0
5.1270003 -2.1520708 1.1202346 0
5.1200004 -2.1574657 1.1191739 0
5.1140003 -2.1632848 1.1182648 0
5.1150002 -2.1722388 1.1184163 0
5.1280003 -2.1866298 1.120386 0
5.1750002 -2.0787115 1.1188943 0
5.1880002 -2.0928822 1.1208407 0
5.1840005 -2.0998015 1.1202418 0
5.1770005 -2.1054134 1.1191938 0
5.1710005 -2.1114326 1.1182954 0
5.1650004 -2.1174304 1.1173972 0
5.1580005 -2.1229696 1.1163492 0
5.1520004 -2.1289225 1.1154509 0
5.1460004 -2.1348531 1.1145526 0
5.1390004 -2.1403205 1.1135045 0
5.1330004 -2.1462066 1.1126063 0
5.1270003 -2.1520708 1.1117079 0
5.1200004 -2.1574657 1.11066 0
5.1140003 -2.1632848 1.1097616 0
5.1150002 -2.1722388 1.1099113 0
5.1280003 -2.1866298 1.1118577 0
5.1750002 -2.0787115 1.1102811 0
5.1880002 -2.0928822 1.112204 0
5.1840005 -2.0998015 1.1116123 0
5.1770005 -2.1054134 1.110577 0
5.1710005 -2.1114326 1.1096895 0
5.1650004 -2.1174304 1.1088021 0
5.1580005 -2.1229696 1.1077666 0
5.1520004 -2.1289225 1.1068791 0
5.1460004 -2.1348531 1.1059917 0
5.1390004 -2.1403205 1.1049563 0
5.1330004 -2.1462066 1.1040688 0
5.1270003 -2.1520708 1.1031814 0
5.1200004 -2.1574657 1.1021459 0
5.1140003 -2.1632848 1.1012584 0
5.1150002 -2.1722388 1.1014063 0
5.1280003 -2.1866298 1.1033293 0
5.1750002 -2.0787115 1.1016679 0
5.1880002 -2.0928822 1.1035674 0
5.1840005 -2.0998015 1.1029829 0
5.1770005 -2.1054134 1.1019602 0
5.1710005 -2.1114326 1.1010835 0
5.1650004 -2.1174304 1.1002069 0
5.1580005 -2.1229696 1.0991842 0
5.1520004 -2.1289225 1.0983075 0
5.1460004 -2.1348531 1.0974308 0
5.1390004 -2.1403205 1.0964081 0
5.1330004 -2.1462066 1.0955313 0
5.1270003 -2.1520708 1.0946548 0
5.1200004 -2.1574657 1.093632 0
5.1140003 -2.1632848 1.0927553 0
5.1150002 -2.1722388 1.0929015 0
5.1280003 -2.1866298 1.0948008 0
5.1750002 -2.0787115 1.0930548 0
5.1880002 -2.0928822 1.0949306 0
5.1840005 -2.0998015 1.0943536 0
5.1770005 -2.1054134 1.0933434 0
5.1710005 -2.1114326 1.0924776 0
5.1650004 -2.1174304 1.0916117 0
5.1580005 -2.1229696 1.0906016 0
5.1520004 -2.1289225 1.0897357 0
5.1460004 -2.1348531 1.0888699 0
5.1390004 -2.1403205 1.0878597 0
5.1330004 -2.1462066 1.0869939 0
5.1270003 -2.1520708 1.0861281 0
5.1200004 -2.1574657 1.0851181 0
5.1140003 -2.1632848 1.0842522 0
5.1150002 -2.1722388 1.0843965 0
5.1280003 -2.1866298 1.0862725 0
5.1750002 -2.0787115 1.0844415 0
5.1880002 -2.0928822 1.0862941 0
5.1840005 -2.0998015 1.0857241 0
5.1770005 -2.1054134 1.0847266 0
5.1710005 -2.1114326 1.0838716 0
5.1650004 -2.1174304 1.0830166 0
5.1580005 -2.1229696 1.0820191 0
5.1520004 -2.1289225 1.081164 0
5.1460004 -2.1348531 1.080309 0
5.1390004 -2.1403205 1.0793115 0
5.1330004 -2.1462066 1.0784565 0
5.1270003 -2.1520708 1.0776016 0
5.1200004 -2.1574657 1.076604 0
5.1140003 -2.1632848 1.075749 0
5.1150002 -2.1722388 1.0758915 0
5.1280003 -2.1866298 1.077744 0
5.1750002 -2.0787115 1.0758284 0
5.1880002 -2.0928822 1.0776575 0
5.1840005 -2.0998015 1.0770947 0
5.1770005 -2.1054134 1.0761098 0
5.1710005 -2.1114326 1.0752656 0
5.1650004 -2.1174304 1.0744214 0
5.1580005 -2.1229696 1.0734365 0
5.1520004 -2.1289225 1.0725924 0
5.1460004 -2.1348531 1.0717481 0
5.1390004 -2.1403205 1.0707633 0
5.1330004 -2.1462066 1.0699191 0
5.1270003 -2.1520708 1.069075 0
5.1200004 -2.1574657 1.0680901 0
5.1140003 -2.1632848 1.0672458 0
5.1150002 -2.1722388 1.0673866 0
5.1280003 -2.1866298 1.0692157 0
5.1750002 -2.0787115 1.0672152 0
5.1880002 -2.0928822 1.0690207 0
5.1840005 -2.0998015 1.0684652 0
5.1770005 -2.1054134 1.0674931 0
5.1710005 -2.1114326 1.0666597 0
5.1650004 -2.1174304 1.0658263 0
5.1580005 -2.1229696 1.064854 0
5.1520004 -2.1289225 1.0640206 0
5.1460004 -2.1348531 1.0631872 0
5.1390004 -2.1403205 1.0622151 0
5.1330004 -2.1462066 1.0613817 0
5.1270003 -2.1520708 1.0605483 0
5.1200004 -2.1574657 1.0595762 0
5.1140003 -2.1632848 1.0587428 0
5.1150002 -2.1722388 1.0588816 0
5.1280003 -2.1866298 1.0606872 0
5.1750002 -2.0787115 1.058602 0
5.1880002 -2.0928822 1.0603842 0
5.1840005 -2.0998015 1.0598359 0
5.1770005 -2.1054134 1.0588763 0
5.1710005 -2.1114326 1.0580537 0
5.1650004 -2.1174304 1.0572311 0
5.1580005 -2.1229696 1.0562716 0
5.1520004 -2.1289225 1.055449 0
5.1460004 -2.1348531 1.0546265 0
5.1390004 -2.1403205 1.0536668 0
5.1330004 -2.1462066 1.0528443 0
5.1270003 -2.1520708 1.0520217 0
5.1200004 -2.1574657 1.0510621 0
5.1140003 -2.1632848 1.0502396 0
5.1150002 -2.1722388 1.0503767 0
5.1280003 -2.1866298 1.0521588 0
5.1750002 -2.0787115 1.0499889 0
5.1880002 -2.0928822 1.0517476 0
5.1840005 -2.0998015 1.0512065 0
5.1770005 -2.1054134 1.0502595 0
5.1710005 -2.1114326 1.0494478 0
5.1650004 -2.1174304 1.048636 0
5.1580005 -2.1229696 1.047689 0
5.1520004 -2.1289225 1.0468773 0
5.1460004 -2.1348531 1.0460656 0
5.1390004 -2.1403205 1.0451186 0
5.1330004 -2.1462066 1.0443069 0
5.1270003 -2.1520708 1.0434952 0
5.1200004 -2.1574657 1.0425482 0
5.1140003 -2.1632848 1.0417364 0
5.1150002 -2.1722388 1.0418717 0
5.1280003 -2.1866298 1.0436304 0
5.1750002 -2.0787115 1.0413756 0
5.1880002 -2.0928822 1.043111 0
5.1840005 -2.0998015 1.042577 0
5.1770005 -2.1054134 1.0416427 0
5.1710005 -2.1114326 1.0408417 0
5.1650004 -2.1174304 1.0400409 0
5.1580005 -2.1229696 1.0391065 0
5.1520004 -2.1289225 1.0383055 0
5.1460004 -2.1348531 1.0375047 0
5.1390004 -2.1403205 1.0365703 0
5.1330004 -2.1462066 1.0357695 0
5.1270003 -2.1520708 1.0349685 0
5.1200004 -2.1574657 1.0340341 0
5.1140003 -2.1632848 1.0332333 0
5.1150002 -2.1722388 1.0333667 0
5.1280003 -2.1866298 1.035102 0
5.1750002 -2.0787115 1.0327624 0
5.1880002 -2.0928822 1.0344743 0
5.1840005 -2.0998015 1.0339476 0
5.1770005 -2.1054134 1.0330259 0
5.1710005 -2.1114326 1.0322357 0
5.1650004 -2.1174304 1.0314457 0
5.1580005 -2.1229696 1.0305239 0
5.1520004 -2.1289225 1.0297339 0
5.1460004 -2.1348531 1.0289438 0
5.1390004 -2.1403205 1.0280221 0
5.1330004 -2.1462066 1.0272321 0
5.1270003 -2.1520708 1.0264419 0
5.1200004 -2.1574657 1.0255202 0
5.1140003 -2.1632848 1.0247301 0
5.1150002 -2.1722388 1.0248618 0
5.1280003 -2.1866298 1.0265735 0
5.1750002 -2.0787115 1.0241493 0
5.1880002 -2.0928822 1.0258377 0
5.1840005 -2.0998015 1.0253181 0
5.1770005 -2.1054134 1.0244091 0
5.1710005 -2.1114326 1.0236298 0
