# .PCD v0.7 - Point Cloud Data file format
VERSION 0.7
FIELDS x y z intensity
SIZE 4 4 4 4
TYPE F F F F
COUNT 1 1 1 1
WIDTH 1416
HEIGHT 1
VIEWPOINT 0 0 0 1 0 0 0
POINTS 1416
DATA ascii
2.8170002 0.58617163 0.97949421 0
2.8170002 0.58181185 0.97949421 0
2.8180003 0.57770997 0.97973228 0
2.8190002 0.57360452 0.97997046 0
2.8200002 0.56949544 0.98020852 0
2.8210001 0.56538272 0.98044658 0
2.8220003 0.56126648 0.98068476 0
2.8230002 0.55714661 0.98092282 0
2.8250003 0.55327022 0.98139906 0
2.8270001 0.54938662 0.98187518 0
2.8280003 0.54525226 0.98211336 0
2.8300002 0.54135597 0.98258948 0
2.8330002 0.53769249 0.98330379 0
2.8350003 0.53378004 0.98378003 0
2.8380003 0.53009665 0.98449445 0
2.8400002 0.52616799 0.98497057 0
2.8430002 0.52246475 0.98568487 0
2.8470001 0.51898158 0.98663723 0
2.8500001 0.51525491 0.98735154 0
2.8540003 0.51174474 0.98830402 0
2.8580003 0.50822008 0.98925638 0
2.8620002 0.50468105 0.99020886 0
2.8670001 0.50134939 0.99139929 0
2.8720002 0.49799973 0.99258983 0
2.8780003 0.49485022 0.99401844 0
2.8840003 0.49167913 0.99544716 0
2.8920002 0.48891568 0.99735188 0
2.9020002 0.48654914 0.99973297 0
2.9120002 0.48414648 1.0021139 0
2.8640003 0.68735629 0.98624051 0
2.8550003 0.68024927 0.98411381 0
2.8490002 0.67405677 0.98269594 0
2.8440001 0.66817814 0.98151445 0
2.8400002 0.66260797 0.98056924 0
2.8360002 0.65705228 0.97962415 0
2.8330002 0.65179777 0.97891521 0
2.8310003 0.64683914 0.97844267 0
2.8280003 0.64160454 0.97773373 0
2.8260002 0.63666207 0.97726107 0
2.8240001 0.6317268 0.97678852 0
2.8230002 0.62707663 0.97655225 0
2.8220003 0.62243003 0.97631586 0
2.8210001 0.61778694 0.97607958 0
2.8200002 0.61314762 0.97584331 0
2.8200002 0.60878235 0.97584331 0
2.8190002 0.60414845 0.97560704 0
2.8190002 0.59978503 0.97560704 0
2.8190002 0.59542155 0.97560704 0
2.8190002 0.59105814 0.97560704 0
2.8200002 0.58695632 0.97584331 0
2.8200002 0.58259106 0.97584331 0
2.8210001 0.57848382 0.97607958 0
2.8220003 0.57437295 0.97631586 0
2.8230002 0.57025844 0.97655225 0
2.8240001 0.56614035 0.97678852 0
2.8250003 0.56201863 0.97702479 0
2.8260002 0.55789334 0.97726107 0
2.8280003 0.55401152 0.97773373 0
2.8300002 0.55012256 0.97820628 0
2.8310003 0.54598284 0.97844267 0
2.8330002 0.54208112 0.97891521 0
2.8360002 0.53841221 0.97962415 0
2.8380003 0.5344944 0.9800967 0
2.8410003 0.53080559 0.98080564 0
2.8430002 0.52687144 0.98127818 0
2.8460002 0.52316284 0.98198712 0
2.8500001 0.51967424 0.98293221 0
2.8530002 0.51594216 0.98364115 0
2.8570001 0.51242656 0.98458636 0
2.8610003 0.50889653 0.98553157 0
2.8660002 0.50557566 0.98671305 0
2.8700001 0.50201494 0.98765826 0
2.8760002 0.49887997 0.98907602 0
2.8820002 0.49572331 0.99049389 0
2.8890002 0.49276143 0.99214792 0
2.8970003 0.48998904 0.99403834 0
2.9070003 0.48761338 0.99640131 0
2.8620002 0.68232006 0.98132694 0
2.8550003 0.67582095 0.97968543 0
2.8490002 0.66963923 0.97827852 0
2.8450003 0.66406012 0.97734046 0
2.8400002 0.65820676 0.97616804 0
2.8370001 0.65294498 0.97546446 0
2.8350003 0.6479792 0.97499549 0
2.8320003 0.64273733 0.97429204 0
2.8300002 0.63778764 0.97382295 0
2.8280003 0.63284522 0.9733541 0
2.8270001 0.62818772 0.9731195 0
2.8250003 0.62325794 0.97265053 0
2.8240001 0.61860949 0.97241604 0
2.8230002 0.61396474 0.97218156 0
2.8230002 0.60959411 0.97218156 0
2.8220003 0.60495472 0.97194707 0
2.8220003 0.60058588 0.97194707 0
2.8220003 0.5962171 0.97194707 0
2.8220003 0.59184825 0.97194707 0
2.8230002 0.58774096 0.97218156 0
2.8230002 0.58337033 0.97218156 0
2.8240001 0.57925761 0.97241604 0
2.8250003 0.57514137 0.97265053 0
2.8250003 0.5707671 0.97265053 0
2.8270001 0.56689793 0.9731195 0
2.8280003 0.5627709 0.9733541 0
2.8290002 0.55864012 0.97358859 0
2.8310003 0.55475295 0.97405756 0
2.8330002 0.55085844 0.97452652 0
2.8340001 0.54671329 0.97476101 0
2.8360002 0.54280627 0.97522998 0
2.8390002 0.53913194 0.97593343 0
2.8410003 0.5352087 0.97640252 0
2.8440001 0.53151441 0.97710598 0
2.8460002 0.52757496 0.97757494 0
2.8500001 0.52409357 0.97851288 0
2.8530002 0.52036691 0.97921646 0
2.8560002 0.51662946 0.97991991 0
2.8600001 0.51310837 0.98085785 0
2.8640003 0.50957298 0.98179591 0
2.8690002 0.50624669 0.98296833 0
2.8740003 0.50290251 0.98414087 0
2.8800001 0.49976021 0.98554778 0
2.8870003 0.49681461 0.98718929 0
2.8940003 0.49384373 0.9888308 0
2.9020002 0.49106222 0.99070668 0
2.9130001 0.48889041 0.99328613 0
2.8700001 0.68468666 0.97874737 0
2.8620002 0.6778791 0.97688591 0
2.8550003 0.67139256 0.97525704 0
2.8500001 0.66551214 0.97409356 0
2.8460002 0.6599384 0.97316289 0
2.8420002 0.65437907 0.9722321 0
2.8390002 0.64911914 0.97153401 0
2.8360002 0.64387006 0.97083592 0
2.8340001 0.63891315 0.97037053 0
2.8320003 0.63396353 0.96990514 0
2.8310003 0.62929893 0.96967244 0
2.8290002 0.62436187 0.96920705 0
2.8280003 0.61970627 0.96897447 0
2.8270001 0.61505425 0.96874166 0
2.8270001 0.61067641 0.96874166 0
2.8260002 0.60602981 0.96850896 0
2.8260002 0.6016537 0.96850896 0
2.8250003 0.59701258 0.96827626 0
2.8250003 0.59263831 0.96827626 0
2.8260002 0.58852565 0.96850896 0
2.8260002 0.5841496 0.96850896 0
2.8270001 0.58003145 0.96874166 0
2.8280003 0.57590979 0.96897447 0
2.8280003 0.57153016 0.96897447 0
2.8300002 0.56765556 0.96943974 0
2.8310003 0.56352305 0.96967244 0
2.8320003 0.55938691 0.96990514 0
2.8340001 0.55549425 0.97037053 0
2.8350003 0.55134916 0.97060323 0
2.8370001 0.54744387 0.97106862 0
2.8390002 0.54353142 0.97153401 0
2.8420002 0.53985167 0.9722321 0
2.8440001 0.53592294 0.97269738 0
2.8470001 0.53222334 0.97339547 0
2.8500001 0.5285129 0.97409356 0
2.8530002 0.52479166 0.97479165 0
2.8560002 0.52105957 0.97548974 0
2.8600001 0.51754576 0.97642052 0
2.8640003 0.51401752 0.97735131 0
2.8690002 0.51070029 0.97851467 0
2.8740003 0.50736511 0.97967827 0
2.8790002 0.50401181 0.98084164 0
2.8850002 0.50086051 0.98223782 0
2.8910003 0.49768764 0.983634 0
2.8990002 0.49492598 0.98549545 0
2.9090002 0.4925648 0.98782241 0
2.8700001 0.68023121 0.97429204 0
2.8620002 0.67343807 0.97244489 0
2.8560002 0.66725463 0.97105956 0
2.8510003 0.66138148 0.96990514 0
2.8470001 0.65581304 0.96898162 0
2.8440001 0.65054411 0.9682889 0
2.8410003 0.64528608 0.96759629 0
2.8380003 0.64003879 0.96690369 0
2.8360002 0.63508189 0.96644187 0
2.8350003 0.63041008 0.96621096 0
2.8330002 0.62546581 0.96574914 0
2.8320003 0.620803 0.96551836 0
2.8310003 0.61614376 0.96528745 0
2.8310003 0.61175871 0.96528745 0
2.8300002 0.60710484 0.96505654 0
2.8300002 0.60272157 0.96505654 0
2.8290002 0.59807318 0.96482563 0
2.8290002 0.59369177 0.96482563 0
2.8300002 0.58957183 0.96505654 0
2.8300002 0.58518857 0.96505654 0
2.8300002 0.5808053 0.96505654 0
2.8310003 0.57667822 0.96528745 0
2.8320003 0.5725475 0.96551836 0
2.8330002 0.5684132 0.96574914 0
2.8340001 0.56427515 0.96598005 0
2.8360002 0.5603826 0.96644187 0
2.8370001 0.55623567 0.96667278 0
2.8390002 0.55233037 0.96713448 0
2.8410003 0.54841799 0.96759629 0
2.8430002 0.54449826 0.96805811 0
2.8450003 0.54057139 0.96851981 0
2.8480003 0.53687537 0.96921253 0
2.8510003 0.53316855 0.96990514 0
2.8540003 0.52945089 0.97059786 0
2.8570001 0.52572238 0.97129047 0
2.8610003 0.52221406 0.9722141 0
2.8640003 0.51846212 0.97290671 0
2.8690002 0.51515394 0.97406113 0
2.8730001 0.51160216 0.97498465 0
2.8780003 0.50825977 0.97613919 0
2.8840003 0.50512111 0.97752452 0
2.8900001 0.50196081 0.97890973 0
2.8970003 0.49899721 0.98052597 0
2.9060001 0.49644119 0.98260391 0
2.9160001 0.49406737 0.98491287 0
2.8700001 0.67577583 0.96983659 0
2.8630002 0.6692875 0.96823299 0
2.8570001 0.66311306 0.96685851 0
2.8530002 0.65753388 0.96594214 0
2.8490002 0.65196913 0.9650259 0
2.8460002 0.64670199 0.96433854 0
2.8430002 0.6414457 0.96365142 0
2.8410003 0.63647991 0.96319318 0
2.8390002 0.63152117 0.96273506 0
2.8370001 0.62656969 0.96227682 0
2.8360002 0.62189966 0.96204782 0
2.8350003 0.61723322 0.9618187 0
2.8350003 0.61284095 0.9618187 0
2.8340001 0.60817993 0.96158957 0
2.8340001 0.60378939 0.96158957 0
2.8330002 0.59913379 0.96136045 0
2.8330002 0.59474516 0.96136045 0
2.7680001 0.56908417 0.94647002 0
2.7670002 0.56455481 0.94624102 0
2.7660003 0.56002903 0.9460119 0
2.7660003 0.55576128 0.9460119 0
2.7670002 0.55174595 0.94624102 0
2.7700002 0.54822856 0.94692826 0
2.7730002 0.54470032 0.9476155 0
2.7780001 0.54165548 0.94876087 0
2.8430002 0.55331165 0.96365142 0
2.8450003 0.54939198 0.96410954 0
2.8470001 0.54546511 0.96456766 0
2.8500001 0.54177088 0.9652549 0
2.8520002 0.53782779 0.96571314 0
2.8550003 0.53411376 0.96640038 0
2.8580003 0.53038895 0.96708763 0
2.8610003 0.52665323 0.96777487 0
2.8650002 0.52313757 0.96869123 0
2.8690002 0.51960754 0.96960759 0
2.8730001 0.51606297 0.97052383 0
2.8780003 0.51272964 0.97166932 0
2.8830001 0.50937808 0.97281468 0
2.8890002 0.50623047 0.97418916 0
2.8960001 0.50328124 0.97579277 0
2.9040003 0.500525 0.97762549 0
2.9130001 0.4979564 0.97968721 0
2.8710003 0.67161083 0.96560848 0
2.8650002 0.66542196 0.96424484 0
2.8590002 0.65925473 0.96288109 0
2.8550003 0.65367919 0.961972 0
2.8520002 0.64840126 0.96129024 0
2.8490002 0.64313412 0.96060836 0
2.8460002 0.63787776 0.95992649 0
2.8440001 0.63291013 0.95947194 0
2.8420002 0.62794971 0.9590174 0
2.8400002 0.62299639 0.95856285 0
2.8390002 0.61832273 0.95833552 0
2.8390002 0.61392319 0.95833552 0
2.8380003 0.60925502 0.95810831 0
2.8380003 0.60485733 0.95810831 0
2.7650001 0.57683694 0.94151676 0
2.7620003 0.57178628 0.940835 0
2.7610002 0.56726593 0.94060767 0
2.7590003 0.5624913 0.94015324 0
2.7590003 0.55823606 0.94015324 0
2.7600002 0.55423522 0.94038045 0
2.7610002 0.55023074 0.94060767 0
2.7630002 0.54647344 0.94106221 0
2.7650001 0.54270887 0.94151676 0
2.7680001 0.53918427 0.94219863 0
2.7720003 0.53589416 0.94310784 0
2.7790003 0.53332013 0.94469881 0
2.8510003 0.54643196 0.96106291 0
2.8540003 0.54273057 0.96174479 0
2.8560002 0.53878021 0.96219933 0
2.8590002 0.53505898 0.96288109 0
2.8620002 0.53132689 0.96356297 0
2.8660002 0.52781665 0.96447206 0
2.8690002 0.52406114 0.96515393 0
2.8730001 0.52052385 0.96606302 0
2.8780003 0.51719946 0.96719944 0
2.8830001 0.51385695 0.96833587 0
2.8890002 0.51072013 0.9696995 0
2.8950002 0.50756168 0.97106326 0
2.9030001 0.50482166 0.97288144 0
2.9110003 0.50205284 0.97469974 0
2.8730001 0.66773081 0.96160221 0
2.8670001 0.66154915 0.9602493 0
2.8620002 0.65567422 0.95912206 0
2.8580003 0.65010047 0.95822012 0
2.8540003 0.64454108 0.95731819 0
2.8520002 0.63955539 0.95686722 0
2.8500001 0.63457686 0.95641625 0
2.8480003 0.62960559 0.9559654 0
2.8460002 0.62464148 0.95551431 0
2.8450003 0.61995703 0.95528889 0
2.8430002 0.61500549 0.95483792 0
2.8430002 0.6105988 0.95483792 0
2.7680001 0.58616978 0.93792725 0
2.7620003 0.58030748 0.93657446 0
2.7590003 0.57525682 0.93589795 0
2.7570002 0.5704785 0.93544698 0
2.7560003 0.56596726 0.93522155 0
2.7550001 0.56145948 0.93499601 0
2.7550001 0.55721146 0.93499601 0
2.7550001 0.5529635 0.93499601 0
2.7570002 0.54922062 0.93544698 0
2.7580001 0.54521978 0.93567252 0
2.7600002 0.54146427 0.93612349 0
2.7630002 0.53794867 0.93679988 0
2.7660003 0.53442222 0.93747628 0
2.7710001 0.53137195 0.93860364 0
2.7760003 0.52830368 0.93973112 0
2.8610003 0.5399707 0.95889652 0
2.8640003 0.53624046 0.95957303 0
2.8670001 0.53249931 0.9602493 0
2.8700001 0.52874738 0.96092582 0
2.8740003 0.52521557 0.96182775 0
2.8790002 0.52189833 0.96295512 0
2.8840003 0.51856315 0.96408248 0
2.8890002 0.51520979 0.96520984 0
2.8950002 0.51206219 0.96656275 0
2.9020002 0.50911474 0.96814096 0
2.9110003 0.5065822 0.97017038 0
2.8770003 0.66441727 0.95803618 0
2.8700001 0.65795416 0.95647037 0
2.8660002 0.65236598 0.9555757 0
2.8620002 0.64679223 0.95468104 0
2.8580003 0.64123291 0.95378637 0
2.8550003 0.63596582 0.95311534 0
2.8530002 0.63098544 0.95266795 0
2.8520002 0.62628651 0.95244431 0
2.8500001 0.62131882 0.95199692 0
2.8490002 0.61662894 0.95177329 0
2.7680001 0.59044123 0.93365586 0
2.7610002 0.58430111 0.93209016 0
2.7570002 0.57898164 0.93119538 0
2.7550001 0.57420337 0.93074811 0
2.7530003 0.56943232 0.93030083 0
2.7520001 0.56492817 0.93007708 0
2.7520001 0.56068563 0.93007708 0
2.7520001 0.5564431 0.93007708 0
2.7520001 0.5522005 0.93007708 0
2.7530003 0.5482105 0.93030083 0
2.7550001 0.54446757 0.93074811 0
2.7570002 0.54071748 0.93119538 0
2.7590003 0.53696012 0.93164277 0
2.7620003 0.53344095 0.9323138 0
2.7660003 0.53015441 0.93320847 0
2.7710001 0.52709514 0.93432677 0
2.7770002 0.52425772 0.93566895 0
2.7870002 0.52235109 0.93790555 0
2.8690002 0.53742194 0.95624673 0
2.8720002 0.5336718 0.95691776 0
2.8760002 0.53014356 0.95781243 0
2.8800001 0.52660084 0.95870709 0
2.8850002 0.52327287 0.95982552 0
2.8900001 0.51992673 0.96094382 0
2.8960001 0.51678813 0.96228588 0
2.9020002 0.51362789 0.96362793 0
2.9110003 0.51111162 0.9656409 0
2.8810003 0.66108924 0.95445561 0
2.8740003 0.65463161 0.95290256 0
2.8700001 0.64904338 0.95201492 0
2.8660002 0.64346963 0.95112753 0
2.8620002 0.63791025 0.95024002 0
2.8590002 0.63264138 0.94957447 0
2.8570001 0.62765735 0.94913065 0
2.8560002 0.62295312 0.94890881 0
2.7720003 0.59579498 0.93027186 0
2.7620003 0.58882868 0.92805326 0
2.7570002 0.5832333 0.9269439 0
2.7540002 0.57818621 0.92627823 0
2.7520001 0.57341325 0.92583454 0
2.7500002 0.56864768 0.92539084 0
2.7500002 0.56440872 0.92539084 0
2.7490003 0.55991185 0.92516899 0
2.7500002 0.55593079 0.92539084 0
2.7500002 0.55169183 0.92539084 0
2.7510002 0.54770541 0.92561269 0
2.7520001 0.54371542 0.92583454 0
2.7540002 0.5399707 0.92627823 0
2.7560003 0.53621882 0.92672205 0
2.7590003 0.53270501 0.9273876 0
2.7630002 0.52942389 0.92827511 0
2.7660003 0.5258866 0.92894077 0
2.7720003 0.52305824 0.93027186 0
2.7790003 0.5204463 0.93182504 0
2.8780003 0.53507876 0.95378995 0
2.8830001 0.53177238 0.95489919 0
2.8870003 0.52821714 0.95578682 0
2.8910003 0.52464736 0.95667422 0
2.8970003 0.52151781 0.95800543 0
2.9040003 0.518592 0.95955861 0
2.9120002 0.51586461 0.96133351 0
2.8790002 0.65157592 0.94954014 0
2.8740003 0.64570636 0.94843984 0
2.8710003 0.64041036 0.94777966 0
2.8670001 0.63484919 0.94689941 0
2.8650002 0.62985086 0.94645929 0
2.8630002 0.62485969 0.94601905 0
2.7640002 0.59363037 0.92423272 0
2.7580001 0.58775359 0.92291236 0
2.7540002 0.58243239 0.92203212 0
2.7520001 0.57765579 0.921592 0
2.7500002 0.57288659 0.92115188 0
2.7480001 0.56812453 0.92071164 0
2.7480001 0.56388915 0.92071164 0
2.7480001 0.55965388 0.92071164 0
2.7480001 0.55541855 0.92071164 0
2.7480001 0.55118316 0.92071164 0
2.7490003 0.54720038 0.92093182 0
2.7510002 0.54346466 0.92137194 0
2.7520001 0.53947282 0.921592 0
2.7540002 0.53572452 0.92203212 0
2.7570002 0.53221428 0.9226923 0
2.7600002 0.52869326 0.92335248 0
2.7640002 0.52540314 0.92423272 0
2.7680001 0.52209854 0.92511296 0
2.7740002 0.51925576 0.92643344 0
2.7820003 0.51686394 0.92819393 0
2.8850002 0.53672028 0.9508605 0
2.8890002 0.53316855 0.95174086 0
2.8940003 0.52983332 0.95284116 0
2.9000001 0.52670908 0.95416152 0
2.9060001 0.52356327 0.95548189 0
2.8790002 0.64263266 0.94506848 0
2.8760002 0.63733304 0.94441378 0
2.8730001 0.63204426 0.94375896 0
2.7710001 0.59980118 0.92149627 0
2.7610002 0.59281868 0.91931379 0
2.7560003 0.58721608 0.91822243 0
2.7520001 0.58189839 0.91734946 0
2.7500002 0.57712555 0.91691291 0
2.7480001 0.57235986 0.91647637 0
2.7470002 0.56786299 0.9162581 0
2.7470002 0.56362945 0.9162581 0
2.7460003 0.559138 0.91603982 0
2.7470002 0.55516237 0.9162581 0
2.7470002 0.55092883 0.9162581 0
2.7480001 0.54694784 0.91647637 0
2.7490003 0.54296321 0.91669464 0
2.7510002 0.53922391 0.91713119 0
2.7530003 0.53547746 0.91756761 0
2.7560003 0.53196901 0.91822243 0
2.7580001 0.52820629 0.91865897 0
2.7620003 0.52491975 0.91953206 0
2.7660003 0.52161872 0.92040503 0
2.7710001 0.51854146 0.92149627 0
2.7760003 0.51544613 0.92258775 0
2.7850003 0.51327074 0.92455208 0
2.7660003 0.59843934 0.91613722 0
2.7590003 0.59227759 0.91462207 0
2.7540002 0.5866785 0.91353977 0
2.7510002 0.58163142 0.91289032 0
2.7490003 0.57686043 0.91245747 0
2.7470002 0.57209653 0.91202462 0
2.7460003 0.56760144 0.91180813 0
2.7460003 0.56336975 0.91180813 0
2.7460003 0.559138 0.91180813 0
2.7460003 0.55490625 0.91180813 0
2.7460003 0.55067456 0.91180813 0
2.7470002 0.54669529 0.91202462 0
2.7490003 0.54296321 0.91245747 0
2.7500002 0.538975 0.91267395 0
2.7520001 0.53523028 0.9131068 0
2.7550001 0.53172368 0.91375625 0
2.7570002 0.52796274 0.9141891 0
2.7600002 0.5244363 0.91483855 0
2.7630002 0.52089906 0.91548789 0
2.7680001 0.51782709 0.91657019 0
2.7730002 0.51473725 0.91765249 0
2.7800002 0.51209825 0.91916764 0
2.7900002 0.51013213 0.92133224 0
2.7640002 0.59789461 0.91144013 0
2.7580001 0.59200698 0.9101522 0
2.7540002 0.5866785 0.90929353 0
2.7510002 0.58163142 0.90864968 0
2.7490003 0.57686043 0.90822041 0
2.7470002 0.57209653 0.90779102 0
2.7460003 0.56760144 0.90757632 0
2.7450001 0.56310993 0.90736163 0
2.7450001 0.55887997 0.90736163 0
2.7460003 0.55490625 0.90757632 0
2.7460003 0.55067456 0.90757632 0
2.7470002 0.54669529 0.90779102 0
2.7480001 0.54271251 0.90800571 0
2.7500002 0.538975 0.90843499 0
2.7520001 0.53523028 0.90886426 0
2.7540002 0.53147835 0.90929353 0
2.7560003 0.52771926 0.90972292 0
2.7590003 0.5241946 0.91036689 0
2.7620003 0.52065915 0.91101086 0
2.7660003 0.51735097 0.91186941 0
2.7710001 0.51426464 0.91294277 0
2.7770002 0.5113948 0.91423059 0
2.7850003 0.50896871 0.91594791 0
2.7630002 0.59762222 0.90696311 0
2.7570002 0.59173638 0.90568602 0
2.7530003 0.58640975 0.90483463 0
2.7500002 0.58136451 0.90419602 0
2.7480001 0.57659519 0.90377033 0
2.7470002 0.57209653 0.90355748 0
2.7460003 0.56760144 0.90334469 0
2.7450001 0.56310993 0.90313172 0
2.7450001 0.55887997 0.90313172 0
2.7460003 0.55490625 0.90334469 0
2.7460003 0.55067456 0.90334469 0
2.7470002 0.54669529 0.90355748 0
2.7480001 0.54271251 0.90377033 0
2.7500002 0.538975 0.90419602 0
2.7510002 0.53498316 0.90440881 0
2.7530003 0.53123307 0.90483463 0
2.7550001 0.52747566 0.90526032 0
2.7580001 0.5239529 0.90589881 0
2.7610002 0.52041918 0.90653741 0
2.7640002 0.51687473 0.9071759 0
2.7690003 0.51379204 0.9082402 0
2.7730002 0.5104568 0.90909159 0
2.7800002 0.50780523 0.91058159 0
2.7900002 0.50582099 0.91271007 0
2.7750001 0.60517472 0.90523314 0
2.7630002 0.59762222 0.90270066 0
2.7570002 0.59173638 0.90143442 0
2.7540002 0.5866785 0.90080124 0
2.7500002 0.58136451 0.89995706 0
2.7490003 0.57686043 0.89974606 0
2.7470002 0.57209653 0.89932394 0
2.7460003 0.56760144 0.89911294 0
2.7450001 0.56310993 0.89890182 0
2.7450001 0.55887997 0.89890182 0
2.7460003 0.55490625 0.89911294 0
2.7460003 0.55067456 0.89911294 0
2.7470002 0.54669529 0.89932394 0
2.7480001 0.54271251 0.89953494 0
2.7490003 0.53872609 0.89974606 0
2.7510002 0.53498316 0.90016818 0
2.7530003 0.53123307 0.90059024 0
2.7550001 0.52747566 0.9010123 0
2.7570002 0.5237112 0.90143442 0
2.7600002 0.52017933 0.90206754 0
2.7630002 0.51663667 0.90270066 0
2.7670002 0.51331949 0.9035449 0
2.7710001 0.50998777 0.90438902 0
2.7770002 0.50710714 0.90565526 0
2.7840002 0.50443566 0.90713263 0
2.7630002 0.59762222 0.89843833 0
2.7570002 0.59173638 0.89718282 0
2.7540002 0.5866785 0.89655513 0
2.7500002 0.58136451 0.8957181 0
2.7490003 0.57686043 0.89550894 0
2.7470002 0.57209653 0.8950904 0
2.7460003 0.56760144 0.89488119 0
2.7450001 0.56310993 0.89467192 0
2.7450001 0.55887997 0.89467192 0
2.7460003 0.55490625 0.89488119 0
2.7460003 0.55067456 0.89488119 0
2.7470002 0.54669529 0.8950904 0
2.7480001 0.54271251 0.89529967 0
2.7490003 0.53872609 0.89550894 0
2.7510002 0.53498316 0.89592737 0
2.7520001 0.53098774 0.89613664 0
2.7540002 0.52723223 0.89655513 0
2.7560003 0.52346945 0.89697361 0
2.7590003 0.51993948 0.89760131 0
2.7620003 0.51639855 0.89822912 0
2.7650001 0.51284683 0.89885676 0
2.7690003 0.50951886 0.89969373 0
2.7740002 0.50640905 0.90073991 0
2.7810001 0.50374299 0.90220463 0
2.7900002 0.5015099 0.90408778 0
2.7770002 0.60572314 0.89708 0
2.7630002 0.59762222 0.89417589 0
2.7570002 0.59173638 0.89293128 0
2.7540002 0.5866785 0.89230895 0
2.7500002 0.58136451 0.89147925 0
2.7490003 0.57686043 0.89127171 0
2.7470002 0.57209653 0.89085686 0
2.7460003 0.56760144 0.89064944 0
2.7450001 0.56310993 0.89044201 0
2.7450001 0.55887997 0.89044201 0
2.7460003 0.55490625 0.89064944 0
2.7460003 0.55067456 0.89064944 0
2.7470002 0.54669529 0.89085686 0
2.7480001 0.54271251 0.89106429 0
2.7500002 0.538975 0.89147925 0
2.7510002 0.53498316 0.89168668 0
2.7520001 0.53098774 0.8918941 0
2.7540002 0.52723223 0.89230895 0
2.7560003 0.52346945 0.89272386 0
2.7580001 0.51969951 0.89313871 0
2.7610002 0.51616043 0.89376104 0
2.7640002 0.51261055 0.89438331 0
2.7670002 0.50904983 0.89500564 0
2.7720003 0.50594372 0.89604282 0
2.7770002 0.50281948 0.89708 0
2.7840002 0.50013536 0.89853203 0
2.7980001 0.49901706 0.90143621 0
2.7770002 0.60572314 0.89279234 0
2.7630002 0.59762222 0.8899135 0
2.7570002 0.59173638 0.88867962 0
2.7540002 0.5866785 0.88806278 0
2.7500002 0.58136451 0.88724029 0
2.7490003 0.57686043 0.8870346 0
2.7470002 0.57209653 0.88662338 0
2.7460003 0.56760144 0.88641775 0
2.7450001 0.56310993 0.88621211 0
2.7450001 0.55887997 0.88621211 0
2.7460003 0.55490625 0.88641775 0
2.7460003 0.55067456 0.88641775 0
2.7470002 0.54669529 0.88662338 0
2.7480001 0.54271251 0.8868289 0
2.7500002 0.538975 0.88724029 0
2.7510002 0.53498316 0.88744587 0
2.7520001 0.53098774 0.88765144 0
2.7540002 0.52723223 0.88806278 0
2.7550001 0.52322775 0.88826835 0
2.7580001 0.51969951 0.88888532 0
2.7600002 0.51592237 0.88929653 0
2.7630002 0.51237422 0.8899135 0
2.7660003 0.50881535 0.89053041 0
2.7700002 0.50547826 0.89135295 0
2.7750001 0.50235766 0.89238107 0
2.7810001 0.49944812 0.89361489 0
2.7900002 0.49719882 0.89546561 0
2.7770002 0.60572314 0.88850474 0
2.7630002 0.59762222 0.88565111 0
2.7570002 0.59173638 0.88442808 0
2.7540002 0.5866785 0.8838166 0
2.7500002 0.58136451 0.88300133 0
2.7490003 0.57686043 0.88279748 0
2.7470002 0.57209653 0.88238978 0
2.7460003 0.56760144 0.882186 0
2.7450001 0.56310993 0.88198215 0
2.7450001 0.55887997 0.88198215 0
2.7460003 0.55490625 0.882186 0
2.7460003 0.55067456 0.882186 0
2.7470002 0.54669529 0.88238978 0
2.7480001 0.54271251 0.88259363 0
2.7500002 0.538975 0.88300133 0
2.7510002 0.53498316 0.88320506 0
2.7520001 0.53098774 0.8834089 0
2.7530003 0.52698874 0.88361275 0
2.7550001 0.52322775 0.88402039 0
2.7570002 0.51945961 0.88442808 0
2.7590003 0.51568425 0.88483578 0
2.7620003 0.51213795 0.88544726 0
2.7650001 0.5085808 0.88605869 0
2.7680001 0.50501293 0.88667023 0
2.7730002 0.5018959 0.88768935 0
2.7780001 0.49876088 0.88870847 0
2.7850003 0.49606246 0.89013541 0
2.7950003 0.4940151 0.89217365 0
2.7770002 0.60572314 0.88421702 0
2.7630002 0.59762222 0.88138866 0
2.7570002 0.59173638 0.88017654 0
2.7540002 0.5866785 0.87957048 0
2.7500002 0.58136451 0.87876236 0
2.7490003 0.57686043 0.8785603 0
2.7470002 0.57209653 0.8781563 0
2.7460003 0.56760144 0.87795424 0
2.7450001 0.56310993 0.87775218 0
2.7450001 0.55887997 0.87775218 0
2.7460003 0.55490625 0.87795424 0
2.7460003 0.55067456 0.87795424 0
2.7470002 0.54669529 0.8781563 0
2.7480001 0.54271251 0.87835824 0
2.7500002 0.538975 0.87876236 0
2.7510002 0.53498316 0.87896436 0
2.7520001 0.53098774 0.87916636 0
2.7530003 0.52698874 0.87936842 0
2.7550001 0.52322775 0.87977242 0
2.7560003 0.5192197 0.87997448 0
2.7590003 0.51568425 0.88058054 0
2.7610002 0.51190168 0.88098466 0
2.7640002 0.50834632 0.88159072 0
2.7670002 0.50478023 0.88219678 0
2.7710001 0.50143415 0.8830049 0
2.7760003 0.49830276 0.88401508 0
2.7820003 0.49538058 0.8852272 0
2.7900002 0.49288768 0.88684344 0
2.7770002 0.60572314 0.87992942 0
2.7630002 0.59762222 0.87712634 0
2.7570002 0.59173638 0.87592494 0
2.7540002 0.5866785 0.87532425 0
2.7500002 0.58136451 0.8745234 0
2.7490003 0.57686043 0.87432313 0
2.7470002 0.57209653 0.87392277 0
2.7460003 0.56760144 0.87372255 0
2.7450001 0.56310993 0.87352228 0
2.7450001 0.55887997 0.87352228 0
2.7460003 0.55490625 0.87372255 0
2.7460003 0.55067456 0.87372255 0
2.7470002 0.54669529 0.87392277 0
2.7480001 0.54271251 0.87412292 0
2.7500002 0.538975 0.8745234 0
2.7510002 0.53498316 0.87472355 0
2.7520001 0.53098774 0.87492383 0
2.7530003 0.52698874 0.8751241 0
2.7550001 0.52322775 0.87552452 0
2.7560003 0.5192197 0.87572473 0
2.7580001 0.51544613 0.87612516 0
2.7600002 0.51166534 0.87652564 0
2.7630002 0.50811189 0.87712634 0
2.7660003 0.50454754 0.87772691 0
2.7690003 0.50097239 0.87832761 0
2.7740002 0.49784458 0.87932873 0
2.7780001 0.49447143 0.88012958 0
2.7850003 0.49176037 0.88153118 0
2.7950003 0.48969501 0.88353348 0
2.6640003 0.72584236 0.85322046 0
2.6660001 0.72243667 0.85361725 0
2.6670003 0.71868664 0.85381567 0
2.6680002 0.71493292 0.8540141 0
2.6690001 0.71117556 0.85421252 0
2.6700003 0.70741469 0.85441095 0
2.6710002 0.70365006 0.85460937 0
2.6730001 0.70021015 0.85500616 0
2.6740003 0.69643664 0.85520458 0
2.6750002 0.6926595 0.85540307 0
2.7770002 0.60572314 0.8756417 0
2.7630002 0.59762222 0.87286389 0
2.7570002 0.59173638 0.87167335 0
2.7540002 0.5866785 0.87107813 0
2.7500002 0.58136451 0.87028444 0
2.7490003 0.57686043 0.87008601 0
2.7470002 0.57209653 0.86968923 0
2.7460003 0.56760144 0.8694908 0
2.7450001 0.56310993 0.86929238 0
2.7450001 0.55887997 0.86929238 0
2.7460003 0.55490625 0.8694908 0
2.7460003 0.55067456 0.8694908 0
2.7470002 0.54669529 0.86968923 0
2.7480001 0.54271251 0.86988759 0
2.7500002 0.538975 0.87028444 0
2.7520001 0.53523028 0.87068129 0
2.7520001 0.53098774 0.87068129 0
2.7530003 0.52698874 0.87087971 0
2.7540002 0.52298605 0.87107813 0
2.7560003 0.5192197 0.87147498 0
2.7580001 0.51544613 0.87187177 0
2.7600002 0.51166534 0.87226862 0
2.7620003 0.50787735 0.87266552 0
2.7650001 0.50431478 0.87326074 0
2.7680001 0.50074148 0.87385595 0
2.7720003 0.4973864 0.87464964 0
2.7760003 0.49401689 0.87544334 0
2.7820003 0.49108392 0.87663388 0
2.7890003 0.48835295 0.87802279 0
2.6640003 0.72584236 0.84913659 0
2.6660001 0.72243667 0.8495298 0
2.6670003 0.71868664 0.84972644 0
2.6680002 0.71493292 0.84992307 0
2.6690001 0.71117556 0.85011965 0
2.6700003 0.70741469 0.85031629 0
2.6710002 0.70365006 0.85051292 0
2.6730001 0.70021015 0.85090613 0
2.6740003 0.69643664 0.85110271 0
2.6750002 0.6926595 0.85129935 0
2.7770002 0.60572314 0.8713541 0
2.7630002 0.59762222 0.8686015 0
2.7570002 0.59173638 0.86742187 0
2.7540002 0.5866785 0.8668319 0
2.7500002 0.58136451 0.86604548 0
2.7490003 0.57686043 0.8658489 0
2.7470002 0.57209653 0.86545563 0
2.7460003 0.56760144 0.86525905 0
2.7450001 0.56310993 0.86506236 0
2.7450001 0.55887997 0.86506236 0
2.7460003 0.55490625 0.86525905 0
2.7460003 0.55067456 0.86525905 0
2.7470002 0.54669529 0.86545563 0
2.7480001 0.54271251 0.86565226 0
2.7500002 0.538975 0.86604548 0
2.7520001 0.53523028 0.86643875 0
2.7530003 0.53123307 0.86663532 0
2.7530003 0.52698874 0.86663532 0
2.7540002 0.52298605 0.8668319 0
2.7560003 0.5192197 0.86722517 0
2.7570002 0.51520807 0.86742187 0
2.7590003 0.51142907 0.86781502 0
2.7610002 0.50764281 0.86820823 0
2.7640002 0.50408214 0.86879808 0
2.7670002 0.50051057 0.86938798 0
2.7700002 0.49692827 0.86997783 0
2.7740002 0.49356234 0.87076426 0
2.7790003 0.49040753 0.87174737 0
2.7860003 0.48768193 0.87312365 0
2.7950003 0.48537487 0.87489319 0
2.6640003 0.72584236 0.84505284 0
2.6660001 0.72243667 0.84544235 0
2.6670003 0.71868664 0.8456372 0
2.6680002 0.71493292 0.84583199 0
2.6690001 0.71117556 0.84602678 0
2.6700003 0.70741469 0.84622169 0
2.6710002 0.70365006 0.84641647 0
2.6730001 0.70021015 0.84680605 0
2.6740003 0.69643664 0.8470009 0
2.6750002 0.6926595 0.84719568 0
2.7770002 0.60572314 0.86706644 0
2.7630002 0.59762222 0.86433911 0
2.7570002 0.59173638 0.86317027 0
2.7540002 0.5866785 0.86258578 0
2.7500002 0.58136451 0.86180651 0
2.7490003 0.57686043 0.86161172 0
2.7470002 0.57209653 0.86122215 0
2.7460003 0.56760144 0.86102736 0
2.7450001 0.56310993 0.86083245 0
2.7450001 0.55887997 0.86083245 0
2.7460003 0.55490625 0.86102736 0
2.7460003 0.55067456 0.86102736 0
2.7470002 0.54669529 0.86122215 0
2.7480001 0.54271251 0.86141694 0
2.7500002 0.538975 0.86180651 0
2.7520001 0.53523028 0.86219615 0
2.7530003 0.53123307 0.862391 0
2.7540002 0.52723223 0.86258578 0
2.7550001 0.52322775 0.86278057 0
2.7560003 0.5192197 0.86297542 0
2.7570002 0.51520807 0.86317027 0
2.7590003 0.51142907 0.86355984 0
2.7610002 0.50764281 0.86394942 0
2.7630002 0.50384945 0.86433911 0
2.7660003 0.50027972 0.86492354 0
2.7690003 0.49669921 0.86550796 0
2.7720003 0.4931078 0.86609244 0
2.7770002 0.4899565 0.86706644 0
2.7830002 0.4870109 0.86823535 0
2.7890003 0.48404366 0.8694042 0
2.8030002 0.48281527 0.87213159 0
2.6640003 0.72584236 0.84096897 0
2.6660001 0.72243667 0.84135497 0
2.6670003 0.71868664 0.84154797 0
2.6680002 0.71493292 0.84174097 0
2.6690001 0.71117556 0.84193397 0
2.6700003 0.70741469 0.84212703 0
2.6710002 0.70365006 0.84231997 0
2.6730001 0.70021015 0.84270597 0
2.6740003 0.69643664 0.84289908 0
2.6750002 0.6926595 0.84309202 0
2.7770002 0.60572314 0.86277878 0
2.7630002 0.59762222 0.86007667 0
2.7570002 0.59173638 0.85891867 0
2.7540002 0.5866785 0.85833961 0
2.7500002 0.58136451 0.85756761 0
2.7490003 0.57686043 0.85737461 0
2.7470002 0.57209653 0.85698855 0
2.7460003 0.56760144 0.85679555 0
2.7450001 0.56310993 0.85660255 0
2.7450001 0.55887997 0.85660255 0
2.7460003 0.55490625 0.85679555 0
2.7460003 0.55067456 0.85679555 0
2.7470002 0.54669529 0.85698855 0
2.7480001 0.54271251 0.85718155 0
2.7500002 0.538975 0.85756761 0
2.7520001 0.53523028 0.85795355 0
2.7540002 0.53147835 0.85833961 0
2.7540002 0.52723223 0.85833961 0
2.7550001 0.52322775 0.85853261 0
2.7560003 0.5192197 0.85872567 0
2.7570002 0.51520807 0.85891867 0
2.7590003 0.51142907 0.85930467 0
2.7600002 0.50740838 0.85949767 0
2.7620003 0.50361681 0.85988367 0
2.7650001 0.50004882 0.86046267 0
2.7680001 0.49647003 0.86104172 0
2.7710001 0.49288046 0.86162078 0
2.7750001 0.48950553 0.86239278 0
2.7800002 0.48633993 0.86335784 0
2.7860003 0.48337805 0.8645159 0
2.7950003 0.48105478 0.8662529 0
2.6640003 0.72584236 0.83688515 0
2.6660001 0.72243667 0.83726752 0
2.6670003 0.71868664 0.83745873 0
2.6680002 0.71493292 0.83764994 0
2.6690001 0.71117556 0.83784115 0
2.6700003 0.70741469 0.83803236 0
2.6710002 0.70365006 0.83822358 0
2.6730001 0.70021015 0.83860594 0
2.6740003 0.69643664 0.83879721 0
2.6750002 0.6926595 0.83898836 0
2.7770002 0.60572314 0.85849112 0
2.7630002 0.59762222 0.85581428 0
2.7570002 0.59173638 0.85466707 0
2.7540002 0.5866785 0.85409343 0
2.7500002 0.58136451 0.8533287 0
2.7490003 0.57686043 0.85313749 0
2.7470002 0.57209653 0.85275507 0
2.7460003 0.56760144 0.85256386 0
2.7450001 0.56310993 0.85237265 0
2.7450001 0.55887997 0.85237265 0
2.7460003 0.55490625 0.85256386 0
2.7460003 0.55067456 0.85256386 0
2.7470002 0.54669529 0.85275507 0
2.7480001 0.54271251 0.85294622 0
2.7500002 0.538975 0.8533287 0
2.7520001 0.53523028 0.85371101 0
2.7540002 0.53147835 0.85409343 0
2.7540002 0.52723223 0.85409343 0
2.7550001 0.52322775 0.85428464 0
2.7560003 0.5192197 0.85447586 0
2.7570002 0.51520807 0.85466707 0
2.7580001 0.51119274 0.85485828 0
2.7600002 0.50740838 0.8552407 0
2.7620003 0.50361681 0.85562313 0
2.7640002 0.49981791 0.85600549 0
2.7670002 0.49624097 0.85657907 0
2.7700002 0.49265325 0.8571527 0
2.7730002 0.48905462 0.85772634 0
2.7780001 0.48589253 0.85868233 0
2.7830002 0.48271239 0.85963833 0
2.7900002 0.47995442 0.86097682 0
2.8010001 0.47804415 0.86308002 0
2.6640003 0.72584236 0.83280134 0
2.6660001 0.72243667 0.83318007 0
2.6670003 0.71868664 0.83336949 0
2.6680002 0.71493292 0.83355892 0
2.6690001 0.71117556 0.83374834 0
2.6700003 0.70741469 0.83393776 0
2.6710002 0.70365006 0.83412713 0
2.6730001 0.70021015 0.83450592 0
2.6740003 0.69643664 0.83469534 0
2.6750002 0.6926595 0.8348847 0
2.7770002 0.60572314 0.85420346 0
2.7630002 0.59762222 0.85155189 0
2.7570002 0.59173638 0.85041547 0
2.7540002 0.5866785 0.84984732 0
2.7500002 0.58136451 0.84908974 0
2.7490003 0.57686043 0.84890032 0
2.7470002 0.57209653 0.84852147 0
2.7460003 0.56760144 0.84833211 0
2.7450001 0.56310993 0.84814268 0
2.7450001 0.55887997 0.84814268 0
2.7460003 0.55490625 0.84833211 0
2.7460003 0.55067456 0.84833211 0
2.7470002 0.54669529 0.84852147 0
2.7480001 0.54271251 0.84871089 0
2.7500002 0.538975 0.84908974 0
2.7520001 0.53523028 0.84946847 0
2.7540002 0.53147835 0.84984732 0
2.7550001 0.52747566 0.85003668 0
2.7550001 0.52322775 0.85003668 0
2.7560003 0.5192197 0.8502261 0
2.7570002 0.51520807 0.85041547 0
2.7580001 0.51119274 0.85060489 0
2.7600002 0.50740838 0.85098374 0
2.7610002 0.50338405 0.85117304 0
2.7640002 0.49981791 0.85174131 0
2.7660003 0.49601191 0.8521201 0
2.7690003 0.49242592 0.85268831 0
2.7720003 0.4888292 0.85325652 0
2.7760003 0.4854452 0.8540141 0
2.7810001 0.48226869 0.85496104 0
2.7870002 0.47929424 0.85609746 0
2.7950003 0.47673458 0.85761273 0
2.6640003 0.72584236 0.82871747 0
2.6660001 0.72243667 0.82909262 0
2.6670003 0.71868664 0.82928026 0
2.6680002 0.71493292 0.82946789 0
2.6690001 0.71117556 0.82965547 0
2.6700003 0.70741469 0.82984304 0
2.6710002 0.70365006 0.83003068 0
2.6730001 0.70021015 0.83040583 0
2.6740003 0.69643664 0.83059347 0
2.6750002 0.6926595 0.83078104 0
2.7770002 0.60572314 0.84991586 0
2.7630002 0.59762222 0.8472895 0
2.7570002 0.59173638 0.84616387 0
2.7540002 0.5866785 0.84560114 0
2.7500002 0.58136451 0.84485078 0
2.7490003 0.57686043 0.84466314 0
2.7470002 0.57209653 0.84428799 0
2.7460003 0.56760144 0.84410036 0
2.7450001 0.56310993 0.84391272 0
2.7450001 0.55887997 0.84391272 0
2.7460003 0.55490625 0.84410036 0
2.7460003 0.55067456 0.84410036 0
2.7470002 0.54669529 0.84428799 0
2.7480001 0.54271251 0.84447551 0
2.7500002 0.538975 0.84485078 0
2.7520001 0.53523028 0.84522593 0
2.7540002 0.53147835 0.84560114 0
2.7560003 0.52771926 0.84597635 0
2.7560003 0.52346945 0.84597635 0
2.7560003 0.5192197 0.84597635 0
2.7570002 0.51520807 0.84616387 0
2.7580001 0.51119274 0.8463515 0
2.7590003 0.50717384 0.84653914 0
2.7610002 0.50338405 0.84691429 0
2.7630002 0.49958706 0.8472895 0
2.7650001 0.49578279 0.84766471 0
2.7680001 0.49219865 0.8482275 0
2.7710001 0.48860365 0.84879023 0
2.7740002 0.48499781 0.84935308 0
2.7790003 0.48182499 0.85029101 0
2.7830002 0.47841394 0.85104144 0
2.7900002 0.47564328 0.85235459 0
2.8000002 0.47349674 0.85423052 0
2.6640003 0.72584236 0.82463372 0
2.6660001 0.72243667 0.82500523 0
2.6670003 0.71868664 0.82519102 0
2.6680002 0.71493292 0.82537687 0
2.6690001 0.71117556 0.8255626 0
2.6700003 0.70741469 0.82574844 0
2.6710002 0.70365006 0.82593417 0
2.6730001 0.70021015 0.82630575 0
2.6740003 0.69643664 0.82649159 0
2.6750002 0.6926595 0.82667738 0
2.7770002 0.60572314 0.84562814 0
2.7630002 0.59762222 0.84302711 0
2.7570002 0.59173638 0.84191233 0
2.7540002 0.5866785 0.84135497 0
2.7500002 0.58136451 0.84061182 0
2.7490003 0.57686043 0.84042603 0
2.7470002 0.57209653 0.84005439 0
2.7460003 0.56760144 0.83986866 0
2.7450001 0.56310993 0.83968282 0
2.7450001 0.55887997 0.83968282 0
2.7460003 0.55490625 0.83986866 0
2.7460003 0.55067456 0.83986866 0
2.7470002 0.54669529 0.84005439 0
2.7480001 0.54271251 0.84024024 0
2.7500002 0.538975 0.84061182 0
2.7520001 0.53523028 0.84098339 0
2.7540002 0.53147835 0.84135497 0
2.7560003 0.52771926 0.84172654 0
2.7560003 0.52346945 0.84172654 0
2.7570002 0.51945961 0.84191233 0
2.7570002 0.51520807 0.84191233 0
2.7580001 0.51119274 0.84209812 0
2.7590003 0.50717384 0.84228396 0
2.7610002 0.50338405 0.84265554 0
2.7620003 0.49935621 0.84284133 0
2.7650001 0.49578279 0.84339869 0
2.7670002 0.49197137 0.84377027 0
2.7700002 0.48837823 0.84432769 0
2.7730002 0.48477417 0.84488505 0
2.7770002 0.48138118 0.84562814 0
2.7810001 0.47797376 0.84637135 0
2.7870002 0.47498846 0.84748614 0
2.7950003 0.47241449 0.84897244 0
2.6640003 0.72584236 0.82054985 0
2.6660001 0.72243667 0.82091784 0
2.6670003 0.71868664 0.82110184 0
2.6680002 0.71493292 0.82128584 0
2.6690001 0.71117556 0.82146978 0
2.6700003 0.70741469 0.82165378 0
2.6710002 0.70365006 0.82183778 0
2.6730001 0.70021015 0.82220566 0
2.6740003 0.69643664 0.82238972 0
2.6750002 0.6926595 0.82257366 0
2.7770002 0.60572314 0.84134054 0
2.7630002 0.59762222 0.83876467 0
2.7570002 0.59173638 0.83766079 0
2.7540002 0.5866785 0.83710879 0
2.7500002 0.58136451 0.83637285 0
2.7490003 0.57686043 0.83618891 0
2.7470002 0.57209653 0.83582091 0
2.7460003 0.56760144 0.83563691 0
2.7450001 0.56310993 0.83545291 0
2.7450001 0.55887997 0.83545291 0
2.7460003 0.55490625 0.83563691 0
2.7460003 0.55067456 0.83563691 0
2.7470002 0.54669529 0.83582091 0
2.7480001 0.54271251 0.83600485 0
2.7500002 0.538975 0.83637285 0
2.7520001 0.53523028 0.83674085 0
2.7540002 0.53147835 0.83710879 0
2.7570002 0.52796274 0.83766079 0
2.7570002 0.5237112 0.83766079 0
2.7570002 0.51945961 0.83766079 0
2.7580001 0.51544613 0.83784473 0
2.7580001 0.51119274 0.83784473 0
2.7590003 0.50717384 0.83802879 0
2.7610002 0.50338405 0.83839667 0
2.7620003 0.49935621 0.83858073 0
2.7640002 0.49555373 0.83894867 0
2.7660003 0.4917441 0.83931667 0
2.7690003 0.48815274 0.83986866 0
2.7720003 0.48455054 0.8404206 0
2.7750001 0.48093748 0.84097254 0
2.7790003 0.47753376 0.84170854 0
2.7840002 0.47433376 0.84262842 0
2.7910001 0.47154868 0.84391636 0
2.8000002 0.46916759 0.84557223 0
2.6640003 0.72584236 0.81646603 0
2.6660001 0.72243667 0.8168304 0
2.6670003 0.71868664 0.81701261 0
2.6680002 0.71493292 0.81719476 0
2.6690001 0.71117556 0.81737697 0
2.6700003 0.70741469 0.81755912 0
2.6710002 0.70365006 0.81774133 0
2.6730001 0.70021015 0.8181057 0
2.6740003 0.69643664 0.81828785 0
2.6750002 0.6926595 0.81847006 0
2.7770002 0.60572314 0.83705288 0
2.7630002 0.59762222 0.83450234 0
2.7570002 0.59173638 0.83340919 0
2.7540002 0.5866785 0.83286262 0
2.7500002 0.58136451 0.83213389 0
2.7490003 0.57686043 0.83195174 0
2.7470002 0.57209653 0.83158731 0
2.7460003 0.56760144 0.83140516 0
2.7450001 0.56310993 0.83122295 0
2.7450001 0.55887997 0.83122295 0
2.7460003 0.55490625 0.83140516 0
2.7460003 0.55067456 0.83140516 0
2.7470002 0.54669529 0.83158731 0
2.7480001 0.54271251 0.83176953 0
2.7500002 0.538975 0.83213389 0
2.7520001 0.53523028 0.83249825 0
2.7540002 0.53147835 0.83286262 0
2.7570002 0.52796274 0.83340919 0
2.7580001 0.5239529 0.83359134 0
2.7580001 0.51969951 0.83359134 0
2.7580001 0.51544613 0.83359134 0
2.7590003 0.51142907 0.83377361 0
2.7600002 0.50740838 0.83395576 0
2.7600002 0.50315136 0.83395576 0
2.7620003 0.49935621 0.83432013 0
2.7640002 0.49555373 0.83468449 0
2.7660003 0.4917441 0.83504885 0
2.7680001 0.4879272 0.83541322 0
2.7710001 0.48432678 0.83595979 0
2.7740002 0.48071563 0.83650631 0
2.7770002 0.47709358 0.83705288 0
2.7820003 0.47389722 0.83796382 0
2.7880001 0.47089928 0.83905691 0
2.7950003 0.46809441 0.84033221 0
2.8080003 0.46654129 0.8427006 0
2.6640003 0.72584236 0.81238222 0
2.6660001 0.72243667 0.81274295 0
2.6670003 0.71868664 0.81292331 0
2.6680002 0.71493292 0.81310374 0
2.6690001 0.71117556 0.8132841 0
2.6700003 0.70741469 0.81346452 0
2.6710002 0.70365006 0.81364489 0
2.6730001 0.70021015 0.81400561 0
2.6740003 0.69643664 0.81418604 0
2.6750002 0.6926595 0.8143664 0
2.7770002 0.60572314 0.83276522 0
2.7630002 0.59762222 0.83023989 0
2.7570002 0.59173638 0.82915759 0
2.7540002 0.5866785 0.8286165 0
2.7500002 0.58136451 0.82789493 0
2.7490003 0.57686043 0.82771456 0
2.7470002 0.57209653 0.82735384 0
2.7460003 0.56760144 0.82717347 0
2.7450001 0.56310993 0.82699299 0
2.7450001 0.55887997 0.82699299 0
2.7460003 0.55490625 0.82717347 0
2.7460003 0.55067456 0.82717347 0
2.7470002 0.54669529 0.82735384 0
2.7480001 0.54271251 0.8275342 0
2.7500002 0.538975 0.82789493 0
2.7520001 0.53523028 0.82825565 0
2.7540002 0.53147835 0.8286165 0
2.7570002 0.52796274 0.82915759 0
2.7580001 0.5239529 0.82933795 0
2.7580001 0.51969951 0.82933795 0
2.7580001 0.51544613 0.82933795 0
2.7590003 0.51142907 0.82951844 0
2.7600002 0.50740838 0.8296988 0
2.7610002 0.50338405 0.82987916 0
2.7620003 0.49935621 0.83005953 0
2.7630002 0.49532467 0.83023989 0
2.7650001 0.49151677 0.83060062 0
2.7670002 0.48770171 0.83096147 0
2.7700002 0.48410314 0.83150256 0
2.7730002 0.48049378 0.83204371 0
2.7760003 0.47687352 0.83258486 0
2.7800002 0.47346067 0.83330637 0
2.7850003 0.47024989 0.83420831 0
2.7910001 0.46723568 0.83529055 0
2.8000002 0.4648385 0.836914 0
2.6640003 0.72584236 0.80829835 0
2.6660001 0.72243667 0.8086555 0
2.6670003 0.71868664 0.80883408 0
2.6680002 0.71493292 0.80901265 0
2.6690001 0.71117556 0.80919123 0
2.6700003 0.70741469 0.80936986 0
2.6710002 0.70365006 0.80954838 0
2.6730001 0.70021015 0.80990553 0
2.6740003 0.69643664 0.81008416 0
2.6750002 0.6926595 0.81026268 0
2.7770002 0.60572314 0.82847762 0
2.7630002 0.59762222 0.8259775 0
2.7570002 0.59173638 0.82490605 0
2.7540002 0.5866785 0.82437027 0
2.7500002 0.58136451 0.82365596 0
2.7490003 0.57686043 0.82347745 0
2.7470002 0.57209653 0.82312024 0
2.7460003 0.56760144 0.82294166 0
2.7450001 0.56310993 0.82276309 0
2.7450001 0.55887997 0.82276309 0
2.7460003 0.55490625 0.82294166 0
2.7460003 0.55067456 0.82294166 0
2.7470002 0.54669529 0.82312024 0
2.7480001 0.54271251 0.82329881 0
2.7500002 0.538975 0.82365596 0
2.7520001 0.53523028 0.82401311 0
2.7540002 0.53147835 0.82437027 0
2.7570002 0.52796274 0.82490605 0
2.7590003 0.5241946 0.8252632 0
2.7590003 0.51993948 0.8252632 0
2.7590003 0.51568425 0.8252632 0
2.7590003 0.51142907 0.8252632 0
2.7600002 0.50740838 0.82544178 0
2.7610002 0.50338405 0.82562035 0
2.7620003 0.49935621 0.82579899 0
2.7630002 0.49532467 0.8259775 0
2.7650001 0.49151677 0.8263346 0
2.7670002 0.48770171 0.82669181 0
2.7690003 0.48387951 0.82704902 0
2.7720003 0.48027188 0.82758474 0
2.7750001 0.4766534 0.82812041 0
2.7780001 0.47302413 0.82865614 0
2.7830002 0.46981704 0.82954907 0
2.7880001 0.46659178 0.83044195 0
2.7950003 0.46377426 0.83169198 0
2.8060002 0.4617756 0.83365631 0
2.6640003 0.72584236 0.8042146 0
2.6660001 0.72243667 0.80456805 0
2.6670003 0.71868664 0.80474484 0
2.6680002 0.71493292 0.80492163 0
2.6690001 0.71117556 0.80509841 0
2.6700003 0.70741469 0.8052752 0
2.6710002 0.70365006 0.80545199 0
2.6730001 0.70021015 0.8058055 0
2.6740003 0.69643664 0.80598229 0
2.6750002 0.6926595 0.80615902 0
2.7770002 0.60572314 0.8241899 0
2.7630002 0.59762222 0.82171512 0
2.7570002 0.59173638 0.82065445 0
2.7540002 0.5866785 0.82012415 0
2.7500002 0.58136451 0.81941706 0
2.7490003 0.57686043 0.81924033 0
2.7470002 0.57209653 0.81888676 0
2.7460003 0.56760144 0.81870997 0
2.7450001 0.56310993 0.81853318 0
2.7450001 0.55887997 0.81853318 0
2.7460003 0.55490625 0.81870997 0
2.7460003 0.55067456 0.81870997 0
2.7470002 0.54669529 0.81888676 0
2.7480001 0.54271251 0.81906348 0
2.7500002 0.538975 0.81941706 0
2.7520001 0.53523028 0.81977057 0
2.7540002 0.53147835 0.82012415 0
2.7570002 0.52796274 0.82065445 0
2.7600002 0.5244363 0.82118475 0
2.7600002 0.52017933 0.82118475 0
2.7600002 0.51592237 0.82118475 0
2.7600002 0.51166534 0.82118475 0
2.7600002 0.50740838 0.82118475 0
2.7610002 0.50338405 0.82136154 0
2.7620003 0.49935621 0.82153833 0
2.7630002 0.49532467 0.82171512 0
2.7650001 0.49151677 0.82206863 0
2.7660003 0.48747629 0.82224542 0
2.7690003 0.48387951 0.82277572 0
2.7710001 0.48004997 0.8231293 0
2.7740002 0.4764334 0.8236596 0
2.7770002 0.47280592 0.8241899 0
2.7810001 0.46938407 0.82489699 0
2.7860003 0.4661625 0.82578087 0
2.7920003 0.46313572 0.82684153 0
2.8000002 0.46050936 0.82825571 0
2.6640003 0.72584236 0.80013072 0
2.6660001 0.72243667 0.80048066 0
2.6670003 0.71868664 0.80065566 0
2.6680002 0.71493292 0.8008306 0
2.6690001 0.71117556 0.8010056 0
2.6700003 0.70741469 0.8011806 0
2.6710002 0.70365006 0.80135554 0
2.6730001 0.70021015 0.80170548 0
2.6740003 0.69643664 0.80188048 0
2.6750002 0.6926595 0.80205536 0
2.7770002 0.60572314 0.8199023 0
2.7630002 0.59762222 0.81745267 0
2.7570002 0.59173638 0.81640291 0
2.7540002 0.5866785 0.81587797 0
2.7500002 0.58136451 0.8151781 0
2.7490003 0.57686043 0.81500316 0
2.7470002 0.57209653 0.81465316 0
2.7460003 0.56760144 0.81447822 0
2.7450001 0.56310993 0.81430322 0
2.7450001 0.55887997 0.81430322 0
2.7460003 0.55490625 0.81447822 0
2.7460003 0.55067456 0.81447822 0
2.7470002 0.54669529 0.81465316 0
2.7480001 0.54271251 0.81482816 0
2.7500002 0.538975 0.8151781 0
2.7520001 0.53523028 0.81552804 0
2.7540002 0.53147835 0.81587797 0
2.7570002 0.52796274 0.81640291 0
2.7600002 0.5244363 0.81692779 0
2.7610002 0.52041918 0.81710273 0
2.7600002 0.51592237 0.81692779 0
2.7600002 0.51166534 0.81692779 0
2.7610002 0.50764281 0.81710273 0
2.7610002 0.50338405 0.81710273 0
2.7620003 0.49935621 0.81727779 0
2.7630002 0.49532467 0.81745267 0
2.7640002 0.49128956 0.81762767 0
2.7660003 0.48747629 0.81797761 0
2.7680001 0.48365581 0.81832755 0
2.7700002 0.47982812 0.81867748 0
2.7730002 0.47621328 0.81920242 0
2.7760003 0.4725877 0.8197273 0
2.7790003 0.46895117 0.82025218 0
2.7840002 0.46573317 0.82112706 0
2.7890003 0.46249712 0.82200193 0
2.7950003 0.45945412 0.82305169 0
2.8060002 0.45743567 0.82497644 0
2.6640003 0.72584236 0.79604697 0
2.6660001 0.72243667 0.79639328 0
2.6670003 0.71868664 0.79656643 0
2.6680002 0.71493292 0.79673958 0
2.6690001 0.71117556 0.79691273 0
2.6700003 0.70741469 0.79708588 0
2.6710002 0.70365006 0.79725909 0
2.6730001 0.70021015 0.7976054 0
2.6740003 0.69643664 0.79777861 0
2.6750002 0.6926595 0.7979517 0
2.7770002 0.60572314 0.81561464 0
2.7630002 0.59762222 0.81319034 0
2.7570002 0.59173638 0.81215131 0
2.7540002 0.5866785 0.8116318 0
2.7500002 0.58136451 0.81093913 0
2.7490003 0.57686043 0.81076598 0
2.7470002 0.57209653 0.81041968 0
2.7460003 0.56760144 0.81024647 0
2.7450001 0.56310993 0.81007326 0
2.7450001 0.55887997 0.81007326 0
2.7460003 0.55490625 0.81024647 0
2.7460003 0.55067456 0.81024647 0
2.7470002 0.54669529 0.81041968 0
2.7480001 0.54271251 0.81059277 0
2.7500002 0.538975 0.81093913 0
2.7520001 0.53523028 0.81128544 0
2.7540002 0.53147835 0.8116318 0
2.7570002 0.52796274 0.81215131 0
2.7600002 0.5244363 0.81267083 0
2.7620003 0.52065915 0.81301713 0
2.7610002 0.51616043 0.81284398 0
2.7610002 0.51190168 0.81284398 0
2.7610002 0.50764281 0.81284398 0
2.7610002 0.50338405 0.81284398 0
2.7620003 0.49935621 0.81301713 0
2.7630002 0.49532467 0.81319034 0
2.7640002 0.49128956 0.81336343 0
2.7660003 0.48747629 0.81370986 0
2.7670002 0.48343217 0.81388295 0
2.7700002 0.47982812 0.81440246 0
2.7720003 0.47599328 0.81474882 0
2.7750001 0.47236937 0.81526828 0
2.7780001 0.46873474 0.81578779 0
2.7820003 0.4653039 0.81648052 0
2.7870002 0.46207148 0.81734627 0
2.7920003 0.458821 0.81821215 0
2.8000002 0.45618021 0.81959742 0
2.6640003 0.72584236 0.7919631 0
2.6660001 0.72243667 0.79230583 0
2.6670003 0.71868664 0.79247719 0
2.6680002 0.71493292 0.79264855 0
2.6690001 0.71117556 0.79281986 0
2.6700003 0.70741469 0.79299128 0
2.6710002 0.70365006 0.79316258 0
2.6730001 0.70021015 0.79350531 0
2.6740003 0.69643664 0.79367673 0
2.6750002 0.6926595 0.79384804 0
2.7770002 0.60572314 0.81132698 0
2.7630002 0.59762222 0.80892789 0
2.7570002 0.59173638 0.80789971 0
2.7540002 0.5866785 0.80738568 0
2.7500002 0.58136451 0.80670023 0
2.7490003 0.57686043 0.80652881 0
2.7470002 0.57209653 0.80618608 0
2.7460003 0.56760144 0.80601478 0
2.7450001 0.56310993 0.80584335 0
2.7450001 0.55887997 0.80584335 0
2.7460003 0.55490625 0.80601478 0
2.7460003 0.55067456 0.80601478 0
2.7470002 0.54669529 0.80618608 0
2.7480001 0.54271251 0.80635744 0
2.7500002 0.538975 0.80670023 0
2.7520001 0.53523028 0.8070429 0
2.7540002 0.53147835 0.80738568 0
2.7570002 0.52796274 0.80789971 0
2.7600002 0.5244363 0.80841386 0
2.7630002 0.52089906 0.80892789 0
2.7620003 0.51639855 0.80875659 0
2.7620003 0.51213795 0.80875659 0
2.7620003 0.50787735 0.80875659 0
2.7620003 0.50361681 0.80875659 0
2.7620003 0.49935621 0.80875659 0
2.7630002 0.49532467 0.80892789 0
2.7640002 0.49128956 0.80909926 0
2.7660003 0.48747629 0.80944204 0
2.7670002 0.48343217 0.80961335 0
2.7690003 0.47960627 0.80995607 0
2.7710001 0.47577316 0.8102988 0
2.7740002 0.4721511 0.81081289 0
2.7770002 0.46851826 0.81132698 0
2.7800002 0.46487457 0.81184101 0
