# .PCD v0.7 - Point Cloud Data file format
VERSION 0.7
FIELDS x y z intensity
SIZE 4 4 4 4
TYPE F F F F
COUNT 1 1 1 1
WIDTH 1459
HEIGHT 1
VIEWPOINT 0 0 0 1 0 0 0
POINTS 1459
DATA ascii
3.6270003 1.6420579 0.49131334 0
3.6250002 1.6351943 0.49125925 0
3.6230001 1.628338 0.49120513 0
3.6220002 1.6220068 0.49117807 0
3.6200004 1.6151632 0.49112394 0
3.6190002 1.6088407 0.49109688 0
3.6170003 1.6020098 0.49104279 0
3.6150002 1.5951859 0.49098867 0
3.6140003 1.588878 0.49096161 0
3.6120002 1.5820668 0.49090749 0
3.6110003 1.575768 0.49088043 0
3.6090002 1.5689694 0.49082631 0
3.6070004 1.5621781 0.49077222 0
3.6060002 1.5558935 0.49074516 0
3.6040003 1.5491149 0.49069104 0
3.6030002 1.5428393 0.49066398 0
3.6030002 1.5370617 0.49066398 0
3.6030002 1.5312841 0.49066398 0
3.6040003 1.5259972 0.49069104 0
3.6060002 1.5211955 0.49074516 0
3.6080003 1.5163865 0.49079928 0
3.6100001 1.5115703 0.49085337 0
3.6130002 1.5072304 0.49093455 0
3.6170003 1.5033613 0.49104279 0
3.6210003 1.4994777 0.49115101 0
3.6260002 1.4960575 0.49128628 0
3.6320002 1.4930958 0.49144864 0
3.6390002 1.4905866 0.49163803 0
3.8660002 1.5607638 0.49778 0
3.8640003 1.5535883 0.4977259 0
3.8630002 1.5468799 0.49769884 0
3.8610003 1.539717 0.49764472 0
3.8590002 1.5325612 0.4975906 0
3.8580003 1.5258673 0.49756354 0
3.8560002 1.5187242 0.49750942 0
3.8540003 1.5115885 0.49745533 0
3.8530002 1.5049088 0.49742827 0
3.8510003 1.4977857 0.49737415 0
3.8490002 1.4906696 0.49732003 0
3.8480003 1.4840046 0.49729297 0
3.8480003 1.4777851 0.49729297 0
3.8480003 1.4715656 0.49729297 0
3.8490002 1.4657843 0.49732003 0
3.8520002 1.4608725 0.49740121 0
3.8540003 1.4555153 0.49745533 0
3.8570004 1.4505836 0.49753648 0
3.8610003 1.4460723 0.49764472 0
3.8660002 1.4419758 0.49778 0
3.8720002 1.4382888 0.49794233 0
3.6780002 1.8461227 0.48678038 0
3.6790001 1.840785 0.48680562 0
3.6810002 1.8360177 0.48685613 0
3.6830003 1.831243 0.48690665 0
3.6850002 1.8264612 0.48695716 0
3.6890004 1.8228084 0.48705816 0
3.6920002 1.8185748 0.48713392 0
3.6960003 1.8148952 0.48723495 0
3.6580002 1.7758102 0.48627532 0
3.6570003 1.7693762 0.48625007 0
3.6550002 1.7623899 0.48619956 0
3.6530004 1.755411 0.48614904 0
3.6520002 1.7489911 0.4861238 0
3.6500003 1.7420249 0.48607329 0
3.6480002 1.7350658 0.48602277 0
3.6470003 1.7286605 0.48599753 0
3.6450002 1.721714 0.48594701 0
3.6440003 1.7153177 0.48592177 0
3.6420002 1.7083839 0.48587126 0
3.6400003 1.7014573 0.48582077 0
3.6390002 1.6950754 0.4857955 0
3.6370003 1.6881614 0.48574501 0
3.6360002 1.6817884 0.48571974 0
3.6340003 1.6748873 0.48566923 0
3.6320002 1.6679929 0.48561871 0
3.6310003 1.6616346 0.48559347 0
3.6290002 1.6547531 0.48554295 0
3.6280003 1.6484036 0.48551771 0
3.6260002 1.6415347 0.4854672 0
3.6240003 1.6346731 0.48541671 0
3.6230001 1.628338 0.48539144 0
3.6210003 1.621489 0.48534095 0
3.6200004 1.6151632 0.48531568 0
3.6180003 1.6083267 0.4852652 0
3.6160002 1.6014973 0.48521468 0
3.6150002 1.5951859 0.48518944 0
3.6130002 1.5883693 0.48513892 0
3.6120002 1.5820668 0.48511368 0
3.6100001 1.5752628 0.48506317 0
3.6080003 1.5684661 0.48501265 0
3.6070004 1.5621781 0.48498741 0
3.6050003 1.5553938 0.48493689 0
3.6030002 1.5486169 0.48488638 0
3.6020002 1.5423434 0.48486114 0
3.6020002 1.5365674 0.48486114 0
3.6020002 1.5307918 0.48486114 0
3.6030002 1.5255065 0.48488638 0
3.6050003 1.5207067 0.48493689 0
3.6070004 1.5158995 0.48498741 0
3.6100001 1.5115703 0.48506317 0
3.6130002 1.5072304 0.48513892 0
3.6160002 1.5028795 0.48521468 0
3.6200004 1.4989979 0.48531568 0
3.6250002 1.4955796 0.48544195 0
3.6310003 1.4926196 0.48559347 0
3.6380002 1.4901123 0.48577026 0
3.8660002 1.5670158 0.491528 0
3.8640003 1.5598366 0.49147749 0
3.8620002 1.5526648 0.491427 0
3.8610003 1.5459599 0.49140173 0
3.8590002 1.5388006 0.49135125 0
3.8570004 1.5316486 0.49130073 0
3.8550003 1.5245037 0.49125022 0
3.8540003 1.5178188 0.49122497 0
3.8520002 1.5106865 0.49117446 0
3.8500001 1.5035614 0.49112394 0
3.8490002 1.496891 0.4910987 0
3.8470004 1.4897786 0.49104819 0
3.8460002 1.483117 0.49102294 0
3.8460002 1.4769012 0.49102294 0
3.8470004 1.4711254 0.49104819 0
3.8480003 1.4653461 0.49107343 0
3.8500001 1.4599994 0.49112394 0
3.8530002 1.4550805 0.4911997 0
3.8560002 1.4501506 0.49127549 0
3.8600004 1.4456413 0.49137649 0
3.8640003 1.4411173 0.49147749 0
3.8700004 1.437434 0.491629 0
3.8770003 1.4341546 0.49180579 0
3.6780002 1.8461227 0.48086751 0
3.6790001 1.840785 0.48089093 0
3.6810002 1.8360177 0.48093784 0
3.6830003 1.831243 0.48098475 0
3.6850002 1.8264612 0.48103166 0
3.6890004 1.8228084 0.48112544 0
3.6920002 1.8185748 0.48119581 0
3.6960003 1.8148952 0.4812896 0
3.6580002 1.7758102 0.48039851 0
3.6560001 1.7688186 0.4803516 0
3.6550002 1.7623899 0.48032814 0
3.6530004 1.755411 0.48028126 0
3.6510003 1.7484392 0.48023435 0
3.6500003 1.7420249 0.4802109 0
3.6480002 1.7350658 0.48016402 0
3.6460001 1.7281139 0.48011711 0
3.6450002 1.721714 0.48009366 0
3.6430004 1.7147748 0.48004678 0
3.6420002 1.7083839 0.48002332 0
3.6400003 1.7014573 0.47997642 0
3.6380002 1.6945379 0.47992951 0
3.6370003 1.6881614 0.47990608 0
3.6350002 1.6812546 0.47985917 0
3.6340003 1.6748873 0.47983572 0
3.6320002 1.6679929 0.47978884 0
3.6300004 1.6611061 0.47974193 0
3.6290002 1.6547531 0.47971848 0
3.6270003 1.6478788 0.47967157 0
3.6260002 1.6415347 0.47964811 0
3.6240003 1.6346731 0.47960123 0
3.6220002 1.6278186 0.47955433 0
3.6210003 1.621489 0.47953087 0
3.6190002 1.6146472 0.47948396 0
3.6180003 1.6083267 0.47946054 0
3.6160002 1.6014973 0.47941363 0
3.6150002 1.5951859 0.47939017 0
3.6130002 1.5883693 0.4793433 0
3.6110003 1.58156 0.47929639 0
3.6100001 1.5752628 0.47927293 0
3.6080003 1.5684661 0.47922602 0
3.6070004 1.5621781 0.47920257 0
3.6050003 1.5553938 0.47915569 0
3.6030002 1.5486169 0.47910878 0
3.6020002 1.5423434 0.47908533 0
3.6020002 1.5365674 0.47908533 0
3.6020002 1.5307918 0.47908533 0
3.6030002 1.5255065 0.47910878 0
3.6050003 1.5207067 0.47915569 0
3.6070004 1.5158995 0.47920257 0
3.6090002 1.511085 0.47924948 0
3.6120002 1.506747 0.47931981 0
3.6160002 1.5028795 0.47941363 0
3.6200004 1.4989979 0.47950745 0
3.6250002 1.4955796 0.47962469 0
3.6300004 1.4921434 0.47974193 0
3.6370003 1.4896379 0.47990608 0
3.8650002 1.5665504 0.48525256 0
3.8630002 1.559373 0.48520565 0
3.8620002 1.5526648 0.4851822 0
3.8600004 1.5455 0.48513532 0
3.8580003 1.5383425 0.48508841 0
3.8560002 1.5311922 0.4850415 0
3.8550003 1.5245037 0.48501807 0
3.8530002 1.5173659 0.48497117 0
3.8510003 1.5102355 0.48492426 0
3.8500001 1.5035614 0.48490083 0
3.8480003 1.4964436 0.48485392 0
3.8460002 1.489333 0.48480701 0
3.8450003 1.4826733 0.48478356 0
3.8450003 1.4764593 0.48478356 0
3.8460002 1.4706852 0.48480701 0
3.8470004 1.4649078 0.48483047 0
3.8490002 1.4595629 0.48487735 0
3.8520002 1.4546458 0.48494771 0
3.8550003 1.4497178 0.48501807 0
3.8590002 1.4452101 0.48511186 0
3.8640003 1.4411173 0.4852291 0
3.8690002 1.4370064 0.48534635 0
3.8760002 1.4337287 0.4855105 0
3.6780002 1.8461227 0.47495461 0
3.6790001 1.840785 0.47497624 0
3.6810002 1.8360177 0.47501954 0
3.6830003 1.831243 0.47506285 0
3.6850002 1.8264612 0.47510612 0
3.6890004 1.8228084 0.47519273 0
3.6920002 1.8185748 0.47525766 0
3.6960003 1.8148952 0.47534424 0
3.6580002 1.7758102 0.4745217 0
3.6570003 1.7693762 0.47450006 0
3.6550002 1.7623899 0.47445676 0
3.6540003 1.7559648 0.47443512 0
3.6520002 1.7489911 0.47439182 0
3.6500003 1.7420249 0.47434855 0
3.6490002 1.7356142 0.47432688 0
3.6470003 1.7286605 0.47428361 0
3.6450002 1.721714 0.4742403 0
3.6440003 1.7153177 0.47421867 0
3.6420002 1.7083839 0.47417536 0
3.6410003 1.7019967 0.47415373 0
3.6390002 1.6950754 0.47411042 0
3.6370003 1.6881614 0.47406715 0
3.6360002 1.6817884 0.47404549 0
3.6340003 1.6748873 0.47400221 0
3.6330001 1.6685233 0.47398055 0
3.6310003 1.6616346 0.47393727 0
3.6290002 1.6547531 0.47389397 0
3.6280003 1.6484036 0.47387233 0
3.6260002 1.6415347 0.47382903 0
3.6250002 1.6351943 0.47380739 0
3.6230001 1.628338 0.47376409 0
3.6220002 1.6220068 0.47374246 0
3.6200004 1.6151632 0.47369915 0
3.6180003 1.6083267 0.47365588 0
3.6170003 1.6020098 0.47363424 0
3.6150002 1.5951859 0.47359094 0
3.6140003 1.588878 0.47356927 0
3.6120002 1.5820668 0.473526 0
3.6100001 1.5752628 0.4734827 0
3.6090002 1.5689694 0.47346106 0
3.6070004 1.5621781 0.47341776 0
3.6060002 1.5558935 0.47339612 0
3.6030002 1.5486169 0.47333118 0
3.6020002 1.5423434 0.47330955 0
3.6020002 1.5365674 0.47330955 0
3.6020002 1.5307918 0.47330955 0
3.6030002 1.5255065 0.47333118 0
3.6050003 1.5207067 0.47337449 0
3.6070004 1.5158995 0.47341776 0
3.6090002 1.511085 0.47346106 0
3.6120002 1.506747 0.473526 0
3.6160002 1.5028795 0.47361258 0
3.6200004 1.4989979 0.47369915 0
3.6250002 1.4955796 0.47380739 0
3.6300004 1.4921434 0.47391564 0
3.6370003 1.4896379 0.47406715 0
3.8650002 1.5665504 0.47900236 0
3.8630002 1.559373 0.47895908 0
3.8610003 1.5522029 0.47891578 0
3.8600004 1.5455 0.47889414 0
3.8580003 1.5383425 0.47885084 0
3.8560002 1.5311922 0.47880754 0
3.8550003 1.5245037 0.4787859 0
3.8530002 1.5173659 0.4787426 0
3.8510003 1.5102355 0.47869933 0
3.8500001 1.5035614 0.47867769 0
3.8480003 1.4964436 0.47863439 0
3.8460002 1.489333 0.47859108 0
3.8450003 1.4826733 0.47856945 0
3.8450003 1.4764593 0.47856945 0
3.8460002 1.4706852 0.47859108 0
3.8470004 1.4649078 0.47861272 0
3.8490002 1.4595629 0.47865602 0
3.8520002 1.4546458 0.47872096 0
3.8550003 1.4497178 0.4787859 0
3.8590002 1.4452101 0.47887248 0
3.8630002 1.4406879 0.47895908 0
3.8690002 1.4370064 0.47908896 0
3.8750002 1.4333031 0.47921881 0
3.6780002 1.8461227 0.46904173 0
3.6790001 1.840785 0.46906155 0
3.6810002 1.8360177 0.46910125 0
3.6830003 1.831243 0.46914095 0
3.6850002 1.8264612 0.46918064 0
3.6890004 1.8228084 0.46926001 0
3.6920002 1.8185748 0.46931952 0
3.6960003 1.8148952 0.46939889 0
3.6600003 1.7769287 0.46868458 0
3.6580002 1.7699335 0.46864489 0
3.6570003 1.763501 0.46862507 0
3.6550002 1.7565185 0.46858537 0
3.6530004 1.7495433 0.46854568 0
3.6520002 1.7431252 0.46852583 0
3.6500003 1.7361625 0.46848616 0
3.6490002 1.7297536 0.46846631 0
3.6470003 1.7228036 0.46842664 0
3.6450002 1.7158607 0.46838695 0
3.6440003 1.7094662 0.4683671 0
3.6420002 1.7025359 0.46832743 0
3.6410003 1.6961504 0.46830758 0
3.6390002 1.6892328 0.46826789 0
3.6370003 1.6823225 0.46822822 0
3.6360002 1.6759514 0.46820837 0
3.6340003 1.6690537 0.46816868 0
3.6330001 1.6626915 0.46814883 0
3.6310003 1.6558064 0.46810916 0
3.6290002 1.6489285 0.46806949 0
3.6280003 1.642581 0.46804965 0
3.6260002 1.6357156 0.46800995 0
3.6250002 1.6293771 0.4679901 0
3.6230001 1.6225244 0.46795043 0
3.6210003 1.615679 0.46791074 0
3.6200004 1.6093549 0.46789092 0
3.6180003 1.602522 0.46785122 0
3.6170003 1.5962069 0.46783137 0
3.6150002 1.5893867 0.46779168 0
3.6140003 1.5830805 0.46777186 0
3.6120002 1.576273 0.46773216 0
3.6100001 1.5694726 0.46769249 0
3.6090002 1.5631809 0.46767265 0
3.6060002 1.5558935 0.4676131 0
3.6030002 1.5486169 0.46755359 0
3.6020002 1.5423434 0.46753374 0
3.6020002 1.5365674 0.46753374 0
3.6020002 1.5307918 0.46753374 0
3.6030002 1.5255065 0.46755359 0
3.6050003 1.5207067 0.46759328 0
3.6070004 1.5158995 0.46763295 0
3.6090002 1.511085 0.46767265 0
3.6120002 1.506747 0.46773216 0
3.6160002 1.5028795 0.46781152 0
3.6200004 1.4989979 0.46789092 0
3.6250002 1.4955796 0.4679901 0
3.6300004 1.4921434 0.46808931 0
3.6370003 1.4896379 0.46822822 0
3.8650002 1.5665504 0.47275215 0
3.8640003 1.5598366 0.47273234 0
3.8620002 1.5526648 0.47269264 0
3.8600004 1.5455 0.47265297 0
3.8590002 1.5388006 0.47263312 0
3.8570004 1.5316486 0.47259343 0
3.8550003 1.5245037 0.47255373 0
3.8540003 1.5178188 0.47253391 0
3.8520002 1.5106865 0.47249421 0
3.8500001 1.5035614 0.47245455 0
3.8480003 1.4964436 0.47241485 0
3.8460002 1.489333 0.47237515 0
3.8450003 1.4826733 0.47235531 0
3.8450003 1.4764593 0.47235531 0
3.8460002 1.4706852 0.47237515 0
3.8470004 1.4649078 0.472395 0
3.8490002 1.4595629 0.4724347 0
3.8520002 1.4546458 0.47249421 0
3.8550003 1.4497178 0.47255373 0
3.8590002 1.4452101 0.47263312 0
3.8630002 1.4406879 0.47271249 0
3.8690002 1.4370064 0.47283155 0
3.8750002 1.4333031 0.47295058 0
3.6780002 1.8461227 0.46312886 0
3.6790001 1.840785 0.4631469 0
3.6810002 1.8360177 0.46318296 0
3.6830003 1.831243 0.46321905 0
3.6850002 1.8264612 0.46325511 0
3.6890004 1.8228084 0.46332726 0
3.6920002 1.8185748 0.46338138 0
3.6960003 1.8148952 0.46345353 0
3.7010002 1.8117636 0.46354371 0
3.6600003 1.7710483 0.46280417 0
3.6590002 1.7646122 0.46278614 0
3.6570003 1.7576261 0.46275005 0
3.6550002 1.7506471 0.46271399 0
3.6540003 1.7442255 0.46269593 0
3.6520002 1.7372593 0.46265987 0
3.6510003 1.7308466 0.46264184 0
3.6490002 1.7238929 0.46260574 0
3.6470003 1.7169466 0.46256965 0
3.6460001 1.7105484 0.46255162 0
3.6440003 1.7036146 0.46251556 0
3.6430004 1.6972256 0.46249753 0
3.6410003 1.6903043 0.46246144 0
3.6390002 1.6833903 0.46242535 0
3.6380002 1.6770157 0.46240732 0
3.6360002 1.6701143 0.46237123 0
3.6350002 1.6637486 0.4623532 0
3.6330001 1.6568599 0.46231714 0
3.6310003 1.6499784 0.46228105 0
3.6300004 1.6436272 0.46226302 0
3.6280003 1.6367582 0.46222696 0
3.6270003 1.6304162 0.46220893 0
3.6250002 1.6235597 0.46217284 0
3.6240003 1.6172267 0.46215481 0
3.6220002 1.6103829 0.46211872 0
3.6200004 1.6035466 0.46208265 0
3.6190002 1.5972278 0.46206459 0
3.6170003 1.590404 0.46202853 0
3.6160002 1.5840943 0.46201047 0
3.6140003 1.5772831 0.46197441 0
3.6130002 1.5709823 0.46195638 0
3.6100001 1.5636823 0.46190226 0
3.6060002 1.5558935 0.46183011 0
3.6030002 1.5486169 0.46177599 0
3.6020002 1.5423434 0.46175796 0
3.6020002 1.5365674 0.46175796 0
3.6020002 1.5307918 0.46175796 0
3.6030002 1.5255065 0.46177599 0
3.6050003 1.5207067 0.46181208 0
3.6070004 1.5158995 0.46184814 0
3.6090002 1.511085 0.46188423 0
3.6120002 1.506747 0.46193832 0
3.6160002 1.5028795 0.46201047 0
3.6200004 1.4989979 0.46208265 0
3.6250002 1.4955796 0.46217284 0
3.6300004 1.4921434 0.46226302 0
3.6370003 1.4896379 0.46238929 0
3.8660002 1.5607638 0.46652001 0
3.8640003 1.5535883 0.46648395 0
3.8620002 1.54642 0.46644786 0
3.8610003 1.539717 0.46642983 0
3.8590002 1.5325612 0.46639374 0
3.8570004 1.5254128 0.46635768 0
3.8560002 1.5187242 0.46633962 0
3.8540003 1.5115885 0.46630356 0
3.8520002 1.5044597 0.46626747 0
3.8480003 1.4964436 0.46619532 0
3.8460002 1.489333 0.46615922 0
3.8450003 1.4826733 0.46614119 0
3.8450003 1.4764593 0.46614119 0
3.8460002 1.4706852 0.46615922 0
3.8470004 1.4649078 0.46617728 0
3.8490002 1.4595629 0.46621335 0
3.8520002 1.4546458 0.46626747 0
3.8550003 1.4497178 0.46632159 0
3.8590002 1.4452101 0.46639374 0
3.8630002 1.4406879 0.46646589 0
3.8690002 1.4370064 0.46657413 0
3.8750002 1.4333031 0.46668234 0
3.6780002 1.8461227 0.45721596 0
3.6790001 1.840785 0.45723221 0
3.6810002 1.8360177 0.45726466 0
3.6830003 1.831243 0.45729715 0
3.6850002 1.8264612 0.4573296 0
3.6890004 1.8228084 0.45739454 0
3.6920002 1.8185748 0.45744324 0
3.6960003 1.8148952 0.45750818 0
3.7010002 1.8117636 0.45758936 0
3.6620002 1.7662789 0.45695621 0
3.6610003 1.7598412 0.45694 0
3.6590002 1.7528549 0.45690751 0
3.6570003 1.7458761 0.45687506 0
3.6560001 1.7394526 0.45685881 0
3.6540003 1.7324864 0.45682633 0
3.6530004 1.7260721 0.45681012 0
3.6510003 1.7191184 0.45677763 0
3.6490002 1.7121718 0.45674518 0
3.6480002 1.7057719 0.45672894 0
3.6460001 1.6988381 0.45669645 0
3.6450002 1.6924472 0.45668024 0
3.6430004 1.6855261 0.45664775 0
3.6410003 1.678612 0.4566153 0
3.6400003 1.6722356 0.45659906 0
3.6380002 1.6653342 0.4565666 0
3.6370003 1.6589668 0.45655036 0
3.6350002 1.6520779 0.45651788 0
3.6330001 1.6451964 0.45648542 0
3.6320002 1.6388434 0.45646918 0
3.6300004 1.6319746 0.45643672 0
3.6290002 1.6256305 0.45642048 0
3.6270003 1.6187743 0.45638803 0
3.6260002 1.6124393 0.45637178 0
3.6240003 1.6055957 0.4563393 0
3.6220002 1.5987593 0.45630684 0
3.6210003 1.5924388 0.4562906 0
3.6190002 1.5856148 0.45625815 0
3.6180003 1.5793034 0.45624191 0
3.6160002 1.5724921 0.45620942 0
3.6100001 1.5636823 0.45611203 0
3.6060002 1.5558935 0.45604709 0
3.6030002 1.5486169 0.45599839 0
3.6020002 1.5423434 0.45598215 0
3.6020002 1.5365674 0.45598215 0
3.6020002 1.5307918 0.45598215 0
3.6030002 1.5255065 0.45599839 0
3.6050003 1.5207067 0.45603085 0
3.6070004 1.5158995 0.45606333 0
3.6090002 1.511085 0.45609581 0
3.6120002 1.506747 0.45614451 0
3.6160002 1.5028795 0.45620942 0
3.6200004 1.4989979 0.45627439 0
3.6250002 1.4955796 0.45635554 0
3.6300004 1.4921434 0.45643672 0
3.6370003 1.4896379 0.45655036 0
3.8690002 1.5621545 0.46031672 0
3.8670003 1.5549736 0.46028423 0
3.8650002 1.5477998 0.46025178 0
3.8630002 1.5406332 0.46021929 0
3.8620002 1.5339304 0.46020308 0
3.8600004 1.5267764 0.4601706 0
3.8590002 1.5200826 0.46015435 0
3.8570004 1.5129412 0.4601219 0
3.8520002 1.5044597 0.46004072 0
3.8480003 1.4964436 0.45997578 0
3.8460002 1.489333 0.45994332 0
3.8450003 1.4826733 0.45992708 0
3.8450003 1.4764593 0.45992708 0
3.8460002 1.4706852 0.45994332 0
3.8470004 1.4649078 0.45995957 0
3.8490002 1.4595629 0.45999202 0
3.8520002 1.4546458 0.46004072 0
3.8550003 1.4497178 0.46008945 0
3.8590002 1.4452101 0.46015435 0
3.8630002 1.4406879 0.46021929 0
3.8690002 1.4370064 0.46031672 0
3.8750002 1.4333031 0.46041411 0
3.6790001 1.840785 0.45131752 0
3.6810002 1.8360177 0.45134637 0
3.6830003 1.831243 0.45137525 0
3.6850002 1.8264612 0.45140409 0
3.6890004 1.8228084 0.45146182 0
3.6920002 1.8185748 0.45150509 0
3.6960003 1.8148952 0.45156282 0
3.7010002 1.8117636 0.45163497 0
3.6650002 1.7620562 0.45111549 0
3.6630003 1.7550629 0.45108664 0
3.6620002 1.7486268 0.45107219 0
3.6600003 1.7416461 0.45104334 0
3.6590002 1.735219 0.45102891 0
3.6570003 1.7282511 0.45100003 0
3.6550002 1.7212901 0.45097119 0
3.6540003 1.7148776 0.45095676 0
3.6520002 1.7079293 0.45092788 0
3.6510003 1.7015258 0.45091346 0
3.6490002 1.6945901 0.45088458 0
3.6480002 1.6881956 0.45087016 0
3.6460001 1.6812726 0.45084131 0
3.6440003 1.6743569 0.45081246 0
3.6430004 1.6679769 0.450798 0
3.6410003 1.6610737 0.45076916 0
3.6400003 1.6547027 0.45075473 0
3.6380002 1.647812 0.45072585 0
3.6360002 1.6409286 0.450697 0
3.6350002 1.634572 0.45068258 0
3.6330001 1.6277013 0.4506537 0
3.6320002 1.6213537 0.45063928 0
3.6300004 1.6144956 0.45061043 0
3.6290002 1.608157 0.45059597 0
3.6270003 1.6013117 0.45056713 0
3.6250002 1.5944734 0.45053828 0
3.6240003 1.5881492 0.45052385 0
3.6220002 1.5813236 0.45049497 0
3.6170003 1.5729955 0.45042282 0
3.6100001 1.5636823 0.45032179 0
3.6060002 1.5558935 0.4502641 0
3.6030002 1.5486169 0.45022079 0
3.6020002 1.5423434 0.45020637 0
3.6020002 1.5365674 0.45020637 0
3.6020002 1.5307918 0.45020637 0
3.6030002 1.5255065 0.45022079 0
3.6050003 1.5207067 0.45024967 0
3.6070004 1.5158995 0.45027852 0
3.6090002 1.511085 0.45030737 0
3.6120002 1.506747 0.45035067 0
3.6160002 1.5028795 0.4504084 0
3.6200004 1.4989979 0.45046613 0
3.6250002 1.4955796 0.45053828 0
3.6300004 1.4921434 0.45061043 0
3.6370003 1.4896379 0.45071143 0
3.8690002 1.5496397 0.4540593 0
3.8590002 1.5138431 0.453915 0
3.8520002 1.5044597 0.45381397 0
3.8480003 1.4964436 0.45375627 0
3.8460002 1.489333 0.45372739 0
3.8450003 1.4826733 0.45371297 0
3.8450003 1.4764593 0.45371297 0
3.8460002 1.4706852 0.45372739 0
3.8470004 1.4649078 0.45374182 0
3.8490002 1.4595629 0.4537707 0
3.8520002 1.4546458 0.45381397 0
3.8550003 1.4497178 0.45385727 0
3.8590002 1.4452101 0.453915 0
3.8630002 1.4406879 0.45397273 0
3.8690002 1.4370064 0.4540593 0
3.8750002 1.4333031 0.45414588 0
3.6790001 1.840785 0.44540283 0
3.6810002 1.8360177 0.44542807 0
3.6830003 1.831243 0.44545335 0
3.6850002 1.8264612 0.44547859 0
3.6890004 1.8228084 0.4455291 0
3.6920002 1.8185748 0.44556698 0
3.6960003 1.8148952 0.44561747 0
3.7010002 1.8117636 0.44568062 0
3.6520002 1.6844654 0.44506189 0
3.6500003 1.6775388 0.44503665 0
3.6490002 1.6711478 0.44502401 0
3.6470003 1.6642339 0.44499877 0
3.6460001 1.6578519 0.44498613 0
3.6440003 1.6509507 0.44496089 0
3.6420002 1.6440564 0.44493565 0
3.6100001 1.5636823 0.44453159 0
3.6060002 1.5558935 0.44448107 0
3.6030002 1.5486169 0.4444432 0
3.6020002 1.5423434 0.44443056 0
3.6020002 1.5365674 0.44443056 0
3.6020002 1.5307918 0.44443056 0
3.6030002 1.5255065 0.4444432 0
3.6050003 1.5207067 0.44446844 0
3.6070004 1.5158995 0.44449371 0
3.6090002 1.511085 0.44451895 0
3.6120002 1.506747 0.44455683 0
3.6160002 1.5028795 0.44460735 0
3.6200004 1.4989979 0.44465786 0
3.6250002 1.4955796 0.44472098 0
3.6300004 1.4921434 0.4447841 0
3.6370003 1.4896379 0.4448725 0
3.8520002 1.5044597 0.44758725 0
3.8480003 1.4964436 0.44753674 0
3.8460002 1.489333 0.44751146 0
3.8450003 1.4826733 0.44749886 0
3.8450003 1.4764593 0.44749886 0
3.8460002 1.4706852 0.44751146 0
3.8470004 1.4649078 0.4475241 0
3.8490002 1.4595629 0.44754934 0
3.8520002 1.4546458 0.44758725 0
3.8550003 1.4497178 0.4476251 0
3.8590002 1.4452101 0.44767562 0
3.8630002 1.4406879 0.44772613 0
3.8690002 1.4370064 0.44780189 0
3.8750002 1.4333031 0.44787765 0
3.6810002 1.8360177 0.43950978 0
3.6830003 1.831243 0.43953145 0
3.6850002 1.8264612 0.43955308 0
3.6890004 1.8228084 0.43959635 0
3.6920002 1.8185748 0.43962884 0
3.6960003 1.8148952 0.43967211 0
3.7010002 1.8117636 0.43972623 0
3.6560001 1.6689743 0.4392392 0
3.6540003 1.6620513 0.43921757 0
3.6100001 1.5636823 0.43874136 0
3.6060002 1.5558935 0.43869805 0
3.6030002 1.5486169 0.4386656 0
3.6020002 1.5423434 0.43865478 0
3.6020002 1.5365674 0.43865478 0
3.6020002 1.5307918 0.43865478 0
3.6030002 1.5255065 0.4386656 0
3.6050003 1.5207067 0.43868724 0
3.6070004 1.5158995 0.4387089 0
3.6090002 1.511085 0.43873054 0
3.6120002 1.506747 0.43876302 0
3.6160002 1.5028795 0.4388063 0
3.6200004 1.4989979 0.4388496 0
3.6250002 1.4955796 0.43890369 0
3.6300004 1.4921434 0.43895781 0
3.6370003 1.4896379 0.43903357 0
3.8520002 1.5044597 0.4413605 0
3.8480003 1.4964436 0.4413172 0
3.8460002 1.489333 0.44129556 0
3.8450003 1.4826733 0.44128472 0
3.8450003 1.4764593 0.44128472 0
3.8460002 1.4706852 0.44129556 0
3.8470004 1.4649078 0.44130638 0
3.8490002 1.4595629 0.44132802 0
3.8520002 1.4546458 0.4413605 0
3.8550003 1.4497178 0.44139296 0
3.8590002 1.4452101 0.44143626 0
3.8630002 1.4406879 0.44147953 0
3.8690002 1.4370064 0.44154447 0
3.8750002 1.4333031 0.44160941 0
3.6830003 1.831243 0.43360952 0
3.6850002 1.8264612 0.43362758 0
3.6890004 1.8228084 0.43366364 0
3.6920002 1.8185748 0.4336907 0
3.6960003 1.8148952 0.43372679 0
3.6100001 1.5636823 0.43295112 0
3.6060002 1.5558935 0.43291506 0
3.6030002 1.5486169 0.432888 0
3.6020002 1.5423434 0.43287897 0
3.6020002 1.5365674 0.43287897 0
3.6020002 1.5307918 0.43287897 0
3.6030002 1.5255065 0.432888 0
3.6050003 1.5207067 0.43290603 0
3.6070004 1.5158995 0.43292409 0
3.6090002 1.511085 0.43294212 0
3.6120002 1.506747 0.43296918 0
3.6160002 1.5028795 0.43300524 0
3.6200004 1.4989979 0.43304133 0
3.6250002 1.4955796 0.43308643 0
3.6300004 1.4921434 0.43313152 0
3.6370003 1.4896379 0.43319464 0
3.8480003 1.4964436 0.43509766 0
3.8460002 1.489333 0.43507963 0
3.8450003 1.4826733 0.4350706 0
3.8450003 1.4764593 0.4350706 0
3.8460002 1.4706852 0.43507963 0
3.8470004 1.4649078 0.43508863 0
3.8490002 1.4595629 0.43510669 0
3.8520002 1.4546458 0.43513376 0
3.8550003 1.4497178 0.43516082 0
3.8590002 1.4452101 0.43519688 0
3.8630002 1.4406879 0.43523294 0
3.8690002 1.4370064 0.43528706 0
3.8750002 1.4333031 0.43534118 0
3.6100001 1.5636823 0.42716092 0
3.6060002 1.5558935 0.42713204 0
3.6030002 1.5486169 0.4271104 0
3.6020002 1.5423434 0.42710319 0
3.6020002 1.5365674 0.42710319 0
3.6020002 1.5307918 0.42710319 0
3.6030002 1.5255065 0.4271104 0
3.6050003 1.5207067 0.42712483 0
3.6070004 1.5158995 0.42713928 0
3.6090002 1.511085 0.42715371 0
3.6120002 1.506747 0.42717534 0
3.6160002 1.5028795 0.42720419 0
3.6200004 1.4989979 0.42723307 0
3.6250002 1.4955796 0.42726913 0
3.6300004 1.4921434 0.42730522 0
3.6370003 1.4896379 0.42735574 0
3.8480003 1.4964436 0.42887813 0
3.8460002 1.489333 0.4288637 0
3.8450003 1.4826733 0.42885649 0
3.8450003 1.4764593 0.42885649 0
3.8460002 1.4706852 0.4288637 0
3.8470004 1.4649078 0.42887092 0
3.8490002 1.4595629 0.42888534 0
3.8520002 1.4546458 0.42890701 0
3.8550003 1.4497178 0.42892864 0
3.8590002 1.4452101 0.42895749 0
3.8630002 1.4406879 0.42898637 0
3.8690002 1.4370064 0.42902964 0
3.8750002 1.4333031 0.42907295 0
3.6430004 1.6679769 0.42154926 0
3.6510003 1.6663407 0.42159256 0
3.6580002 1.664151 0.42163044 0
3.6660004 1.662459 0.42167372 0
3.6100001 1.5636823 0.42137069 0
3.6060002 1.5558935 0.42134905 0
3.6030002 1.5486169 0.42133281 0
3.6020002 1.5423434 0.42132741 0
3.6020002 1.5365674 0.42132741 0
3.6020002 1.5307918 0.42132741 0
3.6030002 1.5255065 0.42133281 0
3.6050003 1.5207067 0.42134362 0
3.6070004 1.5158995 0.42135444 0
3.6090002 1.511085 0.42136526 0
3.6120002 1.506747 0.4213815 0
3.6160002 1.5028795 0.42140317 0
3.6200004 1.4989979 0.42142481 0
3.6250002 1.4955796 0.42145187 0
3.6300004 1.4921434 0.42147893 0
3.6370003 1.4896379 0.42151681 0
3.8480003 1.4964436 0.42265862 0
3.8460002 1.489333 0.42264777 0
3.8450003 1.4826733 0.42264238 0
3.8450003 1.4764593 0.42264238 0
3.8460002 1.4706852 0.42264777 0
3.8470004 1.4649078 0.4226532 0
3.8490002 1.4595629 0.42266402 0
3.8520002 1.4546458 0.42268026 0
3.8550003 1.4497178 0.42269647 0
3.8590002 1.4452101 0.42271814 0
3.8630002 1.4406879 0.42273977 0
3.8690002 1.4370064 0.42277226 0
3.8750002 1.4333031 0.42280471 0
3.6150002 1.7053715 0.41559851 0
3.6140003 1.6990293 0.41559491 0
3.6120002 1.6921496 0.41558766 0
3.6200004 1.6732457 0.41561654 0
3.6280003 1.6716945 0.41564539 0
3.6350002 1.6695839 0.41567066 0
3.6430004 1.6679769 0.41569951 0
3.6510003 1.6663407 0.41572839 0
3.6580002 1.664151 0.41575363 0
3.6660004 1.662459 0.41578248 0
3.6060002 1.5558935 0.41556603 0
3.6030002 1.5486169 0.41555521 0
3.6020002 1.5423434 0.4155516 0
3.6020002 1.5365674 0.4155516 0
3.6020002 1.5307918 0.4155516 0
3.6030002 1.5255065 0.41555521 0
3.6050003 1.5207067 0.41556242 0
3.6070004 1.5158995 0.41556963 0
3.6090002 1.511085 0.41557685 0
3.6120002 1.506747 0.41558766 0
3.6160002 1.5028795 0.41560212 0
3.6200004 1.4989979 0.41561654 0
3.6250002 1.4955796 0.41563457 0
3.6300004 1.4921434 0.4156526 0
3.6370003 1.4896379 0.41567788 0
3.8480003 1.4964436 0.41643909 0
3.8460002 1.489333 0.41643187 0
3.8450003 1.4826733 0.41642827 0
3.8450003 1.4764593 0.41642827 0
3.8460002 1.4706852 0.41643187 0
3.8470004 1.4649078 0.41643548 0
3.8490002 1.4595629 0.41644269 0
3.8520002 1.4546458 0.41645351 0
3.8550003 1.4497178 0.41646433 0
3.8590002 1.4452101 0.41647875 0
3.8630002 1.4406879 0.41649318 0
3.8690002 1.4370064 0.41651484 0
3.8750002 1.4333031 0.41653648 0
3.6280003 1.7590349 0.4098227 0
3.6260002 1.7520974 0.4098191 0
3.6250002 1.7457228 0.40981731 0
3.6230001 1.7387978 0.4098137 0
3.6220002 1.7324321 0.40981188 0
3.6200004 1.7255201 0.40980828 0
3.6180003 1.7186151 0.40980467 0
3.6170003 1.7122639 0.40980285 0
3.6150002 1.7053715 0.40979925 0
3.6140003 1.6990293 0.40979746 0
3.6120002 1.6921496 0.40979385 0
3.6100001 1.6852771 0.40979025 0
3.6090002 1.6789494 0.40978843 0
3.6130002 1.6753038 0.40979564 0
3.6200004 1.6732457 0.40980828 0
3.6280003 1.6716945 0.4098227 0
3.6350002 1.6695839 0.40983534 0
3.6430004 1.6679769 0.40984976 0
3.6510003 1.6663407 0.40986419 0
3.6580002 1.664151 0.40987682 0
3.6660004 1.662459 0.40989125 0
3.6060002 1.5558935 0.40978304 0
3.6030002 1.5486169 0.40977761 0
3.6020002 1.5423434 0.40977579 0
3.6020002 1.5365674 0.40977579 0
3.6020002 1.5307918 0.40977579 0
3.6030002 1.5255065 0.40977761 0
3.6050003 1.5207067 0.40978122 0
3.6070004 1.5158995 0.40978482 0
3.6090002 1.511085 0.40978843 0
3.6120002 1.506747 0.40979385 0
3.6160002 1.5028795 0.40980107 0
3.6200004 1.4989979 0.40980828 0
3.6250002 1.4955796 0.40981731 0
3.6300004 1.4921434 0.40982631 0
3.6370003 1.4896379 0.40983894 0
3.8480003 1.4964436 0.41021955 0
3.8460002 1.489333 0.41021594 0
3.8450003 1.4826733 0.41021413 0
3.8450003 1.4764593 0.41021413 0
3.8460002 1.4706852 0.41021594 0
3.8470004 1.4649078 0.41021773 0
3.8490002 1.4595629 0.41022134 0
3.8520002 1.4546458 0.41022676 0
3.8550003 1.4497178 0.41023219 0
3.8590002 1.4452101 0.4102394 0
3.8630002 1.4406879 0.41024661 0
3.8690002 1.4370064 0.41025743 0
3.8750002 1.4333031 0.41026825 0
3.6340003 1.785724 0.40400001 0
3.6330001 1.7793258 0.40400001 0
3.6310003 1.7723687 0.40400001 0
3.6300004 1.7659795 0.40400001 0
3.6280003 1.7590349 0.40400001 0
3.6260002 1.7520974 0.40400001 0
3.6250002 1.7457228 0.40400001 0
3.6230001 1.7387978 0.40400001 0
3.6220002 1.7324321 0.40400001 0
3.6200004 1.7255201 0.40400001 0
3.6180003 1.7186151 0.40400001 0
3.6170003 1.7122639 0.40400001 0
3.6150002 1.7053715 0.40400001 0
3.6140003 1.6990293 0.40400001 0
3.6120002 1.6921496 0.40400001 0
3.6100001 1.6852771 0.40400001 0
3.6090002 1.6789494 0.40400001 0
3.6130002 1.6753038 0.40400001 0
3.6200004 1.6732457 0.40400001 0
3.6280003 1.6716945 0.40400001 0
3.6350002 1.6695839 0.40400001 0
3.6430004 1.6679769 0.40400001 0
3.6510003 1.6663407 0.40400001 0
3.6580002 1.664151 0.40400001 0
3.6060002 1.5558935 0.40400001 0
3.6030002 1.5486169 0.40400001 0
3.6020002 1.5423434 0.40400001 0
3.6020002 1.5365674 0.40400001 0
3.6020002 1.5307918 0.40400001 0
3.6030002 1.5255065 0.40400001 0
3.6050003 1.5207067 0.40400001 0
3.6070004 1.5158995 0.40400001 0
3.6090002 1.511085 0.40400001 0
3.6120002 1.506747 0.40400001 0
3.6160002 1.5028795 0.40400001 0
3.6200004 1.4989979 0.40400001 0
3.6250002 1.4955796 0.40400001 0
3.6300004 1.4921434 0.40400001 0
3.6370003 1.4896379 0.40400001 0
3.8480003 1.4964436 0.40400001 0
3.8460002 1.489333 0.40400001 0
3.8450003 1.4826733 0.40400001 0
3.8450003 1.4764593 0.40400001 0
3.8460002 1.4706852 0.40400001 0
3.8470004 1.4649078 0.40400001 0
3.8490002 1.4595629 0.40400001 0
3.8520002 1.4546458 0.40400001 0
3.8550003 1.4497178 0.40400001 0
3.8590002 1.4452101 0.40400001 0
3.8630002 1.4406879 0.40400001 0
3.8690002 1.4370064 0.40400001 0
3.8750002 1.4333031 0.40400001 0
3.6300004 1.7659795 0.39817372 0
3.6280003 1.7590349 0.39817733 0
3.6260002 1.7520974 0.39818093 0
3.6250002 1.7457228 0.39818272 0
3.6230001 1.7387978 0.39818633 0
3.6220002 1.7324321 0.39818814 0
3.6200004 1.7255201 0.39819175 0
3.6180003 1.7186151 0.39819536 0
3.6170003 1.7122639 0.39819717 0
3.6150002 1.7053715 0.39820078 0
3.6140003 1.6990293 0.39820257 0
3.6120002 1.6921496 0.39820617 0
3.6100001 1.6852771 0.39820978 0
3.6090002 1.6789494 0.3982116 0
3.6130002 1.6753038 0.39820439 0
3.6200004 1.6732457 0.39819175 0
3.6280003 1.6716945 0.39817733 0
3.6350002 1.6695839 0.39816469 0
3.6430004 1.6679769 0.39815027 0
3.6510003 1.6663407 0.39813584 0
3.6060002 1.5558935 0.39821699 0
3.6030002 1.5486169 0.39822242 0
3.6020002 1.5423434 0.39822423 0
3.6020002 1.5365674 0.39822423 0
3.6020002 1.5307918 0.39822423 0
3.6030002 1.5255065 0.39822242 0
3.6050003 1.5207067 0.39821881 0
3.6070004 1.5158995 0.3982152 0
3.6090002 1.511085 0.3982116 0
3.6120002 1.506747 0.39820617 0
3.6160002 1.5028795 0.39819896 0
3.6200004 1.4989979 0.39819175 0
3.6250002 1.4955796 0.39818272 0
3.6300004 1.4921434 0.39817372 0
3.6370003 1.4896379 0.39816108 0
3.8480003 1.4964436 0.39778048 0
3.8460002 1.489333 0.39778408 0
3.8450003 1.4826733 0.3977859 0
3.8450003 1.4764593 0.3977859 0
3.8460002 1.4706852 0.39778408 0
3.8470004 1.4649078 0.3977823 0
3.8490002 1.4595629 0.39777869 0
3.8520002 1.4546458 0.39777327 0
3.8550003 1.4497178 0.39776784 0
3.8590002 1.4452101 0.39776063 0
3.8630002 1.4406879 0.39775342 0
3.8690002 1.4370064 0.3977426 0
3.8750002 1.4333031 0.39773178 0
3.6250002 1.7457228 0.39236546 0
3.6230001 1.7387978 0.39237267 0
3.6220002 1.7324321 0.39237627 0
3.6200004 1.7255201 0.39238349 0
3.6180003 1.7186151 0.3923907 0
3.6170003 1.7122639 0.3923943 0
3.6150002 1.7053715 0.39240152 0
3.6140003 1.6990293 0.39240512 0
3.6120002 1.6921496 0.39241236 0
3.6100001 1.6852771 0.39241958 0
3.6200004 1.6732457 0.39238349 0
3.6280003 1.6716945 0.39235464 0
3.6350002 1.6695839 0.39232937 0
3.6430004 1.6679769 0.39230052 0
3.6060002 1.5558935 0.392434 0
3.6030002 1.5486169 0.39244482 0
3.6020002 1.5423434 0.39244843 0
3.6020002 1.5365674 0.39244843 0
3.6020002 1.5307918 0.39244843 0
3.6030002 1.5255065 0.39244482 0
3.6050003 1.5207067 0.39243761 0
3.6070004 1.5158995 0.39243039 0
3.6090002 1.511085 0.39242318 0
3.6120002 1.506747 0.39241236 0
3.6160002 1.5028795 0.39239791 0
3.6200004 1.4989979 0.39238349 0
3.6250002 1.4955796 0.39236546 0
3.6300004 1.4921434 0.39234743 0
3.6370003 1.4896379 0.39232215 0
3.8480003 1.4964436 0.39156094 0
3.8460002 1.489333 0.39156815 0
3.8450003 1.4826733 0.39157176 0
3.8450003 1.4764593 0.39157176 0
3.8460002 1.4706852 0.39156815 0
3.8470004 1.4649078 0.39156455 0
3.8490002 1.4595629 0.39155734 0
3.8520002 1.4546458 0.39154652 0
3.8550003 1.4497178 0.3915357 0
3.8590002 1.4452101 0.39152128 0
3.8630002 1.4406879 0.39150685 0
3.8690002 1.4370064 0.39148518 0
3.8750002 1.4333031 0.39146355 0
3.6220002 1.7324321 0.3865644 0
3.6200004 1.7255201 0.38657522 0
3.6180003 1.7186151 0.38658604 0
3.6170003 1.7122639 0.38659146 0
3.6150002 1.7053715 0.38660228 0
3.6140003 1.6990293 0.38660771 0
3.6120002 1.6921496 0.38661852 0
3.6060002 1.5558935 0.38665098 0
3.6030002 1.5486169 0.38666722 0
3.6020002 1.5423434 0.38667262 0
3.6020002 1.5365674 0.38667262 0
3.6020002 1.5307918 0.38667262 0
3.6030002 1.5255065 0.38666722 0
3.6050003 1.5207067 0.3866564 0
3.6070004 1.5158995 0.38664559 0
3.6090002 1.511085 0.38663477 0
3.6120002 1.506747 0.38661852 0
3.6160002 1.5028795 0.38659686 0
3.6200004 1.4989979 0.38657522 0
3.6250002 1.4955796 0.38654816 0
3.6300004 1.4921434 0.3865211 0
3.6370003 1.4896379 0.38648322 0
3.8480003 1.4964436 0.38534141 0
3.8460002 1.489333 0.38535225 0
3.8450003 1.4826733 0.38535765 0
3.8450003 1.4764593 0.38535765 0
3.8460002 1.4706852 0.38535225 0
3.8470004 1.4649078 0.38534683 0
3.8490002 1.4595629 0.38533601 0
3.8520002 1.4546458 0.38531977 0
3.8550003 1.4497178 0.38530356 0
3.8590002 1.4452101 0.38528189 0
3.8630002 1.4406879 0.38526025 0
3.8690002 1.4370064 0.38522777 0
3.8750002 1.4333031 0.38519531 0
3.6390002 1.7184455 0.38062987 0
3.6390002 1.712603 0.38062987 0
3.6390002 1.7067604 0.38062987 0
3.6410003 1.7019967 0.38061544 0
3.6430004 1.6972256 0.38060102 0
3.6460001 1.6929829 0.38057938 0
3.6500003 1.6892636 0.3805505 0
3.6550002 1.6860617 0.38051444 0
3.6060002 1.5558935 0.38086799 0
3.6030002 1.5486169 0.38088962 0
3.6020002 1.5423434 0.38089684 0
3.6020002 1.5365674 0.38089684 0
3.6020002 1.5307918 0.38089684 0
3.6030002 1.5255065 0.38088962 0
3.6050003 1.5207067 0.3808752 0
3.6070004 1.5158995 0.38086075 0
3.6090002 1.511085 0.38084632 0
3.6120002 1.506747 0.38082469 0
3.6160002 1.5028795 0.38079584 0
3.6200004 1.4989979 0.38076696 0
3.6250002 1.4955796 0.3807309 0
3.6300004 1.4921434 0.38069481 0
3.6370003 1.4896379 0.38064429 0
3.8480003 1.4964436 0.3791219 0
3.8460002 1.489333 0.37913632 0
3.8450003 1.4826733 0.37914354 0
3.8450003 1.4764593 0.37914354 0
3.8460002 1.4706852 0.37913632 0
3.8470004 1.4649078 0.37912911 0
3.8490002 1.4595629 0.37911469 0
3.8520002 1.4546458 0.37909302 0
3.8550003 1.4497178 0.37907138 0
3.8590002 1.4452101 0.37904254 0
3.8630002 1.4406879 0.37901366 0
3.8690002 1.4370064 0.37897038 0
3.8750002 1.4333031 0.37892708 0
3.6410003 1.7253813 0.3747693 0
3.6390002 1.7184455 0.37478733 0
3.6390002 1.712603 0.37478733 0
3.6390002 1.7067604 0.37478733 0
3.6410003 1.7019967 0.3747693 0
3.6430004 1.6972256 0.37475127 0
3.6460001 1.6929829 0.37472421 0
3.6500003 1.6892636 0.37468812 0
3.6550002 1.6860617 0.37464303 0
3.6060002 1.5558935 0.37508497 0
3.6030002 1.5486169 0.37511203 0
3.6020002 1.5423434 0.37512106 0
3.6020002 1.5365674 0.37512106 0
3.6020002 1.5307918 0.37512106 0
3.6030002 1.5255065 0.37511203 0
3.6050003 1.5207067 0.375094 0
3.6070004 1.5158995 0.37507594 0
3.6090002 1.511085 0.37505791 0
3.6120002 1.506747 0.37503085 0
3.6160002 1.5028795 0.37499478 0
3.6200004 1.4989979 0.37495869 0
3.6250002 1.4955796 0.3749136 0
3.6300004 1.4921434 0.37486851 0
3.6370003 1.4896379 0.37480539 0
3.8480003 1.4964436 0.37290236 0
3.8460002 1.489333 0.37292039 0
3.8450003 1.4826733 0.37292942 0
3.8450003 1.4764593 0.37292942 0
3.8460002 1.4706852 0.37292039 0
3.8470004 1.4649078 0.37291139 0
3.8490002 1.4595629 0.37289333 0
3.8520002 1.4546458 0.37286627 0
3.8550003 1.4497178 0.37283921 0
3.8590002 1.4452101 0.37280315 0
3.8630002 1.4406879 0.37276709 0
3.8690002 1.4370064 0.37271297 0
3.8750002 1.4333031 0.37265885 0
3.6410003 1.7253813 0.36892316 0
3.6390002 1.7184455 0.36894479 0
3.6390002 1.712603 0.36894479 0
3.6390002 1.7067604 0.36894479 0
3.6410003 1.7019967 0.36892316 0
3.6430004 1.6972256 0.36890152 0
3.6460001 1.6929829 0.36886904 0
3.6500003 1.6892636 0.36882576 0
3.6550002 1.6860617 0.36877164 0
3.6620002 1.6839025 0.36869588 0
3.6060002 1.5558935 0.36930197 0
3.6030002 1.5486169 0.36933443 0
3.6020002 1.5423434 0.36934525 0
3.6020002 1.5365674 0.36934525 0
3.6020002 1.5307918 0.36934525 0
3.6030002 1.5255065 0.36933443 0
3.6050003 1.5207067 0.36931279 0
3.6070004 1.5158995 0.36929113 0
3.6090002 1.511085 0.36926949 0
3.6120002 1.506747 0.36923701 0
3.6160002 1.5028795 0.36919373 0
3.6200004 1.4989979 0.36915043 0
3.6250002 1.4955796 0.36909634 0
3.6300004 1.4921434 0.36904222 0
3.6370003 1.4896379 0.36896646 0
3.8480003 1.4964436 0.36668283 0
3.8460002 1.489333 0.36670446 0
3.8450003 1.4826733 0.36671531 0
3.8450003 1.4764593 0.36671531 0
3.8460002 1.4706852 0.36670446 0
3.8470004 1.4649078 0.36669365 0
3.8490002 1.4595629 0.36667201 0
3.8520002 1.4546458 0.36663952 0
3.8550003 1.4497178 0.36660707 0
3.8590002 1.4452101 0.36656377 0
3.8630002 1.4406879 0.36652049 0
3.8690002 1.4370064 0.36645555 0
3.8750002 1.4333031 0.36639062 0
3.6410003 1.7253813 0.36307701 0
3.6390002 1.7184455 0.36310226 0
3.6390002 1.712603 0.36310226 0
3.6390002 1.7067604 0.36310226 0
3.6410003 1.7019967 0.36307701 0
3.6430004 1.6972256 0.36305177 0
3.6460001 1.6929829 0.36301389 0
3.6500003 1.6892636 0.36296338 0
3.6550002 1.6860617 0.36290026 0
3.6620002 1.6839025 0.36281186 0
3.6060002 1.5558935 0.36351895 0
3.6030002 1.5486169 0.36355683 0
3.6020002 1.5423434 0.36356947 0
3.6020002 1.5365674 0.36356947 0
3.6020002 1.5307918 0.36356947 0
3.6030002 1.5255065 0.36355683 0
3.6050003 1.5207067 0.36353159 0
3.6070004 1.5158995 0.36350632 0
3.6090002 1.511085 0.36348107 0
3.6120002 1.506747 0.3634432 0
3.6160002 1.5028795 0.36339268 0
3.6200004 1.4989979 0.36334217 0
3.6250002 1.4955796 0.36327904 0
3.6300004 1.4921434 0.36321592 0
3.6370003 1.4896379 0.36312753 0
3.8480003 1.4964436 0.36046329 0
3.8460002 1.489333 0.36048856 0
3.8450003 1.4826733 0.36050117 0
3.8450003 1.4764593 0.36050117 0
3.8460002 1.4706852 0.36048856 0
3.8470004 1.4649078 0.36047593 0
3.8490002 1.4595629 0.36045069 0
3.8520002 1.4546458 0.36041278 0
3.8550003 1.4497178 0.36037493 0
3.8590002 1.4452101 0.36032441 0
3.8630002 1.4406879 0.3602739 0
3.8690002 1.4370064 0.36019814 0
3.8750002 1.4333031 0.36012238 0
3.6410003 1.7253813 0.35723087 0
3.6390002 1.7184455 0.35725975 0
3.6390002 1.712603 0.35725975 0
3.6390002 1.7067604 0.35725975 0
3.6410003 1.7019967 0.35723087 0
3.6430004 1.6972256 0.35720202 0
3.6460001 1.6929829 0.35715872 0
3.6500003 1.6892636 0.35710099 0
3.6550002 1.6860617 0.35702884 0
3.6620002 1.6839025 0.35692784 0
3.6060002 1.5558935 0.35773593 0
3.6030002 1.5486169 0.35777923 0
3.6020002 1.5423434 0.35779366 0
3.6020002 1.5365674 0.35779366 0
3.6020002 1.5307918 0.35779366 0
3.6030002 1.5255065 0.35777923 0
3.6050003 1.5207067 0.35775036 0
3.6070004 1.5158995 0.35772151 0
3.6090002 1.511085 0.35769266 0
3.6120002 1.506747 0.35764936 0
3.6160002 1.5028795 0.35759163 0
3.6200004 1.4989979 0.3575339 0
3.6250002 1.4955796 0.35746175 0
3.6300004 1.4921434 0.3573896 0
3.6370003 1.4896379 0.3572886 0
3.8480003 1.4964436 0.35424376 0
3.8460002 1.489333 0.35427263 0
3.8450003 1.4826733 0.35428706 0
3.8450003 1.4764593 0.35428706 0
3.8460002 1.4706852 0.35427263 0
3.8470004 1.4649078 0.35425821 0
3.8490002 1.4595629 0.35422933 0
3.8520002 1.4546458 0.35418606 0
3.8550003 1.4497178 0.35414276 0
3.8590002 1.4452101 0.35408503 0
3.8630002 1.4406879 0.3540273 0
3.8690002 1.4370064 0.35394073 0
3.8750002 1.4333031 0.35385415 0
3.6410003 1.7253813 0.35138473 0
3.6390002 1.7184455 0.35141721 0
3.6390002 1.712603 0.35141721 0
3.6390002 1.7067604 0.35141721 0
3.6410003 1.7019967 0.35138473 0
3.6430004 1.6972256 0.35135227 0
3.6460001 1.6929829 0.35130358 0
3.6500003 1.6892636 0.35123861 0
3.6550002 1.6860617 0.35115746 0
3.6620002 1.6839025 0.35104382 0
3.6060002 1.5558935 0.35195294 0
3.6030002 1.5486169 0.35200164 0
3.6020002 1.5423434 0.35201788 0
3.6020002 1.5365674 0.35201788 0
3.6020002 1.5307918 0.35201788 0
3.6030002 1.5255065 0.35200164 0
3.6050003 1.5207067 0.35196918 0
3.6070004 1.5158995 0.3519367 0
3.6090002 1.511085 0.35190421 0
3.6120002 1.506747 0.35185552 0
3.6160002 1.5028795 0.35179061 0
3.6200004 1.4989979 0.35172564 0
3.6250002 1.4955796 0.35164449 0
3.6300004 1.4921434 0.3515633 0
3.6370003 1.4896379 0.35144967 0
3.8480003 1.4964436 0.34802425 0
3.8460002 1.489333 0.3480567 0
3.8450003 1.4826733 0.34807295 0
3.8450003 1.4764593 0.34807295 0
3.8460002 1.4706852 0.3480567 0
3.8470004 1.4649078 0.34804046 0
3.8490002 1.4595629 0.34800801 0
3.8520002 1.4546458 0.34795931 0
3.8550003 1.4497178 0.34791058 0
3.8590002 1.4452101 0.34784567 0
3.8630002 1.4406879 0.34778073 0
3.8690002 1.4370064 0.34768331 0
3.8750002 1.4333031 0.34758592 0
3.6410003 1.7253813 0.34553859 0
3.6390002 1.7184455 0.34557468 0
3.6390002 1.712603 0.34557468 0
3.6390002 1.7067604 0.34557468 0
3.6410003 1.7019967 0.34553859 0
3.6430004 1.6972256 0.3455025 0
3.6460001 1.6929829 0.3454484 0
3.6500003 1.6892636 0.34537625 0
3.6550002 1.6860617 0.34528604 0
3.6620002 1.6839025 0.3451598 0
3.6060002 1.5558935 0.34616992 0
3.6030002 1.5486169 0.34622404 0
3.6020002 1.5423434 0.34624207 0
3.6020002 1.5365674 0.34624207 0
3.6020002 1.5307918 0.34624207 0
3.6030002 1.5255065 0.34622404 0
3.6050003 1.5207067 0.34618795 0
3.6070004 1.5158995 0.34615189 0
3.6090002 1.511085 0.3461158 0
3.6120002 1.506747 0.34606171 0
3.6160002 1.5028795 0.34598956 0
3.6200004 1.4989979 0.34591737 0
3.6250002 1.4955796 0.34582719 0
3.6300004 1.4921434 0.34573701 0
3.6370003 1.4896379 0.34561074 0
3.8480003 1.4964436 0.34180471 0
3.8460002 1.489333 0.3418408 0
3.8450003 1.4826733 0.34185883 0
3.8450003 1.4764593 0.34185883 0
3.8460002 1.4706852 0.3418408 0
3.8470004 1.4649078 0.34182274 0
3.8490002 1.4595629 0.34178668 0
3.8520002 1.4546458 0.34173256 0
3.8550003 1.4497178 0.34167844 0
3.8590002 1.4452101 0.34160629 0
3.8630002 1.4406879 0.34153414 0
3.8690002 1.4370064 0.3414259 0
3.8750002 1.4333031 0.34131768 0
3.6410003 1.7253813 0.33969244 0
3.6390002 1.7184455 0.33973214 0
3.6390002 1.712603 0.33973214 0
3.6390002 1.7067604 0.33973214 0
3.6410003 1.7019967 0.33969244 0
3.6430004 1.6972256 0.33965278 0
3.6460001 1.6929829 0.33959323 0
3.6500003 1.6892636 0.33951387 0
3.6550002 1.6860617 0.33941466 0
3.6620002 1.6839025 0.33927578 0
3.6060002 1.5558935 0.34038693 0
3.6030002 1.5486169 0.34044644 0
3.6020002 1.5423434 0.34046629 0
3.6020002 1.5365674 0.34046629 0
3.6020002 1.5307918 0.34046629 0
3.6030002 1.5255065 0.34044644 0
3.6050003 1.5207067 0.34040675 0
3.6070004 1.5158995 0.34036708 0
3.6090002 1.511085 0.34032738 0
3.6120002 1.506747 0.34026787 0
3.6160002 1.5028795 0.3401885 0
3.6200004 1.4989979 0.34010911 0
3.6250002 1.4955796 0.34000993 0
3.6300004 1.4921434 0.33991072 0
3.6370003 1.4896379 0.33977181 0
3.8480003 1.4964436 0.33558518 0
3.8460002 1.489333 0.33562487 0
3.8450003 1.4826733 0.33564472 0
3.8450003 1.4764593 0.33564472 0
3.8460002 1.4706852 0.33562487 0
3.8470004 1.4649078 0.33560503 0
3.8490002 1.4595629 0.33556533 0
3.8520002 1.4546458 0.33550581 0
3.8550003 1.4497178 0.3354463 0
3.8590002 1.4452101 0.3353669 0
3.8630002 1.4406879 0.33528754 0
3.8690002 1.4370064 0.33516848 0
3.8750002 1.4333031 0.33504945 0
3.6410003 1.7253813 0.3338463 0
3.6390002 1.7184455 0.3338896 0
3.6390002 1.712603 0.3338896 0
3.6390002 1.7067604 0.3338896 0
3.6410003 1.7019967 0.3338463 0
3.6430004 1.6972256 0.333803 0
3.6460001 1.6929829 0.33373809 0
3.6500003 1.6892636 0.33365148 0
3.6550002 1.6860617 0.33354327 0
3.6620002 1.6839025 0.33339176 0
3.6060002 1.5558935 0.33460391 0
3.6030002 1.5486169 0.33466884 0
3.6020002 1.5423434 0.33469048 0
3.6020002 1.5365674 0.33469048 0
3.6020002 1.5307918 0.33469048 0
3.6030002 1.5255065 0.33466884 0
3.6050003 1.5207067 0.33462554 0
3.6070004 1.5158995 0.33458227 0
3.6090002 1.511085 0.33453897 0
3.6120002 1.506747 0.33447403 0
3.6160002 1.5028795 0.33438745 0
3.6200004 1.4989979 0.33430088 0
3.6250002 1.4955796 0.33419263 0
3.6300004 1.4921434 0.33408439 0
3.6370003 1.4896379 0.33393288 0
3.8480003 1.4964436 0.32936564 0
3.8460002 1.489333 0.32940894 0
3.8450003 1.4826733 0.32943058 0
3.8450003 1.4764593 0.32943058 0
3.8460002 1.4706852 0.32940894 0
3.8470004 1.4649078 0.32938731 0
3.8490002 1.4595629 0.329344 0
3.8520002 1.4546458 0.32927907 0
3.8550003 1.4497178 0.32921413 0
3.8590002 1.4452101 0.32912755 0
3.8630002 1.4406879 0.32904094 0
3.8690002 1.4370064 0.32891107 0
3.8750002 1.4333031 0.32878122 0
3.6410003 1.7253813 0.32800016 0
3.6390002 1.7184455 0.32804707 0
3.6390002 1.712603 0.32804707 0
3.6390002 1.7067604 0.32804707 0
3.6410003 1.7019967 0.32800016 0
3.6430004 1.6972256 0.32795325 0
3.6460001 1.6929829 0.32788292 0
3.6500003 1.6892636 0.32778913 0
3.6550002 1.6860617 0.32767189 0
3.6620002 1.6839025 0.32750773 0
3.6060002 1.5558935 0.32882088 0
3.6030002 1.5486169 0.32889125 0
3.6020002 1.5423434 0.3289147 0
3.6020002 1.5365674 0.3289147 0
3.6020002 1.5307918 0.3289147 0
3.6030002 1.5255065 0.32889125 0
3.6050003 1.5207067 0.32884434 0
3.6070004 1.5158995 0.32879746 0
3.6090002 1.511085 0.32875055 0
3.6120002 1.506747 0.32868022 0
3.6160002 1.5028795 0.3285864 0
3.6200004 1.4989979 0.32849258 0
3.6250002 1.4955796 0.32837534 0
3.6300004 1.4921434 0.3282581 0
3.6370003 1.4896379 0.32809395 0
3.8480003 1.4964436 0.3231461 0
3.8460002 1.489333 0.32319301 0
3.8450003 1.4826733 0.32321647 0
3.8450003 1.4764593 0.32321647 0
3.8460002 1.4706852 0.32319301 0
3.8470004 1.4649078 0.32316956 0
3.8490002 1.4595629 0.32312268 0
3.8520002 1.4546458 0.32305232 0
3.8550003 1.4497178 0.32298195 0
3.8590002 1.4452101 0.32288817 0
3.8630002 1.4406879 0.32279438 0
3.8690002 1.4370064 0.32265368 0
3.8750002 1.4333031 0.32251298 0
3.6410003 1.7253813 0.32215402 0
3.6390002 1.7184455 0.32220453 0
3.6390002 1.712603 0.32220453 0
3.6390002 1.7067604 0.32220453 0
3.6410003 1.7019967 0.32215402 0
3.6430004 1.6972256 0.3221035 0
3.6460001 1.6929829 0.32202774 0
3.6500003 1.6892636 0.32192674 0
3.6550002 1.6860617 0.32180047 0
3.6620002 1.6839025 0.32162371 0
3.6060002 1.5558935 0.32303789 0
3.6030002 1.5486169 0.32311365 0
3.6020002 1.5423434 0.32313889 0
3.6020002 1.5365674 0.32313889 0
3.6020002 1.5307918 0.32313889 0
3.6030002 1.5255065 0.32311365 0
3.6050003 1.5207067 0.32306314 0
3.6070004 1.5158995 0.32301262 0
3.6090002 1.511085 0.32296214 0
3.6120002 1.506747 0.32288635 0
3.6160002 1.5028795 0.32278535 0
3.6200004 1.4989979 0.32268435 0
3.6250002 1.4955796 0.32255808 0
3.6300004 1.4921434 0.3224318 0
3.6370003 1.4896379 0.32225502 0
3.8480003 1.4964436 0.3169266 0
3.8460002 1.489333 0.31697708 0
3.8450003 1.4826733 0.31700236 0
3.8450003 1.4764593 0.31700236 0
3.8460002 1.4706852 0.31697708 0
3.8470004 1.4649078 0.31695184 0
3.8490002 1.4595629 0.31690133 0
3.8520002 1.4546458 0.31682557 0
3.8550003 1.4497178 0.31674981 0
3.8590002 1.4452101 0.31664878 0
3.8630002 1.4406879 0.31654778 0
3.8690002 1.4370064 0.31639627 0
3.8750002 1.4333031 0.31624475 0
3.6410003 1.7253813 0.31630787 0
3.6390002 1.7184455 0.31636199 0
3.6390002 1.712603 0.31636199 0
3.6390002 1.7067604 0.31636199 0
3.6410003 1.7019967 0.31630787 0
3.6430004 1.6972256 0.31625375 0
3.6460001 1.6929829 0.3161726 0
3.6500003 1.6892636 0.31606436 0
3.6550002 1.6860617 0.31592909 0
3.6620002 1.6839025 0.31573969 0
3.6060002 1.5558935 0.31725487 0
