# .PCD v0.7 - Point Cloud Data file format
VERSION 0.7
FIELDS x y z intensity
SIZE 4 4 4 4
TYPE F F F F
COUNT 1 1 1 1
WIDTH 1434
HEIGHT 1
VIEWPOINT 0 0 0 1 0 0 0
POINTS 1434
DATA ascii
4.0450001 0.26959428 0.64727062 0
4.052 0.26361287 0.6477378 0
4.0620003 0.25785512 0.64840519 0
4.1570001 0.25218394 0.65474558 0
4.1540003 0.24517435 0.65454537 0
4.1530004 0.23832709 0.65447867 0
4.1530004 0.2315574 0.65447867 0
4.1540003 0.22485983 0.65454537 0
4.1560001 0.21822906 0.65467888 0
4.1610003 0.21179664 0.65501261 0
4.1670003 0.20541298 0.65541303 0
4.178 0.19933236 0.65614712 0
4.1760001 0.19239129 0.65601367 0
4.1800003 0.18582542 0.65628064 0
4.1870003 0.17942372 0.65674782 0
4.1940002 0.17299674 0.657215 0
4.2030001 0.16665636 0.65781569 0
4.2120004 0.16028351 0.65841633 0
4.223 0.1539828 0.65915048 0
4.0840001 0.67833006 0.64322829 0
4.079 0.67071068 0.64290357 0
4.0750003 0.66330248 0.64264381 0
4.0700002 0.65571749 0.64231914 0
4.0650001 0.6481505 0.64199448 0
4.0599999 0.64060158 0.64166981 0
4.0550003 0.63307071 0.64134508 0
4.0500002 0.62555778 0.64102042 0
4.046 0.61824512 0.64076066 0
4.0410004 0.61076659 0.64043599 0
4.0360003 0.60330606 0.64011133 0
4.0310001 0.59586352 0.6397866 0
4.026 0.58843905 0.63946193 0
4.0220003 0.58120579 0.63920218 0
4.0170002 0.57381558 0.63887751 0
4.0120001 0.56644338 0.63855278 0
4.007 0.5590893 0.63822812 0
4.0030003 0.5519191 0.63796836 0
3.9980004 0.54459929 0.63764369 0
3.9930003 0.53729749 0.63731897 0
3.9890003 0.53017426 0.63705927 0
3.9840002 0.52290666 0.63673455 0
3.9790003 0.51565719 0.63640988 0
3.9750004 0.5085808 0.63615012 0
3.9700003 0.5013656 0.63582546 0
3.9660003 0.49431992 0.6355657 0
3.9610002 0.48713899 0.63524103 0
3.9560003 0.47997606 0.63491631 0
3.9520004 0.47297734 0.63465661 0
3.9470003 0.46584862 0.63433188 0
3.9430003 0.45888048 0.63407212 0
3.9380002 0.45178613 0.63374746 0
3.9340003 0.44484869 0.6334877 0
3.9290004 0.43778858 0.63316303 0
3.9250002 0.43088177 0.63290328 0
3.9200003 0.42385596 0.63257861 0
3.9160004 0.41697988 0.63231885 0
3.9110003 0.40998828 0.63199413 0
3.9070003 0.40314284 0.63173443 0
3.9020002 0.39618552 0.6314097 0
3.8980002 0.38937077 0.63115001 0
3.8940003 0.38257039 0.63089025 0
3.8890002 0.37566361 0.63056552 0
3.8850002 0.36889392 0.63030577 0
3.8800004 0.36202142 0.6299811 0
3.8760002 0.35528237 0.62972134 0
3.8730001 0.34867141 0.62952656 0
3.8820002 0.34341332 0.63011098 0
3.8900003 0.33801273 0.63063049 0
3.8980002 0.33258325 0.63115001 0
4.046 0.34202442 0.64076066 0
4.0410004 0.33492461 0.64043599 0
4.0370002 0.32794568 0.64017624 0
4.0339999 0.32108217 0.63998139 0
4.0320001 0.31432873 0.63985157 0
4.0310001 0.30767992 0.6397866 0
4.0310001 0.30113026 0.6397866 0
4.0320001 0.29467446 0.63985157 0
4.0339999 0.28830698 0.63998139 0
4.0360003 0.28193232 0.64011133 0
4.04 0.27572721 0.64037108 0
4.0450001 0.26959428 0.64069569 0
4.052 0.26361287 0.6411503 0
4.0620003 0.25785512 0.64179963 0
4.1620002 0.24579483 0.64829338 0
4.1610003 0.23893315 0.64822841 0
4.1600003 0.23207507 0.6481635 0
4.1620002 0.22543707 0.64829338 0
4.165 0.21886218 0.64848816 0
4.1700001 0.21241358 0.64881289 0
4.1800003 0.20628062 0.64946222 0
4.1750002 0.19913754 0.64913756 0
4.1790004 0.1925807 0.64939731 0
4.184 0.18607076 0.64972198 0
4.1900001 0.1796023 0.65011162 0
4.197 0.17316991 0.65056616 0
4.204 0.16671227 0.65102071 0
4.2130003 0.16033763 0.65160513 0
4.2220001 0.1539305 0.65218961 0
4.2330003 0.1475919 0.65290391 0
4.0840001 0.67833006 0.63658303 0
4.079 0.67071068 0.63626736 0
4.0750003 0.66330248 0.63601482 0
4.0700002 0.65571749 0.63569915 0
4.0650001 0.6481505 0.63538349 0
4.0599999 0.64060158 0.63506782 0
4.0550003 0.63307071 0.63475215 0
4.0500002 0.62555778 0.63443649 0
4.046 0.61824512 0.634184 0
4.0410004 0.61076659 0.63386834 0
4.0360003 0.60330606 0.63355267 0
4.0310001 0.59586352 0.633237 0
4.026 0.58843905 0.63292134 0
4.0220003 0.58120579 0.63266879 0
4.0170002 0.57381558 0.63235313 0
4.0120001 0.56644338 0.63203746 0
4.007 0.5590893 0.63172179 0
4.0030003 0.5519191 0.63146925 0
3.9980004 0.54459929 0.63115358 0
3.9930003 0.53729749 0.63083792 0
3.9890003 0.53017426 0.63058537 0
3.9840002 0.52290666 0.63026971 0
3.9790003 0.51565719 0.62995404 0
3.9750004 0.5085808 0.6297015 0
3.9700003 0.5013656 0.62938583 0
3.9660003 0.49431992 0.62913334 0
3.9610002 0.48713899 0.62881768 0
3.9560003 0.47997606 0.62850201 0
3.9520004 0.47297734 0.62824947 0
3.9470003 0.46584862 0.6279338 0
3.9430003 0.45888048 0.62768126 0
3.9380002 0.45178613 0.62736559 0
3.9340003 0.44484869 0.62711304 0
3.9290004 0.43778858 0.62679738 0
3.9250002 0.43088177 0.62654483 0
3.9200003 0.42385596 0.62622917 0
3.9160004 0.41697988 0.62597668 0
3.9110003 0.40998828 0.62566102 0
3.9070003 0.40314284 0.62540847 0
3.9020002 0.39618552 0.62509274 0
3.8980002 0.38937077 0.62484026 0
3.8940003 0.38257039 0.62458771 0
3.8890002 0.37566361 0.62427205 0
3.8850002 0.36889392 0.6240195 0
3.8800004 0.36202142 0.62370384 0
3.8760002 0.35528237 0.62345135 0
3.8730001 0.34867141 0.62326193 0
3.8820002 0.34341332 0.62383014 0
3.8900003 0.33801273 0.62433517 0
3.8980002 0.33258325 0.62484026 0
4.046 0.34202442 0.634184 0
4.0410004 0.33492461 0.63386834 0
4.0370002 0.32794568 0.63361579 0
4.0339999 0.32108217 0.63342637 0
4.0320001 0.31432873 0.63330013 0
4.0310001 0.30767992 0.633237 0
4.0310001 0.30113026 0.633237 0
4.0320001 0.29467446 0.63330013 0
4.0339999 0.28830698 0.63342637 0
4.0360003 0.28193232 0.63355267 0
4.04 0.27572721 0.63380516 0
4.0450001 0.26959428 0.63412082 0
4.052 0.26361287 0.63456279 0
4.0620003 0.25785512 0.63519412 0
4.1730003 0.23984227 0.6422019 0
4.1719999 0.23296255 0.64213878 0
4.1750002 0.22637501 0.64232814 0
4.1810002 0.21998775 0.64270699 0
4.1800003 0.21309903 0.64264381 0
4.1760001 0.20601365 0.64239132 0
4.1790004 0.19939728 0.64258075 0
4.184 0.19289635 0.64289635 0
4.1880002 0.18631607 0.6431489 0
4.1930003 0.17978087 0.64346457 0
4.1990004 0.17328537 0.64384341 0
4.2060003 0.16682412 0.64428532 0
4.2130003 0.16033763 0.64472723 0
4.2220001 0.1539305 0.64529544 0
4.2320004 0.1475414 0.64592677 0
4.244 0.14121364 0.64668441 0
4.0840001 0.67833006 0.62993783 0
4.079 0.67071068 0.62963116 0
4.0750003 0.66330248 0.62938583 0
4.0700002 0.65571749 0.62907922 0
4.0650001 0.6481505 0.62877256 0
4.0599999 0.64060158 0.62846589 0
4.0550003 0.63307071 0.62815928 0
4.0500002 0.62555778 0.62785262 0
4.046 0.61824512 0.62760729 0
4.0410004 0.61076659 0.62730062 0
4.0360003 0.60330606 0.62699401 0
4.0310001 0.59586352 0.62668735 0
4.026 0.58843905 0.62638068 0
4.0220003 0.58120579 0.62613541 0
4.0170002 0.57381558 0.62582874 0
4.0120001 0.56644338 0.62552208 0
4.007 0.5590893 0.62521541 0
4.0030003 0.5519191 0.62497014 0
3.9980004 0.54459929 0.62466347 0
3.9930003 0.53729749 0.62435687 0
3.9890003 0.53017426 0.62411153 0
3.9840002 0.52290666 0.62380487 0
3.9790003 0.51565719 0.6234982 0
3.9750004 0.5085808 0.62325293 0
3.9700003 0.5013656 0.62294626 0
3.9660003 0.49431992 0.62270093 0
3.9610002 0.48713899 0.62239432 0
3.9560003 0.47997606 0.62208766 0
3.9520004 0.47297734 0.62184232 0
3.9470003 0.46584862 0.62153566 0
3.9430003 0.45888048 0.62129033 0
3.9380002 0.45178613 0.62098372 0
3.9340003 0.44484869 0.62073839 0
3.9290004 0.43778858 0.62043178 0
3.9250002 0.43088177 0.62018645 0
3.9200003 0.42385596 0.61987978 0
3.9160004 0.41697988 0.61963445 0
3.9110003 0.40998828 0.61932784 0
3.9070003 0.40314284 0.61908251 0
3.9020002 0.39618552 0.61877584 0
3.8980002 0.38937077 0.61853051 0
3.8940003 0.38257039 0.61828518 0
3.8890002 0.37566361 0.61797857 0
3.8850002 0.36889392 0.61773324 0
3.8800004 0.36202142 0.61742663 0
3.8760002 0.35528237 0.6171813 0
3.8730001 0.34867141 0.6169973 0
3.8820002 0.34341332 0.61754924 0
3.8900003 0.33801273 0.61803991 0
3.8980002 0.33258325 0.61853051 0
4.046 0.34202442 0.62760729 0
4.0410004 0.33492461 0.62730062 0
4.0370002 0.32794568 0.62705535 0
4.0339999 0.32108217 0.62687135 0
4.0320001 0.31432873 0.62674868 0
4.0310001 0.30767992 0.62668735 0
4.0310001 0.30113026 0.62668735 0
4.0320001 0.29467446 0.62674868 0
4.0339999 0.28830698 0.62687135 0
4.0360003 0.28193232 0.62699401 0
4.04 0.27572721 0.62723935 0
4.0450001 0.26959428 0.62754595 0
4.052 0.26361287 0.62797529 0
4.0620003 0.25785512 0.62858856 0
4.1890001 0.23421982 0.63637739 0
4.184 0.22702441 0.63607079 0
4.1800003 0.21991742 0.63582546 0
4.1810002 0.21316755 0.63588679 0
4.1830001 0.20648083 0.63600945 0
4.1860003 0.19985184 0.63619345 0
4.1890001 0.19321202 0.63637739 0
4.1930003 0.18662271 0.63662273 0
4.197 0.18001896 0.63686806 0
4.2030001 0.17351624 0.637236 0
4.2090001 0.16699187 0.637604 0
4.2160001 0.16049996 0.63803327 0
4.223 0.1539828 0.6384626 0
4.2320004 0.1475414 0.6390146 0
4.2420001 0.14111625 0.63962787 0
4.2540002 0.13474879 0.64036381 0
4.0840001 0.67833006 0.62329257 0
4.079 0.67071068 0.62299496 0
4.0750003 0.66330248 0.62275684 0
4.0700002 0.65571749 0.62245923 0
4.0650001 0.6481505 0.62216163 0
4.0599999 0.64060158 0.62186396 0
4.0550003 0.63307071 0.62156636 0
4.0500002 0.62555778 0.62126875 0
4.046 0.61824512 0.62103063 0
4.0410004 0.61076659 0.62073302 0
4.0360003 0.60330606 0.62043536 0
4.0310001 0.59586352 0.62013769 0
4.026 0.58843905 0.61984009 0
4.0220003 0.58120579 0.61960196 0
4.0170002 0.57381558 0.61930436 0
4.0120001 0.56644338 0.61900675 0
4.007 0.5590893 0.61870909 0
4.0030003 0.5519191 0.61847103 0
3.9980004 0.54459929 0.61817336 0
3.9930003 0.53729749 0.61787575 0
3.9890003 0.53017426 0.61763763 0
3.9840002 0.52290666 0.61734003 0
3.9790003 0.51565719 0.61704242 0
3.9750004 0.5085808 0.6168043 0
3.9700003 0.5013656 0.6165067 0
3.9660003 0.49431992 0.61626858 0
3.9610002 0.48713899 0.61597091 0
3.9560003 0.47997606 0.6156733 0
3.9520004 0.47297734 0.61543524 0
3.9470003 0.46584862 0.61513758 0
3.9430003 0.45888048 0.61489946 0
3.9380002 0.45178613 0.61460185 0
3.9340003 0.44484869 0.61436373 0
3.9290004 0.43778858 0.61406612 0
3.9250002 0.43088177 0.613828 0
3.9200003 0.42385596 0.6135304 0
3.9160004 0.41697988 0.61329228 0
3.9110003 0.40998828 0.61299467 0
3.9070003 0.40314284 0.61275655 0
3.9020002 0.39618552 0.61245894 0
3.8980002 0.38937077 0.61222082 0
3.8940003 0.38257039 0.6119827 0
3.8890002 0.37566361 0.61168504 0
3.8850002 0.36889392 0.61144698 0
3.8800004 0.36202142 0.61114937 0
3.8760002 0.35528237 0.61091125 0
3.8730001 0.34867141 0.61073267 0
3.8820002 0.34341332 0.6112684 0
3.8900003 0.33801273 0.61174464 0
3.8980002 0.33258325 0.61222082 0
4.046 0.34202442 0.62103063 0
4.0410004 0.33492461 0.62073302 0
4.0370002 0.32794568 0.62049484 0
4.0339999 0.32108217 0.62031627 0
4.0320001 0.31432873 0.6201973 0
4.0310001 0.30767992 0.62013769 0
4.0310001 0.30113026 0.62013769 0
4.0320001 0.29467446 0.6201973 0
4.0339999 0.28830698 0.62031627 0
4.0360003 0.28193232 0.62043536 0
4.04 0.27572721 0.62067342 0
4.0450001 0.26959428 0.62097108 0
4.052 0.26361287 0.62138778 0
4.0620003 0.25785512 0.62198305 0
4.191 0.22752947 0.6296618 0
4.1900001 0.2206209 0.62960231 0
4.1890001 0.21371591 0.62954283 0
4.1900001 0.20694804 0.62960231 0
4.1920004 0.20024148 0.6297214 0
4.1950002 0.1935908 0.62989992 0
4.198 0.18692936 0.63007849 0
4.2020001 0.18031661 0.63031662 0
4.2070003 0.17374712 0.63061422 0
4.2120004 0.16715963 0.63091189 0
4.2179999 0.16060819 0.63126904 0
4.2250004 0.15408744 0.63168573 0
4.2330003 0.1475919 0.63216192 0
4.2420001 0.14111625 0.63269764 0
4.2520003 0.134655 0.63329291 0
4.2650003 0.12829298 0.6340667 0
4.0840001 0.67833006 0.61664736 0
4.079 0.67071068 0.61635876 0
4.0750003 0.66330248 0.61612785 0
4.0700002 0.65571749 0.61583924 0
4.0650001 0.6481505 0.61555064 0
4.0599999 0.64060158 0.61526203 0
4.0550003 0.63307071 0.61497343 0
4.0500002 0.62555778 0.61468482 0
4.046 0.61824512 0.61445391 0
4.0410004 0.61076659 0.61416531 0
4.0360003 0.60330606 0.6138767 0
4.0310001 0.59586352 0.61358809 0
4.026 0.58843905 0.61329949 0
4.0220003 0.58120579 0.61306858 0
4.0170002 0.57381558 0.61277997 0
4.0120001 0.56644338 0.61249137 0
4.007 0.5590893 0.61220276 0
4.0030003 0.5519191 0.61197186 0
3.9980004 0.54459929 0.61168325 0
3.9930003 0.53729749 0.61139464 0
3.9890003 0.53017426 0.61116379 0
3.9840002 0.52290666 0.61087519 0
3.9790003 0.51565719 0.61058658 0
3.9750004 0.5085808 0.61035568 0
3.9700003 0.5013656 0.61006707 0
3.9660003 0.49431992 0.60983616 0
3.9610002 0.48713899 0.60954756 0
3.9560003 0.47997606 0.60925895 0
3.9520004 0.47297734 0.6090281 0
3.9470003 0.46584862 0.6087395 0
3.9430003 0.45888048 0.60850859 0
3.9380002 0.45178613 0.60821998 0
3.9340003 0.44484869 0.60798907 0
3.9290004 0.43778858 0.60770047 0
3.9250002 0.43088177 0.60746956 0
3.9200003 0.42385596 0.60718095 0
3.9160004 0.41697988 0.6069501 0
3.9110003 0.40998828 0.60666144 0
3.9070003 0.40314284 0.60643059 0
3.9020002 0.39618552 0.60614198 0
3.8980002 0.38937077 0.60591108 0
3.8940003 0.38257039 0.60568023 0
3.8890002 0.37566361 0.60539162 0
3.8850002 0.36889392 0.60516071 0
3.8800004 0.36202142 0.60487211 0
3.8760002 0.35528237 0.6046412 0
3.8730001 0.34867141 0.60446805 0
3.8820002 0.34341332 0.60498756 0
3.8900003 0.33801273 0.60544932 0
3.8980002 0.33258325 0.60591108 0
4.046 0.34202442 0.61445391 0
4.0410004 0.33492461 0.61416531 0
4.0370002 0.32794568 0.6139344 0
4.0339999 0.32108217 0.61376125 0
4.0320001 0.31432873 0.61364579 0
4.0310001 0.30767992 0.61358809 0
4.0310001 0.30113026 0.61358809 0
4.0320001 0.29467446 0.61364579 0
4.0339999 0.28830698 0.61376125 0
4.0360003 0.28193232 0.6138767 0
4.04 0.27572721 0.61410761 0
4.0450001 0.26959428 0.61439621 0
4.052 0.26361287 0.61480027 0
4.0620003 0.25785512 0.61537749 0
4.2010002 0.22139472 0.62340081 0
4.1990004 0.21440136 0.62328541 0
4.1990004 0.20754868 0.62328541 0
4.2000003 0.20076096 0.62334311 0
4.2010002 0.19396962 0.62340081 0
4.204 0.18729733 0.62357396 0
4.2070003 0.18061422 0.62374711 0
4.2120004 0.17403574 0.62403578 0
4.2160001 0.1673833 0.62426662 0
4.2220001 0.16082466 0.62461299 0
4.2280002 0.15424435 0.62495929 0
4.2350001 0.14769292 0.62536335 0
4.243 0.14116494 0.62582517 0
4.2520003 0.134655 0.62634462 0
4.263 0.12820278 0.62697959 0
4.2750001 0.12175417 0.62767226 0
4.0840001 0.67833006 0.61000216 0
4.079 0.67071068 0.60972255 0
4.0750003 0.66330248 0.60949886 0
4.0700002 0.65571749 0.60921925 0
4.0650001 0.6481505 0.60893971 0
4.0599999 0.64060158 0.6086601 0
4.0550003 0.63307071 0.6083805 0
4.0500002 0.62555778 0.60810089 0
4.046 0.61824512 0.60787725 0
4.0410004 0.61076659 0.60759765 0
4.0360003 0.60330606 0.60731804 0
4.0310001 0.59586352 0.6070385 0
4.026 0.58843905 0.60675889 0
4.0220003 0.58120579 0.6065352 0
4.0170002 0.57381558 0.60625565 0
4.0120001 0.56644338 0.60597605 0
4.007 0.5590893 0.60569644 0
4.0030003 0.5519191 0.6054728 0
3.9980004 0.54459929 0.6051932 0
3.9930003 0.53729749 0.60491359 0
3.9890003 0.53017426 0.60468996 0
3.9840002 0.52290666 0.60441029 0
3.9790003 0.51565719 0.60413074 0
3.9750004 0.5085808 0.60390711 0
3.9700003 0.5013656 0.60362744 0
3.9660003 0.49431992 0.60340381 0
3.9610002 0.48713899 0.6031242 0
3.9560003 0.47997606 0.6028446 0
3.9520004 0.47297734 0.60262096 0
3.9470003 0.46584862 0.60234135 0
3.9430003 0.45888048 0.60211766 0
3.9380002 0.45178613 0.60183811 0
3.9340003 0.44484869 0.60161442 0
3.9290004 0.43778858 0.60133481 0
3.9250002 0.43088177 0.60111117 0
3.9200003 0.42385596 0.60083157 0
3.9160004 0.41697988 0.60060787 0
3.9110003 0.40998828 0.60032833 0
3.9070003 0.40314284 0.60010463 0
3.9020002 0.39618552 0.59982502 0
3.8980002 0.38937077 0.59960139 0
3.8940003 0.38257039 0.59937769 0
3.8890002 0.37566361 0.59909809 0
3.8850002 0.36889392 0.59887445 0
3.8800004 0.36202142 0.59859484 0
3.8760002 0.35528237 0.59837115 0
3.8730001 0.34867141 0.59820342 0
3.8820002 0.34341332 0.59870666 0
3.8900003 0.33801273 0.59915406 0
3.8980002 0.33258325 0.59960139 0
4.046 0.34202442 0.60787725 0
4.0410004 0.33492461 0.60759765 0
4.0370002 0.32794568 0.60737395 0
4.0339999 0.32108217 0.60720623 0
4.0320001 0.31432873 0.60709441 0
4.0310001 0.30767992 0.6070385 0
4.0310001 0.30113026 0.6070385 0
4.0320001 0.29467446 0.60709441 0
4.0339999 0.28830698 0.60720623 0
4.0360003 0.28193232 0.60731804 0
4.04 0.27572721 0.60754174 0
4.0450001 0.26959428 0.60782135 0
4.052 0.26361287 0.60821277 0
4.0620003 0.25785512 0.60877192 0
4.21 0.21515536 0.61704779 0
4.2080002 0.20814934 0.61693597 0
4.2080002 0.20128044 0.61693597 0
4.2090001 0.19447468 0.61699188 0
4.211 0.18772665 0.6171037 0
4.2140002 0.18103091 0.61727148 0
4.217 0.17432435 0.61743921 0
4.2210002 0.16766289 0.61766291 0
4.2260003 0.16104111 0.61794245 0
4.2320004 0.15445361 0.61827803 0
4.2380004 0.14784445 0.61861354 0
4.2450004 0.14126235 0.61900496 0
4.2530003 0.13470189 0.6194523 0
4.2620001 0.12815768 0.61995554 0
4.2730002 0.12166758 0.62057066 0
4.2860003 0.11522077 0.6212976 0
4.0840001 0.67833006 0.6033569 0
4.079 0.67071068 0.60308635 0
4.0750003 0.66330248 0.60286987 0
4.0700002 0.65571749 0.60259932 0
4.0650001 0.6481505 0.60232872 0
4.0599999 0.64060158 0.60205817 0
4.0550003 0.63307071 0.60178757 0
4.0500002 0.62555778 0.60151702 0
4.046 0.61824512 0.60130054 0
4.0410004 0.61076659 0.60102999 0
4.0360003 0.60330606 0.60075939 0
4.0310001 0.59586352 0.60048884 0
4.026 0.58843905 0.6002183 0
4.0220003 0.58120579 0.60000181 0
4.0170002 0.57381558 0.59973121 0
4.0120001 0.56644338 0.59946066 0
4.007 0.5590893 0.59919012 0
4.0030003 0.5519191 0.59897363 0
3.9980004 0.54459929 0.59870309 0
3.9930003 0.53729749 0.59843254 0
3.9890003 0.53017426 0.59821606 0
3.9840002 0.52290666 0.59794545 0
3.9790003 0.51565719 0.59767491 0
3.9750004 0.5085808 0.59745848 0
3.9700003 0.5013656 0.59718788 0
3.9660003 0.49431992 0.59697139 0
3.9610002 0.48713899 0.59670085 0
3.9560003 0.47997606 0.5964303 0
3.9520004 0.47297734 0.59621382 0
3.9470003 0.46584862 0.59594321 0
3.9430003 0.45888048 0.59572679 0
3.9380002 0.45178613 0.59545624 0
3.9340003 0.44484869 0.59523976 0
3.9290004 0.43778858 0.59496921 0
3.9250002 0.43088177 0.59475273 0
3.9200003 0.42385596 0.59448218 0
3.9160004 0.41697988 0.5942657 0
3.9110003 0.40998828 0.59399509 0
3.9070003 0.40314284 0.59377867 0
3.9020002 0.39618552 0.59350812 0
3.8980002 0.38937077 0.59329164 0
3.8940003 0.38257039 0.59307522 0
3.8890002 0.37566361 0.59280461 0
3.8850002 0.36889392 0.59258819 0
3.8800004 0.36202142 0.59231758 0
3.8760002 0.35528237 0.5921011 0
3.8730001 0.34867141 0.59193879 0
3.8820002 0.34341332 0.59242582 0
3.8900003 0.33801273 0.59285873 0
3.8980002 0.33258325 0.59329164 0
4.046 0.34202442 0.60130054 0
4.0410004 0.33492461 0.60102999 0
4.0370002 0.32794568 0.60081351 0
4.0339999 0.32108217 0.6006512 0
4.0320001 0.31432873 0.60054296 0
4.0310001 0.30767992 0.60048884 0
4.0310001 0.30113026 0.60048884 0
4.0320001 0.29467446 0.60054296 0
4.0339999 0.28830698 0.6006512 0
4.0360003 0.28193232 0.60075939 0
4.04 0.27572721 0.60097587 0
4.0450001 0.26959428 0.60124648 0
4.052 0.26361287 0.60162526 0
4.0620003 0.25785512 0.60216641 0
4.2190003 0.20888352 0.61066234 0
4.217 0.20186488 0.6105541 0
4.217 0.19497974 0.6105541 0
4.2179999 0.18815593 0.61060822 0
4.2200003 0.18138807 0.61071646 0
4.223 0.17467068 0.61087877 0
4.2260003 0.16794246 0.61104113 0
4.2309999 0.16131167 0.61131167 0
4.2360001 0.15466283 0.61158228 0
4.2410002 0.14799596 0.61185282 0
4.2480001 0.14140847 0.61223161 0
4.2550001 0.1347957 0.61261046 0
4.263 0.12820278 0.61304337 0
4.2720003 0.12162429 0.6135304 0
4.283 0.11509632 0.61412561 0
4.296 0.10860801 0.61482912 0
4.309 0.10207281 0.61553264 0
4.0840001 0.67833006 0.59671164 0
4.079 0.67071068 0.59645009 0
4.0750003 0.66330248 0.59624088 0
4.0700002 0.65571749 0.59597933 0
4.0650001 0.6481505 0.59571779 0
4.0599999 0.64060158 0.59545624 0
4.0550003 0.63307071 0.5951947 0
4.0500002 0.62555778 0.59493315 0
4.046 0.61824512 0.59472388 0
4.0410004 0.61076659 0.59446234 0
4.0360003 0.60330606 0.59420079 0
4.0310001 0.59586352 0.59393924 0
4.026 0.58843905 0.59367764 0
4.0220003 0.58120579 0.59346843 0
4.0170002 0.57381558 0.59320688 0
4.0120001 0.56644338 0.59294534 0
4.007 0.5590893 0.59268379 0
4.0030003 0.5519191 0.59247452 0
3.9980004 0.54459929 0.59221298 0
3.9930003 0.53729749 0.59195143 0
3.9890003 0.53017426 0.59174216 0
3.9840002 0.52290666 0.59148061 0
3.9790003 0.51565719 0.59121907 0
3.9750004 0.5085808 0.59100986 0
3.9700003 0.5013656 0.59074831 0
3.9660003 0.49431992 0.59053904 0
3.9610002 0.48713899 0.59027749 0
3.9560003 0.47997606 0.59001595 0
3.9520004 0.47297734 0.58980668 0
3.9470003 0.46584862 0.58954513 0
3.9430003 0.45888048 0.58933592 0
3.9380002 0.45178613 0.58907437 0
3.9340003 0.44484869 0.5888651 0
3.9290004 0.43778858 0.58860356 0
3.9250002 0.43088177 0.58839428 0
3.9200003 0.42385596 0.58813274 0
3.9160004 0.41697988 0.58792353 0
3.9110003 0.40998828 0.58766198 0
3.9070003 0.40314284 0.58745271 0
3.9020002 0.39618552 0.58719116 0
3.8980002 0.38937077 0.58698189 0
3.8940003 0.38257039 0.58677268 0
3.8890002 0.37566361 0.58651114 0
3.8850002 0.36889392 0.58630192 0
3.8800004 0.36202142 0.58604038 0
3.8760002 0.35528237 0.58583111 0
3.8730001 0.34867141 0.58567417 0
3.8820002 0.34341332 0.58614492 0
3.8900003 0.33801273 0.58656347 0
3.8980002 0.33258325 0.58698189 0
4.046 0.34202442 0.59472388 0
4.0410004 0.33492461 0.59446234 0
4.0370002 0.32794568 0.59425306 0
4.0339999 0.32108217 0.59409612 0
4.0320001 0.31432873 0.59399152 0
4.0310001 0.30767992 0.59393924 0
4.0310001 0.30113026 0.59393924 0
4.0320001 0.29467446 0.59399152 0
4.0339999 0.28830698 0.59409612 0
4.0360003 0.28193232 0.59420079 0
4.04 0.27572721 0.59441 0
4.0450001 0.26959428 0.59467161 0
4.052 0.26361287 0.5950377 0
4.0620003 0.25785512 0.59556085 0
4.2280002 0.20257919 0.60424435 0
4.2270002 0.19561109 0.60419208 0
4.2260003 0.1886466 0.60413975 0
4.2280002 0.18186426 0.60424435 0
4.23 0.17507473 0.60434902 0
4.2330003 0.1683339 0.6045059 0
4.2360001 0.16158226 0.60466284 0
4.2400002 0.15487207 0.60487211 0
4.2450004 0.14819799 0.60513365 0
4.2509999 0.14155456 0.60544753 0
4.257 0.1348895 0.60576141 0
4.2650003 0.12829298 0.60617983 0
4.2730002 0.12166758 0.60659832 0
4.2820001 0.11505482 0.60706913 0
4.2930002 0.10848896 0.60764456 0
4.3040004 0.10188343 0.60821998 0
4.3080001 0.094985649 0.60842919 0
4.3140001 0.088142008 0.60874307 0
4.0840001 0.67833006 0.59006643 0
4.079 0.67071068 0.58981389 0
4.0750003 0.66330248 0.58961189 0
4.0700002 0.65571749 0.58935934 0
4.0650001 0.6481505 0.5891068 0
4.0599999 0.64060158 0.58885431 0
4.0550003 0.63307071 0.58860177 0
4.0500002 0.62555778 0.58834922 0
4.046 0.61824512 0.58814716 0
4.0410004 0.61076659 0.58789468 0
4.0360003 0.60330606 0.58764213 0
4.0310001 0.59586352 0.58738959 0
4.026 0.58843905 0.58713704 0
4.0220003 0.58120579 0.58693504 0
4.0170002 0.57381558 0.5866825 0
4.0120001 0.56644338 0.58642995 0
4.007 0.5590893 0.58617741 0
4.0030003 0.5519191 0.58597541 0
3.9980004 0.54459929 0.58572286 0
3.9930003 0.53729749 0.58547032 0
3.9890003 0.53017426 0.58526832 0
3.9840002 0.52290666 0.58501577 0
3.9790003 0.51565719 0.58476323 0
3.9750004 0.5085808 0.58456123 0
3.9700003 0.5013656 0.58430868 0
3.9660003 0.49431992 0.58410668 0
3.9610002 0.48713899 0.58385414 0
3.9560003 0.47997606 0.58360159 0
3.9520004 0.47297734 0.58339959 0
3.9470003 0.46584862 0.58314705 0
3.9430003 0.45888048 0.58294499 0
3.9380002 0.45178613 0.5826925 0
3.9340003 0.44484869 0.58249044 0
3.9290004 0.43778858 0.58223796 0
3.9250002 0.43088177 0.5820359 0
3.9200003 0.42385596 0.58178335 0
3.9160004 0.41697988 0.58158135 0
3.9110003 0.40998828 0.58132881 0
3.9070003 0.40314284 0.58112675 0
3.9020002 0.39618552 0.5808742 0
3.8980002 0.38937077 0.5806722 0
3.8940003 0.38257039 0.5804702 0
3.8890002 0.37566361 0.58021766 0
3.8850002 0.36889392 0.5800156 0
3.8800004 0.36202142 0.57976311 0
3.8760002 0.35528237 0.57956105 0
3.8730001 0.34867141 0.57940954 0
3.8820002 0.34341332 0.57986408 0
3.8900003 0.33801273 0.58026814 0
3.8980002 0.33258325 0.5806722 0
4.046 0.34202442 0.58814716 0
4.0410004 0.33492461 0.58789468 0
4.0370002 0.32794568 0.58769262 0
4.0339999 0.32108217 0.5875411 0
4.0320001 0.31432873 0.58744013 0
4.0310001 0.30767992 0.58738959 0
4.0310001 0.30113026 0.58738959 0
4.0320001 0.29467446 0.58744013 0
4.0339999 0.28830698 0.5875411 0
4.0360003 0.28193232 0.58764213 0
4.04 0.27572721 0.58784413 0
4.0450001 0.26959428 0.58809668 0
4.052 0.26361287 0.58845019 0
4.0620003 0.25785512 0.58895528 0
4.237 0.19624241 0.59779394 0
4.2360001 0.18925989 0.59774345 0
4.2360001 0.18234047 0.59774345 0
4.237 0.17547879 0.59779394 0
4.2390003 0.16866942 0.59789497 0
4.2420001 0.16190694 0.59804648 0
4.2460003 0.15518594 0.59824848 0
4.25 0.14845052 0.59845054 0
4.2550001 0.14174938 0.59870309 0
4.2610002 0.1350771 0.59900612 0
4.2670002 0.12838316 0.59930915 0
4.2750001 0.12175417 0.59971321 0
4.283 0.11509632 0.60011727 0
4.2920003 0.10844928 0.60057181 0
4.3000002 0.10173188 0.60097587 0
4.3040004 0.094841346 0.60117793 0
4.3099999 0.088004902 0.60148096 0
4.3170004 0.081179306 0.60183448 0
4.0840001 0.67833006 0.58342123 0
4.079 0.67071068 0.58317769 0
4.0750003 0.66330248 0.5829829 0
4.0700002 0.65571749 0.58273935 0
4.0650001 0.6481505 0.58249587 0
4.0599999 0.64060158 0.58225232 0
4.0550003 0.63307071 0.58200884 0
4.0500002 0.62555778 0.58176529 0
4.046 0.61824512 0.58157051 0
4.0410004 0.61076659 0.58132696 0
4.0360003 0.60330606 0.58108348 0
4.0310001 0.59586352 0.58083999 0
4.026 0.58843905 0.58059645 0
4.0220003 0.58120579 0.58040166 0
4.0170002 0.57381558 0.58015811 0
4.0120001 0.56644338 0.57991463 0
4.007 0.5590893 0.57967108 0
4.0030003 0.5519191 0.5794763 0
3.9980004 0.54459929 0.57923281 0
3.9930003 0.53729749 0.57898927 0
3.9890003 0.53017426 0.57879448 0
3.9840002 0.52290666 0.57855093 0
3.9790003 0.51565719 0.57830739 0
3.9750004 0.5085808 0.5781126 0
3.9700003 0.5013656 0.57786906 0
3.9660003 0.49431992 0.57767427 0
3.9610002 0.48713899 0.57743073 0
3.9560003 0.47997606 0.57718724 0
3.9520004 0.47297734 0.57699245 0
3.9470003 0.46584862 0.57674891 0
3.9430003 0.45888048 0.57655412 0
3.9380002 0.45178613 0.57631058 0
3.9340003 0.44484869 0.57611579 0
3.9290004 0.43778858 0.5758723 0
3.9250002 0.43088177 0.57567745 0
3.9200003 0.42385596 0.57543397 0
3.9160004 0.41697988 0.57523912 0
3.9110003 0.40998828 0.57499564 0
3.9070003 0.40314284 0.57480079 0
3.9020002 0.39618552 0.5745573 0
3.8980002 0.38937077 0.57436252 0
3.8940003 0.38257039 0.57416767 0
3.8890002 0.37566361 0.57392418 0
3.8850002 0.36889392 0.57372934 0
3.8800004 0.36202142 0.57348585 0
3.8760002 0.35528237 0.573291 0
3.8730001 0.34867141 0.57314491 0
3.8820002 0.34341332 0.57358325 0
3.8900003 0.33801273 0.57397288 0
3.8980002 0.33258325 0.57436252 0
4.046 0.34202442 0.58157051 0
4.0410004 0.33492461 0.58132696 0
4.0370002 0.32794568 0.58113217 0
4.0339999 0.32108217 0.58098608 0
4.0320001 0.31432873 0.58088863 0
4.0310001 0.30767992 0.58083999 0
4.0310001 0.30113026 0.58083999 0
4.0320001 0.29467446 0.58088863 0
4.0339999 0.28830698 0.58098608 0
4.0360003 0.28193232 0.58108348 0
4.04 0.27572721 0.58127832 0
4.0450001 0.26959428 0.58152181 0
4.052 0.26361287 0.58186269 0
4.0620003 0.25785512 0.58234978 0
4.2470002 0.18993451 0.59135973 0
4.2450004 0.18287621 0.59126234 0
4.2450004 0.17594057 0.59126234 0
4.2470002 0.16911675 0.59135973 0
4.2490001 0.16228575 0.59145719 0
4.2520003 0.15549982 0.59160328 0
4.2550001 0.14870307 0.59174943 0
4.2600002 0.14199288 0.59199291 0
4.2650003 0.13526468 0.5922364 0
4.2710004 0.12856355 0.59252864 0
4.277 0.12184075 0.59282088 0
4.2850003 0.11517929 0.59321046 0
4.2930002 0.10848896 0.59360009 0
4.2980003 0.10165612 0.59384364 0
4.3010001 0.094733119 0.59398973 0
4.3060002 0.087867826 0.59423327 0
4.3130002 0.081049427 0.59457415 0
4.0840001 0.67833006 0.57677597 0
4.079 0.67071068 0.57654148 0
4.0750003 0.66330248 0.57635391 0
4.0700002 0.65571749 0.57611936 0
4.0650001 0.6481505 0.57588494 0
4.0599999 0.64060158 0.57565039 0
4.0550003 0.63307071 0.57541591 0
4.0500002 0.62555778 0.57518142 0
4.046 0.61824512 0.57499385 0
4.0410004 0.61076659 0.57475936 0
4.0360003 0.60330606 0.57452482 0
4.0310001 0.59586352 0.57429034 0
4.026 0.58843905 0.57405585 0
4.0220003 0.58120579 0.57386827 0
4.0170002 0.57381558 0.57363373 0
4.0120001 0.56644338 0.57339925 0
4.007 0.5590893 0.57316476 0
4.0030003 0.5519191 0.57297719 0
3.9980004 0.54459929 0.5727427 0
3.9930003 0.53729749 0.57250816 0
3.9890003 0.53017426 0.57232058 0
3.9840002 0.52290666 0.5720861 0
3.9790003 0.51565719 0.57185161 0
3.9750004 0.5085808 0.57166398 0
3.9700003 0.5013656 0.57142949 0
3.9660003 0.49431992 0.57124192 0
3.9610002 0.48713899 0.57100737 0
3.9560003 0.47997606 0.57077289 0
3.9520004 0.47297734 0.57058531 0
3.9470003 0.46584862 0.57035083 0
3.9430003 0.45888048 0.57016325 0
3.9380002 0.45178613 0.56992877 0
3.9340003 0.44484869 0.56974113 0
3.9290004 0.43778858 0.56950665 0
3.9250002 0.43088177 0.56931901 0
3.9200003 0.42385596 0.56908453 0
3.9160004 0.41697988 0.56889695 0
3.9110003 0.40998828 0.56866246 0
3.9070003 0.40314284 0.56847489 0
3.9020002 0.39618552 0.56824034 0
3.8980002 0.38937077 0.56805277 0
3.8940003 0.38257039 0.56786513 0
3.8890002 0.37566361 0.56763065 0
3.8850002 0.36889392 0.56744307 0
3.8800004 0.36202142 0.56720859 0
3.8760002 0.35528237 0.56702101 0
3.8730001 0.34867141 0.56688029 0
3.8820002 0.34341332 0.56730235 0
3.8900003 0.33801273 0.56767756 0
3.8980002 0.33258325 0.56805277 0
4.046 0.34202442 0.57499385 0
4.0410004 0.33492461 0.57475936 0
4.0370002 0.32794568 0.57457173 0
4.0339999 0.32108217 0.57443106 0
4.0320001 0.31432873 0.57433724 0
4.0310001 0.30767992 0.57429034 0
4.0310001 0.30113026 0.57429034 0
4.0320001 0.29467446 0.57433724 0
4.0339999 0.28830698 0.57443106 0
4.0360003 0.28193232 0.57452482 0
4.04 0.27572721 0.5747124 0
4.0450001 0.26959428 0.57494694 0
4.052 0.26361287 0.57527518 0
4.0620003 0.25785512 0.57574421 0
4.256 0.18353099 0.58484262 0
4.2550001 0.17651778 0.58479571 0
4.2550001 0.1695641 0.58479571 0
4.256 0.16266453 0.58484262 0
4.2580004 0.15581368 0.58493638 0
4.2610002 0.1490061 0.58507711 0
4.2650003 0.1422364 0.58526468 0
4.27 0.13549918 0.58549917 0
4.2750001 0.12874392 0.58573371 0
4.2810001 0.12201391 0.58601511 0
4.2870002 0.11526226 0.5862965 0
4.2930002 0.10848896 0.58657789 0
4.296 0.10158037 0.58671856 0
4.3000002 0.094697028 0.58690619 0
4.3040004 0.087799281 0.58709377 0
4.3110003 0.080984488 0.58742207 0
4.3200002 0.074205771 0.58784413 0
4.0840001 0.67833006 0.57013077 0
4.079 0.67071068 0.56990528 0
4.0750003 0.66330248 0.56972492 0
4.0700002 0.65571749 0.56949943 0
4.0650001 0.6481505 0.56927395 0
4.0599999 0.64060158 0.56904846 0
4.0550003 0.63307071 0.56882298 0
4.0500002 0.62555778 0.5685975 0
4.046 0.61824512 0.56841713 0
4.0410004 0.61076659 0.56819165 0
4.0360003 0.60330606 0.56796616 0
4.0310001 0.59586352 0.56774068 0
4.026 0.58843905 0.56751525 0
4.0220003 0.58120579 0.56733483 0
4.0170002 0.57381558 0.56710935 0
4.0120001 0.56644338 0.56688392 0
4.007 0.5590893 0.56665844 0
4.0030003 0.5519191 0.56647801 0
3.9980004 0.54459929 0.56625259 0
3.9930003 0.53729749 0.5660271 0
3.9890003 0.53017426 0.56584668 0
3.9840002 0.52290666 0.56562126 0
3.9790003 0.51565719 0.56539577 0
3.9750004 0.5085808 0.56521535 0
3.9700003 0.5013656 0.56498992 0
3.9660003 0.49431992 0.56480956 0
3.9610002 0.48713899 0.56458402 0
3.9560003 0.47997606 0.56435859 0
3.9520004 0.47297734 0.56417823 0
3.9470003 0.46584862 0.56395268 0
3.9430003 0.45888048 0.56377232 0
3.9380002 0.45178613 0.56354684 0
3.9340003 0.44484869 0.56336647 0
3.9290004 0.43778858 0.56314099 0
3.9250002 0.43088177 0.56296062 0
3.9200003 0.42385596 0.56273514 0
3.9160004 0.41697988 0.56255478 0
3.9110003 0.40998828 0.56232929 0
3.9070003 0.40314284 0.56214893 0
3.9020002 0.39618552 0.56192344 0
3.8980002 0.38937077 0.56174302 0
3.8940003 0.38257039 0.56156266 0
3.8890002 0.37566361 0.56133717 0
3.8850002 0.36889392 0.56115681 0
3.8800004 0.36202142 0.56093132 0
3.8760002 0.35528237 0.56075096 0
3.8730001 0.34867141 0.56061566 0
3.8820002 0.34341332 0.56102151 0
3.8900003 0.33801273 0.56138229 0
3.8980002 0.33258325 0.56174302 0
4.046 0.34202442 0.56841713 0
4.0410004 0.33492461 0.56819165 0
4.0370002 0.32794568 0.56801128 0
4.0339999 0.32108217 0.56787598 0
4.0320001 0.31432873 0.5677858 0
4.0310001 0.30767992 0.56774068 0
4.0310001 0.30113026 0.56774068 0
4.0320001 0.29467446 0.5677858 0
4.0339999 0.28830698 0.56787598 0
4.0360003 0.28193232 0.56796616 0
4.04 0.27572721 0.56814659 0
4.0450001 0.26959428 0.56837201 0
4.052 0.26361287 0.56868768 0
4.0620003 0.25785512 0.56913865 0
4.2660003 0.17715272 0.57833809 0
4.2639999 0.17006736 0.5782479 0
4.2639999 0.16309744 0.5782479 0
4.2660003 0.15623215 0.57833809 0
4.2680001 0.14935964 0.57842827 0
4.2710004 0.14252862 0.57856357 0
4.2750001 0.13573368 0.57874393 0
4.2790003 0.1289243 0.5789243 0
4.2850003 0.12218708 0.5791949 0
4.2910004 0.11542821 0.57946545 0
4.2930002 0.10848896 0.57955563 0
4.2950001 0.10154249 0.57964587 0
4.2990003 0.094660968 0.57982624 0
4.303 0.087765008 0.5800066 0
4.3099999 0.080952018 0.58032227 0
4.3180003 0.074144453 0.58068305 0
4.0840001 0.67833006 0.5634855 0
4.079 0.67071068 0.56326908 0
4.0750003 0.66330248 0.56309593 0
4.0700002 0.65571749 0.56287944 0
4.0650001 0.6481505 0.56266296 0
4.0599999 0.64060158 0.56244653 0
4.0550003 0.63307071 0.56223005 0
4.0500002 0.62555778 0.56201363 0
4.046 0.61824512 0.56184042 0
4.0410004 0.61076659 0.56162399 0
4.0360003 0.60330606 0.56140757 0
4.0310001 0.59586352 0.56119108 0
4.026 0.58843905 0.5609746 0
4.0220003 0.58120579 0.56080145 0
4.0170002 0.57381558 0.56058502 0
4.0120001 0.56644338 0.56036854 0
4.007 0.5590893 0.56015205 0
4.0030003 0.5519191 0.5599789 0
3.9980004 0.54459929 0.55976248 0
3.9930003 0.53729749 0.55954599 0
3.9890003 0.53017426 0.55937284 0
3.9840002 0.52290666 0.55915642 0
3.9790003 0.51565719 0.55893993 0
3.9750004 0.5085808 0.55876672 0
3.9700003 0.5013656 0.5585503 0
3.9660003 0.49431992 0.55837715 0
3.9610002 0.48713899 0.55816066 0
3.9560003 0.47997606 0.55794424 0
3.9520004 0.47297734 0.55777109 0
3.9470003 0.46584862 0.5575546 0
3.9430003 0.45888048 0.55738145 0
3.9380002 0.45178613 0.55716497 0
3.9340003 0.44484869 0.55699182 0
3.9290004 0.43778858 0.55677533 0
3.9250002 0.43088177 0.55660218 0
3.9200003 0.42385596 0.55638576 0
3.9160004 0.41697988 0.55621254 0
3.9110003 0.40998828 0.55599612 0
3.9070003 0.40314284 0.55582297 0
3.9020002 0.39618552 0.55560648 0
3.8980002 0.38937077 0.55543333 0
3.8940003 0.38257039 0.55526018 0
3.8890002 0.37566361 0.5550437 0
3.8850002 0.36889392 0.55487055 0
3.8800004 0.36202142 0.55465406 0
3.8760002 0.35528237 0.55448091 0
3.8730001 0.34867141 0.55435103 0
3.8820002 0.34341332 0.55474067 0
3.8900003 0.33801273 0.55508697 0
3.8980002 0.33258325 0.55543333 0
4.046 0.34202442 0.56184042 0
4.0410004 0.33492461 0.56162399 0
4.0370002 0.32794568 0.56145084 0
4.0339999 0.32108217 0.56132096 0
4.0320001 0.31432873 0.56123435 0
4.0310001 0.30767992 0.56119108 0
4.0310001 0.30113026 0.56119108 0
4.0320001 0.29467446 0.56123435 0
4.0339999 0.28830698 0.56132096 0
4.0360003 0.28193232 0.56140757 0
4.04 0.27572721 0.56158066 0
4.0450001 0.26959428 0.56179714 0
4.052 0.26361287 0.56210017 0
4.0620003 0.25785512 0.56253314 0
4.2780004 0.17784539 0.57188404 0
4.2750001 0.17068246 0.57175422 0
4.2740002 0.16363858 0.57171088 0
4.2740002 0.15665063 0.57171088 0
4.276 0.1497637 0.57179749 0
4.2780004 0.14286955 0.57188404 0
4.2810001 0.13601507 0.57201391 0
4.2850003 0.12919487 0.57218707 0
4.289 0.12236024 0.57236028 0
4.2910004 0.11542821 0.57244682 0
4.2930002 0.10848896 0.57253343 0
4.2950001 0.10154249 0.57262003 0
4.2990003 0.094660968 0.57279319 0
4.3040004 0.087799281 0.57300961 0
4.3099999 0.080952018 0.57326937 0
4.3180003 0.074144453 0.57361573 0
4.0840001 0.67833006 0.5568403 0
4.079 0.67071068 0.55663288 0
4.0750003 0.66330248 0.55646694 0
4.0700002 0.65571749 0.55625945 0
4.0650001 0.6481505 0.55605203 0
4.0599999 0.64060158 0.5558446 0
4.0550003 0.63307071 0.55563712 0
4.0500002 0.62555778 0.5554297 0
4.046 0.61824512 0.55526376 0
4.0410004 0.61076659 0.55505633 0
4.0360003 0.60330606 0.55484891 0
4.0310001 0.59586352 0.55464149 0
4.026 0.58843905 0.554434 0
4.0220003 0.58120579 0.55426806 0
4.0170002 0.57381558 0.55406064 0
4.0120001 0.56644338 0.55385315 0
4.007 0.5590893 0.55364573 0
4.0030003 0.5519191 0.55347979 0
3.9980004 0.54459929 0.55327237 0
3.9930003 0.53729749 0.55306494 0
3.9890003 0.53017426 0.552899 0
3.9840002 0.52290666 0.55269152 0
3.9790003 0.51565719 0.5524841 0
3.9750004 0.5085808 0.55231816 0
3.9700003 0.5013656 0.55211067 0
3.9660003 0.49431992 0.55194473 0
3.9610002 0.48713899 0.55173731 0
3.9560003 0.47997606 0.55152988 0
3.9520004 0.47297734 0.55136395 0
3.9470003 0.46584862 0.55115652 0
3.9430003 0.45888048 0.55099058 0
3.9380002 0.45178613 0.5507831 0
3.9340003 0.44484869 0.55061716 0
3.9290004 0.43778858 0.55040973 0
3.9250002 0.43088177 0.55024374 0
3.9200003 0.42385596 0.55003631 0
3.9160004 0.41697988 0.54987037 0
3.9110003 0.40998828 0.54966295 0
3.9070003 0.40314284 0.54949701 0
3.9020002 0.39618552 0.54928958 0
3.8980002 0.38937077 0.54912359 0
3.8940003 0.38257039 0.54895765 0
3.8890002 0.37566361 0.54875022 0
3.8850002 0.36889392 0.54858428 0
3.8800004 0.36202142 0.5483768 0
3.8760002 0.35528237 0.54821086 0
3.8730001 0.34867141 0.5480864 0
3.8820002 0.34341332 0.54845977 0
3.8900003 0.33801273 0.54879171 0
3.8980002 0.33258325 0.54912359 0
4.046 0.34202442 0.55526376 0
4.0410004 0.33492461 0.55505633 0
4.0370002 0.32794568 0.55489039 0
4.0339999 0.32108217 0.55476594 0
4.0320001 0.31432873 0.55468297 0
4.0310001 0.30767992 0.55464149 0
4.0310001 0.30113026 0.55464149 0
4.0320001 0.29467446 0.55468297 0
4.0339999 0.28830698 0.55476594 0
4.0360003 0.28193232 0.55484891 0
4.04 0.27572721 0.55501485 0
4.0450001 0.26959428 0.55522227 0
4.052 0.26361287 0.55551267 0
4.0620003 0.25785512 0.55592757 0
4.2870002 0.17135347 0.56526226 0
4.2850003 0.16423385 0.56517929 0
4.2840004 0.15717375 0.5651378 0
4.2840004 0.15016775 0.5651378 0
4.2850003 0.14321046 0.56517929 0
4.2870002 0.13629647 0.56526226 0
4.2910004 0.12946545 0.56542826 0
4.2910004 0.12244682 0.56542826 0
4.2920003 0.11546969 0.56546974 0
4.2930002 0.10848896 0.56551123 0
4.296 0.10158037 0.56563568 0
4.3000002 0.094697028 0.56580162 0
4.3050003 0.087833554 0.56600904 0
4.3110003 0.080984488 0.56625795 0
4.3200002 0.074205771 0.56663138 0
4.0840001 0.67833006 0.5501951 0
4.079 0.67071068 0.54999661 0
4.0750003 0.66330248 0.54983795 0
4.0700002 0.65571749 0.54963946 0
4.0650001 0.6481505 0.5494411 0
4.0599999 0.64060158 0.54924268 0
4.0550003 0.63307071 0.54904425 0
4.0500002 0.62555778 0.54884583 0
4.046 0.61824512 0.5486871 0
4.0410004 0.61076659 0.54848868 0
4.0360003 0.60330606 0.54829025 0
4.0310001 0.59586352 0.54809183 0
4.026 0.58843905 0.5478934 0
4.0220003 0.58120579 0.54773468 0
4.0170002 0.57381558 0.54753625 0
4.0120001 0.56644338 0.54733783 0
4.007 0.5590893 0.54713941 0
4.0030003 0.5519191 0.54698068 0
3.9980004 0.54459929 0.54678226 0
3.9930003 0.53729749 0.54658383 0
3.9890003 0.53017426 0.5464251 0
3.9840002 0.52290666 0.54622668 0
3.9790003 0.51565719 0.54602826 0
3.9750004 0.5085808 0.54586953 0
3.9700003 0.5013656 0.54567111 0
3.9660003 0.49431992 0.54551238 0
3.9610002 0.48713899 0.54531395 0
3.9560003 0.47997606 0.54511553 0
3.9520004 0.47297734 0.5449568 0
3.9470003 0.46584862 0.54475838 0
3.9430003 0.45888048 0.54459965 0
3.9380002 0.45178613 0.54440123 0
3.9340003 0.44484869 0.5442425 0
3.9290004 0.43778858 0.54404408 0
3.9250002 0.43088177 0.54388535 0
3.9200003 0.42385596 0.54368693 0
3.9160004 0.41697988 0.5435282 0
3.9110003 0.40998828 0.54332978 0
3.9070003 0.40314284 0.54317105 0
3.9020002 0.39618552 0.54297262 0
3.8980002 0.38937077 0.5428139 0
3.8940003 0.38257039 0.54265511 0
3.8890002 0.37566361 0.54245675 0
3.8850002 0.36889392 0.54229796 0
3.8800004 0.36202142 0.5420996 0
3.8760002 0.35528237 0.54194081 0
3.8730001 0.34867141 0.54182178 0
3.8820002 0.34341332 0.54217893 0
3.8900003 0.33801273 0.54249644 0
3.8980002 0.33258325 0.5428139 0
4.046 0.34202442 0.5486871 0
4.0410004 0.33492461 0.54848868 0
4.0370002 0.32794568 0.54832995 0
4.0339999 0.32108217 0.54821086 0
4.0320001 0.31432873 0.54813153 0
4.0310001 0.30767992 0.54809183 0
4.0310001 0.30113026 0.54809183 0
4.0320001 0.29467446 0.54813153 0
4.0339999 0.28830698 0.54821086 0
4.0360003 0.28193232 0.54829025 0
4.04 0.27572721 0.54844898 0
4.0450001 0.26959428 0.5486474 0
4.052 0.26361287 0.54892516 0
4.0620003 0.25785512 0.54932201 0
4.2969999 0.16488321 0.55864769 0
4.2940001 0.15769686 0.55852866 0
4.2930002 0.15062231 0.55848897 0
4.2930002 0.14360008 0.55848897 0
4.2930002 0.13657786 0.55848897 0
4.2920003 0.12951054 0.55844927 0
4.2930002 0.12253341 0.55848897 0
4.2930002 0.11551118 0.55848897 0
4.2950001 0.10856833 0.55856836 0
4.2980003 0.10165612 0.55868739 0
4.302 0.09476918 0.55884612 0
4.3070002 0.087902099 0.55904454 0
4.3130002 0.081049427 0.55928266 0
4.322 0.074267104 0.55963981 0
4.0840001 0.67833006 0.54354984 0
4.079 0.67071068 0.54336041 0
4.0750003 0.66330248 0.5432089 0
4.0700002 0.65571749 0.54301953 0
4.0650001 0.6481505 0.54283011 0
4.0599999 0.64060158 0.54264069 0
4.0550003 0.63307071 0.54245132 0
4.0500002 0.62555778 0.5422619 0
4.046 0.61824512 0.54211038 0
4.0410004 0.61076659 0.54192102 0
4.0360003 0.60330606 0.5417316 0
4.0310001 0.59586352 0.54154217 0
4.026 0.58843905 0.54135281 0
4.0220003 0.58120579 0.54120129 0
4.0170002 0.57381558 0.54101187 0
4.0120001 0.56644338 0.54082251 0
4.007 0.5590893 0.54063308 0
4.0030003 0.5519191 0.54048157 0
3.9980004 0.54459929 0.54029214 0
3.9930003 0.53729749 0.54010272 0
3.9890003 0.53017426 0.53995121 0
3.9840002 0.52290666 0.53976184 0
3.9790003 0.51565719 0.53957242 0
3.9750004 0.5085808 0.5394209 0
3.9700003 0.5013656 0.53923154 0
3.9660003 0.49431992 0.53908002 0
3.9610002 0.48713899 0.5388906 0
3.9560003 0.47997606 0.53870118 0
3.9520004 0.47297734 0.53854966 0
3.9470003 0.46584862 0.5383603 0
3.9430003 0.45888048 0.53820878 0
3.9380002 0.45178613 0.53801936 0
3.9340003 0.44484869 0.53786784 0
3.9290004 0.43778858 0.53767848 0
3.9250002 0.43088177 0.53752691 0
3.9200003 0.42385596 0.53733754 0
3.9160004 0.41697988 0.53718603 0
3.9110003 0.40998828 0.5369966 0
3.9070003 0.40314284 0.53684509 0
3.9020002 0.39618552 0.53665566 0
3.8980002 0.38937077 0.53650415 0
3.8940003 0.38257039 0.53635263 0
3.8890002 0.37566361 0.53616321 0
3.8850002 0.36889392 0.5360117 0
3.8800004 0.36202142 0.53582233 0
3.8760002 0.35528237 0.53567082 0
3.8730001 0.34867141 0.53555715 0
3.8820002 0.34341332 0.53589809 0
3.8900003 0.33801273 0.53620112 0
3.8980002 0.33258325 0.53650415 0
4.046 0.34202442 0.54211038 0
4.0410004 0.33492461 0.54192102 0
4.0370002 0.32794568 0.54176944 0
4.0339999 0.32108217 0.54165584 0
4.0320001 0.31432873 0.54158008 0
4.0310001 0.30767992 0.54154217 0
4.0310001 0.30113026 0.54154217 0
4.0320001 0.29467446 0.54158008 0
4.0339999 0.28830698 0.54165584 0
4.0360003 0.28193232 0.5417316 0
4.04 0.27572721 0.54188311 0
4.0450001 0.26959428 0.54207253 0
4.052 0.26361287 0.54233766 0
4.0620003 0.25785512 0.5427165 0
4.3080001 0.16547847 0.55203497 0
4.303 0.15816763 0.55184555 0
4.2990003 0.15092535 0.55169404 0
4.2969999 0.14379489 0.55161828 0
4.2950001 0.13667166 0.55154252 0
4.2950001 0.12964582 0.55154252 0
4.2950001 0.12261999 0.55154252 0
4.296 0.11563563 0.55158037 0
4.2980003 0.10868737 0.55165613 0
4.3010001 0.10176978 0.55176979 0
4.3040004 0.094841346 0.55188346 0
4.3099999 0.088004902 0.55211067 0
4.3170004 0.081179306 0.55237585 0
4.3270001 0.074420437 0.55275464 0
4.0840001 0.67833006 0.53690463 0
4.079 0.67071068 0.53672421 0
4.0750003 0.66330248 0.53657991 0
4.0700002 0.65571749 0.53639954 0
4.0650001 0.6481505 0.53621912 0
4.0599999 0.64060158 0.53603876 0
4.0550003 0.63307071 0.53585839 0
4.0500002 0.62555778 0.53567803 0
4.046 0.61824512 0.53553373 0
4.0410004 0.61076659 0.5353533 0
4.0360003 0.60330606 0.53517294 0
4.0310001 0.59586352 0.53499258 0
4.026 0.58843905 0.53481221 0
4.0220003 0.58120579 0.53466785 0
4.0170002 0.57381558 0.53448749 0
4.0120001 0.56644338 0.53430712 0
4.007 0.5590893 0.53412676 0
4.0030003 0.5519191 0.53398246 0
3.9980004 0.54459929 0.53380203 0
3.9930003 0.53729749 0.53362167 0
3.9890003 0.53017426 0.53347737 0
3.9840002 0.52290666 0.533297 0
3.9790003 0.51565719 0.53311658 0
3.9750004 0.5085808 0.53297234 0
3.9700003 0.5013656 0.53279191 0
3.9660003 0.49431992 0.53264761 0
3.9610002 0.48713899 0.53246725 0
3.9560003 0.47997606 0.53228688 0
3.9520004 0.47297734 0.53214258 0
3.9470003 0.46584862 0.53196216 0
3.9430003 0.45888048 0.53181785 0
3.9380002 0.45178613 0.53163749 0
3.9340003 0.44484869 0.53149319 0
3.9290004 0.43778858 0.53131282 0
3.9250002 0.43088177 0.53116846 0
3.9200003 0.42385596 0.5309881 0
3.9160004 0.41697988 0.53084379 0
3.9110003 0.40998828 0.53066343 0
3.9070003 0.40314284 0.53051913 0
3.9020002 0.39618552 0.53033876 0
3.8980002 0.38937077 0.53019446 0
3.8940003 0.38257039 0.53005016 0
3.8890002 0.37566361 0.52986974 0
3.8850002 0.36889392 0.52972543 0
3.8800004 0.36202142 0.52954507 0
3.8760002 0.35528237 0.52940077 0
3.8730001 0.34867141 0.52929252 0
3.8820002 0.34341332 0.52961719 0
3.8900003 0.33801273 0.5299058 0
3.8980002 0.33258325 0.53019446 0
4.046 0.34202442 0.53553373 0
4.0410004 0.33492461 0.5353533 0
4.0370002 0.32794568 0.53520906 0
4.0339999 0.32108217 0.53510082 0
4.0320001 0.31432873 0.53502864 0
4.0310001 0.30767992 0.53499258 0
4.0310001 0.30113026 0.53499258 0
4.0320001 0.29467446 0.53502864 0
4.0339999 0.28830698 0.53510082 0
4.0360003 0.28193232 0.53517294 0
4.04 0.27572721 0.53531724 0
4.0450001 0.26959428 0.53549767 0
4.052 0.26361287 0.53575015 0
4.0620003 0.25785512 0.53611094 0
4.3070002 0.15837689 0.54494959 0
4.303 0.15112737 0.54480529 0
4.3010001 0.1439897 0.54473317 0
4.2990003 0.13685925 0.54466099 0
4.2980003 0.12978111 0.54462492 0
4.2980003 0.12274987 0.54462492 0
4.2990003 0.1157601 0.54466099 0
4.3010001 0.10880643 0.54473317 0
4.3040004 0.10188343 0.54484135 0
4.309 0.095021725 0.54502177 0
4.3140001 0.088142008 0.54520214 0
4.322 0.081341639 0.54549074 0
4.0840001 0.67833006 0.53025937 0
4.0799999 0.67090553 0.53012228 0
4.0750003 0.66330248 0.52995092 0
4.0700002 0.65571749 0.52977955 0
4.0650001 0.6481505 0.52960819 0
4.0599999 0.64060158 0.52943683 0
4.0550003 0.63307071 0.52926546 0
4.0500002 0.62555778 0.5290941 0
4.046 0.61824512 0.52895701 0
4.0410004 0.61076659 0.52878571 0
4.0360003 0.60330606 0.52861428 0
4.0310001 0.59586352 0.52844292 0
4.026 0.58843905 0.52827156 0
4.0220003 0.58120579 0.52813447 0
4.0170002 0.57381558 0.5279631 0
4.0120001 0.56644338 0.52779174 0
4.007 0.5590893 0.52762043 0
4.0030003 0.5519191 0.52748328 0
3.9980004 0.54459929 0.52731198 0
3.9930003 0.53729749 0.52714062 0
3.9890003 0.53017426 0.52700353 0
3.9840002 0.52290666 0.5268321 0
3.9790003 0.51565719 0.5266608 0
3.9750004 0.5085808 0.52652371 0
3.9700003 0.5013656 0.52635235 0
3.9660003 0.49431992 0.52621526 0
3.9610002 0.48713899 0.52604389 0
3.9560003 0.47997606 0.52587253 0
3.9520004 0.47297734 0.52573544 0
3.9470003 0.46584862 0.52556407 0
3.9430003 0.45888048 0.52542698 0
3.9380002 0.45178613 0.52525562 0
3.9340003 0.44484869 0.52511853 0
3.9290004 0.43778858 0.52494717 0
3.9250002 0.43088177 0.52481008 0
3.9200003 0.42385596 0.52463871 0
3.9160004 0.41697988 0.52450162 0
3.9110003 0.40998828 0.52433026 0
3.9070003 0.40314284 0.52419317 0
3.9020002 0.39618552 0.5240218 0
3.8980002 0.38937077 0.52388471 0
3.8940003 0.38257039 0.52374762 0
3.8890002 0.37566361 0.52357626 0
3.8850002 0.36889392 0.52343917 0
3.8800004 0.36202142 0.52326781 0
3.8760002 0.35528237 0.52313071 0
3.8730001 0.34867141 0.5230279 0
3.8820002 0.34341332 0.52333635 0
3.8900003 0.33801273 0.52361053 0
3.8980002 0.33258325 0.52388471 0
4.046 0.34202442 0.52895701 0
4.0410004 0.33492461 0.52878571 0
4.0370002 0.32794568 0.52864856 0
4.0339999 0.32108217 0.52854574 0
4.0320001 0.31432873 0.52847719 0
4.0310001 0.30767992 0.52844292 0
4.0310001 0.30113026 0.52844292 0
