# .PCD v0.7 - Point Cloud Data file format
VERSION 0.7
FIELDS x y z intensity
SIZE 4 4 4 4
TYPE F F F F
COUNT 1 1 1 1
WIDTH 1506
HEIGHT 1
VIEWPOINT 0 0 0 1 0 0 0
POINTS 1506
DATA ascii
5.8440003 2.978539 2.3974462 0
5.8540006 2.974257 2.401108 0
5.7690005 3.0143483 2.3602986 0
5.7780004 3.0097773 2.3635778 0
5.7870002 3.0051742 2.3668573 0
5.7970004 3.0011029 2.370501 0
5.8060002 2.9964328 2.3737803 0
5.8160005 2.9922912 2.377424 0
5.8250003 2.9875543 2.3807032 0
5.8350005 2.9833426 2.384347 0
5.8440003 2.978539 2.3876262 0
5.8540006 2.974257 2.3912702 0
5.7690005 3.0143483 2.3506138 0
5.7780004 3.0097773 2.3538771 0
5.7870002 3.0051742 2.3571401 0
5.7970004 3.0011029 2.3607659 0
5.8060002 2.9964328 2.3640289 0
5.8160005 2.9922912 2.3676546 0
5.8250003 2.9875543 2.3709176 0
5.8350005 2.9833426 2.3745432 0
5.8440003 2.978539 2.3778062 0
5.8540006 2.974257 2.3814321 0
5.7690005 3.0143483 2.3409293 0
5.7780004 3.0097773 2.3441763 0
5.7870002 3.0051742 2.3474228 0
5.7970004 3.0011029 2.3510306 0
5.8060002 2.9964328 2.3542774 0
5.8160005 2.9922912 2.3578851 0
5.8250003 2.9875543 2.3611319 0
5.8350005 2.9833426 2.3647397 0
5.8440003 2.978539 2.3679864 0
5.8540006 2.974257 2.371594 0
5.7690005 3.0143483 2.3312445 0
5.7780004 3.0097773 2.3344753 0
5.7870002 3.0051742 2.3377059 0
5.7970004 3.0011029 2.3412955 0
5.8060002 2.9964328 2.3445261 0
5.8160005 2.9922912 2.3481157 0
5.8250003 2.9875543 2.3513463 0
5.8350005 2.9833426 2.3549359 0
5.8440003 2.978539 2.3581665 0
5.8540006 2.974257 2.3617561 0
5.7690005 3.0143483 2.3215601 0
5.7780004 3.0097773 2.3247743 0
5.7870002 3.0051742 2.3279886 0
5.7970004 3.0011029 2.3315604 0
5.8060002 2.9964328 2.3347747 0
5.8160005 2.9922912 2.3383462 0
5.8250003 2.9875543 2.3415606 0
5.8350005 2.9833426 2.3451324 0
5.8440003 2.978539 2.3483467 0
5.8540006 2.974257 2.3519182 0
5.7690005 3.0143483 2.3118753 0
5.7780004 3.0097773 2.3150735 0
5.7870002 3.0051742 2.3182716 0
5.7970004 3.0011029 2.3218253 0
5.8060002 2.9964328 2.3250232 0
5.8160005 2.9922912 2.3285768 0
5.8250003 2.9875543 2.331775 0
5.8350005 2.9833426 2.3353286 0
5.8440003 2.978539 2.3385265 0
5.8540006 2.974257 2.3420801 0
5.7690005 3.0143483 2.3021908 0
5.7780004 3.0097773 2.3053725 0
5.7870002 3.0051742 2.3085544 0
5.7970004 3.0011029 2.3120899 0
5.8060002 2.9964328 2.3152719 0
5.8160005 2.9922912 2.3188076 0
5.8250003 2.9875543 2.3219893 0
5.8350005 2.9833426 2.3255248 0
5.8440003 2.978539 2.3287067 0
5.8540006 2.974257 2.3322423 0
5.7690005 3.0143483 2.292506 0
5.7780004 3.0097773 2.2956717 0
5.7870002 3.0051742 2.2988372 0
5.7970004 3.0011029 2.3023548 0
5.8060002 2.9964328 2.3055205 0
5.8160005 2.9922912 2.3090382 0
5.8250003 2.9875543 2.3122036 0
5.8350005 2.9833426 2.315721 0
5.8440003 2.978539 2.3188868 0
5.8540006 2.974257 2.3224044 0
5.7690005 3.0143483 2.2828214 0
5.7780004 3.0097773 2.2859707 0
5.7870002 3.0051742 2.2891202 0
5.7970004 3.0011029 2.2926197 0
5.8060002 2.9964328 2.2957692 0
5.8160005 2.9922912 2.2992685 0
5.8250003 2.9875543 2.302418 0
5.8350005 2.9833426 2.3059175 0
5.8440003 2.978539 2.3090668 0
5.8540006 2.974257 2.3125663 0
5.7690005 3.0143483 2.2731366 0
5.7780004 3.0097773 2.2762702 0
5.7870002 3.0051742 2.2794032 0
5.7970004 3.0011029 2.2828846 0
5.8060002 2.9964328 2.2860177 0
5.8160005 2.9922912 2.289499 0
5.8250003 2.9875543 2.2926323 0
5.8350005 2.9833426 2.2961137 0
5.8440003 2.978539 2.2992468 0
5.8540006 2.974257 2.3027282 0
5.7690005 3.0143483 2.2634523 0
5.7780004 3.0097773 2.2665691 0
5.7870002 3.0051742 2.269686 0
5.7970004 3.0011029 2.2731495 0
5.8060002 2.9964328 2.2762663 0
5.8160005 2.9922912 2.2797296 0
5.8250003 2.9875543 2.2828467 0
5.8350005 2.9833426 2.28631 0
5.8440003 2.978539 2.289427 0
5.8540006 2.974257 2.2928903 0
5.7690005 3.0143483 2.2537675 0
5.7780004 3.0097773 2.2568681 0
5.7870002 3.0051742 2.2599688 0
5.7970004 3.0011029 2.2634141 0
5.8060002 2.9964328 2.266515 0
5.8160005 2.9922912 2.2699602 0
5.8250003 2.9875543 2.273061 0
5.8350005 2.9833426 2.2765064 0
5.8440003 2.978539 2.2796071 0
5.8540006 2.974257 2.2830524 0
5.7690005 3.0143483 2.2440829 0
5.7780004 3.0097773 2.2471673 0
5.7870002 3.0051742 2.2502518 0
5.7970004 3.0011029 2.253679 0
5.8060002 2.9964328 2.2567635 0
5.8160005 2.9922912 2.2601907 0
5.8250003 2.9875543 2.2632751 0
5.8350005 2.9833426 2.2667024 0
5.8440003 2.978539 2.2697871 0
5.8540006 2.974257 2.2732143 0
5.7690005 3.0143483 2.2343981 0
5.7780004 3.0097773 2.2374666 0
5.7870002 3.0051742 2.2405345 0
5.7970004 3.0011029 2.2439439 0
5.8060002 2.9964328 2.2470121 0
5.8160005 2.9922912 2.2504215 0
5.8250003 2.9875543 2.2534897 0
5.8350005 2.9833426 2.2568989 0
5.8440003 2.978539 2.2599671 0
5.8540006 2.974257 2.2633762 0
5.7690005 3.0143483 2.2247136 0
5.7780004 3.0097773 2.2277656 0
5.7870002 3.0051742 2.2308176 0
5.7970004 3.0011029 2.2342088 0
5.8060002 2.9964328 2.2372608 0
5.8160005 2.9922912 2.2406521 0
5.8250003 2.9875543 2.2437038 0
5.8350005 2.9833426 2.2470953 0
5.8440003 2.978539 2.2501471 0
5.8540006 2.974257 2.2535384 0
5.7690005 3.0143483 2.2150288 0
5.7780004 3.0097773 2.2180645 0
5.7870002 3.0051742 2.2211003 0
5.7970004 3.0011029 2.2244737 0
5.8060002 2.9964328 2.2275093 0
5.8160005 2.9922912 2.2308826 0
5.8250003 2.9875543 2.2339184 0
5.8350005 2.9833426 2.2372916 0
5.8440003 2.978539 2.2403274 0
5.8540006 2.974257 2.2437005 0
5.7690005 3.0143483 2.2053442 0
5.7780004 3.0097773 2.2083638 0
5.7870002 3.0051742 2.2113833 0
5.7970004 3.0011029 2.2147384 0
5.8060002 2.9964328 2.2177579 0
5.8160005 2.9922912 2.2211132 0
5.8250003 2.9875543 2.2241328 0
5.8350005 2.9833426 2.2274878 0
5.8440003 2.978539 2.2305074 0
5.8540006 2.974257 2.2338624 0
5.7690005 3.0143483 2.1956596 0
5.7780004 3.0097773 2.198663 0
5.7870002 3.0051742 2.2016661 0
5.7970004 3.0011029 2.2050033 0
5.8060002 2.9964328 2.2080066 0
5.8160005 2.9922912 2.2113438 0
5.8250003 2.9875543 2.2143471 0
5.8350005 2.9833426 2.2176843 0
5.8440003 2.978539 2.2206874 0
5.8540006 2.974257 2.2240245 0
5.7690005 3.0143483 2.1859748 0
5.7780004 3.0097773 2.188962 0
5.7870002 3.0051742 2.1919491 0
5.7970004 3.0011029 2.1952682 0
5.8060002 2.9964328 2.1982553 0
5.8160005 2.9922912 2.2015743 0
5.8250003 2.9875543 2.2045612 0
5.8350005 2.9833426 2.2078805 0
5.8440003 2.978539 2.2108674 0
5.8540006 2.974257 2.2141864 0
5.7690005 3.0143483 2.1762903 0
5.7780004 3.0097773 2.1792612 0
5.7870002 3.0051742 2.1822319 0
5.7970004 3.0011029 2.185533 0
5.8060002 2.9964328 2.1885037 0
5.8160005 2.9922912 2.1918049 0
5.8250003 2.9875543 2.1947756 0
5.8350005 2.9833426 2.1980767 0
5.8440003 2.978539 2.2010477 0
5.8540006 2.974257 2.2043486 0
5.7690005 3.0143483 2.1666057 0
5.7780004 3.0097773 2.1695602 0
5.7870002 3.0051742 2.1725149 0
5.7970004 3.0011029 2.1757977 0
5.8060002 2.9964328 2.1787524 0
5.8160005 2.9922912 2.1820354 0
5.8250003 2.9875543 2.1849899 0
5.8350005 2.9833426 2.1882732 0
5.8440003 2.978539 2.1912277 0
5.8540006 2.974257 2.1945107 0
5.7690005 3.0143483 2.1569209 0
5.7780004 3.0097773 2.1598594 0
5.7870002 3.0051742 2.1627977 0
5.7970004 3.0011029 2.1660626 0
5.8060002 2.9964328 2.1690011 0
5.8160005 2.9922912 2.172266 0
5.8250003 2.9875543 2.1752043 0
5.8350005 2.9833426 2.1784692 0
5.8440003 2.978539 2.1814077 0
5.8540006 2.974257 2.1846726 0
5.7690005 3.0143483 2.1472363 0
5.7780004 3.0097773 2.1501584 0
5.7870002 3.0051742 2.1530807 0
5.7970004 3.0011029 2.1563275 0
5.8060002 2.9964328 2.1592495 0
5.8160005 2.9922912 2.1624966 0
5.8250003 2.9875543 2.1654189 0
5.8350005 2.9833426 2.1686656 0
5.8440003 2.978539 2.1715877 0
5.8540006 2.974257 2.1748347 0
5.7690005 3.0143483 2.1375518 0
5.7780004 3.0097773 2.1404576 0
5.7870002 3.0051742 2.1433635 0
5.7970004 3.0011029 2.1465924 0
5.8060002 2.9964328 2.1494982 0
5.8160005 2.9922912 2.1527271 0
5.8250003 2.9875543 2.155633 0
5.8350005 2.9833426 2.1588619 0
5.8440003 2.978539 2.161768 0
5.8540006 2.974257 2.1649969 0
5.7690005 3.0143483 2.127867 0
5.7780004 3.0097773 2.1307569 0
5.7870002 3.0051742 2.1336462 0
5.7970004 3.0011029 2.1368573 0
5.8060002 2.9964328 2.1397469 0
5.8160005 2.9922912 2.1429577 0
5.8250003 2.9875543 2.1458473 0
5.8350005 2.9833426 2.1490581 0
5.8440003 2.978539 2.151948 0
5.8540006 2.974257 2.1551588 0
5.7690005 3.0143483 2.1181824 0
5.7780004 3.0097773 2.1210558 0
5.7870002 3.0051742 2.1239293 0
5.7970004 3.0011029 2.1271222 0
5.8060002 2.9964328 2.1299953 0
5.8160005 2.9922912 2.1331882 0
5.8250003 2.9875543 2.1360617 0
5.8350005 2.9833426 2.1392546 0
5.8440003 2.978539 2.142128 0
5.8540006 2.974257 2.1453209 0
5.7690005 3.0143483 2.1084979 0
5.7780004 3.0097773 2.1113551 0
5.7870002 3.0051742 2.114212 0
5.7970004 3.0011029 2.1173871 0
5.8060002 2.9964328 2.1202443 0
5.8160005 2.9922912 2.1234188 0
5.8250003 2.9875543 2.126276 0
5.8350005 2.9833426 2.1294508 0
5.8440003 2.978539 2.132308 0
5.8540006 2.974257 2.1354828 0
5.7690005 3.0143483 2.0988131 0
5.7780004 3.0097773 2.1016541 0
5.7870002 3.0051742 2.104495 0
5.7970004 3.0011029 2.1076517 0
5.8060002 2.9964328 2.1104927 0
5.8160005 2.9922912 2.1136494 0
5.8250003 2.9875543 2.1164904 0
5.8350005 2.9833426 2.119647 0
5.8440003 2.978539 2.122488 0
5.8540006 2.974257 2.1256447 0
5.7690005 3.0143483 2.0891285 0
5.7780004 3.0097773 2.0919533 0
5.7870002 3.0051742 2.0947778 0
5.7970004 3.0011029 2.0979166 0
5.8060002 2.9964328 2.1007414 0
5.8160005 2.9922912 2.1038799 0
5.8250003 2.9875543 2.1067047 0
5.8350005 2.9833426 2.1098435 0
5.8440003 2.978539 2.112668 0
5.8540006 2.974257 2.1158068 0
5.7690005 3.0143483 2.0794439 0
5.7780004 3.0097773 2.0822523 0
5.7870002 3.0051742 2.0850608 0
5.7970004 3.0011029 2.0881815 0
5.8060002 2.9964328 2.0909901 0
5.8160005 2.9922912 2.0941107 0
5.8250003 2.9875543 2.0969191 0
5.8350005 2.9833426 2.1000397 0
5.8440003 2.978539 2.1028481 0
5.8540006 2.974257 2.1059687 0
5.7690005 3.0143483 2.0697591 0
5.7780004 3.0097773 2.0725515 0
5.7870002 3.0051742 2.0753436 0
5.7970004 3.0011029 2.0784464 0
5.8060002 2.9964328 2.0812385 0
5.8160005 2.9922912 2.0843413 0
5.8250003 2.9875543 2.0871334 0
5.8350005 2.9833426 2.0902359 0
5.8440003 2.978539 2.0930283 0
5.8540006 2.974257 2.0961308 0
5.7690005 3.0143483 2.0600746 0
5.7780004 3.0097773 2.0628507 0
5.7870002 3.0051742 2.0656266 0
5.7970004 3.0011029 2.068711 0
5.8060002 2.9964328 2.0714872 0
5.8160005 2.9922912 2.0745718 0
5.8250003 2.9875543 2.0773478 0
5.8350005 2.9833426 2.0804324 0
5.8440003 2.978539 2.0832083 0
5.8540006 2.974257 2.086293 0
5.7690005 3.0143483 2.05039 0
5.7780004 3.0097773 2.0531497 0
5.7870002 3.0051742 2.0559096 0
5.7970004 3.0011029 2.0589759 0
5.8060002 2.9964328 2.0617359 0
5.8160005 2.9922912 2.0648024 0
5.8250003 2.9875543 2.0675621 0
5.8350005 2.9833426 2.0706286 0
5.8440003 2.978539 2.0733883 0
5.8540006 2.974257 2.0764549 0
5.7690005 3.0143483 2.0407052 0
5.7780004 3.0097773 2.0434487 0
5.7870002 3.0051742 2.0461924 0
5.7970004 3.0011029 2.0492408 0
5.8060002 2.9964328 2.0519843 0
5.8160005 2.9922912 2.055033 0
5.8250003 2.9875543 2.0577765 0
5.8350005 2.9833426 2.0608249 0
5.8440003 2.978539 2.0635684 0
5.8540006 2.974257 2.066617 0
5.7690005 3.0143483 2.0310206 0
5.7780004 3.0097773 2.0337479 0
5.7870002 3.0051742 2.0364752 0
5.7970004 3.0011029 2.0395057 0
5.8060002 2.9964328 2.042233 0
5.8160005 2.9922912 2.0452635 0
5.8250003 2.9875543 2.0479908 0
5.8350005 2.9833426 2.0510213 0
5.8440003 2.978539 2.0537486 0
5.8540006 2.974257 2.0567791 0
5.7690005 3.0143483 2.0213358 0
5.7780004 3.0097773 2.0240471 0
5.7870002 3.0051742 2.0267582 0
5.7970004 3.0011029 2.0297706 0
5.8060002 2.9964328 2.0324817 0
5.8160005 2.9922912 2.0354941 0
5.8250003 2.9875543 2.0382051 0
5.8350005 2.9833426 2.0412176 0
5.8440003 2.978539 2.0439286 0
5.8540006 2.974257 2.046941 0
5.7690005 3.0143483 2.0116513 0
5.7780004 3.0097773 2.0143461 0
5.7870002 3.0051742 2.017041 0
5.7970004 3.0011029 2.0200353 0
5.8060002 2.9964328 2.0227301 0
5.8160005 2.9922912 2.0257246 0
5.8250003 2.9875543 2.0284195 0
5.8350005 2.9833426 2.0314138 0
5.8440003 2.978539 2.0341086 0
5.8540006 2.974257 2.0371032 0
5.7690005 3.0143483 2.0019667 0
5.7780004 3.0097773 2.0046453 0
5.7870002 3.0051742 2.007324 0
5.7970004 3.0011029 2.0103002 0
5.8060002 2.9964328 2.0129788 0
5.8160005 2.9922912 2.0159552 0
5.8250003 2.9875543 2.0186338 0
5.8350005 2.9833426 2.0216103 0
5.8440003 2.978539 2.0242887 0
5.8540006 2.974257 2.0272651 0
5.7690005 3.0143483 1.992282 0
5.7780004 3.0097773 1.9949446 0
5.7870002 3.0051742 1.9976069 0
5.7970004 3.0011029 2.0005651 0
5.8060002 2.9964328 2.0032275 0
5.8160005 2.9922912 2.0061858 0
5.8250003 2.9875543 2.0088482 0
5.8350005 2.9833426 2.0118065 0
5.8440003 2.978539 2.0144689 0
5.8540006 2.974257 2.0174272 0
5.7690005 3.0143483 1.9825975 0
5.7780004 3.0097773 1.9852436 0
5.7870002 3.0051742 1.9878896 0
5.7970004 3.0011029 1.9908301 0
5.8060002 2.9964328 1.9934762 0
5.8160005 2.9922912 1.9964163 0
5.8250003 2.9875543 1.9990625 0
5.8350005 2.9833426 2.0020027 0
5.8440003 2.978539 2.0046489 0
5.8540006 2.974257 2.0075891 0
5.7690005 3.0143483 1.9729128 0
5.7780004 3.0097773 1.9755427 0
5.7870002 3.0051742 1.9781727 0
5.7970004 3.0011029 1.9810948 0
5.8060002 2.9964328 1.9837248 0
5.8160005 2.9922912 1.986647 0
5.8250003 2.9875543 1.9892769 0
5.8350005 2.9833426 1.9921992 0
5.8440003 2.978539 1.9948291 0
5.8540006 2.974257 1.9977514 0
5.7690005 3.0143483 1.9632281 0
5.7780004 3.0097773 1.9658418 0
5.7870002 3.0051742 1.9684554 0
5.7970004 3.0011029 1.9713597 0
5.8060002 2.9964328 1.9739734 0
5.8160005 2.9922912 1.9768776 0
5.8250003 2.9875543 1.9794912 0
5.8350005 2.9833426 1.9823955 0
5.8440003 2.978539 1.9850091 0
5.8540006 2.974257 1.9879133 0
5.7690005 3.0143483 1.9535434 0
5.7780004 3.0097773 1.956141 0
5.7870002 3.0051742 1.9587384 0
5.7970004 3.0011029 1.9616245 0
5.8060002 2.9964328 1.964222 0
5.8160005 2.9922912 1.9671081 0
5.8250003 2.9875543 1.9697055 0
5.8350005 2.9833426 1.9725918 0
5.8440003 2.978539 1.9751892 0
5.8540006 2.974257 1.9780753 0
5.7690005 3.0143483 1.9438589 0
5.7780004 3.0097773 1.9464401 0
5.7870002 3.0051742 1.9490213 0
5.7970004 3.0011029 1.9518894 0
5.8060002 2.9964328 1.9544706 0
5.8160005 2.9922912 1.9573387 0
5.8250003 2.9875543 1.9599199 0
5.8350005 2.9833426 1.962788 0
5.8440003 2.978539 1.9653693 0
5.8540006 2.974257 1.9682374 0
5.7690005 3.0143483 1.9341742 0
5.7780004 3.0097773 1.9367392 0
5.7870002 3.0051742 1.9393041 0
5.7970004 3.0011029 1.9421543 0
5.8060002 2.9964328 1.9447192 0
5.8160005 2.9922912 1.9475693 0
5.8250003 2.9875543 1.9501343 0
5.8350005 2.9833426 1.9529843 0
5.8440003 2.978539 1.9555492 0
5.8540006 2.974257 1.9583993 0
5.7690005 3.0143483 1.9244895 0
5.7780004 3.0097773 1.9270383 0
5.7870002 3.0051742 1.9295871 0
5.7970004 3.0011029 1.9324191 0
5.8060002 2.9964328 1.9349678 0
5.8160005 2.9922912 1.9377999 0
5.8250003 2.9875543 1.9403486 0
5.8350005 2.9833426 1.9431806 0
5.8440003 2.978539 1.9457293 0
5.8540006 2.974257 1.9485614 0
5.7690005 3.0143483 1.9148049 0
5.7780004 3.0097773 1.9173374 0
5.7870002 3.0051742 1.9198699 0
5.7970004 3.0011029 1.922684 0
5.8060002 2.9964328 1.9252164 0
5.8160005 2.9922912 1.9280305 0
5.8250003 2.9875543 1.930563 0
5.8350005 2.9833426 1.9333769 0
5.8440003 2.978539 1.9359094 0
5.8540006 2.974257 1.9387234 0
5.7690005 3.0143483 1.9051203 0
5.7780004 3.0097773 1.9076365 0
5.7870002 3.0051742 1.9101528 0
5.7970004 3.0011029 1.9129487 0
5.8060002 2.9964328 1.915465 0
5.8160005 2.9922912 1.9182609 0
5.8250003 2.9875543 1.9207772 0
5.8350005 2.9833426 1.9235733 0
5.8440003 2.978539 1.9260895 0
5.8540006 2.974257 1.9288855 0
5.7690005 3.0143483 1.8954356 0
5.7780004 3.0097773 1.8979356 0
5.7870002 3.0051742 1.9004357 0
5.7970004 3.0011029 1.9032136 0
5.8060002 2.9964328 1.9057137 0
5.8160005 2.9922912 1.9084916 0
5.8250003 2.9875543 1.9109915 0
5.8350005 2.9833426 1.9137695 0
5.8440003 2.978539 1.9162695 0
5.8540006 2.974257 1.9190475 0
5.7690005 3.0143483 1.885751 0
5.7780004 3.0097773 1.8882349 0
5.7870002 3.0051742 1.8907186 0
5.7970004 3.0011029 1.8934784 0
5.8060002 2.9964328 1.8959624 0
5.8160005 2.9922912 1.8987222 0
5.8250003 2.9875543 1.9012059 0
5.8350005 2.9833426 1.9039658 0
5.8440003 2.978539 1.9064496 0
5.8540006 2.974257 1.9092096 0
5.7690005 3.0143483 1.8760663 0
5.7780004 3.0097773 1.878534 0
5.7870002 3.0051742 1.8810015 0
5.7970004 3.0011029 1.8837433 0
5.8060002 2.9964328 1.8862109 0
5.8160005 2.9922912 1.8889527 0
5.8250003 2.9875543 1.8914204 0
5.8350005 2.9833426 1.8941622 0
5.8440003 2.978539 1.8966297 0
5.8540006 2.974257 1.8993715 0
5.7690005 3.0143483 1.8663816 0
5.7780004 3.0097773 1.8688331 0
5.7870002 3.0051742 1.8712844 0
5.7970004 3.0011029 1.8740082 0
5.8060002 2.9964328 1.8764595 0
5.8160005 2.9922912 1.8791833 0
5.8250003 2.9875543 1.8816347 0
5.8350005 2.9833426 1.8843584 0
5.8440003 2.978539 1.8868098 0
5.8540006 2.974257 1.8895336 0
5.7690005 3.0143483 1.856697 0
5.7780004 3.0097773 1.8591321 0
5.7870002 3.0051742 1.8615671 0
5.7970004 3.0011029 1.8642731 0
5.8060002 2.9964328 1.8667082 0
5.8160005 2.9922912 1.8694139 0
5.8250003 2.9875543 1.8718489 0
5.8350005 2.9833426 1.8745548 0
5.8440003 2.978539 1.8769898 0
5.8540006 2.974257 1.8796957 0
5.7690005 3.0143483 1.8470124 0
5.7780004 3.0097773 1.8494313 0
5.7870002 3.0051742 1.8518502 0
5.7970004 3.0011029 1.854538 0
5.8060002 2.9964328 1.8569567 0
5.8160005 2.9922912 1.8596445 0
5.8250003 2.9875543 1.8620633 0
5.8350005 2.9833426 1.8647511 0
5.8440003 2.978539 1.8671699 0
5.8540006 2.974257 1.8698577 0
5.7690005 3.0143483 1.8373277 0
5.7780004 3.0097773 1.8397304 0
5.7870002 3.0051742 1.842133 0
5.7970004 3.0011029 1.8448027 0
5.8060002 2.9964328 1.8472053 0
5.8160005 2.9922912 1.849875 0
5.8250003 2.9875543 1.8522776 0
5.8350005 2.9833426 1.8549473 0
5.8440003 2.978539 1.85735 0
5.8540006 2.974257 1.8600197 0
5.7690005 3.0143483 1.827643 0
5.7780004 3.0097773 1.8300295 0
5.7870002 3.0051742 1.8324159 0
5.7970004 3.0011029 1.8350676 0
5.8060002 2.9964328 1.837454 0
5.8160005 2.9922912 1.8401055 0
5.8250003 2.9875543 1.842492 0
5.8350005 2.9833426 1.8451437 0
5.8440003 2.978539 1.8475301 0
5.8540006 2.974257 1.8501817 0
5.7690005 3.0143483 1.8179585 0
5.7780004 3.0097773 1.8203286 0
5.7870002 3.0051742 1.8226988 0
5.7970004 3.0011029 1.8253324 0
5.8060002 2.9964328 1.8277025 0
5.8160005 2.9922912 1.8303362 0
5.8250003 2.9875543 1.8327063 0
5.8350005 2.9833426 1.83534 0
5.8440003 2.978539 1.8377101 0
5.8540006 2.974257 1.8403437 0
5.7690005 3.0143483 1.8082738 0
5.7780004 3.0097773 1.8106278 0
5.7870002 3.0051742 1.8129816 0
5.7970004 3.0011029 1.8155973 0
5.8060002 2.9964328 1.8179511 0
5.8160005 2.9922912 1.8205668 0
5.8250003 2.9875543 1.8229207 0
5.8350005 2.9833426 1.8255363 0
5.8440003 2.978539 1.8278902 0
5.8540006 2.974257 1.8305057 0
5.7690005 3.0143483 1.7985891 0
5.7780004 3.0097773 1.8009268 0
5.7870002 3.0051742 1.8032646 0
5.7970004 3.0011029 1.8058621 0
5.8060002 2.9964328 1.8081998 0
5.8160005 2.9922912 1.8107973 0
5.8250003 2.9875543 1.813135 0
5.8350005 2.9833426 1.8157326 0
5.8440003 2.978539 1.8180703 0
5.8540006 2.974257 1.8206679 0
5.7690005 3.0143483 1.7889045 0
5.7780004 3.0097773 1.7912259 0
5.7870002 3.0051742 1.7935474 0
5.7970004 3.0011029 1.796127 0
5.8060002 2.9964328 1.7984484 0
5.8160005 2.9922912 1.8010279 0
5.8250003 2.9875543 1.8033494 0
5.8350005 2.9833426 1.8059289 0
5.8440003 2.978539 1.8082504 0
5.8540006 2.974257 1.8108298 0
5.7690005 3.0143483 1.7792199 0
5.7780004 3.0097773 1.7815251 0
5.7870002 3.0051742 1.7838304 0
5.7970004 3.0011029 1.7863917 0
5.8060002 2.9964328 1.788697 0
5.8160005 2.9922912 1.7912585 0
5.8250003 2.9875543 1.7935637 0
5.8350005 2.9833426 1.7961252 0
5.8440003 2.978539 1.7984304 0
5.8540006 2.974257 1.8009919 0
5.7690005 3.0143483 1.7695352 0
5.7780004 3.0097773 1.7718242 0
5.7870002 3.0051742 1.7741132 0
5.7970004 3.0011029 1.7766566 0
5.8060002 2.9964328 1.7789457 0
5.8160005 2.9922912 1.7814891 0
5.8250003 2.9875543 1.7837781 0
5.8350005 2.9833426 1.7863215 0
5.8440003 2.978539 1.7886105 0
5.8540006 2.974257 1.7911538 0
5.7690005 3.0143483 1.7598505 0
5.7780004 3.0097773 1.7621233 0
5.7870002 3.0051742 1.7643961 0
5.7970004 3.0011029 1.7669214 0
5.8060002 2.9964328 1.7691942 0
5.8160005 2.9922912 1.7717196 0
5.8250003 2.9875543 1.7739923 0
5.8350005 2.9833426 1.7765179 0
5.8440003 2.978539 1.7787905 0
5.8540006 2.974257 1.7813159 0
5.7690005 3.0143483 1.7501659 0
5.7780004 3.0097773 1.7524225 0
5.7870002 3.0051742 1.754679 0
5.7970004 3.0011029 1.7571863 0
5.8060002 2.9964328 1.7594428 0
5.8160005 2.9922912 1.7619501 0
5.8250003 2.9875543 1.7642066 0
5.8350005 2.9833426 1.7667141 0
5.8440003 2.978539 1.7689706 0
5.8540006 2.974257 1.7714779 0
5.7690005 3.0143483 1.7404813 0
5.7780004 3.0097773 1.7427217 0
5.7870002 3.0051742 1.7449619 0
5.7970004 3.0011029 1.7474512 0
5.8060002 2.9964328 1.7496915 0
5.8160005 2.9922912 1.7521808 0
5.8250003 2.9875543 1.7544211 0
5.8350005 2.9833426 1.7569103 0
5.8440003 2.978539 1.7591506 0
5.8540006 2.974257 1.76164 0
5.7690005 3.0143483 1.7307966 0
5.7780004 3.0097773 1.7330207 0
5.7870002 3.0051742 1.7352448 0
5.7970004 3.0011029 1.737716 0
5.8060002 2.9964328 1.73994 0
5.8160005 2.9922912 1.7424114 0
5.8250003 2.9875543 1.7446355 0
5.8350005 2.9833426 1.7471067 0
5.8440003 2.978539 1.7493306 0
5.8540006 2.974257 1.751802 0
5.7690005 3.0143483 1.721112 0
5.7780004 3.0097773 1.7233198 0
5.7870002 3.0051742 1.7255276 0
5.7970004 3.0011029 1.7279809 0
5.8060002 2.9964328 1.7301886 0
5.8160005 2.9922912 1.7326419 0
5.8250003 2.9875543 1.7348498 0
5.8350005 2.9833426 1.7373029 0
5.8440003 2.978539 1.7395108 0
5.8540006 2.974257 1.7419641 0
5.7690005 3.0143483 1.7114273 0
5.7780004 3.0097773 1.7136189 0
5.7870002 3.0051742 1.7158105 0
5.7970004 3.0011029 1.7182457 0
5.8060002 2.9964328 1.7204373 0
5.8160005 2.9922912 1.7228725 0
5.8250003 2.9875543 1.725064 0
5.8350005 2.9833426 1.7274992 0
5.8440003 2.978539 1.7296909 0
5.8540006 2.974257 1.732126 0
5.7690005 3.0143483 1.7017426 0
5.7780004 3.0097773 1.7039181 0
5.7870002 3.0051742 1.7060934 0
5.7970004 3.0011029 1.7085106 0
5.8060002 2.9964328 1.7106858 0
5.8160005 2.9922912 1.7131031 0
5.8250003 2.9875543 1.7152784 0
5.8350005 2.9833426 1.7176956 0
5.8440003 2.978539 1.7198709 0
5.8540006 2.974257 1.7222881 0
5.7690005 3.0143483 1.6920581 0
5.7780004 3.0097773 1.6942172 0
5.7870002 3.0051742 1.6963763 0
5.7970004 3.0011029 1.6987754 0
5.8060002 2.9964328 1.7009345 0
5.8160005 2.9922912 1.7033336 0
5.8250003 2.9875543 1.7054927 0
5.8350005 2.9833426 1.7078918 0
5.8440003 2.978539 1.7100509 0
5.8540006 2.974257 1.7124501 0
5.7690005 3.0143483 1.6823734 0
5.7780004 3.0097773 1.6845163 0
5.7870002 3.0051742 1.6866591 0
5.7970004 3.0011029 1.6890403 0
5.8060002 2.9964328 1.6911832 0
5.8160005 2.9922912 1.6935642 0
5.8250003 2.9875543 1.6957071 0
5.8350005 2.9833426 1.6980882 0
5.8440003 2.978539 1.7002311 0
5.8540006 2.974257 1.7026122 0
5.7690005 3.0143483 1.6726887 0
5.7780004 3.0097773 1.6748154 0
5.7870002 3.0051742 1.6769421 0
5.7970004 3.0011029 1.6793051 0
5.8060002 2.9964328 1.6814318 0
5.8160005 2.9922912 1.6837947 0
5.8250003 2.9875543 1.6859214 0
5.8350005 2.9833426 1.6882845 0
5.8440003 2.978539 1.6904112 0
5.8540006 2.974257 1.6927742 0
5.7690005 3.0143483 1.663004 0
5.7780004 3.0097773 1.6651145 0
5.7870002 3.0051742 1.6672249 0
5.7970004 3.0011029 1.66957 0
5.8060002 2.9964328 1.6716803 0
5.8160005 2.9922912 1.6740254 0
5.8250003 2.9875543 1.6761358 0
5.8350005 2.9833426 1.6784807 0
5.8440003 2.978539 1.6805912 0
5.8540006 2.974257 1.6829362 0
5.7690005 3.0143483 1.6533195 0
5.7780004 3.0097773 1.6554136 0
5.7870002 3.0051742 1.6575079 0
5.7970004 3.0011029 1.6598347 0
5.8060002 2.9964328 1.661929 0
5.8160005 2.9922912 1.664256 0
5.8250003 2.9875543 1.6663501 0
5.8350005 2.9833426 1.6686771 0
5.8440003 2.978539 1.6707712 0
5.8540006 2.974257 1.6730982 0
5.7690005 3.0143483 1.6436348 0
5.7780004 3.0097773 1.6457127 0
5.7870002 3.0051742 1.6477907 0
5.7970004 3.0011029 1.6500996 0
5.8060002 2.9964328 1.6521776 0
5.8160005 2.9922912 1.6544865 0
5.8250003 2.9875543 1.6565645 0
5.8350005 2.9833426 1.6588734 0
5.8440003 2.978539 1.6609514 0
5.8540006 2.974257 1.6632602 0
5.7690005 3.0143483 1.6339501 0
5.7780004 3.0097773 1.636012 0
5.7870002 3.0051742 1.6380736 0
5.7970004 3.0011029 1.6403645 0
5.8060002 2.9964328 1.6424263 0
5.8160005 2.9922912 1.6447171 0
5.8250003 2.9875543 1.6467788 0
5.8350005 2.9833426 1.6490697 0
5.8440003 2.978539 1.6511315 0
5.8540006 2.974257 1.6534224 0
5.7690005 3.0143483 1.6242656 0
5.7780004 3.0097773 1.6263111 0
5.7870002 3.0051742 1.6283565 0
5.7970004 3.0011029 1.6306293 0
5.8060002 2.9964328 1.6326748 0
5.8160005 2.9922912 1.6349477 0
5.8250003 2.9875543 1.6369932 0
5.8350005 2.9833426 1.639266 0
5.8440003 2.978539 1.6413115 0
5.8540006 2.974257 1.6435843 0
5.7690005 3.0143483 1.6145809 0
5.7780004 3.0097773 1.6166102 0
5.7870002 3.0051742 1.6186393 0
5.7970004 3.0011029 1.6208942 0
5.8060002 2.9964328 1.6229234 0
5.8160005 2.9922912 1.6251782 0
5.8250003 2.9875543 1.6272074 0
5.8350005 2.9833426 1.6294624 0
5.8440003 2.978539 1.6314915 0
5.8540006 2.974257 1.6337464 0
5.7690005 3.0143483 1.6048962 0
5.7780004 3.0097773 1.6069092 0
5.7870002 3.0051742 1.6089224 0
5.7970004 3.0011029 1.611159 0
5.8060002 2.9964328 1.6131721 0
5.8160005 2.9922912 1.6154088 0
5.8250003 2.9875543 1.6174219 0
5.8350005 2.9833426 1.6196586 0
5.8440003 2.978539 1.6216716 0
5.8540006 2.974257 1.6239084 0
5.7690005 3.0143483 1.5952115 0
5.7780004 3.0097773 1.5972084 0
5.7870002 3.0051742 1.5992051 0
5.7970004 3.0011029 1.6014239 0
5.8060002 2.9964328 1.6034206 0
5.8160005 2.9922912 1.6056393 0
5.8250003 2.9875543 1.6076362 0
5.8350005 2.9833426 1.6098549 0
5.8440003 2.978539 1.6118517 0
5.8540006 2.974257 1.6140704 0
5.7690005 3.0143483 1.5855269 0
5.7780004 3.0097773 1.5875075 0
5.7870002 3.0051742 1.589488 0
5.7970004 3.0011029 1.5916888 0
5.8060002 2.9964328 1.5936693 0
5.8160005 2.9922912 1.59587 0
5.8250003 2.9875543 1.5978506 0
5.8350005 2.9833426 1.6000513 0
5.8440003 2.978539 1.6020317 0
5.8540006 2.974257 1.6042324 0
5.7690005 3.0143483 1.5758423 0
5.7780004 3.0097773 1.5778066 0
5.7870002 3.0051742 1.5797709 0
5.7970004 3.0011029 1.5819536 0
5.8060002 2.9964328 1.583918 0
5.8160005 2.9922912 1.5861006 0
5.8250003 2.9875543 1.5880649 0
5.8350005 2.9833426 1.5902475 0
5.8440003 2.978539 1.5922117 0
5.8540006 2.974257 1.5943946 0
5.7690005 3.0143483 1.5661576 0
5.7780004 3.0097773 1.5681057 0
5.7870002 3.0051742 1.5700538 0
5.7970004 3.0011029 1.5722184 0
5.8060002 2.9964328 1.5741665 0
5.8160005 2.9922912 1.5763311 0
5.8250003 2.9875543 1.5782791 0
5.8350005 2.9833426 1.5804439 0
5.8440003 2.978539 1.5823919 0
5.8540006 2.974257 1.5845565 0
5.7690005 3.0143483 1.556473 0
5.7780004 3.0097773 1.5584049 0
5.7870002 3.0051742 1.5603367 0
5.7970004 3.0011029 1.5624833 0
5.8060002 2.9964328 1.5644151 0
5.8160005 2.9922912 1.5665617 0
5.8250003 2.9875543 1.5684935 0
5.8350005 2.9833426 1.5706402 0
5.8440003 2.978539 1.572572 0
5.8540006 2.974257 1.5747186 0
5.7690005 3.0143483 1.5467883 0
5.7780004 3.0097773 1.5487039 0
5.7870002 3.0051742 1.5506196 0
5.7970004 3.0011029 1.5527481 0
5.8060002 2.9964328 1.5546638 0
5.8160005 2.9922912 1.5567923 0
5.8250003 2.9875543 1.5587078 0
5.8350005 2.9833426 1.5608364 0
5.8440003 2.978539 1.562752 0
5.8540006 2.974257 1.5648806 0
5.7690005 3.0143483 1.5371037 0
5.7780004 3.0097773 1.539003 0
5.7870002 3.0051742 1.5409024 0
5.7970004 3.0011029 1.543013 0
5.8060002 2.9964328 1.5449123 0
5.8160005 2.9922912 1.5470228 0
5.8250003 2.9875543 1.5489222 0
5.8350005 2.9833426 1.5510327 0
5.8440003 2.978539 1.552932 0
5.8540006 2.974257 1.5550426 0
5.7690005 3.0143483 1.5274191 0
5.7780004 3.0097773 1.5293022 0
5.7870002 3.0051742 1.5311854 0
5.7970004 3.0011029 1.5332779 0
5.8060002 2.9964328 1.5351609 0
5.8160005 2.9922912 1.5372534 0
5.8250003 2.9875543 1.5391366 0
5.8350005 2.9833426 1.541229 0
5.8440003 2.978539 1.5431122 0
5.8540006 2.974257 1.5452046 0
5.7690005 3.0143483 1.5177344 0
5.7780004 3.0097773 1.5196013 0
5.7870002 3.0051742 1.5214682 0
5.7970004 3.0011029 1.5235426 0
5.8060002 2.9964328 1.5254096 0
5.8160005 2.9922912 1.5274839 0
5.8250003 2.9875543 1.5293509 0
5.8350005 2.9833426 1.5314252 0
5.8440003 2.978539 1.5332923 0
5.8540006 2.974257 1.5353667 0
5.7690005 3.0143483 1.5080497 0
5.7780004 3.0097773 1.5099005 0
5.7870002 3.0051742 1.5117511 0
5.7970004 3.0011029 1.5138075 0
5.8060002 2.9964328 1.5156581 0
5.8160005 2.9922912 1.5177146 0
5.8250003 2.9875543 1.5195652 0
5.8350005 2.9833426 1.5216216 0
5.8440003 2.978539 1.5234723 0
5.8540006 2.974257 1.5255287 0
5.7690005 3.0143483 1.498365 0
5.7780004 3.0097773 1.5001996 0
5.7870002 3.0051742 1.5020341 0
5.7970004 3.0011029 1.5040723 0
5.8060002 2.9964328 1.5059067 0
5.8160005 2.9922912 1.5079452 0
5.8250003 2.9875543 1.5097796 0
5.8350005 2.9833426 1.5118179 0
5.8440003 2.978539 1.5136523 0
5.8540006 2.974257 1.5156907 0
5.7690005 3.0143483 1.4886805 0
5.7780004 3.0097773 1.4904988 0
5.7870002 3.0051742 1.4923168 0
5.7970004 3.0011029 1.4943372 0
5.8060002 2.9964328 1.4961555 0
5.8160005 2.9922912 1.4981757 0
5.8250003 2.9875543 1.4999939 0
5.8350005 2.9833426 1.5020142 0
5.8440003 2.978539 1.5038325 0
5.8540006 2.974257 1.5058527 0
5.7690005 3.0143483 1.4789958 0
5.7780004 3.0097773 1.4807978 0
5.7870002 3.0051742 1.4825999 0
5.7970004 3.0011029 1.484602 0
5.8060002 2.9964328 1.4864041 0
5.8160005 2.9922912 1.4884063 0
5.8250003 2.9875543 1.4902083 0
5.8350005 2.9833426 1.4922105 0
5.8440003 2.978539 1.4940126 0
5.8540006 2.974257 1.4960147 0
5.7690005 3.0143483 1.4693111 0
5.7780004 3.0097773 1.4710969 0
5.7870002 3.0051742 1.4728826 0
5.7970004 3.0011029 1.4748669 0
5.8060002 2.9964328 1.4766526 0
5.8160005 2.9922912 1.4786369 0
5.8250003 2.9875543 1.4804225 0
5.8350005 2.9833426 1.4824069 0
5.8440003 2.978539 1.4841926 0
5.8540006 2.974257 1.4861768 0
5.7690005 3.0143483 1.4596266 0
5.7780004 3.0097773 1.461396 0
5.7870002 3.0051742 1.4631655 0
5.7970004 3.0011029 1.4651316 0
5.8060002 2.9964328 1.4669013 0
5.8160005 2.9922912 1.4688674 0
5.8250003 2.9875543 1.470637 0
5.8350005 2.9833426 1.4726031 0
5.8440003 2.978539 1.4743726 0
5.8540006 2.974257 1.4763387 0
5.7690005 3.0143483 1.4499419 0
5.7780004 3.0097773 1.4516952 0
5.7870002 3.0051742 1.4534484 0
5.7970004 3.0011029 1.4553965 0
5.8060002 2.9964328 1.4571499 0
5.8160005 2.9922912 1.459098 0
5.8250003 2.9875543 1.4608513 0
5.8350005 2.9833426 1.4627994 0
5.8440003 2.978539 1.4645526 0
5.8540006 2.974257 1.4665009 0
5.7690005 3.0143483 1.4402572 0
5.7780004 3.0097773 1.4419943 0
5.7870002 3.0051742 1.4437313 0
5.7970004 3.0011029 1.4456614 0
5.8060002 2.9964328 1.4473984 0
5.8160005 2.9922912 1.4493285 0
5.8250003 2.9875543 1.4510657 0
5.8350005 2.9833426 1.4529958 0
5.8440003 2.978539 1.4547328 0
5.8540006 2.974257 1.4566629 0
5.7690005 3.0143483 1.4305726 0
5.7780004 3.0097773 1.4322934 0
5.7870002 3.0051742 1.4340142 0
5.7970004 3.0011029 1.4359263 0
5.8060002 2.9964328 1.4376471 0
5.8160005 2.9922912 1.4395592 0
5.8250003 2.9875543 1.44128 0
5.8350005 2.9833426 1.443192 0
5.8440003 2.978539 1.4449128 0
5.8540006 2.974257 1.4468249 0
5.7690005 3.0143483 1.4208879 0
5.7780004 3.0097773 1.4225925 0
5.7870002 3.0051742 1.4242971 0
5.7970004 3.0011029 1.4261912 0
5.8060002 2.9964328 1.4278957 0
5.8160005 2.9922912 1.4297898 0
5.8250003 2.9875543 1.4314942 0
5.8350005 2.9833426 1.4333884 0
5.8440003 2.978539 1.4350928 0
5.8540006 2.974257 1.4369869 0
5.7690005 3.0143483 1.4112033 0
5.7780004 3.0097773 1.4128916 0
5.7870002 3.0051742 1.4145799 0
5.7970004 3.0011029 1.416456 0
5.8060002 2.9964328 1.4181442 0
5.8160005 2.9922912 1.4200203 0
5.8250003 2.9875543 1.4217086 0
5.8350005 2.9833426 1.4235847 0
5.8440003 2.978539 1.4252729 0
5.8540006 2.974257 1.4271491 0
5.7690005 3.0143483 1.4015186 0
5.7780004 3.0097773 1.4031907 0
5.7870002 3.0051742 1.4048629 0
5.7970004 3.0011029 1.4067209 0
5.8060002 2.9964328 1.4083929 0
5.8160005 2.9922912 1.4102509 0
5.8250003 2.9875543 1.4119229 0
5.8350005 2.9833426 1.4137809 0
5.8440003 2.978539 1.4154531 0
5.8540006 2.974257 1.417311 0
5.7690005 3.0143483 1.391834 0
5.7780004 3.0097773 1.3934898 0
5.7870002 3.0051742 1.3951457 0
5.7970004 3.0011029 1.3969857 0
5.8060002 2.9964328 1.3986415 0
5.8160005 2.9922912 1.4004813 0
5.8250003 2.9875543 1.4021373 0
5.8350005 2.9833426 1.4039773 0
5.8440003 2.978539 1.4056331 0
5.8540006 2.974257 1.407473 0
5.7690005 3.0143483 1.3821493 0
5.7780004 3.0097773 1.3837889 0
5.7870002 3.0051742 1.3854287 0
5.7970004 3.0011029 1.3872505 0
5.8060002 2.9964328 1.3888901 0
5.8160005 2.9922912 1.390712 0
5.8250003 2.9875543 1.3923516 0
5.8350005 2.9833426 1.3941735 0
5.8440003 2.978539 1.3958131 0
5.8540006 2.974257 1.3976351 0
5.7690005 3.0143483 1.3724647 0
5.7780004 3.0097773 1.3740882 0
5.7870002 3.0051742 1.3757114 0
5.7970004 3.0011029 1.3775153 0
5.8060002 2.9964328 1.3791387 0
5.8160005 2.9922912 1.3809426 0
5.8250003 2.9875543 1.382566 0
5.8350005 2.9833426 1.3843699 0
5.8440003 2.978539 1.3859932 0
5.8540006 2.974257 1.387797 0
5.7690005 3.0143483 1.3627801 0
5.7780004 3.0097773 1.3643872 0
5.7870002 3.0051742 1.3659943 0
5.7970004 3.0011029 1.3677802 0
5.8060002 2.9964328 1.3693874 0
5.8160005 2.9922912 1.3711731 0
5.8250003 2.9875543 1.3727803 0
5.8350005 2.9833426 1.3745662 0
5.8440003 2.978539 1.3761734 0
5.8540006 2.974257 1.3779591 0
5.7690005 3.0143483 1.3530954 0
5.7780004 3.0097773 1.3546863 0
5.7870002 3.0051742 1.3562772 0
5.7970004 3.0011029 1.358045 0
5.8060002 2.9964328 1.3596359 0
5.8160005 2.9922912 1.3614038 0
5.8250003 2.9875543 1.3629947 0
5.8350005 2.9833426 1.3647624 0
5.8440003 2.978539 1.3663534 0
5.8540006 2.974257 1.3681211 0
5.7690005 3.0143483 1.3434107 0
5.7780004 3.0097773 1.3449854 0
5.7870002 3.0051742 1.3465601 0
5.7970004 3.0011029 1.3483099 0
5.8060002 2.9964328 1.3498846 0
5.8160005 2.9922912 1.3516343 0
5.8250003 2.9875543 1.353209 0
5.8350005 2.9833426 1.3549588 0
5.8440003 2.978539 1.3565334 0
5.8540006 2.974257 1.3582832 0
5.7690005 3.0143483 1.3337262 0
5.7780004 3.0097773 1.3352846 0
5.7870002 3.0051742 1.336843 0
5.7970004 3.0011029 1.3385748 0
5.8060002 2.9964328 1.3401332 0
5.8160005 2.9922912 1.3418648 0
5.8250003 2.9875543 1.3434234 0
5.8350005 2.9833426 1.345155 0
5.8440003 2.978539 1.3467135 0
5.8540006 2.974257 1.3484452 0
5.7690005 3.0143483 1.3240415 0
5.7780004 3.0097773 1.3255837 0
5.7870002 3.0051742 1.3271259 0
5.7970004 3.0011029 1.3288395 0
5.8060002 2.9964328 1.3303818 0
5.8160005 2.9922912 1.3320954 0
5.8250003 2.9875543 1.3336376 0
5.8350005 2.9833426 1.3353512 0
5.8440003 2.978539 1.3368936 0
5.8540006 2.974257 1.3386072 0
5.7690005 3.0143483 1.3143568 0
5.7780004 3.0097773 1.3158828 0
5.7870002 3.0051742 1.3174088 0
5.7970004 3.0011029 1.3191044 0
5.8060002 2.9964328 1.3206304 0
5.8160005 2.9922912 1.3223261 0
5.8250003 2.9875543 1.3238519 0
5.8350005 2.9833426 1.3255477 0
5.8440003 2.978539 1.3270736 0
5.8540006 2.974257 1.3287692 0
5.7690005 3.0143483 1.3046721 0
5.7780004 3.0097773 1.3061819 0
5.7870002 3.0051742 1.3076917 0
5.7970004 3.0011029 1.3093692 0
5.8060002 2.9964328 1.310879 0
5.8160005 2.9922912 1.3125566 0
5.8250003 2.9875543 1.3140664 0
5.8350005 2.9833426 1.3157439 0
5.8440003 2.978539 1.3172537 0
5.8540006 2.974257 1.3189312 0
5.7690005 3.0143483 1.2949874 0
5.7780004 3.0097773 1.296481 0
5.7870002 3.0051742 1.2979746 0
5.7970004 3.0011029 1.2996341 0
5.8060002 2.9964328 1.3011277 0
5.8160005 2.9922912 1.3027872 0
5.8250003 2.9875543 1.3042806 0
5.8350005 2.9833426 1.3059403 0
5.8440003 2.978539 1.3074337 0
5.8540006 2.974257 1.3090932 0
5.7690005 3.0143483 1.2853029 0
5.7780004 3.0097773 1.2867801 0
5.7870002 3.0051742 1.2882575 0
5.7970004 3.0011029 1.2898989 0
5.8060002 2.9964328 1.2913762 0
5.8160005 2.9922912 1.2930177 0
5.8250003 2.9875543 1.294495 0
5.8350005 2.9833426 1.2961366 0
5.8440003 2.978539 1.2976139 0
5.8540006 2.974257 1.2992554 0
5.7690005 3.0143483 1.2756182 0
5.7780004 3.0097773 1.2770792 0
5.7870002 3.0051742 1.2785404 0
5.7970004 3.0011029 1.2801638 0
5.8060002 2.9964328 1.2816248 0
5.8160005 2.9922912 1.2832483 0
5.8250003 2.9875543 1.2847095 0
5.8350005 2.9833426 1.2863328 0
5.8440003 2.978539 1.2877939 0
5.8540006 2.974257 1.2894174 0
5.7690005 3.0143483 1.2659335 0
5.7780004 3.0097773 1.2673784 0
5.7870002 3.0051742 1.2688231 0
5.7970004 3.0011029 1.2704287 0
5.8060002 2.9964328 1.2718735 0
5.8160005 2.9922912 1.2734789 0
5.8250003 2.9875543 1.2749237 0
5.8350005 2.9833426 1.2765291 0
5.8440003 2.978539 1.277974 0
5.8540006 2.974257 1.2795794 0
5.7690005 3.0143483 1.256249 0
5.7780004 3.0097773 1.2576776 0
5.7870002 3.0051742 1.259106 0
5.7970004 3.0011029 1.2606936 0
5.8060002 2.9964328 1.2621222 0
5.8160005 2.9922912 1.2637094 0
5.8250003 2.9875543 1.265138 0
5.8350005 2.9833426 1.2667254 0
5.8440003 2.978539 1.268154 0
5.8540006 2.974257 1.2697414 0
5.7690005 3.0143483 1.2465643 0
5.7780004 3.0097773 1.2479767 0
5.7870002 3.0051742 1.2493889 0
5.7970004 3.0011029 1.2509583 0
5.8060002 2.9964328 1.2523707 0
5.8160005 2.9922912 1.25394 0
5.8250003 2.9875543 1.2553524 0
5.8350005 2.9833426 1.2569218 0
5.8440003 2.978539 1.258334 0
5.8540006 2.974257 1.2599034 0
5.7690005 3.0143483 1.2368796 0
5.7780004 3.0097773 1.2382758 0
5.7870002 3.0051742 1.2396718 0
5.7970004 3.0011029 1.2412232 0
5.8060002 2.9964328 1.2426193 0
5.8160005 2.9922912 1.2441707 0
5.8250003 2.9875543 1.2455667 0
5.8350005 2.9833426 1.247118 0
5.8440003 2.978539 1.2485142 0
5.8540006 2.974257 1.2500654 0
5.7690005 3.0143483 1.227195 0
5.7780004 3.0097773 1.2285749 0
5.7870002 3.0051742 1.2299548 0
5.7970004 3.0011029 1.231488 0
5.8060002 2.9964328 1.232868 0
5.8160005 2.9922912 1.2344012 0
5.8250003 2.9875543 1.2357811 0
5.8350005 2.9833426 1.2373143 0
5.8440003 2.978539 1.2386942 0
5.8540006 2.974257 1.2402275 0
5.7690005 3.0143483 1.2175103 0
5.7780004 3.0097773 1.218874 0
5.7870002 3.0051742 1.2202376 0
5.7970004 3.0011029 1.2217529 0
5.8060002 2.9964328 1.2231165 0
5.8160005 2.9922912 1.2246318 0
5.8250003 2.9875543 1.2259954 0
5.8350005 2.9833426 1.2275107 0
5.8440003 2.978539 1.2288743 0
5.8540006 2.974257 1.2303896 0
5.7690005 3.0143483 1.2078257 0
5.7780004 3.0097773 1.2091731 0
5.7870002 3.0051742 1.2105205 0
5.7970004 3.0011029 1.2120177 0
5.8060002 2.9964328 1.2133651 0
5.8160005 2.9922912 1.2148623 0
5.8250003 2.9875543 1.2162098 0
5.8350005 2.9833426 1.2177069 0
5.8440003 2.978539 1.2190543 0
5.8540006 2.974257 1.2205516 0
5.7690005 3.0143483 1.198141 0
5.7780004 3.0097773 1.1994723 0
5.7870002 3.0051742 1.2008034 0
5.7970004 3.0011029 1.2022825 0
5.8060002 2.9964328 1.2036138 0
5.8160005 2.9922912 1.2050929 0
5.8250003 2.9875543 1.2064241 0
5.8350005 2.9833426 1.2079033 0
5.8440003 2.978539 1.2092345 0
5.8540006 2.974257 1.2107136 0
5.7690005 3.0143483 1.1884564 0
5.7780004 3.0097773 1.1897713 0
5.7870002 3.0051742 1.1910863 0
5.7970004 3.0011029 1.1925474 0
5.8060002 2.9964328 1.1938624 0
5.8160005 2.9922912 1.1953235 0
5.8250003 2.9875543 1.1966385 0
5.8350005 2.9833426 1.1980996 0
5.8440003 2.978539 1.1994145 0
5.8540006 2.974257 1.2008756 0
5.7690005 3.0143483 1.1787717 0
5.7780004 3.0097773 1.1800705 0
5.7870002 3.0051742 1.1813692 0
5.7970004 3.0011029 1.1828122 0
5.8060002 2.9964328 1.184111 0
5.8160005 2.9922912 1.185554 0
5.8250003 2.9875543 1.1868527 0
5.8350005 2.9833426 1.1882958 0
5.8440003 2.978539 1.1895946 0
5.8540006 2.974257 1.1910377 0
5.7690005 3.0143483 1.1690871 0
5.7780004 3.0097773 1.1703696 0
5.7870002 3.0051742 1.1716521 0
5.7970004 3.0011029 1.1730771 0
5.8060002 2.9964328 1.1743596 0
5.8160005 2.9922912 1.1757846 0
5.8250003 2.9875543 1.1770672 0
5.8350005 2.9833426 1.1784922 0
5.8440003 2.978539 1.1797746 0
5.8540006 2.974257 1.1811997 0
5.7690005 3.0143483 1.1594025 0
5.7780004 3.0097773 1.1606687 0
5.7870002 3.0051742 1.161935 0
5.7970004 3.0011029 1.163342 0
5.8060002 2.9964328 1.1646082 0
5.8160005 2.9922912 1.1660153 0
5.8250003 2.9875543 1.1672815 0
5.8350005 2.9833426 1.1686884 0
5.8440003 2.978539 1.1699547 0
5.8540006 2.974257 1.1713617 0
5.7690005 3.0143483 1.1497178 0
5.7780004 3.0097773 1.1509678 0
5.7870002 3.0051742 1.1522179 0
5.7970004 3.0011029 1.1536068 0
5.8060002 2.9964328 1.1548568 0
5.8160005 2.9922912 1.1562458 0
5.8250003 2.9875543 1.1574957 0
5.8350005 2.9833426 1.1588848 0
5.8440003 2.978539 1.1601348 0
5.8540006 2.974257 1.1615237 0
5.7690005 3.0143483 1.1400331 0
5.7780004 3.0097773 1.1412669 0
5.7870002 3.0051742 1.1425008 0
5.7970004 3.0011029 1.1438717 0
5.8060002 2.9964328 1.1451055 0
5.8160005 2.9922912 1.1464764 0
5.8250003 2.9875543 1.1477102 0
5.8350005 2.9833426 1.1490811 0
5.8440003 2.978539 1.1503148 0
5.8540006 2.974257 1.1516857 0
5.7690005 3.0143483 1.1303484 0
5.7780004 3.0097773 1.131566 0
5.7870002 3.0051742 1.1327835 0
5.7970004 3.0011029 1.1341366 0
5.8060002 2.9964328 1.135354 0
5.8160005 2.9922912 1.1367069 0
5.8250003 2.9875543 1.1379244 0
5.8350005 2.9833426 1.1392773 0
5.8440003 2.978539 1.1404949 0
5.8540006 2.974257 1.1418478 0
5.7690005 3.0143483 1.1206639 0
5.7780004 3.0097773 1.1218652 0
5.7870002 3.0051742 1.1230665 0
5.7970004 3.0011029 1.1244013 0
5.8060002 2.9964328 1.1256026 0
5.8160005 2.9922912 1.1269375 0
5.8250003 2.9875543 1.1281388 0
5.8350005 2.9833426 1.1294737 0
5.8440003 2.978539 1.130675 0
5.8540006 2.974257 1.1320099 0
5.7690005 3.0143483 1.1109792 0
5.7780004 3.0097773 1.1121643 0
5.7870002 3.0051742 1.1133494 0
5.7970004 3.0011029 1.1146662 0
5.8060002 2.9964328 1.1158513 0
5.8160005 2.9922912 1.1171681 0
5.8250003 2.9875543 1.1183531 0
5.8350005 2.9833426 1.11967 0
5.8440003 2.978539 1.1208551 0
5.8540006 2.974257 1.1221719 0
5.7690005 3.0143483 1.1012945 0
5.7780004 3.0097773 1.1024634 0
5.7870002 3.0051742 1.1036323 0
5.7970004 3.0011029 1.104931 0
5.8060002 2.9964328 1.1060998 0
5.8160005 2.9922912 1.1073986 0
5.8250003 2.9875543 1.1085675 0
5.8350005 2.9833426 1.1098663 0
5.8440003 2.978539 1.1110351 0
5.8540006 2.974257 1.1123339 0
5.8630004 2.9693866 1.1135027 0
5.7690005 3.0143483 1.09161 0
5.7780004 3.0097773 1.0927626 0
5.7870002 3.0051742 1.0939152 0
5.7970004 3.0011029 1.0951959 0
5.8060002 2.9964328 1.0963485 0
5.8160005 2.9922912 1.0976292 0
5.8250003 2.9875543 1.0987818 0
5.8350005 2.9833426 1.1000626 0
5.8440003 2.978539 1.1012152 0
5.8540006 2.974257 1.1024959 0
5.8630004 2.9693866 1.1036485 0
5.7690005 3.0143483 1.0819253 0
5.7780004 3.0097773 1.0830617 0
5.7870002 3.0051742 1.084198 0
5.7970004 3.0011029 1.0854607 0
5.8060002 2.9964328 1.0865971 0
5.8160005 2.9922912 1.0878597 0
5.8250003 2.9875543 1.0889962 0
5.8350005 2.9833426 1.090259 0
5.8440003 2.978539 1.0913953 0
5.8540006 2.974257 1.0926579 0
5.8630004 2.9693866 1.0937943 0
5.7690005 3.0143483 1.0722406 0
5.7780004 3.0097773 1.0733608 0
5.7870002 3.0051742 1.0744809 0
5.7970004 3.0011029 1.0757256 0
5.8060002 2.9964328 1.0768458 0
5.8160005 2.9922912 1.0780904 0
5.8250003 2.9875543 1.0792105 0
5.8350005 2.9833426 1.0804552 0
5.8440003 2.978539 1.0815753 0
5.8540006 2.974257 1.0828199 0
5.8630004 2.9693866 1.0839401 0
5.7690005 3.0143483 1.062556 0
5.7780004 3.0097773 1.0636599 0
5.7870002 3.0051742 1.0647638 0
5.7970004 3.0011029 1.0659904 0
5.8060002 2.9964328 1.0670943 0
5.8160005 2.9922912 1.068321 0
5.8250003 2.9875543 1.0694249 0
5.8350005 2.9833426 1.0706514 0
5.8440003 2.978539 1.0717554 0
5.8540006 2.974257 1.0729821 0
5.8630004 2.9693866 1.074086 0
5.7690005 3.0143483 1.0528713 0
5.7780004 3.0097773 1.053959 0
5.7870002 3.0051742 1.0550467 0
5.7970004 3.0011029 1.0562553 0
5.8060002 2.9964328 1.0573429 0
5.8160005 2.9922912 1.0585515 0
5.8250003 2.9875543 1.0596392 0
5.8350005 2.9833426 1.0608478 0
5.8440003 2.978539 1.0619354 0
5.8540006 2.974257 1.0631441 0
5.8630004 2.9693866 1.0642318 0
5.7690005 3.0143483 1.0431867 0
5.7780004 3.0097773 1.0442581 0
5.7870002 3.0051742 1.0453296 0
5.7970004 3.0011029 1.0465201 0
5.8060002 2.9964328 1.0475916 0
5.8160005 2.9922912 1.0487821 0
5.8250003 2.9875543 1.0498536 0
5.8350005 2.9833426 1.0510441 0
5.8440003 2.978539 1.0521156 0
5.8540006 2.974257 1.0533061 0
5.8630004 2.9693866 1.0543776 0
5.7690005 3.0143483 1.033502 0
5.7780004 3.0097773 1.0345572 0
5.7870002 3.0051742 1.0356125 0
5.7970004 3.0011029 1.036785 0
5.8060002 2.9964328 1.0378401 0
5.8160005 2.9922912 1.0390127 0
5.8250003 2.9875543 1.0400679 0
5.8350005 2.9833426 1.0412403 0
5.8440003 2.978539 1.0422956 0
5.8540006 2.974257 1.0434681 0
5.8630004 2.9693866 1.0445234 0
5.7690005 3.0143483 1.0238174 0
5.7780004 3.0097773 1.0248563 0
5.7870002 3.0051742 1.0258954 0
5.7970004 3.0011029 1.0270498 0
5.8060002 2.9964328 1.0280888 0
5.8160005 2.9922912 1.0292432 0
5.8250003 2.9875543 1.0302823 0
5.8350005 2.9833426 1.0314367 0
5.8440003 2.978539 1.0324757 0
5.8540006 2.974257 1.0336301 0
5.8630004 2.9693866 1.034669 0
5.7690005 3.0143483 1.0141327 0
5.7780004 3.0097773 1.0151556 0
5.7870002 3.0051742 1.0161783 0
5.7970004 3.0011029 1.0173147 0
5.8060002 2.9964328 1.0183374 0
5.8160005 2.9922912 1.0194738 0
5.8250003 2.9875543 1.0204966 0
5.8350005 2.9833426 1.021633 0
5.8440003 2.978539 1.0226557 0
5.8540006 2.974257 1.0237921 0
5.8630004 2.9693866 1.0248148 0
5.7690005 3.0143483 1.0044481 0
5.7780004 3.0097773 1.0054545 0
5.7870002 3.0051742 1.0064611 0
5.7970004 3.0011029 1.0075794 0
5.8060002 2.9964328 1.008586 0
5.8160005 2.9922912 1.0097044 0
5.8250003 2.9875543 1.010711 0
5.8350005 2.9833426 1.0118293 0
5.8440003 2.978539 1.0128357 0
5.8540006 2.974257 1.0139542 0
5.8630004 2.9693866 1.0149606 0
5.7690005 3.0143483 0.99476349 0
5.7780004 3.0097773 0.99575377 0
5.7870002 3.0051742 0.99674404 0
5.7970004 3.0011029 0.99784434 0
5.8060002 2.9964328 0.99883461 0
5.8160005 2.9922912 0.99993503 0
5.8250003 2.9875543 1.0009253 0
5.8350005 2.9833426 1.0020256 0
5.8440003 2.978539 1.0030159 0
5.8540006 2.974257 1.0041162 0
5.8630004 2.9693866 1.0051064 0
5.7690005 3.0143483 0.98507881 0
5.7780004 3.0097773 0.98605287 0
5.7870002 3.0051742 0.98702693 0
5.7970004 3.0011029 0.98810923 0
5.8060002 2.9964328 0.98908329 0
5.8160005 2.9922912 0.99016559 0
5.8250003 2.9875543 0.99113953 0
5.8350005 2.9833426 0.99222195 0
5.8440003 2.978539 0.99319589 0
5.8540006 2.974257 0.99427819 0
5.8630004 2.9693866 0.99525225 0
5.7690005 3.0143483 0.97539413 0
5.7780004 3.0097773 0.97635198 0
5.7870002 3.0051742 0.97730982 0
5.7970004 3.0011029 0.978374 0
5.8060002 2.9964328 0.97933185 0
5.8160005 2.9922912 0.98039615 0
5.8250003 2.9875543 0.98135388 0
5.8350005 2.9833426 0.98241818 0
5.8440003 2.978539 0.98337603 0
5.8540006 2.974257 0.98444033 0
5.8630004 2.9693866 0.98539805 0
5.7690005 3.0143483 0.96570957 0
5.7780004 3.0097773 0.96665108 0
5.7870002 3.0051742 0.96759272 0
5.7970004 3.0011029 0.9686389 0
5.8060002 2.9964328 0.96958041 0
5.8160005 2.9922912 0.97062671 0
5.8250003 2.9875543 0.97156835 0
5.8350005 2.9833426 0.97261453 0
5.8440003 2.978539 0.97355604 0
5.8540006 2.974257 0.97460234 0
5.8630004 2.9693866 0.97554386 0
5.7690005 3.0143483 0.95602489 0
5.7780004 3.0097773 0.95695019 0
5.7870002 3.0051742 0.95787549 0
5.7970004 3.0011029 0.95890379 0
5.8060002 2.9964328 0.95982909 0
5.8160005 2.9922912 0.96085727 0
5.8250003 2.9875543 0.96178257 0
5.8350005 2.9833426 0.96281075 0
5.8440003 2.978539 0.96373618 0
5.8540006 2.974257 0.96476436 0
5.8630004 2.9693866 0.96568966 0
5.7690005 3.0143483 0.9463402 0
5.7780004 3.0097773 0.94724941 0
5.7870002 3.0051742 0.94815838 0
5.7970004 3.0011029 0.94916856 0
5.8060002 2.9964328 0.95007777 0
5.8160005 2.9922912 0.95108783 0
5.8250003 2.9875543 0.95199692 0
5.8350005 2.9833426 0.9530071 0
5.8440003 2.978539 0.95391619 0
5.8540006 2.974257 0.95492637 0
5.8630004 2.9693866 0.95583546 0
5.7690005 3.0143483 0.93665552 0
5.7780004 3.0097773 0.9375484 0
5.7870002 3.0051742 0.93844128 0
5.7970004 3.0011029 0.93943346 0
5.8060002 2.9964328 0.94032633 0
5.8160005 2.9922912 0.94131839 0
5.8250003 2.9875543 0.94221127 0
5.8350005 2.9833426 0.94320345 0
5.8440003 2.978539 0.94409633 0
5.8540006 2.974257 0.94508839 0
5.8630004 2.9693866 0.94598126 0
5.7690005 3.0143483 0.92697096 0
5.7780004 3.0097773 0.92784762 0
5.7870002 3.0051742 0.92872417 0
5.7970004 3.0011029 0.92969823 0
5.8060002 2.9964328 0.93057489 0
5.8160005 2.9922912 0.93154895 0
