# .PCD v0.7 - Point Cloud Data file format
VERSION 0.7
FIELDS x y z intensity
SIZE 4 4 4 4
TYPE F F F F
COUNT 1 1 1 1
WIDTH 1384
HEIGHT 1
VIEWPOINT 0 0 0 1 0 0 0
POINTS 1384
DATA ascii
2.8300002 0.067964599 0.42153302 0
2.8300002 0.063581347 0.42153302 0
2.8310003 0.059241395 0.42154026 0
2.8310003 0.054856334 0.42154026 0
2.8320003 0.050510962 0.42154747 0
2.8320003 0.046124097 0.42154747 0
2.8330002 0.041773308 0.42155468 0
2.8330002 0.03738464 0.42155468 0
2.8340001 0.033028442 0.4215619 0
2.8340001 0.028637972 0.4215619 0
2.8350003 0.024276372 0.42156911 0
2.8350003 0.019884098 0.42156911 0
2.8360002 0.015517075 0.42157632 0
2.8360002 0.011122998 0.42157632 0
2.8370001 0.006750565 0.42158353 0
2.8370001 0.0023546852 0.42158353 0
2.8380003 -0.0020231567 0.42159075 0
2.8380003 -0.0064208396 0.42159075 0
2.8390002 -0.010804094 0.42159796 0
2.8390002 -0.01520358 0.42159796 0
2.8400002 -0.019592248 0.42160517 0
2.8400002 -0.023993539 0.42160517 0
2.8410003 -0.028387615 0.42161241 0
2.8410003 -0.032790713 0.42161241 0
2.8420002 -0.037190199 0.42161962 0
2.8420002 -0.041595101 0.42161962 0
2.8430002 -0.046 0.42162684 0
2.8430002 -0.050406702 0.42162684 0
2.8440001 -0.054817013 0.42163405 0
2.8440001 -0.059225522 0.42163405 0
2.8450003 -0.063641243 0.42164126 0
2.8450003 -0.068051554 0.42164126 0
2.8460002 -0.072472692 0.42164847 0
2.8460002 -0.076884806 0.42164847 0
2.8470001 -0.081311345 0.42165568 0
2.8470001 -0.085725263 0.42165568 0
2.8480003 -0.090157226 0.4216629 0
2.8480003 -0.094572946 0.4216629 0
2.8490002 -0.099010319 0.42167011 0
2.8490002 -0.10342784 0.42167011 0
2.8500001 -0.10787062 0.42167732 0
2.8500001 -0.11228995 0.42167732 0
2.8510003 -0.11673814 0.42168456 0
2.8510003 -0.12115929 0.42168456 0
2.8520002 -0.12561288 0.42169178 0
2.8520002 -0.13003582 0.42169178 0
2.8530002 -0.13449483 0.42169899 0
2.8530002 -0.13891958 0.42169899 0
2.8540003 -0.14338401 0.4217062 0
2.8540003 -0.14781055 0.4217062 0
2.8550003 -0.15228039 0.42171341 0
2.8550003 -0.15670873 0.42171341 0
2.8560002 -0.16118398 0.42172062 0
2.8570001 -0.16566283 0.42172784 0
2.8570001 -0.17009479 0.42172784 0
2.8580003 -0.17457907 0.42173505 0
2.8580003 -0.17901282 0.42173505 0
2.8590002 -0.1835025 0.42174226 0
2.8590002 -0.18793806 0.42174226 0
2.8600001 -0.19243315 0.42174947 0
2.8600001 -0.19687052 0.42174947 0
2.8610003 -0.20137103 0.42175671 0
2.8610003 -0.2058102 0.42175671 0
2.8620002 -0.21031611 0.42176393 0
2.8620002 -0.21475708 0.42176393 0
2.8630002 -0.2192684 0.42177114 0
2.8630002 -0.22371119 0.42177114 0
2.8580003 0.34860471 0.4173013 0
2.8480003 0.3425836 0.41724718 0
2.8420002 0.33722627 0.41721472 0
2.8380003 0.33220086 0.41719306 0
2.8350003 0.32734323 0.41717684 0
2.8330002 0.3226479 0.41716602 0
2.8310003 0.31795982 0.41715518 0
2.8300002 0.31342682 0.41714978 0
2.8290002 0.30889747 0.41714436 0
2.8290002 0.30451602 0.41714436 0
2.8290002 0.30013457 0.41714436 0
2.8290002 0.29575309 0.41714436 0
2.8300002 0.29151055 0.41714978 0
2.8310003 0.28726441 0.41715518 0
2.8330002 0.2831499 0.41716602 0
2.8350003 0.27902821 0.41717684 0
2.8380003 0.27503097 0.41719306 0
2.8410003 0.27102292 0.4172093 0
2.8450003 0.2671321 0.41723093 0
2.8490002 0.26322684 0.4172526 0
2.8550003 0.25955608 0.41728505 0
2.8630002 0.25610903 0.41732836 0
2.8190002 0.16780719 0.41709024 0
2.8190002 0.16344377 0.41709024 0
2.8200002 0.15916514 0.41709566 0
2.8200002 0.15479994 0.41709566 0
2.8210001 0.15051587 0.41710109 0
2.8210001 0.14614886 0.41710109 0
2.8220003 0.14185941 0.41710648 0
2.8220003 0.13749059 0.41710648 0
2.8230002 0.13319571 0.4171119 0
2.8230002 0.1288251 0.4171119 0
2.8240001 0.1245248 0.4171173 0
2.8240001 0.12015237 0.4171173 0
2.8250003 0.11584669 0.41712272 0
2.8250003 0.11147246 0.41712272 0
2.8260002 0.10716136 0.41712815 0
2.8260002 0.1027853 0.41712815 0
2.8270001 0.098468795 0.41713354 0
2.8270001 0.094090953 0.41713354 0
2.8280003 0.089769036 0.41713896 0
2.8280003 0.085389391 0.41713896 0
2.8290002 0.081062049 0.41714436 0
2.8290002 0.076680601 0.41714436 0
2.8290002 0.072299153 0.41714436 0
2.8300002 0.067964599 0.41714978 0
2.8300002 0.063581347 0.41714978 0
2.8310003 0.059241395 0.41715518 0
2.8310003 0.054856334 0.41715518 0
2.8320003 0.050510962 0.4171606 0
2.8320003 0.046124097 0.4171606 0
2.8330002 0.041773308 0.41716602 0
2.8330002 0.03738464 0.41716602 0
2.8340001 0.033028442 0.41717142 0
2.8340001 0.028637972 0.41717142 0
2.8350003 0.024276372 0.41717684 0
2.8350003 0.019884098 0.41717684 0
2.8360002 0.015517075 0.41718224 0
2.8360002 0.011122998 0.41718224 0
2.8370001 0.006750565 0.41718766 0
2.8370001 0.0023546852 0.41718766 0
2.8380003 -0.0020231567 0.41719306 0
2.8380003 -0.0064208396 0.41719306 0
2.8390002 -0.010804094 0.41719848 0
2.8390002 -0.01520358 0.41719848 0
2.8400002 -0.019592248 0.4172039 0
2.8400002 -0.023993539 0.4172039 0
2.8410003 -0.028387615 0.4172093 0
2.8410003 -0.032790713 0.4172093 0
2.8420002 -0.037190199 0.41721472 0
2.8420002 -0.041595101 0.41721472 0
2.8430002 -0.046 0.41722012 0
2.8430002 -0.050406702 0.41722012 0
2.8440001 -0.054817013 0.41722554 0
2.8440001 -0.059225522 0.41722554 0
2.8450003 -0.063641243 0.41723093 0
2.8450003 -0.068051554 0.41723093 0
2.8460002 -0.072472692 0.41723636 0
2.8460002 -0.076884806 0.41723636 0
2.8470001 -0.081311345 0.41724178 0
2.8470001 -0.085725263 0.41724178 0
2.8480003 -0.090157226 0.41724718 0
2.8480003 -0.094572946 0.41724718 0
2.8490002 -0.099010319 0.4172526 0
2.8490002 -0.10342784 0.4172526 0
2.8500001 -0.10787062 0.41725799 0
2.8500001 -0.11228995 0.41725799 0
2.8510003 -0.11673814 0.41726342 0
2.8510003 -0.12115929 0.41726342 0
2.8520002 -0.12561288 0.41726881 0
2.8520002 -0.13003582 0.41726881 0
2.8530002 -0.13449483 0.41727424 0
2.8530002 -0.13891958 0.41727424 0
2.8540003 -0.14338401 0.41727966 0
2.8540003 -0.14781055 0.41727966 0
2.8550003 -0.15228039 0.41728505 0
2.8550003 -0.15670873 0.41728505 0
2.8560002 -0.16118398 0.41729048 0
2.8570001 -0.16566283 0.41729587 0
2.8570001 -0.17009479 0.41729587 0
2.8580003 -0.17457907 0.4173013 0
2.8580003 -0.17901282 0.4173013 0
2.8590002 -0.1835025 0.41730672 0
2.8590002 -0.18793806 0.41730672 0
2.8600001 -0.19243315 0.41731212 0
2.8600001 -0.19687052 0.41731212 0
2.8610003 -0.20137103 0.41731754 0
2.8610003 -0.2058102 0.41731754 0
2.8620002 -0.21031611 0.41732293 0
2.8620002 -0.21475708 0.41732293 0
2.8630002 -0.2192684 0.41732836 0
2.8630002 -0.22371119 0.41732836 0
2.8580003 0.34860471 0.41286755 0
2.8480003 0.3425836 0.41283146 0
2.8420002 0.33722627 0.41280982 0
2.8380003 0.33220086 0.41279539 0
2.8350003 0.32734323 0.41278455 0
2.8330002 0.3226479 0.41277733 0
2.8310003 0.31795982 0.41277012 0
2.8300002 0.31342682 0.41276652 0
2.8290002 0.30889747 0.41276291 0
2.8290002 0.30451602 0.41276291 0
2.8290002 0.30013457 0.41276291 0
2.8290002 0.29575309 0.41276291 0
2.8300002 0.29151055 0.41276652 0
2.8310003 0.28726441 0.41277012 0
2.8330002 0.2831499 0.41277733 0
2.8350003 0.27902821 0.41278455 0
2.8380003 0.27503097 0.41279539 0
2.8410003 0.27102292 0.41280621 0
2.8450003 0.2671321 0.41282064 0
2.8490002 0.26322684 0.41283506 0
2.8550003 0.25955608 0.4128567 0
2.8630002 0.25610903 0.41288558 0
2.8190002 0.16780719 0.41272685 0
2.8190002 0.16344377 0.41272685 0
2.8200002 0.15916514 0.41273046 0
2.8200002 0.15479994 0.41273046 0
2.8210001 0.15051587 0.41273406 0
2.8210001 0.14614886 0.41273406 0
2.8220003 0.14185941 0.41273767 0
2.8220003 0.13749059 0.41273767 0
2.8230002 0.13319571 0.41274127 0
2.8230002 0.1288251 0.41274127 0
2.8240001 0.1245248 0.41274488 0
2.8240001 0.12015237 0.41274488 0
2.8250003 0.11584669 0.41274849 0
2.8250003 0.11147246 0.41274849 0
2.8260002 0.10716136 0.41275209 0
2.8260002 0.1027853 0.41275209 0
2.8270001 0.098468795 0.4127557 0
2.8270001 0.094090953 0.4127557 0
2.8280003 0.089769036 0.4127593 0
2.8280003 0.085389391 0.4127593 0
2.8290002 0.081062049 0.41276291 0
2.8290002 0.076680601 0.41276291 0
2.8290002 0.072299153 0.41276291 0
2.8300002 0.067964599 0.41276652 0
2.8300002 0.063581347 0.41276652 0
2.8310003 0.059241395 0.41277012 0
2.8310003 0.054856334 0.41277012 0
2.8320003 0.050510962 0.41277373 0
2.8320003 0.046124097 0.41277373 0
2.8330002 0.041773308 0.41277733 0
2.8330002 0.03738464 0.41277733 0
2.8340001 0.033028442 0.41278094 0
2.8340001 0.028637972 0.41278094 0
2.8350003 0.024276372 0.41278455 0
2.8350003 0.019884098 0.41278455 0
2.8360002 0.015517075 0.41278815 0
2.8360002 0.011122998 0.41278815 0
2.8370001 0.006750565 0.41279179 0
2.8370001 0.0023546852 0.41279179 0
2.8380003 -0.0020231567 0.41279539 0
2.8380003 -0.0064208396 0.41279539 0
2.8390002 -0.010804094 0.412799 0
2.8390002 -0.01520358 0.412799 0
2.8400002 -0.019592248 0.41280261 0
2.8400002 -0.023993539 0.41280261 0
2.8410003 -0.028387615 0.41280621 0
2.8410003 -0.032790713 0.41280621 0
2.8420002 -0.037190199 0.41280982 0
2.8420002 -0.041595101 0.41280982 0
2.8430002 -0.046 0.41281343 0
2.8430002 -0.050406702 0.41281343 0
2.8440001 -0.054817013 0.41281703 0
2.8440001 -0.059225522 0.41281703 0
2.8450003 -0.063641243 0.41282064 0
2.8450003 -0.068051554 0.41282064 0
2.8460002 -0.072472692 0.41282424 0
2.8460002 -0.076884806 0.41282424 0
2.8470001 -0.081311345 0.41282785 0
2.8470001 -0.085725263 0.41282785 0
2.8480003 -0.090157226 0.41283146 0
2.8480003 -0.094572946 0.41283146 0
2.8490002 -0.099010319 0.41283506 0
2.8490002 -0.10342784 0.41283506 0
2.8500001 -0.10787062 0.41283867 0
2.8500001 -0.11228995 0.41283867 0
2.8510003 -0.11673814 0.41284227 0
2.8510003 -0.12115929 0.41284227 0
2.8520002 -0.12561288 0.41284588 0
2.8520002 -0.13003582 0.41284588 0
2.8530002 -0.13449483 0.41284949 0
2.8530002 -0.13891958 0.41284949 0
2.8540003 -0.14338401 0.41285309 0
2.8540003 -0.14781055 0.41285309 0
2.8550003 -0.15228039 0.4128567 0
2.8550003 -0.15670873 0.4128567 0
2.8560002 -0.16118398 0.41286033 0
2.8570001 -0.16566283 0.41286394 0
2.8570001 -0.17009479 0.41286394 0
2.8580003 -0.17457907 0.41286755 0
2.8580003 -0.17901282 0.41286755 0
2.8590002 -0.1835025 0.41287115 0
2.8590002 -0.18793806 0.41287115 0
2.8600001 -0.19243315 0.41287476 0
2.8600001 -0.19687052 0.41287476 0
2.8610003 -0.20137103 0.41287836 0
2.8610003 -0.2058102 0.41287836 0
2.8620002 -0.21031611 0.41288197 0
2.8620002 -0.21475708 0.41288197 0
2.8630002 -0.2192684 0.41288558 0
2.8630002 -0.22371119 0.41288558 0
2.8580003 0.34860471 0.40843377 0
2.8480003 0.3425836 0.40841573 0
2.8420002 0.33722627 0.40840492 0
2.8380003 0.33220086 0.4083977 0
2.8350003 0.32734323 0.40839228 0
2.8330002 0.3226479 0.40838867 0
2.8310003 0.31795982 0.40838507 0
2.8300002 0.31342682 0.40838328 0
2.8290002 0.30889747 0.40838146 0
2.8290002 0.30451602 0.40838146 0
2.8290002 0.30013457 0.40838146 0
2.8290002 0.29575309 0.40838146 0
2.8300002 0.29151055 0.40838328 0
2.8310003 0.28726441 0.40838507 0
2.8330002 0.2831499 0.40838867 0
2.8350003 0.27902821 0.40839228 0
2.8380003 0.27503097 0.4083977 0
2.8410003 0.27102292 0.4084031 0
2.8450003 0.2671321 0.40841031 0
2.8490002 0.26322684 0.40841755 0
2.8550003 0.25955608 0.40842837 0
2.8630002 0.25610903 0.4084428 0
2.8190002 0.16780719 0.40836343 0
2.8190002 0.16344377 0.40836343 0
2.8200002 0.15916514 0.40836522 0
2.8200002 0.15479994 0.40836522 0
2.8210001 0.15051587 0.40836704 0
2.8210001 0.14614886 0.40836704 0
2.8220003 0.14185941 0.40836883 0
2.8220003 0.13749059 0.40836883 0
2.8230002 0.13319571 0.40837064 0
2.8230002 0.1288251 0.40837064 0
2.8240001 0.1245248 0.40837243 0
2.8240001 0.12015237 0.40837243 0
2.8250003 0.11584669 0.40837425 0
2.8250003 0.11147246 0.40837425 0
2.8260002 0.10716136 0.40837604 0
2.8260002 0.1027853 0.40837604 0
2.8270001 0.098468795 0.40837786 0
2.8270001 0.094090953 0.40837786 0
2.8280003 0.089769036 0.40837967 0
2.8280003 0.085389391 0.40837967 0
2.8290002 0.081062049 0.40838146 0
2.8290002 0.076680601 0.40838146 0
2.8290002 0.072299153 0.40838146 0
2.8300002 0.067964599 0.40838328 0
2.8300002 0.063581347 0.40838328 0
2.8310003 0.059241395 0.40838507 0
2.8310003 0.054856334 0.40838507 0
2.8320003 0.050510962 0.40838689 0
2.8320003 0.046124097 0.40838689 0
2.8330002 0.041773308 0.40838867 0
2.8330002 0.03738464 0.40838867 0
2.8340001 0.033028442 0.40839049 0
2.8340001 0.028637972 0.40839049 0
2.8350003 0.024276372 0.40839228 0
2.8350003 0.019884098 0.40839228 0
2.8360002 0.015517075 0.4083941 0
2.8360002 0.011122998 0.4083941 0
2.8370001 0.006750565 0.40839589 0
2.8370001 0.0023546852 0.40839589 0
2.8380003 -0.0020231567 0.4083977 0
2.8380003 -0.0064208396 0.4083977 0
2.8390002 -0.010804094 0.40839949 0
2.8390002 -0.01520358 0.40839949 0
2.8400002 -0.019592248 0.40840131 0
2.8400002 -0.023993539 0.40840131 0
2.8410003 -0.028387615 0.4084031 0
2.8410003 -0.032790713 0.4084031 0
2.8420002 -0.037190199 0.40840492 0
2.8420002 -0.041595101 0.40840492 0
2.8430002 -0.046 0.4084067 0
2.8430002 -0.050406702 0.4084067 0
2.8440001 -0.054817013 0.40840852 0
2.8440001 -0.059225522 0.40840852 0
2.8450003 -0.063641243 0.40841031 0
2.8450003 -0.068051554 0.40841031 0
2.8460002 -0.072472692 0.40841213 0
2.8460002 -0.076884806 0.40841213 0
2.8470001 -0.081311345 0.40841395 0
2.8470001 -0.085725263 0.40841395 0
2.8480003 -0.090157226 0.40841573 0
2.8480003 -0.094572946 0.40841573 0
2.8490002 -0.099010319 0.40841755 0
2.8490002 -0.10342784 0.40841755 0
2.8500001 -0.10787062 0.40841934 0
2.8500001 -0.11228995 0.40841934 0
2.8510003 -0.11673814 0.40842116 0
2.8510003 -0.12115929 0.40842116 0
2.8520002 -0.12561288 0.40842295 0
2.8520002 -0.13003582 0.40842295 0
2.8530002 -0.13449483 0.40842476 0
2.8530002 -0.13891958 0.40842476 0
2.8540003 -0.14338401 0.40842655 0
2.8540003 -0.14781055 0.40842655 0
2.8550003 -0.15228039 0.40842837 0
2.8550003 -0.15670873 0.40842837 0
2.8560002 -0.16118398 0.40843016 0
2.8570001 -0.16566283 0.40843198 0
2.8570001 -0.17009479 0.40843198 0
2.8580003 -0.17457907 0.40843377 0
2.8580003 -0.17901282 0.40843377 0
2.8590002 -0.1835025 0.40843558 0
2.8590002 -0.18793806 0.40843558 0
2.8600001 -0.19243315 0.40843737 0
2.8600001 -0.19687052 0.40843737 0
2.8610003 -0.20137103 0.40843919 0
2.8610003 -0.2058102 0.40843919 0
2.8620002 -0.21031611 0.40844098 0
2.8620002 -0.21475708 0.40844098 0
2.8630002 -0.2192684 0.4084428 0
2.8630002 -0.22371119 0.4084428 0
2.8580003 0.34860471 0.40400001 0
2.8480003 0.3425836 0.40400001 0
2.8420002 0.33722627 0.40400001 0
2.8380003 0.33220086 0.40400001 0
2.8350003 0.32734323 0.40400001 0
2.8330002 0.3226479 0.40400001 0
2.8310003 0.31795982 0.40400001 0
2.8300002 0.31342682 0.40400001 0
2.8290002 0.30889747 0.40400001 0
2.8290002 0.30451602 0.40400001 0
2.8290002 0.30013457 0.40400001 0
2.8290002 0.29575309 0.40400001 0
2.8300002 0.29151055 0.40400001 0
2.8310003 0.28726441 0.40400001 0
2.8330002 0.2831499 0.40400001 0
2.8350003 0.27902821 0.40400001 0
2.8380003 0.27503097 0.40400001 0
2.8410003 0.27102292 0.40400001 0
2.8450003 0.2671321 0.40400001 0
2.8490002 0.26322684 0.40400001 0
2.8550003 0.25955608 0.40400001 0
2.8630002 0.25610903 0.40400001 0
2.8190002 0.16780719 0.40400001 0
2.8190002 0.16344377 0.40400001 0
2.8200002 0.15916514 0.40400001 0
2.8200002 0.15479994 0.40400001 0
2.8210001 0.15051587 0.40400001 0
2.8210001 0.14614886 0.40400001 0
2.8220003 0.14185941 0.40400001 0
2.8220003 0.13749059 0.40400001 0
2.8230002 0.13319571 0.40400001 0
2.8230002 0.1288251 0.40400001 0
2.8240001 0.1245248 0.40400001 0
2.8240001 0.12015237 0.40400001 0
2.8250003 0.11584669 0.40400001 0
2.8250003 0.11147246 0.40400001 0
2.8260002 0.10716136 0.40400001 0
2.8260002 0.1027853 0.40400001 0
2.8270001 0.098468795 0.40400001 0
2.8270001 0.094090953 0.40400001 0
2.8280003 0.089769036 0.40400001 0
2.8280003 0.085389391 0.40400001 0
2.8290002 0.081062049 0.40400001 0
2.8290002 0.076680601 0.40400001 0
2.8290002 0.072299153 0.40400001 0
2.8300002 0.067964599 0.40400001 0
2.8300002 0.063581347 0.40400001 0
2.8310003 0.059241395 0.40400001 0
2.8310003 0.054856334 0.40400001 0
2.8320003 0.050510962 0.40400001 0
2.8320003 0.046124097 0.40400001 0
2.8330002 0.041773308 0.40400001 0
2.8330002 0.03738464 0.40400001 0
2.8340001 0.033028442 0.40400001 0
2.8340001 0.028637972 0.40400001 0
2.8350003 0.024276372 0.40400001 0
2.8350003 0.019884098 0.40400001 0
2.8360002 0.015517075 0.40400001 0
2.8360002 0.011122998 0.40400001 0
2.8370001 0.006750565 0.40400001 0
2.8370001 0.0023546852 0.40400001 0
2.8380003 -0.0020231567 0.40400001 0
2.8380003 -0.0064208396 0.40400001 0
2.8390002 -0.010804094 0.40400001 0
2.8390002 -0.01520358 0.40400001 0
2.8400002 -0.019592248 0.40400001 0
2.8400002 -0.023993539 0.40400001 0
2.8410003 -0.028387615 0.40400001 0
2.8410003 -0.032790713 0.40400001 0
2.8420002 -0.037190199 0.40400001 0
2.8420002 -0.041595101 0.40400001 0
2.8430002 -0.046 0.40400001 0
2.8430002 -0.050406702 0.40400001 0
2.8440001 -0.054817013 0.40400001 0
2.8440001 -0.059225522 0.40400001 0
2.8450003 -0.063641243 0.40400001 0
2.8450003 -0.068051554 0.40400001 0
2.8460002 -0.072472692 0.40400001 0
2.8460002 -0.076884806 0.40400001 0
2.8470001 -0.081311345 0.40400001 0
2.8470001 -0.085725263 0.40400001 0
2.8480003 -0.090157226 0.40400001 0
2.8480003 -0.094572946 0.40400001 0
2.8490002 -0.099010319 0.40400001 0
2.8490002 -0.10342784 0.40400001 0
2.8500001 -0.10787062 0.40400001 0
2.8500001 -0.11228995 0.40400001 0
2.8510003 -0.11673814 0.40400001 0
2.8510003 -0.12115929 0.40400001 0
2.8520002 -0.12561288 0.40400001 0
2.8520002 -0.13003582 0.40400001 0
2.8530002 -0.13449483 0.40400001 0
2.8530002 -0.13891958 0.40400001 0
2.8540003 -0.14338401 0.40400001 0
2.8540003 -0.14781055 0.40400001 0
2.8550003 -0.15228039 0.40400001 0
2.8550003 -0.15670873 0.40400001 0
2.8560002 -0.16118398 0.40400001 0
2.8570001 -0.16566283 0.40400001 0
2.8570001 -0.17009479 0.40400001 0
2.8580003 -0.17457907 0.40400001 0
2.8580003 -0.17901282 0.40400001 0
2.8590002 -0.1835025 0.40400001 0
2.8590002 -0.18793806 0.40400001 0
2.8600001 -0.19243315 0.40400001 0
2.8600001 -0.19687052 0.40400001 0
2.8610003 -0.20137103 0.40400001 0
2.8610003 -0.2058102 0.40400001 0
2.8620002 -0.21031611 0.40400001 0
2.8620002 -0.21475708 0.40400001 0
2.8630002 -0.2192684 0.40400001 0
2.8630002 -0.22371119 0.40400001 0
2.8580003 0.34860471 0.39956626 0
2.8480003 0.3425836 0.39958429 0
2.8420002 0.33722627 0.39959511 0
2.8380003 0.33220086 0.39960232 0
2.8350003 0.32734323 0.39960775 0
2.8330002 0.3226479 0.39961135 0
2.8310003 0.31795982 0.39961496 0
2.8300002 0.31342682 0.39961675 0
2.8290002 0.30889747 0.39961857 0
2.8290002 0.30451602 0.39961857 0
2.8290002 0.30013457 0.39961857 0
2.8290002 0.29575309 0.39961857 0
2.8300002 0.29151055 0.39961675 0
2.8310003 0.28726441 0.39961496 0
2.8330002 0.2831499 0.39961135 0
2.8350003 0.27902821 0.39960775 0
2.8380003 0.27503097 0.39960232 0
2.8410003 0.27102292 0.39959693 0
2.8450003 0.2671321 0.39958972 0
2.8490002 0.26322684 0.39958248 0
2.8550003 0.25955608 0.39957166 0
2.8630002 0.25610903 0.39955723 0
2.8190002 0.16780719 0.3996366 0
2.8190002 0.16344377 0.3996366 0
2.8200002 0.15916514 0.39963481 0
2.8200002 0.15479994 0.39963481 0
2.8210001 0.15051587 0.39963299 0
2.8210001 0.14614886 0.39963299 0
2.8220003 0.14185941 0.3996312 0
2.8220003 0.13749059 0.3996312 0
2.8230002 0.13319571 0.39962938 0
2.8230002 0.1288251 0.39962938 0
2.8240001 0.1245248 0.3996276 0
2.8240001 0.12015237 0.3996276 0
2.8250003 0.11584669 0.39962578 0
2.8250003 0.11147246 0.39962578 0
2.8260002 0.10716136 0.39962399 0
2.8260002 0.1027853 0.39962399 0
2.8270001 0.098468795 0.39962217 0
2.8270001 0.094090953 0.39962217 0
2.8280003 0.089769036 0.39962035 0
2.8280003 0.085389391 0.39962035 0
2.8290002 0.081062049 0.39961857 0
2.8290002 0.076680601 0.39961857 0
2.8290002 0.072299153 0.39961857 0
2.8300002 0.067964599 0.39961675 0
2.8300002 0.063581347 0.39961675 0
2.8310003 0.059241395 0.39961496 0
2.8310003 0.054856334 0.39961496 0
2.8320003 0.050510962 0.39961314 0
2.8320003 0.046124097 0.39961314 0
2.8330002 0.041773308 0.39961135 0
2.8330002 0.03738464 0.39961135 0
2.8340001 0.033028442 0.39960954 0
2.8340001 0.028637972 0.39960954 0
2.8350003 0.024276372 0.39960775 0
2.8350003 0.019884098 0.39960775 0
2.8360002 0.015517075 0.39960593 0
2.8360002 0.011122998 0.39960593 0
2.8370001 0.006750565 0.39960414 0
2.8370001 0.0023546852 0.39960414 0
2.8380003 -0.0020231567 0.39960232 0
2.8380003 -0.0064208396 0.39960232 0
2.8390002 -0.010804094 0.39960054 0
2.8390002 -0.01520358 0.39960054 0
2.8400002 -0.019592248 0.39959872 0
2.8400002 -0.023993539 0.39959872 0
2.8410003 -0.028387615 0.39959693 0
2.8410003 -0.032790713 0.39959693 0
2.8420002 -0.037190199 0.39959511 0
2.8420002 -0.041595101 0.39959511 0
2.8430002 -0.046 0.39959332 0
2.8430002 -0.050406702 0.39959332 0
2.8440001 -0.054817013 0.39959151 0
2.8440001 -0.059225522 0.39959151 0
2.8450003 -0.063641243 0.39958972 0
2.8450003 -0.068051554 0.39958972 0
2.8460002 -0.072472692 0.3995879 0
2.8460002 -0.076884806 0.3995879 0
2.8470001 -0.081311345 0.39958608 0
2.8470001 -0.085725263 0.39958608 0
2.8480003 -0.090157226 0.39958429 0
2.8480003 -0.094572946 0.39958429 0
2.8490002 -0.099010319 0.39958248 0
2.8490002 -0.10342784 0.39958248 0
2.8500001 -0.10787062 0.39958069 0
2.8500001 -0.11228995 0.39958069 0
2.8510003 -0.11673814 0.39957887 0
2.8510003 -0.12115929 0.39957887 0
2.8520002 -0.12561288 0.39957708 0
2.8520002 -0.13003582 0.39957708 0
2.8530002 -0.13449483 0.39957526 0
2.8530002 -0.13891958 0.39957526 0
2.8540003 -0.14338401 0.39957348 0
2.8540003 -0.14781055 0.39957348 0
2.8550003 -0.15228039 0.39957166 0
2.8550003 -0.15670873 0.39957166 0
2.8560002 -0.16118398 0.39956987 0
2.8570001 -0.16566283 0.39956805 0
2.8570001 -0.17009479 0.39956805 0
2.8580003 -0.17457907 0.39956626 0
2.8580003 -0.17901282 0.39956626 0
2.8590002 -0.1835025 0.39956445 0
2.8590002 -0.18793806 0.39956445 0
2.8600001 -0.19243315 0.39956266 0
2.8600001 -0.19687052 0.39956266 0
2.8610003 -0.20137103 0.39956084 0
2.8610003 -0.2058102 0.39956084 0
2.8620002 -0.21031611 0.39955905 0
2.8620002 -0.21475708 0.39955905 0
2.8630002 -0.2192684 0.39955723 0
2.8630002 -0.22371119 0.39955723 0
2.8580003 0.34860471 0.39513248 0
2.8480003 0.3425836 0.39516857 0
2.8420002 0.33722627 0.39519021 0
2.8380003 0.33220086 0.39520463 0
2.8350003 0.32734323 0.39521548 0
2.8330002 0.3226479 0.39522269 0
2.8310003 0.31795982 0.39522991 0
2.8300002 0.31342682 0.39523351 0
2.8290002 0.30889747 0.39523712 0
2.8290002 0.30451602 0.39523712 0
2.8290002 0.30013457 0.39523712 0
2.8290002 0.29575309 0.39523712 0
2.8300002 0.29151055 0.39523351 0
2.8310003 0.28726441 0.39522991 0
2.8330002 0.2831499 0.39522269 0
2.8350003 0.27902821 0.39521548 0
2.8380003 0.27503097 0.39520463 0
2.8410003 0.27102292 0.39519382 0
2.8450003 0.2671321 0.39517939 0
2.8490002 0.26322684 0.39516497 0
2.8550003 0.25955608 0.39514333 0
2.8630002 0.25610903 0.39511445 0
2.8190002 0.16780719 0.39527318 0
2.8190002 0.16344377 0.39527318 0
2.8200002 0.15916514 0.39526957 0
2.8200002 0.15479994 0.39526957 0
2.8210001 0.15051587 0.39526597 0
2.8210001 0.14614886 0.39526597 0
2.8220003 0.14185941 0.39526236 0
2.8220003 0.13749059 0.39526236 0
2.8230002 0.13319571 0.39525875 0
2.8230002 0.1288251 0.39525875 0
2.8240001 0.1245248 0.39525515 0
2.8240001 0.12015237 0.39525515 0
2.8250003 0.11584669 0.39525154 0
2.8250003 0.11147246 0.39525154 0
2.8260002 0.10716136 0.39524794 0
2.8260002 0.1027853 0.39524794 0
2.8270001 0.098468795 0.39524433 0
2.8270001 0.094090953 0.39524433 0
2.8280003 0.089769036 0.39524072 0
2.8280003 0.085389391 0.39524072 0
2.8290002 0.081062049 0.39523712 0
2.8290002 0.076680601 0.39523712 0
2.8290002 0.072299153 0.39523712 0
2.8300002 0.067964599 0.39523351 0
2.8300002 0.063581347 0.39523351 0
2.8310003 0.059241395 0.39522991 0
2.8310003 0.054856334 0.39522991 0
2.8320003 0.050510962 0.3952263 0
2.8320003 0.046124097 0.3952263 0
2.8330002 0.041773308 0.39522269 0
2.8330002 0.03738464 0.39522269 0
2.8340001 0.033028442 0.39521909 0
2.8340001 0.028637972 0.39521909 0
2.8350003 0.024276372 0.39521548 0
2.8350003 0.019884098 0.39521548 0
2.8360002 0.015517075 0.39521188 0
2.8360002 0.011122998 0.39521188 0
2.8370001 0.006750565 0.39520824 0
2.8370001 0.0023546852 0.39520824 0
2.8380003 -0.0020231567 0.39520463 0
2.8380003 -0.0064208396 0.39520463 0
2.8390002 -0.010804094 0.39520103 0
2.8390002 -0.01520358 0.39520103 0
2.8400002 -0.019592248 0.39519742 0
2.8400002 -0.023993539 0.39519742 0
2.8410003 -0.028387615 0.39519382 0
2.8410003 -0.032790713 0.39519382 0
2.8420002 -0.037190199 0.39519021 0
2.8420002 -0.041595101 0.39519021 0
2.8430002 -0.046 0.3951866 0
2.8430002 -0.050406702 0.3951866 0
2.8440001 -0.054817013 0.395183 0
2.8440001 -0.059225522 0.395183 0
2.8450003 -0.063641243 0.39517939 0
2.8450003 -0.068051554 0.39517939 0
2.8460002 -0.072472692 0.39517578 0
2.8460002 -0.076884806 0.39517578 0
2.8470001 -0.081311345 0.39517218 0
2.8470001 -0.085725263 0.39517218 0
2.8480003 -0.090157226 0.39516857 0
2.8480003 -0.094572946 0.39516857 0
2.8490002 -0.099010319 0.39516497 0
2.8490002 -0.10342784 0.39516497 0
2.8500001 -0.10787062 0.39516136 0
2.8500001 -0.11228995 0.39516136 0
2.8510003 -0.11673814 0.39515775 0
2.8510003 -0.12115929 0.39515775 0
2.8520002 -0.12561288 0.39515415 0
2.8520002 -0.13003582 0.39515415 0
2.8530002 -0.13449483 0.39515054 0
2.8530002 -0.13891958 0.39515054 0
2.8540003 -0.14338401 0.39514694 0
2.8540003 -0.14781055 0.39514694 0
2.8550003 -0.15228039 0.39514333 0
2.8550003 -0.15670873 0.39514333 0
2.8560002 -0.16118398 0.39513969 0
2.8570001 -0.16566283 0.39513609 0
2.8570001 -0.17009479 0.39513609 0
2.8580003 -0.17457907 0.39513248 0
2.8580003 -0.17901282 0.39513248 0
2.8590002 -0.1835025 0.39512888 0
2.8590002 -0.18793806 0.39512888 0
2.8600001 -0.19243315 0.39512527 0
2.8600001 -0.19687052 0.39512527 0
2.8610003 -0.20137103 0.39512166 0
2.8610003 -0.2058102 0.39512166 0
2.8620002 -0.21031611 0.39511806 0
2.8620002 -0.21475708 0.39511806 0
2.8630002 -0.2192684 0.39511445 0
2.8630002 -0.22371119 0.39511445 0
2.8580003 0.34860471 0.39069873 0
2.8480003 0.3425836 0.39075285 0
2.8420002 0.33722627 0.39078531 0
2.8380003 0.33220086 0.39080697 0
2.8350003 0.32734323 0.39082319 0
2.8330002 0.3226479 0.390834 0
2.8310003 0.31795982 0.39084485 0
2.8300002 0.31342682 0.39085025 0
2.8290002 0.30889747 0.39085567 0
2.8290002 0.30451602 0.39085567 0
2.8290002 0.30013457 0.39085567 0
2.8290002 0.29575309 0.39085567 0
2.8300002 0.29151055 0.39085025 0
2.8310003 0.28726441 0.39084485 0
2.8330002 0.2831499 0.390834 0
2.8350003 0.27902821 0.39082319 0
2.8380003 0.27503097 0.39080697 0
2.8410003 0.27102292 0.39079073 0
2.8450003 0.2671321 0.39076909 0
2.8490002 0.26322684 0.39074743 0
2.8550003 0.25955608 0.39071497 0
2.8630002 0.25610903 0.39067167 0
2.8190002 0.16780719 0.39090979 0
2.8190002 0.16344377 0.39090979 0
2.8200002 0.15916514 0.39090437 0
2.8200002 0.15479994 0.39090437 0
2.8210001 0.15051587 0.39089894 0
2.8210001 0.14614886 0.39089894 0
2.8220003 0.14185941 0.39089355 0
2.8220003 0.13749059 0.39089355 0
2.8230002 0.13319571 0.39088812 0
2.8230002 0.1288251 0.39088812 0
2.8240001 0.1245248 0.39088273 0
2.8240001 0.12015237 0.39088273 0
2.8250003 0.11584669 0.39087731 0
2.8250003 0.11147246 0.39087731 0
2.8260002 0.10716136 0.39087188 0
2.8260002 0.1027853 0.39087188 0
2.8270001 0.098468795 0.39086649 0
2.8270001 0.094090953 0.39086649 0
2.8280003 0.089769036 0.39086106 0
2.8280003 0.085389391 0.39086106 0
2.8290002 0.081062049 0.39085567 0
2.8290002 0.076680601 0.39085567 0
2.8290002 0.072299153 0.39085567 0
2.8300002 0.067964599 0.39085025 0
2.8300002 0.063581347 0.39085025 0
2.8310003 0.059241395 0.39084485 0
2.8310003 0.054856334 0.39084485 0
2.8320003 0.050510962 0.39083943 0
2.8320003 0.046124097 0.39083943 0
2.8330002 0.041773308 0.390834 0
2.8330002 0.03738464 0.390834 0
2.8340001 0.033028442 0.39082861 0
2.8340001 0.028637972 0.39082861 0
2.8350003 0.024276372 0.39082319 0
2.8350003 0.019884098 0.39082319 0
2.8360002 0.015517075 0.39081779 0
2.8360002 0.011122998 0.39081779 0
2.8370001 0.006750565 0.39081237 0
2.8370001 0.0023546852 0.39081237 0
2.8380003 -0.0020231567 0.39080697 0
2.8380003 -0.0064208396 0.39080697 0
2.8390002 -0.010804094 0.39080155 0
2.8390002 -0.01520358 0.39080155 0
2.8400002 -0.019592248 0.39079612 0
2.8400002 -0.023993539 0.39079612 0
2.8410003 -0.028387615 0.39079073 0
2.8410003 -0.032790713 0.39079073 0
2.8420002 -0.037190199 0.39078531 0
2.8420002 -0.041595101 0.39078531 0
2.8430002 -0.046 0.39077991 0
2.8430002 -0.050406702 0.39077991 0
2.8440001 -0.054817013 0.39077449 0
2.8440001 -0.059225522 0.39077449 0
2.8450003 -0.063641243 0.39076909 0
2.8450003 -0.068051554 0.39076909 0
2.8460002 -0.072472692 0.39076367 0
2.8460002 -0.076884806 0.39076367 0
2.8470001 -0.081311345 0.39075825 0
2.8470001 -0.085725263 0.39075825 0
2.8480003 -0.090157226 0.39075285 0
2.8480003 -0.094572946 0.39075285 0
2.8490002 -0.099010319 0.39074743 0
2.8490002 -0.10342784 0.39074743 0
2.8500001 -0.10787062 0.39074203 0
2.8500001 -0.11228995 0.39074203 0
2.8510003 -0.11673814 0.39073661 0
2.8510003 -0.12115929 0.39073661 0
2.8520002 -0.12561288 0.39073122 0
2.8520002 -0.13003582 0.39073122 0
2.8530002 -0.13449483 0.39072579 0
2.8530002 -0.13891958 0.39072579 0
2.8540003 -0.14338401 0.39072037 0
2.8540003 -0.14781055 0.39072037 0
2.8550003 -0.15228039 0.39071497 0
2.8550003 -0.15670873 0.39071497 0
2.8560002 -0.16118398 0.39070955 0
2.8570001 -0.16566283 0.39070415 0
2.8570001 -0.17009479 0.39070415 0
2.8580003 -0.17457907 0.39069873 0
2.8580003 -0.17901282 0.39069873 0
2.8590002 -0.1835025 0.39069331 0
2.8590002 -0.18793806 0.39069331 0
2.8600001 -0.19243315 0.39068791 0
2.8600001 -0.19687052 0.39068791 0
2.8610003 -0.20137103 0.39068249 0
2.8610003 -0.2058102 0.39068249 0
2.8620002 -0.21031611 0.39067709 0
2.8620002 -0.21475708 0.39067709 0
2.8630002 -0.2192684 0.39067167 0
2.8630002 -0.22371119 0.39067167 0
2.8580003 0.34860471 0.38626498 0
2.8480003 0.3425836 0.38633713 0
2.8420002 0.33722627 0.3863804 0
2.8380003 0.33220086 0.38640928 0
2.8350003 0.32734323 0.38643092 0
2.8330002 0.3226479 0.38644534 0
2.8310003 0.31795982 0.38645977 0
2.8300002 0.31342682 0.38646701 0
2.8290002 0.30889747 0.38647422 0
2.8290002 0.30451602 0.38647422 0
2.8290002 0.30013457 0.38647422 0
2.8290002 0.29575309 0.38647422 0
2.8300002 0.29151055 0.38646701 0
2.8310003 0.28726441 0.38645977 0
2.8330002 0.2831499 0.38644534 0
2.8350003 0.27902821 0.38643092 0
2.8380003 0.27503097 0.38640928 0
2.8410003 0.27102292 0.38638762 0
2.8450003 0.2671321 0.38635877 0
2.8490002 0.26322684 0.38632992 0
2.8550003 0.25955608 0.38628662 0
2.8630002 0.25610903 0.38622889 0
2.8190002 0.16780719 0.38654637 0
2.8190002 0.16344377 0.38654637 0
2.8200002 0.15916514 0.38653916 0
2.8200002 0.15479994 0.38653916 0
2.8210001 0.15051587 0.38653195 0
2.8210001 0.14614886 0.38653195 0
2.8220003 0.14185941 0.38652471 0
2.8220003 0.13749059 0.38652471 0
2.8230002 0.13319571 0.38651749 0
2.8230002 0.1288251 0.38651749 0
2.8240001 0.1245248 0.38651028 0
2.8240001 0.12015237 0.38651028 0
2.8250003 0.11584669 0.38650307 0
2.8250003 0.11147246 0.38650307 0
2.8260002 0.10716136 0.38649586 0
2.8260002 0.1027853 0.38649586 0
2.8270001 0.098468795 0.38648865 0
2.8270001 0.094090953 0.38648865 0
2.8280003 0.089769036 0.38648143 0
2.8280003 0.085389391 0.38648143 0
2.8290002 0.081062049 0.38647422 0
2.8290002 0.076680601 0.38647422 0
2.8290002 0.072299153 0.38647422 0
2.8300002 0.067964599 0.38646701 0
2.8300002 0.063581347 0.38646701 0
2.8310003 0.059241395 0.38645977 0
2.8310003 0.054856334 0.38645977 0
2.8320003 0.050510962 0.38645256 0
2.8320003 0.046124097 0.38645256 0
2.8330002 0.041773308 0.38644534 0
2.8330002 0.03738464 0.38644534 0
2.8340001 0.033028442 0.38643813 0
2.8340001 0.028637972 0.38643813 0
2.8350003 0.024276372 0.38643092 0
2.8350003 0.019884098 0.38643092 0
2.8360002 0.015517075 0.38642371 0
2.8360002 0.011122998 0.38642371 0
2.8370001 0.006750565 0.38641649 0
2.8370001 0.0023546852 0.38641649 0
2.8380003 -0.0020231567 0.38640928 0
2.8380003 -0.0064208396 0.38640928 0
2.8390002 -0.010804094 0.38640207 0
2.8390002 -0.01520358 0.38640207 0
2.8400002 -0.019592248 0.38639486 0
2.8400002 -0.023993539 0.38639486 0
2.8410003 -0.028387615 0.38638762 0
2.8410003 -0.032790713 0.38638762 0
2.8420002 -0.037190199 0.3863804 0
2.8420002 -0.041595101 0.3863804 0
2.8430002 -0.046 0.38637319 0
2.8430002 -0.050406702 0.38637319 0
2.8440001 -0.054817013 0.38636598 0
2.8440001 -0.059225522 0.38636598 0
2.8450003 -0.063641243 0.38635877 0
2.8450003 -0.068051554 0.38635877 0
2.8460002 -0.072472692 0.38635156 0
2.8460002 -0.076884806 0.38635156 0
2.8470001 -0.081311345 0.38634434 0
2.8470001 -0.085725263 0.38634434 0
2.8480003 -0.090157226 0.38633713 0
2.8480003 -0.094572946 0.38633713 0
2.8490002 -0.099010319 0.38632992 0
2.8490002 -0.10342784 0.38632992 0
3.1800003 -0.12121882 0.38394165 0
3.1780002 -0.12617567 0.3839561 0
3.1760001 -0.13112532 0.38397053 0
3.1760001 -0.13613269 0.38397053 0
3.1760001 -0.14114006 0.38397053 0
2.8930001 -0.14493166 0.38601243 0
2.8870003 -0.14917964 0.38605574 0
2.8830001 -0.15349254 0.38608459 0
2.8810003 -0.15788122 0.38609901 0
2.8790002 -0.16226265 0.38611346 0
2.8780003 -0.1666856 0.38612068 0
2.8770003 -0.17110492 0.38612789 0
2.8780003 -0.17562528 0.38612068 0
2.8790002 -0.18014923 0.38611346 0
2.8790002 -0.18462086 0.38611346 0
2.8590002 -0.18793806 0.38625777 0
2.8600001 -0.19243315 0.38625056 0
2.8600001 -0.19687052 0.38625056 0
2.8610003 -0.20137103 0.38624331 0
2.8610003 -0.2058102 0.38624331 0
2.8620002 -0.21031611 0.3862361 0
2.8620002 -0.21475708 0.3862361 0
2.8630002 -0.2192684 0.38622889 0
2.8630002 -0.22371119 0.38622889 0
2.8580003 0.34860471 0.3818312 0
2.8480003 0.3425836 0.38192141 0
2.8420002 0.33722627 0.3819755 0
2.8380003 0.33220086 0.38201159 0
2.8350003 0.32734323 0.38203865 0
2.8330002 0.3226479 0.38205668 0
2.8310003 0.31795982 0.38207471 0
2.8300002 0.31342682 0.38208374 0
2.8290002 0.30889747 0.38209277 0
2.8290002 0.30451602 0.38209277 0
2.8290002 0.30013457 0.38209277 0
2.8290002 0.29575309 0.38209277 0
2.8300002 0.29151055 0.38208374 0
2.8310003 0.28726441 0.38207471 0
2.8330002 0.2831499 0.38205668 0
2.8350003 0.27902821 0.38203865 0
2.8380003 0.27503097 0.38201159 0
2.8410003 0.27102292 0.38198453 0
2.8450003 0.2671321 0.38194847 0
2.8490002 0.26322684 0.38191238 0
2.8550003 0.25955608 0.38185826 0
2.8630002 0.25610903 0.38178611 0
2.8530002 0.14868863 0.38187632 0
2.8490002 0.14395364 0.38191238 0
2.8470001 0.13938458 0.38193041 0
2.8450003 0.13482276 0.38194847 0
2.8440001 0.13034028 0.38195747 0
2.8440001 0.12593177 0.38195747 0
2.8440001 0.12152328 0.38195747 0
2.8450003 0.11718151 0.38194847 0
2.8470001 0.11290106 0.38193041 0
2.8500001 0.10867654 0.38190335 0
2.8540003 0.10450254 0.38186729 0
2.8590002 0.10037363 0.3818222 0
3.1840003 -0.11630523 0.37889099 0
3.1800003 -0.12121882 0.37892708 0
3.1780002 -0.12617567 0.37894511 0
3.1760001 -0.13112532 0.37896317 0
3.1760001 -0.13613269 0.37896317 0
3.1760001 -0.14114006 0.37896317 0
3.1770003 -0.14618352 0.37895414 0
2.8930001 -0.14493166 0.38151553 0
2.8870003 -0.14917964 0.38156965 0
2.8830001 -0.15349254 0.38160574 0
2.8810003 -0.15788122 0.38162377 0
2.8790002 -0.16226265 0.38164181 0
2.8780003 -0.1666856 0.38165084 0
2.8770003 -0.17110492 0.38165984 0
2.8780003 -0.17562528 0.38165084 0
2.8790002 -0.18014923 0.38164181 0
2.8790002 -0.18462086 0.38164181 0
2.8590002 -0.18793806 0.3818222 0
2.8600001 -0.19243315 0.38181317 0
2.8600001 -0.19687052 0.38181317 0
2.8610003 -0.20137103 0.38180417 0
2.8610003 -0.2058102 0.38180417 0
2.8620002 -0.21031611 0.38179514 0
2.8620002 -0.21475708 0.38179514 0
2.8630002 -0.2192684 0.38178611 0
2.8630002 -0.22371119 0.38178611 0
2.8580003 0.34860471 0.37739745 0
2.8480003 0.3425836 0.37750569 0
2.8420002 0.33722627 0.37757063 0
2.8380003 0.33220086 0.3776139 0
2.8350003 0.32734323 0.37764639 0
2.8330002 0.3226479 0.37766802 0
2.8310003 0.31795982 0.37768966 0
2.8300002 0.31342682 0.37770048 0
2.8290002 0.30889747 0.3777113 0
2.8290002 0.30451602 0.3777113 0
2.8290002 0.30013457 0.3777113 0
2.8290002 0.29575309 0.3777113 0
2.8300002 0.29151055 0.37770048 0
2.8310003 0.28726441 0.37768966 0
2.8330002 0.2831499 0.37766802 0
2.8350003 0.27902821 0.37764639 0
2.8380003 0.27503097 0.3776139 0
2.8410003 0.27102292 0.37758145 0
2.8450003 0.2671321 0.37753814 0
2.8490002 0.26322684 0.37749487 0
2.8550003 0.25955608 0.3774299 0
2.8630002 0.25610903 0.37734333 0
2.8610003 0.15376274 0.37736499 0
2.8530002 0.14868863 0.37745157 0
2.8490002 0.14395364 0.37749487 0
2.8470001 0.13938458 0.37751651 0
2.8450003 0.13482276 0.37753814 0
2.8440001 0.13034028 0.37754896 0
2.8440001 0.12593177 0.37754896 0
2.8440001 0.12152328 0.37754896 0
2.8450003 0.11718151 0.37753814 0
2.8470001 0.11290106 0.37751651 0
2.8500001 0.10867654 0.37748402 0
2.8540003 0.10450254 0.37744075 0
2.8590002 0.10037363 0.37738663 0
3.1840003 -0.11630523 0.37386921 0
3.1800003 -0.12121882 0.37391248 0
3.1780002 -0.12617567 0.37393415 0
3.1760001 -0.13112532 0.37395579 0
3.1760001 -0.13613269 0.37395579 0
3.1760001 -0.14114006 0.37395579 0
3.1770003 -0.14618352 0.37394497 0
3.1720002 -0.15100329 0.37399909 0
2.8930001 -0.14493166 0.37701866 0
2.8870003 -0.14917964 0.3770836 0
2.8830001 -0.15349254 0.37712687 0
2.8810003 -0.15788122 0.37714851 0
2.8790002 -0.16226265 0.37717018 0
2.8780003 -0.1666856 0.37718099 0
2.8770003 -0.17110492 0.37719181 0
2.8780003 -0.17562528 0.37718099 0
2.8790002 -0.18014923 0.37717018 0
2.8790002 -0.18462086 0.37717018 0
2.8590002 -0.18793806 0.37738663 0
2.8600001 -0.19243315 0.37737581 0
2.8600001 -0.19687052 0.37737581 0
2.8610003 -0.20137103 0.37736499 0
2.8610003 -0.2058102 0.37736499 0
2.8620002 -0.21031611 0.37735415 0
2.8620002 -0.21475708 0.37735415 0
2.8630002 -0.2192684 0.37734333 0
2.8630002 -0.22371119 0.37734333 0
2.8580003 0.34860471 0.3729637 0
2.8480003 0.3425836 0.37308997 0
2.8420002 0.33722627 0.37316573 0
2.8380003 0.33220086 0.37321621 0
2.8350003 0.32734323 0.37325409 0
2.8330002 0.3226479 0.37327936 0
2.8310003 0.31795982 0.37330461 0
2.8300002 0.31342682 0.37331724 0
2.8290002 0.30889747 0.37332988 0
2.8290002 0.30451602 0.37332988 0
2.8290002 0.30013457 0.37332988 0
2.8290002 0.29575309 0.37332988 0
2.8300002 0.29151055 0.37331724 0
2.8310003 0.28726441 0.37330461 0
2.8330002 0.2831499 0.37327936 0
2.8350003 0.27902821 0.37325409 0
2.8380003 0.27503097 0.37321621 0
2.8410003 0.27102292 0.37317833 0
2.8450003 0.2671321 0.37312785 0
2.8490002 0.26322684 0.37307733 0
2.8550003 0.25955608 0.37300158 0
2.8630002 0.25610903 0.37290055 0
2.8610003 0.15376274 0.37292582 0
2.8530002 0.14868863 0.37302682 0
2.8490002 0.14395364 0.37307733 0
2.8470001 0.13938458 0.37310258 0
2.8450003 0.13482276 0.37312785 0
2.8440001 0.13034028 0.37314045 0
2.8440001 0.12593177 0.37314045 0
2.8440001 0.12152328 0.37314045 0
2.8450003 0.11718151 0.37312785 0
2.8470001 0.11290106 0.37310258 0
2.8500001 0.10867654 0.3730647 0
2.8540003 0.10450254 0.37301418 0
2.8590002 0.10037363 0.37295106 0
3.1900003 -0.11142413 0.36877164 0
3.1840003 -0.11630523 0.3688474 0
3.1800003 -0.12121882 0.36889791 0
3.1780002 -0.12617567 0.36892316 0
3.1760001 -0.13112532 0.3689484 0
3.1760001 -0.13613269 0.3689484 0
3.1760001 -0.14114006 0.3689484 0
3.1770003 -0.14618352 0.36893579 0
3.1720002 -0.15100329 0.36899891 0
2.8930001 -0.14493166 0.37252176 0
2.8870003 -0.14917964 0.37259752 0
2.8830001 -0.15349254 0.37264803 0
2.8810003 -0.15788122 0.37267327 0
2.8790002 -0.16226265 0.37269855 0
2.8780003 -0.1666856 0.37271115 0
2.8770003 -0.17110492 0.37272379 0
2.8780003 -0.17562528 0.37271115 0
2.8790002 -0.18014923 0.37269855 0
2.8790002 -0.18462086 0.37269855 0
2.8590002 -0.18793806 0.37295106 0
2.8600001 -0.19243315 0.37293842 0
2.8600001 -0.19687052 0.37293842 0
2.8610003 -0.20137103 0.37292582 0
2.8610003 -0.2058102 0.37292582 0
2.8620002 -0.21031611 0.37291318 0
2.8620002 -0.21475708 0.37291318 0
2.8630002 -0.2192684 0.37290055 0
2.8630002 -0.22371119 0.37290055 0
2.8580003 0.34860471 0.36852992 0
2.8480003 0.3425836 0.36867422 0
2.8420002 0.33722627 0.36876082 0
2.8380003 0.33220086 0.36881852 0
2.8350003 0.32734323 0.36886182 0
2.8330002 0.3226479 0.3688907 0
2.8310003 0.31795982 0.36891955 0
2.8300002 0.31342682 0.36893398 0
2.8290002 0.30889747 0.3689484 0
2.8290002 0.30451602 0.3689484 0
2.8290002 0.30013457 0.3689484 0
2.8290002 0.29575309 0.3689484 0
2.8300002 0.29151055 0.36893398 0
2.8310003 0.28726441 0.36891955 0
2.8330002 0.2831499 0.3688907 0
2.8350003 0.27902821 0.36886182 0
2.8380003 0.27503097 0.36881852 0
2.8410003 0.27102292 0.36877525 0
2.8450003 0.2671321 0.36871752 0
2.8490002 0.26322684 0.36865979 0
2.8550003 0.25955608 0.36857322 0
2.8630002 0.25610903 0.36845779 0
2.8610003 0.15376274 0.36848664 0
2.8530002 0.14868863 0.3686021 0
2.8490002 0.14395364 0.36865979 0
2.8470001 0.13938458 0.36868867 0
2.8450003 0.13482276 0.36871752 0
2.8440001 0.13034028 0.36873195 0
2.8440001 0.12593177 0.36873195 0
2.8440001 0.12152328 0.36873195 0
2.8450003 0.11718151 0.36871752 0
2.8470001 0.11290106 0.36868867 0
2.8500001 0.10867654 0.36864537 0
2.8540003 0.10450254 0.36858764 0
2.8590002 0.10037363 0.36851549 0
3.1900003 -0.11142413 0.36373901 0
3.1840003 -0.11630523 0.36382559 0
3.1800003 -0.12121882 0.36388332 0
3.1780002 -0.12617567 0.36391217 0
3.1760001 -0.13112532 0.36394104 0
3.1760001 -0.13613269 0.36394104 0
3.1760001 -0.14114006 0.36394104 0
3.1770003 -0.14618352 0.36392662 0
3.1720002 -0.15100329 0.36399877 0
2.8930001 -0.14493166 0.36802486 0
2.8870003 -0.14917964 0.36811143 0
2.8830001 -0.15349254 0.36816916 0
2.8810003 -0.15788122 0.36819804 0
2.8790002 -0.16226265 0.36822689 0
2.8780003 -0.1666856 0.36824131 0
2.8770003 -0.17110492 0.36825573 0
2.8780003 -0.17562528 0.36824131 0
2.8790002 -0.18014923 0.36822689 0
2.8790002 -0.18462086 0.36822689 0
2.8590002 -0.18793806 0.36851549 0
2.8600001 -0.19243315 0.36850107 0
2.8600001 -0.19687052 0.36850107 0
2.8610003 -0.20137103 0.36848664 0
2.8610003 -0.2058102 0.36848664 0
2.8620002 -0.21031611 0.36847222 0
2.8620002 -0.21475708 0.36847222 0
2.8630002 -0.2192684 0.36845779 0
2.8630002 -0.22371119 0.36845779 0
2.8580003 0.34860471 0.36409616 0
2.8480003 0.3425836 0.3642585 0
2.8420002 0.33722627 0.36435592 0
2.8380003 0.33220086 0.36442086 0
2.8350003 0.32734323 0.36446956 0
2.8330002 0.3226479 0.36450201 0
2.8310003 0.31795982 0.3645345 0
2.8300002 0.31342682 0.36455074 0
2.8290002 0.30889747 0.36456695 0
2.8290002 0.30451602 0.36456695 0
2.8290002 0.30013457 0.36456695 0
2.8290002 0.29575309 0.36456695 0
2.8300002 0.29151055 0.36455074 0
2.8310003 0.28726441 0.3645345 0
2.8330002 0.2831499 0.36450201 0
2.8350003 0.27902821 0.36446956 0
2.8380003 0.27503097 0.36442086 0
2.8410003 0.27102292 0.36437213 0
2.8450003 0.2671321 0.36430722 0
2.8490002 0.26322684 0.36424229 0
2.8550003 0.25955608 0.36414486 0
2.8630002 0.25610903 0.36401498 0
2.8610003 0.15376274 0.36404747 0
2.8530002 0.14868863 0.36417735 0
2.8490002 0.14395364 0.36424229 0
2.8470001 0.13938458 0.36427474 0
2.8450003 0.13482276 0.36430722 0
2.8440001 0.13034028 0.36432344 0
2.8440001 0.12593177 0.36432344 0
2.8440001 0.12152328 0.36432344 0
2.8450003 0.11718151 0.36430722 0
2.8470001 0.11290106 0.36427474 0
2.8500001 0.10867654 0.36422604 0
2.8540003 0.10450254 0.3641611 0
2.8590002 0.10037363 0.36407992 0
3.1900003 -0.11142413 0.35870638 0
3.1840003 -0.11630523 0.35880381 0
3.1800003 -0.12121882 0.35886872 0
3.1780002 -0.12617567 0.3589012 0
3.1760001 -0.13112532 0.35893366 0
3.1760001 -0.13613269 0.35893366 0
3.1760001 -0.14114006 0.35893366 0
3.1770003 -0.14618352 0.35891744 0
3.1720002 -0.15100329 0.3589986 0
2.8930001 -0.14493166 0.36352795 0
2.8870003 -0.14917964 0.36362538 0
2.8830001 -0.15349254 0.36369032 0
2.8810003 -0.15788122 0.36372277 0
2.8790002 -0.16226265 0.36375526 0
2.8780003 -0.1666856 0.36377147 0
2.8770003 -0.17110492 0.36378771 0
2.8780003 -0.17562528 0.36377147 0
2.8790002 -0.18014923 0.36375526 0
2.8790002 -0.18462086 0.36375526 0
2.8590002 -0.18793806 0.36407992 0
2.8600001 -0.19243315 0.36406371 0
2.8600001 -0.19687052 0.36406371 0
2.8610003 -0.20137103 0.36404747 0
2.8610003 -0.2058102 0.36404747 0
2.8620002 -0.21031611 0.36403123 0
2.8620002 -0.21475708 0.36403123 0
2.8630002 -0.2192684 0.36401498 0
2.8630002 -0.22371119 0.36401498 0
2.8580003 0.34860471 0.35966241 0
2.8480003 0.3425836 0.35984278 0
2.8420002 0.33722627 0.35995102 0
2.8380003 0.33220086 0.36002317 0
2.8350003 0.32734323 0.36007729 0
2.8330002 0.3226479 0.36011335 0
2.8310003 0.31795982 0.36014944 0
2.8300002 0.31342682 0.36016747 0
2.8290002 0.30889747 0.3601855 0
2.8290002 0.30451602 0.3601855 0
2.8290002 0.30013457 0.3601855 0
2.8290002 0.29575309 0.3601855 0
2.8300002 0.29151055 0.36016747 0
2.8310003 0.28726441 0.36014944 0
2.8330002 0.2831499 0.36011335 0
2.8350003 0.27902821 0.36007729 0
2.8380003 0.27503097 0.36002317 0
2.8410003 0.27102292 0.35996905 0
2.8450003 0.2671321 0.3598969 0
2.8490002 0.26322684 0.35982475 0
2.8550003 0.25955608 0.35971653 0
2.8630002 0.25610903 0.35957223 0
2.8610003 0.15376274 0.35960829 0
2.8530002 0.14868863 0.3597526 0
2.8490002 0.14395364 0.35982475 0
2.8470001 0.13938458 0.35986084 0
2.8450003 0.13482276 0.3598969 0
2.8440001 0.13034028 0.35991496 0
2.8440001 0.12593177 0.35991496 0
2.8440001 0.12152328 0.35991496 0
2.8450003 0.11718151 0.3598969 0
2.8470001 0.11290106 0.35986084 0
2.8500001 0.10867654 0.35980672 0
2.8540003 0.10450254 0.35973457 0
2.8590002 0.10037363 0.35964438 0
2.8750002 0.096861616 0.35935575 0
3.1900003 -0.11142413 0.35367376 0
3.1840003 -0.11630523 0.353782 0
3.1800003 -0.12121882 0.35385415 0
3.1780002 -0.12617567 0.35389021 0
3.1760001 -0.13112532 0.3539263 0
3.1760001 -0.13613269 0.3539263 0
3.1760001 -0.14114006 0.3539263 0
3.1770003 -0.14618352 0.35390824 0
3.1790001 -0.15126844 0.35387218 0
2.8930001 -0.14493166 0.35903108 0
2.8870003 -0.14917964 0.35913929 0
2.8830001 -0.15349254 0.35921144 0
2.8810003 -0.15788122 0.35924754 0
2.8790002 -0.16226265 0.3592836 0
2.8780003 -0.1666856 0.35930166 0
2.8770003 -0.17110492 0.35931969 0
2.8780003 -0.17562528 0.35930166 0
2.8790002 -0.18014923 0.3592836 0
2.8790002 -0.18462086 0.3592836 0
2.8590002 -0.18793806 0.35964438 0
2.8600001 -0.19243315 0.35962632 0
2.8600001 -0.19687052 0.35962632 0
2.8610003 -0.20137103 0.35960829 0
2.8610003 -0.2058102 0.35960829 0
2.8620002 -0.21031611 0.35959026 0
2.8620002 -0.21475708 0.35959026 0
2.8630002 -0.2192684 0.35957223 0
2.8630002 -0.22371119 0.35957223 0
2.8580003 0.34860471 0.35522866 0
2.8480003 0.3425836 0.35542706 0
2.8420002 0.33722627 0.35554612 0
2.8380003 0.33220086 0.35562548 0
2.8350003 0.32734323 0.355685 0
2.8330002 0.3226479 0.35572469 0
2.8310003 0.31795982 0.35576439 0
2.8300002 0.31342682 0.35578421 0
2.8290002 0.30889747 0.35580406 0
2.8290002 0.30451602 0.35580406 0
2.8290002 0.30013457 0.35580406 0
2.8290002 0.29575309 0.35580406 0
2.8300002 0.29151055 0.35578421 0
2.8310003 0.28726441 0.35576439 0
2.8330002 0.2831499 0.35572469 0
2.8350003 0.27902821 0.355685 0
2.8380003 0.27503097 0.35562548 0
2.8410003 0.27102292 0.35556597 0
2.8450003 0.2671321 0.3554866 0
2.8490002 0.26322684 0.35540724 0
2.8550003 0.25955608 0.35528818 0
2.8630002 0.25610903 0.35512945 0
2.8610003 0.15376274 0.35516912 0
2.8530002 0.14868863 0.35532784 0
2.8490002 0.14395364 0.35540724 0
2.8470001 0.13938458 0.3554469 0
2.8450003 0.13482276 0.3554866 0
2.8440001 0.13034028 0.35550642 0
2.8440001 0.12593177 0.35550642 0
2.8440001 0.12152328 0.35550642 0
2.8450003 0.11718151 0.3554866 0
2.8470001 0.11290106 0.3554469 0
2.8500001 0.10867654 0.35538739 0
2.8540003 0.10450254 0.355308 0
2.8590002 0.10037363 0.35520881 0
2.8750002 0.096861616 0.35489133 0
3.1900003 -0.11142413 0.34864113 0
3.1840003 -0.11630523 0.34876019 0
3.1800003 -0.12121882 0.34883955 0
3.1780002 -0.12617567 0.34887925 0
3.1760001 -0.13112532 0.34891891 0
3.1760001 -0.13613269 0.34891891 0
3.1760001 -0.14114006 0.34891891 0
3.1770003 -0.14618352 0.34889907 0
3.1790001 -0.15126844 0.3488594 0
2.8930001 -0.14493166 0.35453418 0
2.8870003 -0.14917964 0.35465324 0
2.8830001 -0.15349254 0.3547326 0
2.8810003 -0.15788122 0.35477227 0
