# .PCD v0.7 - Point Cloud Data file format
VERSION 0.7
FIELDS x y z intensity
SIZE 4 4 4 4
TYPE F F F F
COUNT 1 1 1 1
WIDTH 1437
HEIGHT 1
VIEWPOINT 0 0 0 1 0 0 0
POINTS 1437
DATA ascii
4.7430005 1.9673226 0.15331393 0
4.7480001 1.9617972 0.15302536 0
4.7540002 1.9567142 0.15267903 0
4.7590003 1.9511511 0.15239042 0
4.7640004 1.9455702 0.15210178 0
4.7700005 1.9404259 0.15175545 0
4.7750001 1.9348068 0.15146688 0
4.7810001 1.9296209 0.15112054 0
4.7860003 1.9239641 0.15083194 0
4.7920003 1.9187368 0.15048561 0
4.7980003 1.9134877 0.15013924 0
4.8030005 1.9077733 0.14985064 0
4.8090005 1.9024827 0.1495043 0
4.8140001 1.8967302 0.14921573 0
4.8200002 1.8913983 0.1488694 0
4.8260002 1.8860445 0.14852306 0
4.8310003 1.8802346 0.14823443 0
4.8370004 1.8748394 0.14788809 0
4.8420005 1.8689914 0.14759949 0
4.8480005 1.8635548 0.14725316 0
4.8540001 1.8580964 0.14690685 0
4.8600001 1.8526164 0.14656052 0
4.8650002 1.8466909 0.14627188 0
4.8710003 1.8411694 0.14592555 0
4.8770003 1.8356265 0.14557922 0
4.8820004 1.8296431 0.14529061 0
4.8880005 1.8240587 0.14494428 0
4.8940005 1.8184524 0.14459795 0
4.9000001 1.8128242 0.14425164 0
4.9060001 1.8071748 0.14390531 0
4.9120002 1.8015035 0.14355898 0
4.9170003 1.7954032 0.14327034 0
4.9230003 1.7896905 0.14292401 0
4.9290004 1.7839563 0.14257768 0
4.9350004 1.7782003 0.14223135 0
4.9410005 1.7724227 0.14188501 0
4.9470005 1.7666235 0.14153868 0
4.9530005 1.7608026 0.14119235 0
4.9590001 1.7549599 0.14084604 0
4.9650002 1.7490957 0.14049971 0
4.9710002 1.74321 0.14015338 0
4.9770002 1.7373025 0.13980705 0
4.9830003 1.7313734 0.13946071 0
4.9890003 1.7254226 0.13911438 0
4.9950004 1.7194502 0.13876805 0
5.0010004 1.7134562 0.13842171 0
5.0070004 1.7074406 0.13807538 0
5.0130005 1.7014033 0.13772905 0
5.0190005 1.6953442 0.13738272 0
5.0250001 1.6892635 0.13703641 0
5.0320005 1.6835347 0.13663232 0
5.0380001 1.6774088 0.13628602 0
5.0440001 1.6712614 0.13593969 0
5.0500002 1.6650925 0.13559335 0
5.0560002 1.6589018 0.13524702 0
5.0630002 1.6530539 0.13484296 0
5.0690002 1.6468182 0.13449663 0
5.0750003 1.6405607 0.1341503 0
5.0810003 1.6342816 0.13380396 0
5.0880003 1.6283381 0.13339993 0
5.0940003 1.6220139 0.13305357 0
5.1000004 1.6156682 0.13270724 0
5.1070004 1.6096524 0.13230321 0
5.1130004 1.6032616 0.13195688 0
5.1200004 1.5971971 0.13155282 0
5.1260004 1.5907612 0.13120648 0
5.1320004 1.5843036 0.13086015 0
5.1390004 1.578167 0.13045609 0
4.4310002 2.2734971 0.16405202 0
4.4360003 2.2690942 0.1637544 0
4.4400001 2.2641008 0.16351633 0
4.4450002 2.2596636 0.16321868 0
4.4500003 2.2552083 0.16292104 0
4.4540005 2.2501688 0.16268294 0
4.4590001 2.2456789 0.16238531 0
4.4640002 2.2411711 0.16208769 0
4.4690003 2.2366455 0.16179006 0
4.4730005 2.2315426 0.16155194 0
4.4780002 2.2269824 0.16125433 0
4.4830003 2.2224042 0.16095668 0
4.4880004 2.2178082 0.16065906 0
4.4930005 2.2131941 0.16036142 0
4.4970002 2.2080119 0.16012335 0
4.5020003 2.2033632 0.1598257 0
4.5070004 2.1986971 0.15952808 0
4.5120001 2.1940122 0.15923047 0
4.5170002 2.1893098 0.15893282 0
4.5220003 2.1845894 0.1586352 0
4.5260005 2.1793113 0.15839706 0
4.5310001 2.1745563 0.15809947 0
4.5360003 2.1697836 0.15780184 0
4.5410004 2.1649928 0.15750419 0
4.5460005 2.1601837 0.15720658 0
4.5510001 2.1553566 0.15690896 0
4.5560002 2.1505115 0.15661131 0
4.5610003 2.1456487 0.1563137 0
4.5660005 2.1407678 0.15601605 0
4.5710001 2.1358683 0.15571845 0
4.5760002 2.1309512 0.15542082 0
4.5810003 2.1260159 0.15512317 0
4.5860004 2.1210628 0.15482554 0
4.5910001 2.1160913 0.15452795 0
4.5960002 2.1111019 0.1542303 0
4.6010003 2.1060948 0.15393266 0
4.6060004 2.1010695 0.15363505 0
4.6110001 2.0960257 0.15333742 0
4.6160002 2.0909643 0.15303978 0
4.6220002 2.0863898 0.15268263 0
4.6270003 2.0812905 0.152385 0
4.6320004 2.0761733 0.15208736 0
4.6370001 2.0710378 0.15178975 0
4.6420002 2.0658841 0.15149212 0
4.6470003 2.0607128 0.15119448 0
4.6530004 2.0560174 0.15083733 0
4.6580005 2.050808 0.1505397 0
4.6630001 2.0455804 0.15024209 0
4.6680002 2.0403352 0.14994445 0
4.6730003 2.0350716 0.14964682 0
4.6790004 2.0302751 0.14928964 0
4.6840005 2.0249739 0.14899203 0
4.6890001 2.0196543 0.14869443 0
4.6940002 2.0143168 0.14839676 0
4.7000003 2.0094395 0.14803961 0
4.7050004 2.0040641 0.147742 0
4.7100005 1.9986708 0.14744437 0
4.7160001 1.9937317 0.14708725 0
4.7210002 1.9883006 0.14678958 0
4.7270002 1.9833202 0.14643243 0
4.7320004 1.9778512 0.14613479 0
4.7370005 1.9723639 0.14583716 0
4.7430005 1.9673226 0.14548001 0
4.7480001 1.9617972 0.1451824 0
4.7540002 1.9567142 0.14482525 0
4.7590003 1.9511511 0.14452761 0
4.7640004 1.9455702 0.14422998 0
4.7700005 1.9404259 0.14387283 0
4.7750001 1.9348068 0.14357522 0
4.7810001 1.9296209 0.14321807 0
4.7860003 1.9239641 0.1429204 0
4.7920003 1.9187368 0.14256325 0
4.7980003 1.9134877 0.14220613 0
4.8030005 1.9077733 0.14190847 0
4.8090005 1.9024827 0.14155132 0
4.8140001 1.8967302 0.14125371 0
4.8200002 1.8913983 0.14089656 0
4.8260002 1.8860445 0.14053941 0
4.8310003 1.8802346 0.14024177 0
4.8370004 1.8748394 0.13988462 0
4.8420005 1.8689914 0.13958696 0
4.8480005 1.8635548 0.1392298 0
4.8540001 1.8580964 0.13887268 0
4.8600001 1.8526164 0.1385155 0
4.8650002 1.8466909 0.1382179 0
4.8710003 1.8411694 0.13786075 0
4.8770003 1.8356265 0.13750356 0
4.8830004 1.8300616 0.13714641 0
4.8880005 1.8240587 0.13684878 0
4.8940005 1.8184524 0.13649163 0
4.9000001 1.8128242 0.13613451 0
4.9060001 1.8071748 0.13577735 0
4.9120002 1.8015035 0.1354202 0
4.9170003 1.7954032 0.13512257 0
4.9230003 1.7896905 0.13476542 0
4.9290004 1.7839563 0.13440824 0
4.9350004 1.7782003 0.13405108 0
4.9410005 1.7724227 0.13369393 0
4.9470005 1.7666235 0.13333678 0
4.9530005 1.7608026 0.13297963 0
4.9590001 1.7549599 0.13262248 0
4.9650002 1.7490957 0.13226533 0
4.9710002 1.74321 0.13190818 0
4.9770002 1.7373025 0.13155103 0
4.9830003 1.7313734 0.13119385 0
4.9890003 1.7254226 0.1308367 0
4.9950004 1.7194502 0.13047954 0
5.0010004 1.7134562 0.13012239 0
5.0070004 1.7074406 0.12976524 0
5.0130005 1.7014033 0.12940806 0
5.0190005 1.6953442 0.12905091 0
5.0250001 1.6892635 0.12869379 0
5.0320005 1.6835347 0.12827709 0
5.0380001 1.6774088 0.12791997 0
5.0440001 1.6712614 0.12756282 0
5.0500002 1.6650925 0.12720567 0
5.0560002 1.6589018 0.12684849 0
5.0630002 1.6530539 0.12643182 0
5.0690002 1.6468182 0.12607464 0
5.0750003 1.6405607 0.12571749 0
5.0810003 1.6342816 0.12536034 0
5.0880003 1.6283381 0.12494367 0
5.0940003 1.6220139 0.12458652 0
5.1000004 1.6156682 0.12422937 0
5.1070004 1.6096524 0.12381268 0
5.1130004 1.6032616 0.12345552 0
5.1200004 1.5971971 0.12303883 0
5.1260004 1.5907612 0.12268168 0
5.1320004 1.5843036 0.12232453 0
5.1390004 1.578167 0.12190786 0
4.4310002 2.2734971 0.15678088 0
4.4360003 2.2690942 0.15647422 0
4.4400001 2.2641008 0.15622893 0
4.4450002 2.2596636 0.15592228 0
4.4500003 2.2552083 0.15561561 0
4.4540005 2.2501688 0.1553703 0
4.4590001 2.2456789 0.15506367 0
4.4640002 2.2411711 0.15475701 0
4.4690003 2.2366455 0.15445036 0
4.4730005 2.2315426 0.15420504 0
4.4780002 2.2269824 0.15389839 0
4.4830003 2.2224042 0.15359175 0
4.4880004 2.2178082 0.15328512 0
4.4930005 2.2131941 0.15297842 0
4.4970002 2.2080119 0.15273315 0
4.5020003 2.2033632 0.15242648 0
4.5070004 2.1986971 0.15211982 0
4.5120001 2.1940122 0.15181321 0
4.5170002 2.1893098 0.15150657 0
4.5220003 2.1845894 0.15119988 0
4.5260005 2.1793113 0.15095457 0
4.5310001 2.1745563 0.15064797 0
4.5360003 2.1697836 0.15034127 0
4.5410004 2.1649928 0.15003464 0
4.5460005 2.1601837 0.14972797 0
4.5510001 2.1553566 0.14942136 0
4.5560002 2.1505115 0.1491147 0
4.5610003 2.1456487 0.14880803 0
4.5660005 2.1407678 0.1485014 0
4.5710001 2.1358683 0.14819476 0
4.5760002 2.1309512 0.14788809 0
4.5810003 2.1260159 0.14758146 0
4.5860004 2.1210628 0.14727482 0
4.5910001 2.1160913 0.14696816 0
4.5960002 2.1111019 0.14666152 0
4.6010003 2.1060948 0.14635485 0
4.6060004 2.1010695 0.14604822 0
4.6110001 2.0960257 0.14574158 0
4.6160002 2.0909643 0.14543492 0
4.6220002 2.0863898 0.14506695 0
4.6270003 2.0812905 0.14476031 0
4.6320004 2.0761733 0.14445364 0
4.6370001 2.0710378 0.14414701 0
4.6420002 2.0658841 0.14384037 0
4.6470003 2.0607128 0.14353371 0
4.6530004 2.0560174 0.14316574 0
4.6580005 2.050808 0.14285907 0
4.6630001 2.0455804 0.14255247 0
4.6680002 2.0403352 0.1422458 0
4.6730003 2.0350716 0.14193913 0
4.6790004 2.0302751 0.14157116 0
4.6840005 2.0249739 0.14126453 0
4.6890001 2.0196543 0.14095789 0
4.6940002 2.0143168 0.14065123 0
4.7000003 2.0094395 0.14028323 0
4.7050004 2.0040641 0.13997659 0
4.7100005 1.9986708 0.13966995 0
4.7160001 1.9937317 0.13930199 0
4.7210002 1.9883006 0.13899535 0
4.7270002 1.9833202 0.13862735 0
4.7320004 1.9778512 0.13832071 0
4.7370005 1.9723639 0.13801405 0
4.7430005 1.9673226 0.13764605 0
4.7480001 1.9617972 0.13733944 0
4.7540002 1.9567142 0.13697144 0
4.7590003 1.9511511 0.13666481 0
4.7640004 1.9455702 0.13635817 0
4.7700005 1.9404259 0.13599017 0
4.7750001 1.9348068 0.13568357 0
4.7810001 1.9296209 0.1353156 0
4.7860003 1.9239641 0.1350089 0
4.7920003 1.9187368 0.13464093 0
4.7980003 1.9134877 0.13427296 0
4.8030005 1.9077733 0.1339663 0
4.8090005 1.9024827 0.13359833 0
4.8140001 1.8967302 0.13329169 0
4.8200002 1.8913983 0.13292372 0
4.8260002 1.8860445 0.13255572 0
4.8310003 1.8802346 0.13224909 0
4.8370004 1.8748394 0.13188112 0
4.8420005 1.8689914 0.13157445 0
4.8480005 1.8635548 0.13120648 0
4.8540001 1.8580964 0.13083851 0
4.8600001 1.8526164 0.13047054 0
4.8650002 1.8466909 0.13016391 0
4.8710003 1.8411694 0.12979591 0
4.8770003 1.8356265 0.12942794 0
4.8830004 1.8300616 0.12905994 0
4.8880005 1.8240587 0.1287533 0
4.8940005 1.8184524 0.12838531 0
4.9000001 1.8128242 0.12801737 0
4.9060001 1.8071748 0.1276494 0
4.9120002 1.8015035 0.1272814 0
4.9170003 1.7954032 0.12697476 0
4.9230003 1.7896905 0.12660676 0
4.9290004 1.7839563 0.12623879 0
4.9350004 1.7782003 0.12587079 0
4.9410005 1.7724227 0.12550282 0
4.9470005 1.7666235 0.12513486 0
4.9530005 1.7608026 0.12476689 0
4.9590001 1.7549599 0.12439895 0
4.9650002 1.7490957 0.12403095 0
4.9710002 1.74321 0.12366298 0
4.9770002 1.7373025 0.12329498 0
4.9830003 1.7313734 0.12292701 0
4.9890003 1.7254226 0.12255904 0
4.9950004 1.7194502 0.12219104 0
5.0010004 1.7134562 0.12182307 0
5.0070004 1.7074406 0.12145507 0
5.0130005 1.7014033 0.1210871 0
5.0190005 1.6953442 0.12071913 0
5.0250001 1.6892635 0.1203512 0
5.0320005 1.6835347 0.11992183 0
5.0380001 1.6774088 0.11955389 0
5.0440001 1.6712614 0.11918592 0
5.0500002 1.6650925 0.11881793 0
5.0560002 1.6589018 0.11844996 0
5.0630002 1.6530539 0.11802065 0
5.0690002 1.6468182 0.11765268 0
5.0750003 1.6405607 0.11728469 0
5.0810003 1.6342816 0.11691672 0
5.0880003 1.6283381 0.11648741 0
5.0940003 1.6220139 0.11611944 0
5.1000004 1.6156682 0.11575148 0
5.1070004 1.6096524 0.11532214 0
5.1130004 1.6032616 0.11495417 0
5.1200004 1.5971971 0.11452487 0
5.1260004 1.5907612 0.1141569 0
5.1320004 1.5843036 0.1137889 0
5.1390004 1.578167 0.1133596 0
4.4310002 2.2734971 0.14950973 0
4.4360003 2.2690942 0.14919406 0
4.4400001 2.2641008 0.14894155 0
4.4450002 2.2596636 0.14862588 0
4.4500003 2.2552083 0.14831021 0
4.4540005 2.2501688 0.14805764 0
4.4590001 2.2456789 0.147742 0
4.4640002 2.2411711 0.14742634 0
4.4690003 2.2366455 0.14711067 0
4.4730005 2.2315426 0.14685813 0
4.4780002 2.2269824 0.14654249 0
4.4830003 2.2224042 0.14622682 0
4.4880004 2.2178082 0.14591113 0
4.4930005 2.2131941 0.14559543 0
4.4970002 2.2080119 0.14534295 0
4.5020003 2.2033632 0.14502728 0
4.5070004 2.1986971 0.14471158 0
4.5120001 2.1940122 0.14439595 0
4.5170002 2.1893098 0.14408028 0
4.5220003 2.1845894 0.14376462 0
4.5260005 2.1793113 0.14351204 0
4.5310001 2.1745563 0.1431964 0
4.5360003 2.1697836 0.14288074 0
4.5410004 2.1649928 0.14256507 0
4.5460005 2.1601837 0.14224938 0
4.5510001 2.1553566 0.14193374 0
4.5560002 2.1505115 0.14161807 0
4.5610003 2.1456487 0.14130241 0
4.5660005 2.1407678 0.14098671 0
4.5710001 2.1358683 0.14067107 0
4.5760002 2.1309512 0.14035541 0
4.5810003 2.1260159 0.14003974 0
4.5860004 2.1210628 0.13972408 0
4.5910001 2.1160913 0.13940841 0
4.5960002 2.1111019 0.13909274 0
4.6010003 2.1060948 0.13877708 0
4.6060004 2.1010695 0.13846141 0
4.6110001 2.0960257 0.13814577 0
4.6160002 2.0909643 0.13783008 0
4.6220002 2.0863898 0.13745129 0
4.6270003 2.0812905 0.1371356 0
4.6320004 2.0761733 0.13681993 0
4.6370001 2.0710378 0.13650429 0
4.6420002 2.0658841 0.13618863 0
4.6470003 2.0607128 0.13587293 0
4.6530004 2.0560174 0.13549414 0
4.6580005 2.050808 0.13517845 0
4.6630001 2.0455804 0.13486281 0
4.6680002 2.0403352 0.13454714 0
4.6730003 2.0350716 0.13423148 0
4.6790004 2.0302751 0.13385266 0
4.6840005 2.0249739 0.13353699 0
4.6890001 2.0196543 0.13322136 0
4.6940002 2.0143168 0.13290566 0
4.7000003 2.0094395 0.13252687 0
4.7050004 2.0040641 0.13221118 0
4.7100005 1.9986708 0.13189551 0
4.7160001 1.9937317 0.13151675 0
4.7210002 1.9883006 0.13120109 0
4.7270002 1.9833202 0.13082227 0
4.7320004 1.9778512 0.1305066 0
4.7370005 1.9723639 0.13019094 0
4.7430005 1.9673226 0.12981212 0
4.7480001 1.9617972 0.12949648 0
4.7540002 1.9567142 0.1291177 0
4.7590003 1.9511511 0.12880203 0
4.7640004 1.9455702 0.12848634 0
4.7700005 1.9404259 0.12810755 0
4.7750001 1.9348068 0.12779188 0
4.7810001 1.9296209 0.12741309 0
4.7860003 1.9239641 0.1270974 0
4.7920003 1.9187368 0.12671861 0
4.7980003 1.9134877 0.12633982 0
4.8030005 1.9077733 0.12602413 0
4.8090005 1.9024827 0.12564534 0
4.8140001 1.8967302 0.12532967 0
4.8200002 1.8913983 0.12495089 0
4.8260002 1.8860445 0.1245721 0
4.8310003 1.8802346 0.1242564 0
4.8370004 1.8748394 0.12387761 0
4.8420005 1.8689914 0.12356192 0
4.8480005 1.8635548 0.12318316 0
4.8540001 1.8580964 0.12280437 0
4.8600001 1.8526164 0.12242556 0
4.8650002 1.8466909 0.12210989 0
4.8710003 1.8411694 0.1217311 0
4.8770003 1.8356265 0.12135229 0
4.8830004 1.8300616 0.12097347 0
4.8880005 1.8240587 0.1206578 0
4.8940005 1.8184524 0.12027901 0
4.9000001 1.8128242 0.11990023 0
4.9060001 1.8071748 0.11952141 0
4.9120002 1.8015035 0.11914262 0
4.9170003 1.7954032 0.11882696 0
4.9230003 1.7896905 0.11844814 0
4.9290004 1.7839563 0.11806935 0
4.9350004 1.7782003 0.11769056 0
4.9410005 1.7724227 0.11731175 0
4.9470005 1.7666235 0.11693293 0
4.9530005 1.7608026 0.11655414 0
4.9590001 1.7549599 0.11617535 0
4.9650002 1.7490957 0.11579654 0
4.9710002 1.74321 0.11541778 0
4.9770002 1.7373025 0.11503896 0
4.9830003 1.7313734 0.11466017 0
4.9890003 1.7254226 0.11428136 0
4.9950004 1.7194502 0.11390254 0
5.0010004 1.7134562 0.11352375 0
5.0070004 1.7074406 0.11314496 0
5.0130005 1.7014033 0.11276615 0
5.0190005 1.6953442 0.11238736 0
5.0250001 1.6892635 0.11200857 0
5.0320005 1.6835347 0.11156663 0
5.0380001 1.6774088 0.11118785 0
5.0440001 1.6712614 0.11080903 0
5.0500002 1.6650925 0.11043024 0
5.0560002 1.6589018 0.11005142 0
5.0630002 1.6530539 0.10960951 0
5.0690002 1.6468182 0.1092307 0
5.0750003 1.6405607 0.10885191 0
5.0810003 1.6342816 0.10847309 0
5.0880003 1.6283381 0.10803118 0
5.0940003 1.6220139 0.10765237 0
5.1000004 1.6156682 0.10727355 0
5.1070004 1.6096524 0.10683161 0
5.1130004 1.6032616 0.10645282 0
5.1200004 1.5971971 0.10601088 0
5.1260004 1.5907612 0.1056321 0
5.1320004 1.5843036 0.10525328 0
5.1390004 1.578167 0.10481137 0
4.4310002 2.2734971 0.14223859 0
4.4360003 2.2690942 0.14191389 0
4.4400001 2.2641008 0.14165416 0
4.4450002 2.2596636 0.14132947 0
4.4500003 2.2552083 0.14100477 0
4.4540005 2.2501688 0.14074501 0
4.4590001 2.2456789 0.14042038 0
4.4640002 2.2411711 0.14009565 0
4.4690003 2.2366455 0.13977095 0
4.4730005 2.2315426 0.1395112 0
4.4780002 2.2269824 0.13918656 0
4.4830003 2.2224042 0.13886186 0
4.4880004 2.2178082 0.13853714 0
4.4930005 2.2131941 0.13821244 0
4.4970002 2.2080119 0.13795274 0
4.5020003 2.2033632 0.13762805 0
4.5070004 2.1986971 0.13730332 0
4.5120001 2.1940122 0.13697869 0
4.5170002 2.1893098 0.13665399 0
4.5220003 2.1845894 0.13632929 0
4.5260005 2.1793113 0.13606954 0
4.5310001 2.1745563 0.13574487 0
4.5360003 2.1697836 0.13542017 0
4.5410004 2.1649928 0.13509551 0
4.5460005 2.1601837 0.13477081 0
4.5510001 2.1553566 0.13444614 0
4.5560002 2.1505115 0.13412145 0
4.5610003 2.1456487 0.13379675 0
4.5660005 2.1407678 0.13347206 0
4.5710001 2.1358683 0.13314739 0
4.5760002 2.1309512 0.13282272 0
4.5810003 2.1260159 0.13249803 0
4.5860004 2.1210628 0.13217333 0
4.5910001 2.1160913 0.13184863 0
4.5960002 2.1111019 0.13152397 0
4.6010003 2.1060948 0.13119927 0
4.6060004 2.1010695 0.13087457 0
4.6110001 2.0960257 0.13054994 0
4.6160002 2.0909643 0.13022524 0
4.6220002 2.0863898 0.12983561 0
4.6270003 2.0812905 0.12951091 0
4.6320004 2.0761733 0.12918621 0
4.6370001 2.0710378 0.12886155 0
4.6420002 2.0658841 0.12853685 0
4.6470003 2.0607128 0.12821215 0
4.6530004 2.0560174 0.12782255 0
4.6580005 2.050808 0.12749785 0
4.6630001 2.0455804 0.12717319 0
4.6680002 2.0403352 0.12684849 0
4.6730003 2.0350716 0.12652382 0
4.6790004 2.0302751 0.12613419 0
4.6840005 2.0249739 0.12580949 0
4.6890001 2.0196543 0.12548479 0
4.6940002 2.0143168 0.12516013 0
4.7000003 2.0094395 0.12477052 0
4.7050004 2.0040641 0.1244458 0
4.7100005 1.9986708 0.1241211 0
4.7160001 1.9937317 0.12373149 0
4.7210002 1.9883006 0.12340683 0
4.7270002 1.9833202 0.12301719 0
4.7320004 1.9778512 0.1226925 0
4.7370005 1.9723639 0.1223678 0
4.7430005 1.9673226 0.12197816 0
4.7480001 1.9617972 0.12165353 0
4.7540002 1.9567142 0.12126389 0
4.7590003 1.9511511 0.1209392 0
4.7640004 1.9455702 0.12061453 0
4.7700005 1.9404259 0.12022489 0
4.7750001 1.9348068 0.11990023 0
4.7810001 1.9296209 0.11951059 0
4.7860003 1.9239641 0.11918589 0
4.7920003 1.9187368 0.11879629 0
4.7980003 1.9134877 0.11840668 0
4.8030005 1.9077733 0.11808199 0
4.8090005 1.9024827 0.11769235 0
4.8140001 1.8967302 0.11736768 0
4.8200002 1.8913983 0.11697808 0
4.8260002 1.8860445 0.11658844 0
4.8310003 1.8802346 0.11626375 0
4.8370004 1.8748394 0.11587411 0
4.8420005 1.8689914 0.11554942 0
4.8480005 1.8635548 0.11515978 0
4.8540001 1.8580964 0.1147702 0
4.8600001 1.8526164 0.11438057 0
4.8650002 1.8466909 0.11405587 0
4.8710003 1.8411694 0.11366627 0
4.8770003 1.8356265 0.11327663 0
4.8830004 1.8300616 0.112887 0
4.8880005 1.8240587 0.11256233 0
4.8940005 1.8184524 0.11217269 0
4.9000001 1.8128242 0.11178309 0
4.9060001 1.8071748 0.11139345 0
4.9120002 1.8015035 0.11100385 0
4.9170003 1.7954032 0.11067918 0
4.9230003 1.7896905 0.11028954 0
4.9290004 1.7839563 0.10989991 0
4.9350004 1.7782003 0.10951027 0
4.9410005 1.7724227 0.10912064 0
4.9470005 1.7666235 0.10873103 0
4.9530005 1.7608026 0.1083414 0
4.9590001 1.7549599 0.10795182 0
4.9650002 1.7490957 0.10756218 0
4.9710002 1.74321 0.10717255 0
4.9770002 1.7373025 0.10678294 0
4.9830003 1.7313734 0.10639331 0
4.9890003 1.7254226 0.10600367 0
4.9950004 1.7194502 0.10561404 0
5.0010004 1.7134562 0.10522443 0
5.0070004 1.7074406 0.10483479 0
5.0130005 1.7014033 0.10444519 0
5.0190005 1.6953442 0.10405555 0
5.0250001 1.6892635 0.10366595 0
5.0320005 1.6835347 0.10321137 0
5.0380001 1.6774088 0.10282177 0
5.0440001 1.6712614 0.10243213 0
5.0500002 1.6650925 0.10204253 0
5.0560002 1.6589018 0.10165292 0
5.0630002 1.6530539 0.10119832 0
5.0690002 1.6468182 0.10080874 0
5.0750003 1.6405607 0.1004191 0
5.0810003 1.6342816 0.10002947 0
5.0880003 1.6283381 0.099574924 0
5.0940003 1.6220139 0.099185288 0
5.1000004 1.6156682 0.098795652 0
5.1070004 1.6096524 0.098341107 0
5.1130004 1.6032616 0.097951472 0
5.1200004 1.5971971 0.097496897 0
5.1260004 1.5907612 0.097107291 0
5.1320004 1.5843036 0.096717656 0
5.1390004 1.578167 0.096263111 0
4.4310002 2.2734971 0.13496745 0
4.4360003 2.2690942 0.13463372 0
4.4400001 2.2641008 0.13436678 0
4.4450002 2.2596636 0.13403305 0
4.4500003 2.2552083 0.13369936 0
4.4540005 2.2501688 0.13343236 0
4.4590001 2.2456789 0.13309869 0
4.4640002 2.2411711 0.13276497 0
4.4690003 2.2366455 0.13243127 0
4.4730005 2.2315426 0.1321643 0
4.4780002 2.2269824 0.1318306 0
4.4830003 2.2224042 0.13149688 0
4.4880004 2.2178082 0.13116318 0
4.4930005 2.2131941 0.13082948 0
4.4970002 2.2080119 0.13056254 0
4.5020003 2.2033632 0.13022885 0
4.5070004 2.1986971 0.12989509 0
4.5120001 2.1940122 0.12956142 0
4.5170002 2.1893098 0.1292277 0
4.5220003 2.1845894 0.128894 0
4.5260005 2.1793113 0.12862703 0
4.5310001 2.1745563 0.12829334 0
4.5360003 2.1697836 0.12795961 0
4.5410004 2.1649928 0.12762591 0
4.5460005 2.1601837 0.12729222 0
4.5510001 2.1553566 0.12695852 0
4.5560002 2.1505115 0.12662482 0
4.5610003 2.1456487 0.1262911 0
4.5660005 2.1407678 0.1259574 0
4.5710001 2.1358683 0.12562373 0
4.5760002 2.1309512 0.12529001 0
4.5810003 2.1260159 0.12495628 0
4.5860004 2.1210628 0.12462255 0
4.5910001 2.1160913 0.12428889 0
4.5960002 2.1111019 0.12395519 0
4.6010003 2.1060948 0.12362146 0
4.6060004 2.1010695 0.12328777 0
4.6110001 2.0960257 0.1229541 0
4.6160002 2.0909643 0.12262037 0
4.6220002 2.0863898 0.12221992 0
4.6270003 2.0812905 0.12188622 0
4.6320004 2.0761733 0.1215525 0
4.6370001 2.0710378 0.12121883 0
4.6420002 2.0658841 0.1208851 0
4.6470003 2.0607128 0.12055138 0
4.6530004 2.0560174 0.12015095 0
4.6580005 2.050808 0.11981723 0
4.6630001 2.0455804 0.11948356 0
4.6680002 2.0403352 0.11914983 0
4.6730003 2.0350716 0.11881611 0
4.6790004 2.0302751 0.11841568 0
4.6840005 2.0249739 0.11808199 0
4.6890001 2.0196543 0.11774826 0
4.6940002 2.0143168 0.11741456 0
4.7000003 2.0094395 0.11701414 0
4.7050004 2.0040641 0.11668041 0
4.7100005 1.9986708 0.11634669 0
4.7160001 1.9937317 0.11594629 0
4.7210002 1.9883006 0.11561257 0
4.7270002 1.9833202 0.11521214 0
4.7320004 1.9778512 0.11487842 0
4.7370005 1.9723639 0.11454472 0
4.7430005 1.9673226 0.11414427 0
4.7480001 1.9617972 0.11381057 0
4.7540002 1.9567142 0.11341012 0
4.7590003 1.9511511 0.11307642 0
4.7640004 1.9455702 0.11274269 0
4.7700005 1.9404259 0.11234224 0
4.7750001 1.9348068 0.11200857 0
4.7810001 1.9296209 0.11160812 0
4.7860003 1.9239641 0.11127439 0
4.7920003 1.9187368 0.11087394 0
4.7980003 1.9134877 0.11047351 0
4.8030005 1.9077733 0.11013982 0
4.8090005 1.9024827 0.10973936 0
4.8140001 1.8967302 0.10940567 0
4.8200002 1.8913983 0.10900521 0
4.8260002 1.8860445 0.10860476 0
4.8310003 1.8802346 0.10827106 0
4.8370004 1.8748394 0.10787061 0
4.8420005 1.8689914 0.10753688 0
4.8480005 1.8635548 0.10713646 0
4.8540001 1.8580964 0.10673603 0
4.8600001 1.8526164 0.10633558 0
4.8650002 1.8466909 0.10600188 0
4.8710003 1.8411694 0.10560143 0
4.8770003 1.8356265 0.10520101 0
4.8830004 1.8300616 0.10480052 0
4.8880005 1.8240587 0.10446683 0
4.8940005 1.8184524 0.10406637 0
4.9000001 1.8128242 0.10366595 0
4.9060001 1.8071748 0.10326552 0
4.9120002 1.8015035 0.10286507 0
4.9170003 1.7954032 0.10253134 0
4.9230003 1.7896905 0.10213089 0
4.9290004 1.7839563 0.10173044 0
4.9350004 1.7782003 0.10133001 0
4.9410005 1.7724227 0.10092956 0
4.9470005 1.7666235 0.1005291 0
4.9530005 1.7608026 0.10012865 0
4.9590001 1.7549599 0.099728256 0
4.9650002 1.7490957 0.099327803 0
4.9710002 1.74321 0.098927349 0
4.9770002 1.7373025 0.098526895 0
4.9830003 1.7313734 0.098126441 0
4.9890003 1.7254226 0.097725987 0
4.9950004 1.7194502 0.097325534 0
5.0010004 1.7134562 0.09692511 0
5.0070004 1.7074406 0.096524656 0
5.0130005 1.7014033 0.096124202 0
5.0190005 1.6953442 0.095723748 0
5.0250001 1.6892635 0.095323354 0
5.0320005 1.6835347 0.094856113 0
5.0380001 1.6774088 0.094455719 0
5.0440001 1.6712614 0.094055265 0
5.0500002 1.6650925 0.093654811 0
5.0560002 1.6589018 0.093254358 0
5.0630002 1.6530539 0.092787176 0
5.0690002 1.6468182 0.092386723 0
5.0750003 1.6405607 0.091986299 0
5.0810003 1.6342816 0.091585845 0
5.0880003 1.6283381 0.091118664 0
5.0940003 1.6220139 0.09071821 0
5.1000004 1.6156682 0.090317756 0
5.1070004 1.6096524 0.089850575 0
5.1130004 1.6032616 0.089450121 0
5.1200004 1.5971971 0.08898294 0
5.1260004 1.5907612 0.088582486 0
5.1320004 1.5843036 0.088182032 0
5.1390004 1.578167 0.087714851 0
4.4310002 2.2734971 0.12769628 0
4.4360003 2.2690942 0.12735355 0
4.4400001 2.2641008 0.12707937 0
4.4450002 2.2596636 0.12673664 0
4.4500003 2.2552083 0.12639391 0
4.4540005 2.2501688 0.12611973 0
4.4590001 2.2456789 0.12577704 0
4.4640002 2.2411711 0.12543431 0
4.4690003 2.2366455 0.12509158 0
4.4730005 2.2315426 0.12481737 0
4.4780002 2.2269824 0.12447467 0
4.4830003 2.2224042 0.12413195 0
4.4880004 2.2178082 0.12378922 0
4.4930005 2.2131941 0.12344649 0
4.4970002 2.2080119 0.12317234 0
4.5020003 2.2033632 0.12282962 0
4.5070004 2.1986971 0.12248689 0
4.5120001 2.1940122 0.12214416 0
4.5170002 2.1893098 0.12180144 0
4.5220003 2.1845894 0.12145871 0
4.5260005 2.1793113 0.12118453 0
4.5310001 2.1745563 0.12084183 0
4.5360003 2.1697836 0.1204991 0
4.5410004 2.1649928 0.12015635 0
4.5460005 2.1601837 0.11981362 0
4.5510001 2.1553566 0.11947092 0
4.5560002 2.1505115 0.1191282 0
4.5610003 2.1456487 0.11878547 0
4.5660005 2.1407678 0.11844271 0
4.5710001 2.1358683 0.11810002 0
4.5760002 2.1309512 0.11775729 0
4.5810003 2.1260159 0.11741456 0
4.5860004 2.1210628 0.11707184 0
4.5910001 2.1160913 0.11672914 0
4.5960002 2.1111019 0.11638641 0
4.6010003 2.1060948 0.11604369 0
4.6060004 2.1010695 0.11570093 0
4.6110001 2.0960257 0.11535823 0
4.6160002 2.0909643 0.11501551 0
4.6220002 2.0863898 0.11460423 0
4.6270003 2.0812905 0.11426151 0
4.6320004 2.0761733 0.11391878 0
4.6370001 2.0710378 0.11357608 0
4.6420002 2.0658841 0.11323336 0
4.6470003 2.0607128 0.11289063 0
4.6530004 2.0560174 0.11247933 0
4.6580005 2.050808 0.1121366 0
4.6630001 2.0455804 0.11179391 0
4.6680002 2.0403352 0.11145118 0
4.6730003 2.0350716 0.11110845 0
4.6790004 2.0302751 0.11069718 0
4.6840005 2.0249739 0.11035442 0
4.6890001 2.0196543 0.11001176 0
4.6940002 2.0143168 0.109669 0
4.7000003 2.0094395 0.10925776 0
4.7050004 2.0040641 0.10891503 0
4.7100005 1.9986708 0.1085723 0
4.7160001 1.9937317 0.10816106 0
4.7210002 1.9883006 0.10781834 0
4.7270002 1.9833202 0.10740703 0
4.7320004 1.9778512 0.10706431 0
4.7370005 1.9723639 0.10672158 0
4.7430005 1.9673226 0.10631031 0
4.7480001 1.9617972 0.10596761 0
4.7540002 1.9567142 0.10555637 0
4.7590003 1.9511511 0.10521361 0
4.7640004 1.9455702 0.10487089 0
4.7700005 1.9404259 0.10445961 0
4.7750001 1.9348068 0.10411692 0
4.7810001 1.9296209 0.10370564 0
4.7860003 1.9239641 0.10336292 0
4.7920003 1.9187368 0.10295162 0
4.7980003 1.9134877 0.10254037 0
4.8030005 1.9077733 0.10219765 0
4.8090005 1.9024827 0.10178635 0
4.8140001 1.8967302 0.10144368 0
4.8200002 1.8913983 0.10103238 0
4.8260002 1.8860445 0.10062113 0
4.8310003 1.8802346 0.10027841 0
4.8370004 1.8748394 0.099867105 0
4.8420005 1.8689914 0.099524379 0
4.8480005 1.8635548 0.099113107 0
4.8540001 1.8580964 0.098701894 0
4.8600001 1.8526164 0.098290622 0
4.8650002 1.8466909 0.097947866 0
4.8710003 1.8411694 0.097536594 0
4.8770003 1.8356265 0.097125322 0
4.8830004 1.8300616 0.096714079 0
4.8880005 1.8240587 0.096371323 0
4.8940005 1.8184524 0.095960051 0
4.9000001 1.8128242 0.095548809 0
4.9060001 1.8071748 0.095137566 0
4.9120002 1.8015035 0.094726264 0
4.9170003 1.7954032 0.094383538 0
4.9230003 1.7896905 0.093972266 0
4.9290004 1.7839563 0.093561023 0
4.9350004 1.7782003 0.093149722 0
4.9410005 1.7724227 0.09273845 0
4.9470005 1.7666235 0.092327207 0
4.9530005 1.7608026 0.091915905 0
4.9590001 1.7549599 0.091504663 0
4.9650002 1.7490957 0.091093421 0
4.9710002 1.74321 0.090682149 0
4.9770002 1.7373025 0.090270847 0
4.9830003 1.7313734 0.089859605 0
4.9890003 1.7254226 0.089448333 0
4.9950004 1.7194502 0.089037031 0
5.0010004 1.7134562 0.088625789 0
5.0070004 1.7074406 0.088214517 0
5.0130005 1.7014033 0.087803245 0
5.0190005 1.6953442 0.087391973 0
5.0250001 1.6892635 0.08698073 0
5.0320005 1.6835347 0.086500883 0
5.0380001 1.6774088 0.086089641 0
5.0440001 1.6712614 0.085678369 0
5.0500002 1.6650925 0.085267127 0
5.0560002 1.6589018 0.084855825 0
5.0630002 1.6530539 0.084376037 0
5.0690002 1.6468182 0.083964735 0
5.0750003 1.6405607 0.083553493 0
5.0810003 1.6342816 0.083142221 0
5.0880003 1.6283381 0.082662404 0
5.0940003 1.6220139 0.082251132 0
5.1000004 1.6156682 0.081839859 0
5.1070004 1.6096524 0.081360042 0
5.1130004 1.6032616 0.08094877 0
5.1200004 1.5971971 0.080468953 0
5.1260004 1.5907612 0.080057681 0
5.1320004 1.5843036 0.079646438 0
5.1390004 1.578167 0.079166621 0
4.4310002 2.2734971 0.12042513 0
4.4360003 2.2690942 0.12007338 0
4.4400001 2.2641008 0.11979201 0
4.4450002 2.2596636 0.11944026 0
4.4500003 2.2552083 0.1190885 0
4.4540005 2.2501688 0.11880708 0
4.4590001 2.2456789 0.11845538 0
4.4640002 2.2411711 0.11810362 0
4.4690003 2.2366455 0.11775187 0
4.4730005 2.2315426 0.11747047 0
4.4780002 2.2269824 0.11711875 0
4.4830003 2.2224042 0.11676702 0
4.4880004 2.2178082 0.11641526 0
4.4930005 2.2131941 0.11606351 0
4.4970002 2.2080119 0.11578214 0
4.5020003 2.2033632 0.11543038 0
4.5070004 2.1986971 0.11507863 0
4.5120001 2.1940122 0.11472693 0
4.5170002 2.1893098 0.11437517 0
4.5220003 2.1845894 0.11402342 0
4.5260005 2.1793113 0.11374199 0
4.5310001 2.1745563 0.11339027 0
4.5360003 2.1697836 0.11303854 0
4.5410004 2.1649928 0.11268678 0
4.5460005 2.1601837 0.11233503 0
4.5510001 2.1553566 0.1119833 0
4.5560002 2.1505115 0.11163157 0
4.5610003 2.1456487 0.11127982 0
4.5660005 2.1407678 0.11092806 0
4.5710001 2.1358683 0.11057633 0
4.5760002 2.1309512 0.1102246 0
4.5810003 2.1260159 0.10987285 0
4.5860004 2.1210628 0.10952109 0
4.5910001 2.1160913 0.10916936 0
4.5960002 2.1111019 0.10881764 0
4.6010003 2.1060948 0.10846588 0
4.6060004 2.1010695 0.10811412 0
4.6110001 2.0960257 0.1077624 0
4.6160002 2.0909643 0.10741067 0
4.6220002 2.0863898 0.10698855 0
4.6270003 2.0812905 0.10663682 0
4.6320004 2.0761733 0.10628507 0
4.6370001 2.0710378 0.10593334 0
4.6420002 2.0658841 0.10558158 0
4.6470003 2.0607128 0.10522982 0
4.6530004 2.0560174 0.10480776 0
4.6580005 2.050808 0.10445601 0
4.6630001 2.0455804 0.10410428 0
4.6680002 2.0403352 0.10375252 0
4.6730003 2.0350716 0.1034008 0
4.6790004 2.0302751 0.10297868 0
4.6840005 2.0249739 0.10262692 0
4.6890001 2.0196543 0.10227522 0
4.6940002 2.0143168 0.10192347 0
4.7000003 2.0094395 0.10150138 0
4.7050004 2.0040641 0.10114962 0
4.7100005 1.9986708 0.10079789 0
4.7160001 1.9937317 0.1003758 0
4.7210002 1.9883006 0.10002407 0
4.7270002 1.9833202 0.099601954 0
4.7320004 1.9778512 0.099250197 0
4.7370005 1.9723639 0.098898441 0
4.7430005 1.9673226 0.09847638 0
4.7480001 1.9617972 0.098124653 0
4.7540002 1.9567142 0.097702563 0
4.7590003 1.9511511 0.097350806 0
4.7640004 1.9455702 0.096999049 0
4.7700005 1.9404259 0.096576989 0
4.7750001 1.9348068 0.096225262 0
4.7810001 1.9296209 0.095803142 0
4.7860003 1.9239641 0.095451415 0
4.7920003 1.9187368 0.095029294 0
4.7980003 1.9134877 0.094607234 0
4.8030005 1.9077733 0.094255477 0
4.8090005 1.9024827 0.093833357 0
4.8140001 1.8967302 0.09348166 0
4.8200002 1.8913983 0.09305957 0
4.8260002 1.8860445 0.092637479 0
4.8310003 1.8802346 0.092285722 0
4.8370004 1.8748394 0.091863602 0
4.8420005 1.8689914 0.091511846 0
4.8480005 1.8635548 0.091089785 0
4.8540001 1.8580964 0.090667725 0
4.8600001 1.8526164 0.090245634 0
4.8650002 1.8466909 0.089893878 0
4.8710003 1.8411694 0.089471787 0
4.8770003 1.8356265 0.089049667 0
4.8830004 1.8300616 0.088627607 0
4.8880005 1.8240587 0.08827585 0
4.8940005 1.8184524 0.08785373 0
4.9000001 1.8128242 0.087431699 0
4.9060001 1.8071748 0.087009579 0
4.9120002 1.8015035 0.086587489 0
4.9170003 1.7954032 0.086235732 0
4.9230003 1.7896905 0.085813671 0
4.9290004 1.7839563 0.085391551 0
4.9350004 1.7782003 0.084969491 0
4.9410005 1.7724227 0.084547371 0
4.9470005 1.7666235 0.084125251 0
4.9530005 1.7608026 0.08370319 0
4.9590001 1.7549599 0.08328113 0
4.9650002 1.7490957 0.08285901 0
4.9710002 1.74321 0.082436949 0
4.9770002 1.7373025 0.082014829 0
4.9830003 1.7313734 0.081592768 0
4.9890003 1.7254226 0.081170648 0
4.9950004 1.7194502 0.080748558 0
5.0010004 1.7134562 0.080326468 0
5.0070004 1.7074406 0.079904348 0
5.0130005 1.7014033 0.079482287 0
5.0190005 1.6953442 0.079060167 0
5.0250001 1.6892635 0.078638107 0
5.0320005 1.6835347 0.078145653 0
5.0380001 1.6774088 0.077723593 0
5.0440001 1.6712614 0.077301502 0
5.0500002 1.6650925 0.076879382 0
5.0560002 1.6589018 0.076457322 0
5.0630002 1.6530539 0.075964868 0
5.0690002 1.6468182 0.075542778 0
5.0750003 1.6405607 0.075120658 0
5.0810003 1.6342816 0.074698597 0
5.0880003 1.6283381 0.074206173 0
5.0940003 1.6220139 0.073784053 0
5.1000004 1.6156682 0.073361933 0
5.1070004 1.6096524 0.072869509 0
5.1130004 1.6032616 0.072447449 0
5.1200004 1.5971971 0.071954966 0
5.1260004 1.5907612 0.071532905 0
5.1320004 1.5843036 0.071110785 0
5.1390004 1.578167 0.070618361 0
4.4310002 2.2734971 0.11315396 0
4.4360003 2.2690942 0.11279324 0
4.4400001 2.2641008 0.1125046 0
4.4450002 2.2596636 0.11214384 0
4.4500003 2.2552083 0.11178309 0
4.4540005 2.2501688 0.11149445 0
4.4590001 2.2456789 0.11113372 0
4.4640002 2.2411711 0.11077297 0
4.4690003 2.2366455 0.11041218 0
4.4730005 2.2315426 0.11012357 0
4.4780002 2.2269824 0.10976285 0
4.4830003 2.2224042 0.10940206 0
4.4880004 2.2178082 0.10904127 0
4.4930005 2.2131941 0.10868052 0
4.4970002 2.2080119 0.10839194 0
4.5020003 2.2033632 0.10803115 0
4.5070004 2.1986971 0.1076704 0
4.5120001 2.1940122 0.10730967 0
4.5170002 2.1893098 0.10694888 0
4.5220003 2.1845894 0.10658813 0
4.5260005 2.1793113 0.10629949 0
4.5310001 2.1745563 0.10593873 0
4.5360003 2.1697836 0.10557798 0
4.5410004 2.1649928 0.10521722 0
4.5460005 2.1601837 0.10485646 0
4.5510001 2.1553566 0.1044957 0
4.5560002 2.1505115 0.10413495 0
4.5610003 2.1456487 0.10377419 0
4.5660005 2.1407678 0.1034134 0
4.5710001 2.1358683 0.10305268 0
4.5760002 2.1309512 0.10269189 0
4.5810003 2.1260159 0.10233113 0
4.5860004 2.1210628 0.10197034 0
4.5910001 2.1160913 0.10160962 0
4.5960002 2.1111019 0.10124886 0
4.6010003 2.1060948 0.10088807 0
4.6060004 2.1010695 0.10052729 0
4.6110001 2.0960257 0.10016656 0
4.6160002 2.0909643 0.099805802 0
4.6220002 2.0863898 0.099372894 0
4.6270003 2.0812905 0.099012107 0
4.6320004 2.0761733 0.09865135 0
4.6370001 2.0710378 0.098290622 0
4.6420002 2.0658841 0.097929835 0
4.6470003 2.0607128 0.097569078 0
4.6530004 2.0560174 0.09713614 0
4.6580005 2.050808 0.096775383 0
4.6630001 2.0455804 0.096414655 0
4.6680002 2.0403352 0.096053898 0
4.6730003 2.0350716 0.095693111 0
4.6790004 2.0302751 0.095260203 0
4.6840005 2.0249739 0.094899416 0
4.6890001 2.0196543 0.094538689 0
4.6940002 2.0143168 0.094177902 0
4.7000003 2.0094395 0.093745023 0
4.7050004 2.0040641 0.093384236 0
4.7100005 1.9986708 0.093023449 0
4.7160001 1.9937317 0.09259057 0
4.7210002 1.9883006 0.092229813 0
4.7270002 1.9833202 0.091796905 0
4.7320004 1.9778512 0.091436118 0
4.7370005 1.9723639 0.091075361 0
4.7430005 1.9673226 0.090642422 0
4.7480001 1.9617972 0.090281695 0
4.7540002 1.9567142 0.089848787 0
4.7590003 1.9511511 0.089488 0
4.7640004 1.9455702 0.089127243 0
4.7700005 1.9404259 0.088694304 0
4.7750001 1.9348068 0.088333577 0
4.7810001 1.9296209 0.087900668 0
4.7860003 1.9239641 0.087539911 0
4.7920003 1.9187368 0.087106973 0
4.7980003 1.9134877 0.086674064 0
4.8030005 1.9077733 0.086313307 0
4.8090005 1.9024827 0.085880369 0
4.8140001 1.8967302 0.085519642 0
4.8200002 1.8913983 0.085086733 0
4.8260002 1.8860445 0.084653795 0
4.8310003 1.8802346 0.084293038 0
4.8370004 1.8748394 0.083860129 0
4.8420005 1.8689914 0.083499342 0
4.8480005 1.8635548 0.083066434 0
4.8540001 1.8580964 0.082633555 0
4.8600001 1.8526164 0.082200646 0
4.8650002 1.8466909 0.081839859 0
4.8710003 1.8411694 0.081406951 0
4.8770003 1.8356265 0.080974013 0
4.8830004 1.8300616 0.080541134 0
4.8880005 1.8240587 0.080180347 0
4.8940005 1.8184524 0.079747438 0
4.9000001 1.8128242 0.07931456 0
4.9060001 1.8071748 0.078881621 0
4.9120002 1.8015035 0.078448713 0
4.9170003 1.7954032 0.078087956 0
4.9230003 1.7896905 0.077655017 0
4.9290004 1.7839563 0.077222109 0
4.9350004 1.7782003 0.0767892 0
4.9410005 1.7724227 0.076356262 0
4.9470005 1.7666235 0.075923353 0
4.9530005 1.7608026 0.075490415 0
4.9590001 1.7549599 0.075057566 0
4.9650002 1.7490957 0.074624628 0
4.9710002 1.74321 0.074191749 0
4.9770002 1.7373025 0.073758811 0
4.9830003 1.7313734 0.073325902 0
4.9890003 1.7254226 0.072892964 0
4.9950004 1.7194502 0.072460055 0
5.0010004 1.7134562 0.072027147 0
5.0070004 1.7074406 0.071594238 0
5.0130005 1.7014033 0.0711613 0
5.0190005 1.6953442 0.070728391 0
5.0250001 1.6892635 0.070295513 0
5.0320005 1.6835347 0.069790423 0
5.0380001 1.6774088 0.069357514 0
5.0440001 1.6712614 0.068924606 0
5.0500002 1.6650925 0.068491697 0
5.0560002 1.6589018 0.068058789 0
5.0630002 1.6530539 0.067553699 0
5.0690002 1.6468182 0.06712079 0
5.0750003 1.6405607 0.066687882 0
5.0810003 1.6342816 0.066254973 0
5.0880003 1.6283381 0.065749913 0
5.0940003 1.6220139 0.065316975 0
5.1000004 1.6156682 0.064884067 0
5.1070004 1.6096524 0.064378977 0
5.1130004 1.6032616 0.063946068 0
5.1200004 1.5971971 0.063441008 0
5.1260004 1.5907612 0.0630081 0
5.1320004 1.5843036 0.062575191 0
5.1390004 1.578167 0.062070131 0
4.4310002 2.2734971 0.10588282 0
4.4360003 2.2690942 0.10551304 0
4.4400001 2.2641008 0.10521725 0
4.4450002 2.2596636 0.10484746 0
4.4500003 2.2552083 0.10447767 0
4.4540005 2.2501688 0.1041818 0
4.4590001 2.2456789 0.10381207 0
4.4640002 2.2411711 0.10344228 0
4.4690003 2.2366455 0.10307249 0
4.4730005 2.2315426 0.10277665 0
4.4780002 2.2269824 0.10240689 0
4.4830003 2.2224042 0.1020371 0
4.4880004 2.2178082 0.10166731 0
4.4930005 2.2131941 0.10129753 0
4.4970002 2.2080119 0.10100171 0
4.5020003 2.2033632 0.10063195 0
4.5070004 2.1986971 0.10026217 0
4.5120001 2.1940122 0.099892408 0
4.5170002 2.1893098 0.09952262 0
4.5220003 2.1845894 0.099152803 0
4.5260005 2.1793113 0.098856986 0
4.5310001 2.1745563 0.098487228 0
4.5360003 2.1697836 0.098117441 0
4.5410004 2.1649928 0.097747654 0
4.5460005 2.1601837 0.097377837 0
4.5510001 2.1553566 0.097008109 0
4.5560002 2.1505115 0.096638292 0
4.5610003 2.1456487 0.096268505 0
4.5660005 2.1407678 0.095898747 0
4.5710001 2.1358683 0.09552899 0
4.5760002 2.1309512 0.095159203 0
4.5810003 2.1260159 0.094789416 0
4.5860004 2.1210628 0.094419628 0
4.5910001 2.1160913 0.094049871 0
4.5960002 2.1111019 0.093680054 0
4.6010003 2.1060948 0.093310267 0
4.6060004 2.1010695 0.09294048 0
4.6110001 2.0960257 0.092570722 0
4.6160002 2.0909643 0.092200935 0
4.6220002 2.0863898 0.091757208 0
4.6270003 2.0812905 0.091387421 0
4.6320004 2.0761733 0.091017634 0
4.6370001 2.0710378 0.090647876 0
4.6420002 2.0658841 0.090278089 0
4.6470003 2.0607128 0.089908302 0
4.6530004 2.0560174 0.089464545 0
4.6580005 2.050808 0.089094758 0
4.6630001 2.0455804 0.088725001 0
4.6680002 2.0403352 0.088355213 0
4.6730003 2.0350716 0.087985426 0
4.6790004 2.0302751 0.087541699 0
4.6840005 2.0249739 0.087171912 0
4.6890001 2.0196543 0.086802155 0
4.6940002 2.0143168 0.086432368 0
4.7000003 2.0094395 0.085988641 0
4.7050004 2.0040641 0.085618854 0
4.7100005 1.9986708 0.085249037 0
4.7160001 1.9937317 0.08480534 0
4.7210002 1.9883006 0.084435552 0
4.7270002 1.9833202 0.083991796 0
4.7320004 1.9778512 0.083622009 0
4.7370005 1.9723639 0.083252221 0
4.7430005 1.9673226 0.082808495 0
4.7480001 1.9617972 0.082438737 0
4.7540002 1.9567142 0.081994981 0
4.7590003 1.9511511 0.081625223 0
4.7640004 1.9455702 0.081255436 0
4.7700005 1.9404259 0.080811679 0
4.7750001 1.9348068 0.080441922 0
4.7810001 1.9296209 0.079998195 0
4.7860003 1.9239641 0.079628408 0
4.7920003 1.9187368 0.079184651 0
4.7980003 1.9134877 0.078740925 0
4.8030005 1.9077733 0.078371137 0
4.8090005 1.9024827 0.077927411 0
4.8140001 1.8967302 0.077557653 0
4.8200002 1.8913983 0.077113897 0
4.8260002 1.8860445 0.07667017 0
4.8310003 1.8802346 0.076300383 0
4.8370004 1.8748394 0.075856626 0
4.8420005 1.8689914 0.075486839 0
4.8480005 1.8635548 0.075043112 0
4.8540001 1.8580964 0.074599385 0
4.8600001 1.8526164 0.074155658 0
4.8650002 1.8466909 0.073785871 0
4.8710003 1.8411694 0.073342144 0
4.8770003 1.8356265 0.072898388 0
4.8830004 1.8300616 0.072454661 0
4.8880005 1.8240587 0.072084874 0
4.8940005 1.8184524 0.071641117 0
4.9000001 1.8128242 0.07119742 0
4.9060001 1.8071748 0.070753664 0
4.9120002 1.8015035 0.070309937 0
4.9170003 1.7954032 0.06994015 0
4.9230003 1.7896905 0.069496393 0
4.9290004 1.7839563 0.069052666 0
4.9350004 1.7782003 0.06860891 0
4.9410005 1.7724227 0.068165183 0
4.9470005 1.7666235 0.067721456 0
4.9530005 1.7608026 0.0672777 0
4.9590001 1.7549599 0.066833973 0
4.9650002 1.7490957 0.066390246 0
4.9710002 1.74321 0.065946519 0
4.9770002 1.7373025 0.065502763 0
4.9830003 1.7313734 0.065059036 0
4.9890003 1.7254226 0.064615309 0
4.9950004 1.7194502 0.064171582 0
5.0010004 1.7134562 0.063727826 0
5.0070004 1.7074406 0.063284099 0
5.0130005 1.7014033 0.062840343 0
5.0190005 1.6953442 0.062396616 0
5.0250001 1.6892635 0.061952889 0
5.0320005 1.6835347 0.061435163 0
5.0380001 1.6774088 0.060991466 0
5.0440001 1.6712614 0.060547709 0
5.0500002 1.6650925 0.060103983 0
5.0560002 1.6589018 0.059660226 0
5.0630002 1.6530539 0.05914256 0
5.0690002 1.6468182 0.058698833 0
5.0750003 1.6405607 0.058255076 0
5.0810003 1.6342816 0.05781135 0
5.0880003 1.6283381 0.057293653 0
5.0940003 1.6220139 0.056849897 0
5.1000004 1.6156682 0.05640617 0
5.1070004 1.6096524 0.055888474 0
5.1130004 1.6032616 0.055444717 0
5.1200004 1.5971971 0.054927051 0
5.1260004 1.5907612 0.054483324 0
5.1320004 1.5843036 0.054039568 0
5.1390004 1.578167 0.053521872 0
4.4310002 2.2734971 0.098611683 0
4.4360003 2.2690942 0.098232865 0
4.4400001 2.2641008 0.097929865 0
4.4450002 2.2596636 0.097551048 0
4.4500003 2.2552083 0.09717223 0
4.4540005 2.2501688 0.096869171 0
4.4590001 2.2456789 0.096490413 0
4.4640002 2.2411711 0.096111596 0
4.4690003 2.2366455 0.095732778 0
4.4730005 2.2315426 0.095429718 0
4.4780002 2.2269824 0.095050961 0
4.4830003 2.2224042 0.094672143 0
4.4880004 2.2178082 0.094293356 0
4.4930005 2.2131941 0.093914539 0
4.4970002 2.2080119 0.093611509 0
4.5020003 2.2033632 0.093232721 0
4.5070004 2.1986971 0.092853904 0
4.5120001 2.1940122 0.092475146 0
4.5170002 2.1893098 0.092096329 0
4.5220003 2.1845894 0.091717511 0
4.5270004 2.1798508 0.091338694 0
4.5310001 2.1745563 0.091035694 0
4.5360003 2.1697836 0.090656877 0
4.5410004 2.1649928 0.090278059 0
4.5460005 2.1601837 0.089899272 0
4.5510001 2.1553566 0.089520514 0
4.5560002 2.1505115 0.089141697 0
4.5610003 2.1456487 0.088762879 0
4.5660005 2.1407678 0.088384062 0
4.5710001 2.1358683 0.088005275 0
4.5760002 2.1309512 0.087626487 0
4.5810003 2.1260159 0.087247699 0
4.5860004 2.1210628 0.086868882 0
4.5910001 2.1160913 0.086490095 0
4.5960002 2.1111019 0.086111277 0
4.6010003 2.1060948 0.08573246 0
4.6060004 2.1010695 0.085353673 0
4.6110001 2.0960257 0.084974885 0
4.6160002 2.0909643 0.084596097 0
4.6220002 2.0863898 0.084141523 0
4.6270003 2.0812905 0.083762705 0
4.6320004 2.0761733 0.083383918 0
4.6370001 2.0710378 0.08300516 0
4.6420002 2.0658841 0.082626343 0
4.6470003 2.0607128 0.082247525 0
4.6530004 2.0560174 0.08179298 0
4.6580005 2.050808 0.081414163 0
4.6630001 2.0455804 0.081035376 0
4.6680002 2.0403352 0.080656558 0
4.6730003 2.0350716 0.080277771 0
4.6790004 2.0302751 0.079823196 0
4.6840005 2.0249739 0.079444408 0
4.6890001 2.0196543 0.079065621 0
4.6940002 2.0143168 0.078686804 0
4.7000003 2.0094395 0.078232259 0
4.7050004 2.0040641 0.077853441 0
4.7100005 1.9986708 0.077474624 0
4.7160001 1.9937317 0.077020109 0
4.7210002 1.9883006 0.076641291 0
4.7270002 1.9833202 0.076186717 0
4.7320004 1.9778512 0.075807929 0
4.7370005 1.9723639 0.075429112 0
4.7430005 1.9673226 0.074974537 0
4.7480001 1.9617972 0.074595779 0
4.7540002 1.9567142 0.074141204 0
4.7590003 1.9511511 0.073762417 0
4.7640004 1.9455702 0.0733836 0
4.7700005 1.9404259 0.072929054 0
4.7750001 1.9348068 0.072550267 0
4.7810001 1.9296209 0.072095722 0
4.7860003 1.9239641 0.071716905 0
4.7920003 1.9187368 0.07126233 0
4.7980003 1.9134877 0.070807785 0
4.8030005 1.9077733 0.070428967 0
4.8090005 1.9024827 0.069974422 0
4.8140001 1.8967302 0.069595635 0
4.8200002 1.8913983 0.06914106 0
4.8260002 1.8860445 0.068686515 0
4.8310003 1.8802346 0.068307698 0
4.8370004 1.8748394 0.067853153 0
4.8420005 1.8689914 0.067474335 0
4.8480005 1.8635548 0.067019761 0
4.8540001 1.8580964 0.066565245 0
4.8600001 1.8526164 0.066110671 0
4.8650002 1.8466909 0.065731883 0
4.8710003 1.8411694 0.065277278 0
4.8770003 1.8356265 0.064822733 0
4.8830004 1.8300616 0.064368188 0
4.8880005 1.8240587 0.063989371 0
4.8940005 1.8184524 0.063534796 0
4.9000001 1.8128242 0.063080281 0
4.9060001 1.8071748 0.062625706 0
4.9120002 1.8015035 0.062171161 0
4.9170003 1.7954032 0.061792344 0
4.9230003 1.7896905 0.061337799 0
4.9290004 1.7839563 0.060883194 0
4.9350004 1.7782003 0.060428649 0
4.9410005 1.7724227 0.059974074 0
4.9470005 1.7666235 0.059519529 0
4.9530005 1.7608026 0.059064984 0
4.9590001 1.7549599 0.058610439 0
4.9650002 1.7490957 0.058155894 0
4.9710002 1.74321 0.05770129 0
4.9770002 1.7373025 0.057246745 0
4.9830003 1.7313734 0.0567922 0
4.9890003 1.7254226 0.056337625 0
4.9950004 1.7194502 0.05588308 0
5.0010004 1.7134562 0.055428475 0
5.0070004 1.7074406 0.05497393 0
5.0130005 1.7014033 0.054519355 0
5.0190005 1.6953442 0.05406481 0
5.0250001 1.6892635 0.053610295 0
5.0320005 1.6835347 0.053079933 0
5.0380001 1.6774088 0.052625388 0
5.0440001 1.6712614 0.052170843 0
5.0500002 1.6650925 0.051716268 0
5.0560002 1.6589018 0.051261723 0
5.0630002 1.6530539 0.050731391 0
5.0690002 1.6468182 0.050276846 0
4.4310002 2.2734971 0.091340512 0
4.4360003 2.2690942 0.090952724 0
4.4400001 2.2641008 0.090642452 0
4.4450002 2.2596636 0.090254635 0
4.4500003 2.2552083 0.089866817 0
4.4540005 2.2501688 0.089556545 0
4.4590001 2.2456789 0.089168757 0
4.4640002 2.2411711 0.08878094 0
4.4690003 2.2366455 0.088393092 0
4.4730005 2.2315426 0.08808282 0
4.4780002 2.2269824 0.087695032 0
4.4830003 2.2224042 0.087307215 0
4.4880004 2.2178082 0.086919367 0
4.4930005 2.2131941 0.08653155 0
4.4970002 2.2080119 0.086221308 0
4.5020003 2.2033632 0.08583349 0
4.5070004 2.1986971 0.085445672 0
4.5120001 2.1940122 0.085057884 0
4.5170002 2.1893098 0.084670037 0
4.5220003 2.1845894 0.084282219 0
4.5270004 2.1798508 0.083894402 0
4.5310001 2.1745563 0.08358416 0
4.5360003 2.1697836 0.083196342 0
4.5410004 2.1649928 0.082808495 0
4.5460005 2.1601837 0.082420677 0
4.5510001 2.1553566 0.082032889 0
4.5560002 2.1505115 0.081645042 0
4.5610003 2.1456487 0.081257254 0
4.5660005 2.1407678 0.080869406 0
4.5710001 2.1358683 0.080481619 0
4.5760002 2.1309512 0.080093771 0
4.5810003 2.1260159 0.079705954 0
4.5860004 2.1210628 0.079318136 0
4.5910001 2.1160913 0.078930348 0
4.5960002 2.1111019 0.078542501 0
4.6010003 2.1060948 0.078154683 0
4.6060004 2.1010695 0.077766836 0
4.6110001 2.0960257 0.077379078 0
4.6160002 2.0909643 0.07699123 0
4.6220002 2.0863898 0.076525837 0
4.6270003 2.0812905 0.07613802 0
4.6320004 2.0761733 0.075750202 0
4.6370001 2.0710378 0.075362414 0
4.6420002 2.0658841 0.074974567 0
4.6470003 2.0607128 0.074586749 0
4.6530004 2.0560174 0.074121356 0
4.6580005 2.050808 0.073733538 0
4.6630001 2.0455804 0.073345751 0
4.6680002 2.0403352 0.072957933 0
4.6730003 2.0350716 0.072570086 0
4.6790004 2.0302751 0.072104722 0
4.6840005 2.0249739 0.071716875 0
4.6890001 2.0196543 0.071329087 0
4.6950002 2.0147967 0.070863724 0
4.7000003 2.0094395 0.070475876 0
4.7050004 2.0040641 0.070088029 0
4.7100005 1.9986708 0.069700211 0
4.7160001 1.9937317 0.069234878 0
4.7210002 1.9883006 0.06884703 0
4.7270002 1.9833202 0.068381667 0
4.7320004 1.9778512 0.06799382 0
4.7370005 1.9723639 0.067606002 0
4.7430005 1.9673226 0.067140609 0
4.7480001 1.9617972 0.066752821 0
4.7540002 1.9567142 0.066287458 0
4.7590003 1.9511511 0.065899611 0
4.7640004 1.9455702 0.065511793 0
4.7700005 1.9404259 0.0650464 0
4.7750001 1.9348068 0.064658612 0
4.7810001 1.9296209 0.064193219 0
4.7860003 1.9239641 0.063805401 0
4.7920003 1.9187368 0.063340008 0
4.7980003 1.9134877 0.062874615 0
4.8030005 1.9077733 0.062486798 0
4.8090005 1.9024827 0.062021405 0
4.8140001 1.8967302 0.061633617 0
4.8200002 1.8913983 0.061168253 0
4.8260002 1.8860445 0.060702831 0
4.8310003 1.8802346 0.060315013 0
4.8370004 1.8748394 0.05984962 0
