# .PCD v0.7 - Point Cloud Data file format
VERSION 0.7
FIELDS x y z intensity
SIZE 4 4 4 4
TYPE F F F F
COUNT 1 1 1 1
WIDTH 1458
HEIGHT 1
VIEWPOINT 0 0 0 1 0 0 0
POINTS 1458
DATA ascii
3.8010004 1.8619078 0.91931915 0
3.8100002 1.8608055 0.92068279 0
3.8180003 1.8591138 0.92189503 0
3.8270001 1.8579483 0.92325866 0
3.7660003 1.8665599 0.90794432 0
3.7740002 1.8650193 0.90914202 0
3.7820003 1.8634501 0.91033983 0
3.7900002 1.8618519 0.91153753 0
3.7980003 1.8602248 0.91273534 0
3.8070002 1.8591281 0.91408265 0
3.8150003 1.8574417 0.91528046 0
3.8240004 1.8562818 0.91662788 0
3.8320003 1.8545356 0.91782558 0
3.8410003 1.8533126 0.91917312 0
3.7650003 1.8659917 0.90172482 0
3.7730002 1.864453 0.90290809 0
3.7810001 1.8628855 0.90409136 0
3.7890003 1.8612891 0.90527475 0
3.7970002 1.8596638 0.90645802 0
3.8050003 1.8580098 0.90764129 0
3.8130002 1.8563268 0.90882456 0
3.8210003 1.8546151 0.91000795 0
3.8290002 1.8528743 0.91119123 0
3.8380003 1.8516568 0.91252244 0
3.8470004 1.8504068 0.91385365 0
3.8550003 1.8485759 0.91503692 0
3.7730002 1.864453 0.89682388 0
3.7800002 1.8623209 0.89784658 0
3.7880003 1.8607262 0.89901549 0
3.7960002 1.8591028 0.90018439 0
3.8040001 1.8574505 0.90135324 0
3.8120003 1.8557695 0.90252209 0
3.8200002 1.8540593 0.90369099 0
3.8280003 1.8523207 0.9048599 0
3.8370004 1.8511047 0.9061749 0
3.8450003 1.8493065 0.90734363 0
3.8530002 1.8474791 0.90851247 0
3.8620002 1.8461696 0.90982747 0
3.7730002 1.864453 0.89073968 0
3.7800002 1.8623209 0.89174974 0
3.7880003 1.8607262 0.89290416 0
3.7960002 1.8591028 0.89405864 0
3.8040001 1.8574505 0.89521307 0
3.8120003 1.8557695 0.89636755 0
3.8200002 1.8540593 0.89752197 0
3.8280003 1.8523207 0.8986764 0
3.8360002 1.8505528 0.89983082 0
3.8440003 1.8487562 0.90098524 0
3.8520002 1.8469309 0.90213966 0
3.8610003 1.8456231 0.90343845 0
3.8690002 1.8437381 0.90459287 0
3.8770003 1.8418242 0.90574729 0
3.7730002 1.864453 0.88465536 0
3.7800002 1.8623209 0.8856529 0
3.7880003 1.8607262 0.8867929 0
3.7960002 1.8591028 0.8879329 0
3.8040001 1.8574505 0.8890729 0
3.8120003 1.8557695 0.89021289 0
3.8200002 1.8540593 0.89135289 0
3.8280003 1.8523207 0.89249289 0
3.8360002 1.8505528 0.89363289 0
3.8440003 1.8487562 0.89477295 0
3.8520002 1.8469309 0.89591295 0
3.8600004 1.8450766 0.897053 0
3.8690002 1.8437381 0.89833546 0
3.8770003 1.8418242 0.89947546 0
3.8850002 1.8398814 0.90061545 0
3.8930004 1.8379101 0.90175551 0
3.9020002 1.8364471 0.90303802 0
3.9110003 1.8349518 0.90432048 0
3.9190001 1.8328899 0.90546048 0
3.9280002 1.8313314 0.90674305 0
3.7800002 1.8623209 0.87955606 0
3.7880003 1.8607262 0.88068157 0
3.7960002 1.8591028 0.88180715 0
3.8040001 1.8574505 0.88293272 0
3.8120003 1.8557695 0.88405836 0
3.8200002 1.8540593 0.88518393 0
3.8280003 1.8523207 0.88630944 0
3.8360002 1.8505528 0.88743502 0
3.8440003 1.8487562 0.88856065 0
3.8520002 1.8469309 0.88968623 0
3.8600004 1.8450766 0.8908118 0
3.8690002 1.8437381 0.89207804 0
3.8770003 1.8418242 0.89320362 0
3.8850002 1.8398814 0.89432919 0
3.8930004 1.8379101 0.89545476 0
3.9020002 1.8364471 0.89672101 0
3.9100003 1.834416 0.8978467 0
3.9190001 1.8328899 0.89911288 0
3.9270003 1.8307993 0.90023851 0
3.9320002 1.8270887 0.90094197 0
3.9370003 1.8233604 0.90164542 0
3.7800002 1.8623209 0.8734591 0
3.7880003 1.8607262 0.87457025 0
3.7960002 1.8591028 0.8756814 0
3.8040001 1.8574505 0.87679255 0
3.8120003 1.8557695 0.8779037 0
3.8200002 1.8540593 0.87901485 0
3.8280003 1.8523207 0.880126 0
3.8360002 1.8505528 0.88123715 0
3.8440003 1.8487562 0.8823483 0
3.8520002 1.8469309 0.88345945 0
3.8600004 1.8450766 0.8845706 0
3.8680003 1.8431933 0.88568175 0
3.8770003 1.8418242 0.88693178 0
3.8850002 1.8398814 0.88804293 0
3.8930004 1.8379101 0.88915408 0
3.9020002 1.8364471 0.89040411 0
3.9100003 1.834416 0.89151525 0
3.9190001 1.8328899 0.89276528 0
3.9260004 1.8302672 0.89373755 0
3.9290004 1.8254981 0.89415431 0
3.9340003 1.8217748 0.8948487 0
3.7880003 1.8607262 0.86845899 0
3.7960002 1.8591028 0.86955571 0
3.8040001 1.8574505 0.87065244 0
3.8120003 1.8557695 0.87174916 0
3.8200002 1.8540593 0.87284589 0
3.8280003 1.8523207 0.87394261 0
3.8360002 1.8505528 0.87503928 0
3.8440003 1.8487562 0.876136 0
3.8520002 1.8469309 0.87723273 0
3.8600004 1.8450766 0.87832946 0
3.8680003 1.8431933 0.87942612 0
3.8770003 1.8418242 0.88065994 0
3.8850002 1.8398814 0.88175666 0
3.8930004 1.8379101 0.88285339 0
3.9020002 1.8364471 0.8840872 0
3.9100003 1.834416 0.88518393 0
3.9180002 1.832356 0.88628066 0
3.9230003 1.8286709 0.88696611 0
3.9260004 1.823907 0.88737732 0
3.9310002 1.8201892 0.88806278 0
3.9360003 1.8164537 0.88874823 0
3.7960002 1.8591028 0.86342996 0
3.8040001 1.8574505 0.86451221 0
3.8120003 1.8557695 0.86559451 0
3.8200002 1.8540593 0.86667681 0
3.8280003 1.8523207 0.86775911 0
3.8360002 1.8505528 0.86884141 0
3.8440003 1.8487562 0.86992371 0
3.8520002 1.8469309 0.87100601 0
3.8600004 1.8450766 0.87208831 0
3.8680003 1.8431933 0.8731705 0
3.8770003 1.8418242 0.8743881 0
3.8850002 1.8398814 0.8754704 0
3.8930004 1.8379101 0.8765527 0
3.9020002 1.8364471 0.87777019 0
3.9100003 1.834416 0.87885261 0
3.9180002 1.832356 0.87993479 0
3.9210002 1.8276067 0.8803407 0
3.9240003 1.8228463 0.88074654 0
3.9280002 1.8186036 0.88128769 0
3.9320002 1.8143467 0.88182878 0
3.9380002 1.811125 0.88264048 0
3.7960002 1.8591028 0.85730422 0
3.8040001 1.8574505 0.85837209 0
3.8120003 1.8557695 0.85943997 0
3.8200002 1.8540593 0.86050779 0
3.8280003 1.8523207 0.86157566 0
3.8360002 1.8505528 0.86264348 0
3.8440003 1.8487562 0.86371136 0
3.8520002 1.8469309 0.86477923 0
3.8600004 1.8450766 0.86584711 0
3.8680003 1.8431933 0.86691493 0
3.8770003 1.8418242 0.86811626 0
3.8850002 1.8398814 0.86918414 0
3.8930004 1.8379101 0.87025201 0
3.9020002 1.8364471 0.87145329 0
3.9100003 1.834416 0.87252116 0
3.9160004 1.8312882 0.87332207 0
3.9190001 1.8265423 0.87372249 0
3.9210002 1.8212554 0.87398946 0
3.9250002 1.8170183 0.8745234 0
3.9290004 1.8127668 0.87505734 0
3.9340003 1.8090255 0.87572473 0
3.8040001 1.8574505 0.85223192 0
3.8120003 1.8557695 0.85328537 0
3.8200002 1.8540593 0.85433877 0
3.8280003 1.8523207 0.85539222 0
3.8360002 1.8505528 0.85644561 0
3.8440003 1.8487562 0.85749906 0
3.8520002 1.8469309 0.85855246 0
3.8600004 1.8450766 0.85960591 0
3.8680003 1.8431933 0.86065936 0
3.8770003 1.8418242 0.86184442 0
3.8850002 1.8398814 0.86289787 0
3.8930004 1.8379101 0.86395127 0
3.9020002 1.8364471 0.86513638 0
3.9100003 1.834416 0.86618984 0
3.9140003 1.8302203 0.8667165 0
3.9170003 1.8254781 0.86711156 0
3.9190001 1.8201947 0.8673749 0
3.9220002 1.8154327 0.86776996 0
3.9260004 1.8111866 0.86829662 0
3.9310002 1.8074508 0.86895502 0
3.9360003 1.8036971 0.86961341 0
3.8040001 1.8574505 0.84609175 0
3.8120003 1.8557695 0.84713078 0
3.8200002 1.8540593 0.84816974 0
3.8280003 1.8523207 0.84920871 0
3.8360002 1.8505528 0.85024774 0
3.8440003 1.8487562 0.85128677 0
3.8520002 1.8469309 0.85232568 0
3.8600004 1.8450766 0.85336471 0
3.8680003 1.8431933 0.85440373 0
3.8770003 1.8418242 0.85557258 0
3.8850002 1.8398814 0.85661161 0
3.8930004 1.8379101 0.85765058 0
3.9020002 1.8364471 0.85881943 0
3.9100003 1.834416 0.85985845 0
3.9130003 1.8296863 0.86024809 0
3.9150002 1.8244139 0.86050779 0
3.9170003 1.8191341 0.86076754 0
3.9200003 1.8143758 0.86115718 0
3.9230003 1.8096064 0.86154681 0
3.9270003 1.8053513 0.86206627 0
3.9320002 1.8016046 0.8627156 0
3.9380002 1.7983614 0.86349487 0
3.6850002 1.8323865 0.8247112 0
3.6900003 1.8293111 0.8253516 0
3.8120003 1.8557695 0.84097618 0
3.8200002 1.8540593 0.84200072 0
3.8280003 1.8523207 0.84302533 0
3.8360002 1.8505528 0.84404981 0
3.8440003 1.8487562 0.84507442 0
3.8520002 1.8469309 0.84609902 0
3.8600004 1.8450766 0.84712356 0
3.8680003 1.8431933 0.84814811 0
3.8770003 1.8418242 0.84930074 0
3.8850002 1.8398814 0.85032535 0
3.8930004 1.8379101 0.85134989 0
3.9020002 1.8364471 0.85250247 0
3.9100003 1.834416 0.85352707 0
3.9110003 1.8286186 0.8536551 0
3.9130003 1.8233497 0.85391128 0
3.9150002 1.8180734 0.8541674 0
3.9170003 1.8127902 0.85442352 0
3.9210002 1.808553 0.85493582 0
3.9240003 1.8037764 0.85532004 0
3.9290004 1.8000355 0.85596043 0
3.9340003 1.7962762 0.85660076 0
3.6770003 1.8337233 0.81777561 0
3.6810002 1.8300995 0.8182807 0
3.6870003 1.8276011 0.81903827 0
3.6930003 1.8250812 0.81979585 0
3.8120003 1.8557695 0.83482158 0
3.8200002 1.8540593 0.8358317 0
3.8280003 1.8523207 0.83684182 0
3.8360002 1.8505528 0.837852 0
3.8440003 1.8487562 0.83886212 0
3.8520002 1.8469309 0.83987224 0
3.8600004 1.8450766 0.84088236 0
3.8680003 1.8431933 0.84189248 0
3.8770003 1.8418242 0.8430289 0
3.8850002 1.8398814 0.84403902 0
3.8930004 1.8379101 0.8450492 0
3.9020002 1.8364471 0.84618556 0
3.9090002 1.8338801 0.84706938 0
3.9100003 1.8280847 0.84719568 0
3.9110003 1.8222853 0.84732199 0
3.9130003 1.8170128 0.84757447 0
3.9150002 1.811733 0.84782702 0
3.9180002 1.8069727 0.8482058 0
3.9210002 1.8022019 0.84858465 0
3.9260004 1.7984662 0.84921598 0
3.9300003 1.794191 0.84972107 0
3.6750002 1.8325762 0.81161559 0
3.6790001 1.8289558 0.8121134 0
3.6830003 1.8253212 0.81261134 0
3.6890004 1.8228084 0.81335807 0
3.6950002 1.820274 0.8141048 0
3.8200002 1.8540593 0.82966268 0
3.8280003 1.8523207 0.83065838 0
3.8360002 1.8505528 0.83165407 0
3.8440003 1.8487562 0.83264983 0
3.8520002 1.8469309 0.83364546 0
3.8600004 1.8450766 0.83464122 0
3.8680003 1.8431933 0.83563685 0
3.8770003 1.8418242 0.83675706 0
3.8850002 1.8398814 0.83775276 0
3.8930004 1.8379101 0.83874846 0
3.9020002 1.8364471 0.83986861 0
3.9080002 1.8333446 0.84061539 0
3.9090002 1.8275506 0.84073985 0
3.9100003 1.8217533 0.8408643 0
3.9110003 1.8159521 0.84098881 0
3.9130003 1.8106761 0.84123772 0
3.9160004 1.8059195 0.84161115 0
3.9190001 1.801152 0.84198451 0
3.9230003 1.7968967 0.84248233 0
3.9270003 1.7926271 0.84298015 0
3.9330003 1.7893822 0.84372699 0
3.6690001 1.835031 0.80497217 0
3.6720002 1.8308551 0.80534011 0
3.6760004 1.8272405 0.80583078 0
3.6800003 1.8236113 0.80632138 0
3.6850002 1.8205357 0.80693471 0
3.6910002 1.8180084 0.80767065 0
3.8200002 1.8540593 0.8234936 0
3.8280003 1.8523207 0.82447493 0
3.8360002 1.8505528 0.8254562 0
3.8440003 1.8487562 0.82643747 0
3.8520002 1.8469309 0.82741874 0
3.8600004 1.8450766 0.82840002 0
3.8680003 1.8431933 0.82938129 0
3.8770003 1.8418242 0.83048522 0
3.8850002 1.8398814 0.8314665 0
3.8930004 1.8379101 0.83244777 0
3.9020002 1.8364471 0.83355165 0
3.9080002 1.8333446 0.83428764 0
3.9080002 1.8270167 0.83428764 0
3.9080002 1.8206888 0.83428764 0
3.9100003 1.8154219 0.83453298 0
3.9110003 1.8096189 0.83465564 0
3.9140003 1.804866 0.83502364 0
3.9160004 1.7995772 0.83526891 0
3.9200003 1.7953274 0.83575952 0
3.9240003 1.7910632 0.83625019 0
3.9290004 1.7873042 0.83686352 0
3.9350002 1.7840446 0.8375994 0
3.6670003 1.8338803 0.79883379 0
3.6700003 1.8297081 0.79919636 0
3.6730003 1.8255249 0.79955894 0
3.6770003 1.8219012 0.80004233 0
3.6820002 1.8188311 0.8006466 0
3.6870003 1.815743 0.80125093 0
3.6940002 1.813766 0.8020969 0
3.8280003 1.8523207 0.81829149 0
3.8360002 1.8505528 0.81925833 0
3.8440003 1.8487562 0.82022518 0
3.8520002 1.8469309 0.82119203 0
3.8600004 1.8450766 0.82215887 0
3.8680003 1.8431933 0.82312572 0
3.8770003 1.8418242 0.82421339 0
3.8850002 1.8398814 0.82518017 0
3.8930004 1.8379101 0.82614708 0
3.9020002 1.8364471 0.82723475 0
3.9070003 1.8328089 0.82783902 0
3.9070003 1.8264828 0.82783902 0
3.9070003 1.8201569 0.82783902 0
3.9080002 1.8143612 0.8279599 0
3.9090002 1.8085618 0.82808071 0
3.9120002 1.8038125 0.82844329 0
3.9140003 1.7985274 0.82868505 0
3.9170003 1.7937582 0.82904756 0
3.9210002 1.7894993 0.82953101 0
3.9250002 1.7852261 0.83001441 0
3.9310002 1.7819738 0.83073956 0
3.6650002 1.8327293 0.79270267 0
3.6670003 1.8279871 0.79294074 0
3.6700003 1.8238096 0.79329789 0
3.6740003 1.8201913 0.79377413 0
3.6780002 1.8165582 0.79425031 0
3.6840003 1.8140438 0.79496461 0
3.6900003 1.8115076 0.79567897 0
3.8280003 1.8523207 0.81210804 0
3.8360002 1.8505528 0.8130604 0
3.8440003 1.8487562 0.81401289 0
3.8520002 1.8469309 0.81496525 0
3.8600004 1.8450766 0.81591767 0
3.8680003 1.8431933 0.81687009 0
3.8770003 1.8418242 0.81794155 0
3.8850002 1.8398814 0.81889391 0
3.8930004 1.8379101 0.81984639 0
3.9020002 1.8364471 0.82091784 0
3.9070003 1.8328089 0.82151306 0
3.9060004 1.8259491 0.82139403 0
3.9060004 1.8196249 0.82139403 0
3.9070003 1.813831 0.82151306 0
3.9080002 1.8080333 0.82163215 0
3.9100003 1.8027592 0.82187021 0
3.9120002 1.7974775 0.82210833 0
3.9150002 1.7927119 0.82246548 0
3.9180002 1.7879354 0.82282263 0
3.9220002 1.7836676 0.82329881 0
3.9270003 1.7799032 0.82389414 0
3.9330003 1.7766364 0.82460845 0
3.6630003 1.8315786 0.78657877 0
3.6650002 1.8268399 0.7868132 0
3.6680002 1.8226659 0.78716493 0
3.6710002 1.818481 0.78751671 0
3.6760004 1.8154219 0.78810298 0
3.6800003 1.8117782 0.78857195 0
3.6860003 1.8092493 0.78927541 0
3.6920002 1.8066986 0.78997886 0
3.8360002 1.8505528 0.80686253 0
3.8440003 1.8487562 0.80780053 0
3.8520002 1.8469309 0.80873847 0
3.8600004 1.8450766 0.80967653 0
3.8680003 1.8431933 0.81061447 0
3.8770003 1.8418242 0.81166971 0
3.8850002 1.8398814 0.81260765 0
3.8930004 1.8379101 0.81354564 0
3.9010003 1.8359096 0.81448364 0
3.9060004 1.8322731 0.81506991 0
3.9060004 1.8259491 0.81506991 0
3.9050002 1.8190925 0.81495261 0
3.9060004 1.8133006 0.81506991 0
3.9070003 1.8075049 0.8151871 0
3.9080002 1.8017057 0.8153044 0
3.9100003 1.7964278 0.81553888 0
3.9120002 1.7911426 0.81577337 0
3.9160004 1.7868929 0.81624234 0
3.9190001 1.7821091 0.81659406 0
3.9240003 1.77835 0.81718034 0
3.9290004 1.7745728 0.81776655 0
3.6610003 1.8304278 0.78046203 0
3.6630003 1.8256928 0.78069293 0
3.6660004 1.8215225 0.78103924 0
3.6690001 1.8173411 0.78138554 0
3.6730003 1.8137174 0.78184736 0
3.6770003 1.810079 0.78230911 0
3.6820002 1.8069907 0.78288633 0
3.6880002 1.8044475 0.78357899 0
3.8360002 1.8505528 0.80066466 0
3.8440003 1.8487562 0.80158818 0
3.8520002 1.8469309 0.80251175 0
3.8600004 1.8450766 0.80343533 0
3.8680003 1.8431933 0.80435884 0
3.8770003 1.8418242 0.80539787 0
3.8850002 1.8398814 0.80632138 0
3.8930004 1.8379101 0.80724496 0
3.9010003 1.8359096 0.80816853 0
3.9070003 1.8328089 0.80886114 0
3.9050002 1.8254149 0.80863023 0
3.9040003 1.8185605 0.80851483 0
3.9050002 1.8127704 0.80863023 0
3.9050002 1.806448 0.80863023 0
3.9060004 1.8006524 0.80874574 0
3.9080002 1.795378 0.80897659 0
3.9100003 1.7900965 0.8092075 0
3.9130003 1.785329 0.80955386 0
3.9160004 1.7805507 0.80990016 0
3.9210002 1.7767969 0.81047738 0
3.9250002 1.7725092 0.81093913 0
3.9310002 1.7692353 0.8116318 0
3.6590002 1.8292768 0.77435249 0
3.6610003 1.8245455 0.77457976 0
3.6640003 1.8203788 0.7749207 0
3.6670003 1.8162011 0.77526164 0
3.6700003 1.8120127 0.77560258 0
3.6740003 1.8083798 0.77605712 0
3.6790001 1.805297 0.77662528 0
3.6840003 1.8021963 0.77719355 0
3.6910002 1.8001995 0.77798897 0
3.8440003 1.8487562 0.79537594 0
3.8520002 1.8469309 0.79628503 0
3.8600004 1.8450766 0.79719412 0
3.8680003 1.8431933 0.79810321 0
3.8770003 1.8418242 0.79912603 0
3.8850002 1.8398814 0.80003512 0
3.8930004 1.8379101 0.80094427 0
3.9010003 1.8359096 0.80185336 0
3.9070003 1.8328089 0.80253518 0
3.9050002 1.8254149 0.8023079 0
3.9040003 1.8185605 0.8021943 0
3.9040003 1.8122399 0.8021943 0
3.9040003 1.8059193 0.8021943 0
3.9050002 1.8001255 0.8023079 0
3.9060004 1.7943282 0.80242157 0
3.9080002 1.7890502 0.80264884 0
3.9110003 1.7842863 0.80298972 0
3.9140003 1.7795117 0.80333066 0
3.9180002 1.7752438 0.8037852 0
3.9220002 1.7709615 0.80423975 0
3.9270003 1.767179 0.80480802 0
3.6580002 1.8287014 0.76836205 0
3.6600003 1.8239719 0.76858574 0
3.6620002 1.8192352 0.76880944 0
3.6640003 1.8144912 0.76903307 0
3.6670003 1.8103082 0.76936859 0
3.6710002 1.8066806 0.76981592 0
3.6750002 1.8030387 0.77026325 0
3.6810002 1.800508 0.77093428 0
3.6860003 1.7973948 0.77149343 0
3.8440003 1.8487562 0.78916359 0
3.8520002 1.8469309 0.79005826 0
3.8600004 1.8450766 0.79095298 0
3.8680003 1.8431933 0.79184765 0
3.8770003 1.8418242 0.79285419 0
3.8850002 1.8398814 0.79374886 0
3.8930004 1.8379101 0.79464352 0
3.9010003 1.8359096 0.79553825 0
3.9070003 1.8328089 0.79620922 0
3.9050002 1.8254149 0.79598558 0
3.9040003 1.8185605 0.79587376 0
3.9030004 1.8117096 0.79576194 0
3.9030004 1.8053908 0.79576194 0
3.9040003 1.7995988 0.79587376 0
3.9050002 1.7938032 0.79598558 0
3.9060004 1.788004 0.79609746 0
3.9090002 1.7832437 0.79643291 0
3.9120002 1.7784727 0.79676843 0
3.9150002 1.7736908 0.79710394 0
3.9190001 1.7694138 0.79755127 0
3.9240003 1.7656367 0.79811049 0
3.9300003 1.7623539 0.79878151 0
3.6560001 1.8275506 0.76226521 0
3.6580002 1.8228247 0.76248527 0
3.6600003 1.8180915 0.76270533 0
3.6620002 1.813351 0.76292539 0
3.6650002 1.8091716 0.76325548 0
3.6680002 1.8049815 0.76358557 0
3.6730003 1.8019096 0.76413572 0
3.6770003 1.7982569 0.7645759 0
3.6820002 1.7951506 0.76512599 0
3.6890004 1.7931449 0.76589626 0
3.8520002 1.8469309 0.78383148 0
3.8600004 1.8450766 0.78471178 0
3.8680003 1.8431933 0.78559202 0
3.8760002 1.8412812 0.78647232 0
3.8850002 1.8398814 0.78746259 0
3.8930004 1.8379101 0.78834283 0
3.9010003 1.8359096 0.78922307 0
3.9080002 1.8333446 0.78999329 0
3.9050002 1.8254149 0.7896632 0
3.9030004 1.8180286 0.78944314 0
3.9020002 1.8111793 0.78933311 0
3.9020002 1.8048624 0.78933311 0
3.9020002 1.7985455 0.78933311 0
3.9030004 1.7927535 0.78944314 0
3.9050002 1.7874808 0.7896632 0
3.9070003 1.7822012 0.78988332 0
3.9090002 1.7769141 0.79010338 0
3.9120002 1.7721376 0.79043347 0
3.9160004 1.7678663 0.79087359 0
3.9200003 1.7635804 0.79131377 0
3.9260004 1.7603048 0.79197395 0
3.6550002 1.8269753 0.75628376 0
3.6560001 1.8216773 0.756392 0
3.6580002 1.8169478 0.75660849 0
3.6600003 1.812211 0.75682491 0
3.6630003 1.8080354 0.75714958 0
3.6660004 1.8038486 0.7574743 0
3.6700003 1.8002158 0.75790715 0
3.6740003 1.7965684 0.75834012 0
3.6790001 1.7934678 0.75888121 0
3.6850002 1.7909081 0.7595306 0
3.8520002 1.8469309 0.77760482 0
3.8600004 1.8450766 0.77847064 0
3.8680003 1.8431933 0.77933645 0
3.8760002 1.8412812 0.78020227 0
3.8850002 1.8398814 0.78117633 0
3.8930004 1.8379101 0.78204215 0
3.9010003 1.8359096 0.78290796 0
3.9100003 1.834416 0.78388202 0
3.9060004 1.8259491 0.78344911 0
3.9030004 1.8180286 0.78312445 0
3.9020002 1.8111793 0.7830162 0
3.9010003 1.8043339 0.78290796 0
3.9010003 1.7980187 0.78290796 0
3.9020002 1.7922285 0.7830162 0
3.9030004 1.7864347 0.78312445 0
3.9050002 1.7811584 0.78334087 0
3.9070003 1.7758752 0.78355736 0
3.9100003 1.7711023 0.78388202 0
3.9130003 1.7663187 0.78420675 0
3.9170003 1.7620381 0.78463966 0
3.9220002 1.7582556 0.78518081 0
3.9280002 1.7549653 0.78583014 0
3.6540003 1.8263998 0.75030595 0
3.6550002 1.8211039 0.75041234 0
3.6560001 1.8158041 0.7505188 0
3.6580002 1.8110712 0.75073165 0
3.6610003 1.806899 0.75105089 0
3.6640003 1.8027158 0.75137019 0
3.6670003 1.798522 0.75168943 0
3.6710002 1.7948802 0.75211513 0
3.6760004 1.7917848 0.75264728 0
3.6810002 1.7886714 0.75317943 0
3.6880002 1.7866546 0.75392437 0
3.8600004 1.8450766 0.77222943 0
3.8680003 1.8431933 0.77308083 0
3.8760002 1.8412812 0.77393222 0
3.8850002 1.8398814 0.77489007 0
3.8930004 1.8379101 0.77574146 0
3.9010003 1.8359096 0.77659285 0
3.9100003 1.834416 0.7775507 0
3.9070003 1.8264828 0.7772314 0
3.9040003 1.8185605 0.77691209 0
3.9020002 1.8111793 0.7766993 0
3.9010003 1.8043339 0.77659285 0
3.9010003 1.7980187 0.77659285 0
3.9010003 1.7917036 0.77659285 0
3.9020002 1.7859116 0.7766993 0
3.9030004 1.780116 0.7768057 0
3.9050002 1.7748362 0.77701855 0
3.9070003 1.7695491 0.7772314 0
3.9110003 1.7652868 0.77765703 0
3.9140003 1.7604959 0.77797639 0
3.9190001 1.7567186 0.77850842 0
3.9240003 1.7529235 0.77904058 0
3.6530004 1.8258244 0.74433172 0
3.6540003 1.8205303 0.74443638 0
3.6550002 1.8152325 0.74454093 0
3.6570003 1.8105011 0.7447502 0
3.6590002 1.8057623 0.74495947 0
3.6610003 1.8010167 0.74516869 0
3.6640003 1.7968283 0.74548256 0
3.6680002 1.7931917 0.74590105 0
3.6720002 1.7895408 0.74631953 0
3.6780002 1.7869939 0.74694729 0
3.6830003 1.783868 0.74747038 0
3.8680003 1.8431933 0.7668252 0
3.8760002 1.8412812 0.76766217 0
3.8850002 1.8398814 0.7686038 0
3.8930004 1.8379101 0.76944077 0
3.9010003 1.8359096 0.77027774 0
3.9100003 1.834416 0.77121931 0
3.9080002 1.8270167 0.77101004 0
3.9040003 1.8185605 0.77059156 0
3.9020002 1.8111793 0.77038234 0
3.9000003 1.8038055 0.77017307 0
3.9000003 1.797492 0.77017307 0
3.9000003 1.7911787 0.77017307 0
3.9000003 1.7848654 0.77017307 0
3.9020002 1.7795945 0.77038234 0
3.9030004 1.7737973 0.77048695 0
3.9050002 1.7685138 0.77069616 0
3.9080002 1.7637391 0.77101004 0
3.9120002 1.7594677 0.77142853 0
3.9160004 1.7551819 0.77184701 0
3.9200003 1.7508816 0.77226555 0
3.9260004 1.7475843 0.77289319 0
3.6520002 1.8252491 0.73836112 0
3.6520002 1.8193829 0.73836112 0
3.6530004 1.8140888 0.738464 0
3.6550002 1.8093611 0.73866957 0
3.6570003 1.8046261 0.73887521 0
3.6590002 1.7998838 0.73908079 0
3.6620002 1.795699 0.7393893 0
3.6650002 1.7915034 0.73969775 0
3.6700003 1.7884189 0.74021184 0
3.6740003 1.7847571 0.74062312 0
3.6790001 1.7816383 0.74113715 0
3.6860003 1.7796127 0.74185693 0
3.8680003 1.8431933 0.76056957 0
3.8760002 1.8412812 0.76139212 0
3.8850002 1.8398814 0.76231748 0
3.8930004 1.8379101 0.76314008 0
3.9010003 1.8359096 0.76396257 0
3.9100003 1.834416 0.76488793 0
3.9100003 1.8280847 0.76488793 0
3.9050002 1.8190925 0.76437384 0
3.9020002 1.8111793 0.76406538 0
3.9000003 1.8038055 0.76385975 0
3.8990002 1.7969652 0.76375693 0
3.8990002 1.7906538 0.76375693 0
3.8990002 1.7843422 0.76375693 0
3.9000003 1.7785521 0.76385975 0
3.9010003 1.7727581 0.76396257 0
3.9040003 1.7679962 0.76427102 0
3.9060004 1.7627074 0.76447666 0
3.9090002 1.7579254 0.76478505 0
3.9130003 1.7536451 0.76519638 0
3.9170003 1.7493502 0.76560766 0
3.9220002 1.7455496 0.76612175 0
3.6510003 1.8246737 0.7323941 0
3.6510003 1.8188093 0.7323941 0
3.6520002 1.813517 0.73249513 0
3.6530004 1.8082212 0.73259616 0
3.6550002 1.8034897 0.73279816 0
3.6570003 1.7987511 0.73300022 0
3.6600003 1.7945698 0.73330325 0
3.6630003 1.7903779 0.73360628 0
3.6670003 1.7867359 0.73401034 0
3.6710002 1.7830796 0.7344144 0
3.6760004 1.7799662 0.73491943 0
3.6820002 1.7773904 0.73552555 0
3.8760002 1.8412812 0.75512207 0
3.8850002 1.8398814 0.75603122 0
3.8930004 1.8379101 0.75683933 0
3.9010003 1.8359096 0.75764745 0
3.9100003 1.834416 0.7585566 0
3.9130003 1.8296863 0.75885963 0
3.9070003 1.8201569 0.75825351 0
3.9030004 1.8117096 0.75784945 0
3.9000003 1.8038055 0.75754642 0
3.8990002 1.7969652 0.75744539 0
3.8980002 1.7901288 0.75734437 0
3.8980002 1.7838191 0.75734437 0
3.8990002 1.7780306 0.75744539 0
3.9000003 1.7722387 0.75754642 0
3.9020002 1.7669607 0.75774843 0
3.9040003 1.7616756 0.75795048 0
3.9070003 1.7568973 0.75825351 0
3.9100003 1.7521082 0.7585566 0
3.9140003 1.7478187 0.7589606 0
3.9180002 1.7435149 0.75936466 0
3.9240003 1.7402102 0.75997078 0
3.6500003 1.8240983 0.72643077 0
3.6500003 1.818236 0.72643077 0
3.6510003 1.8129451 0.72652996 0
3.6520002 1.8076512 0.72662914 0
3.6530004 1.8023533 0.72672832 0
3.6550002 1.7976182 0.7269268 0
3.6580002 1.7934406 0.72722441 0
3.6610003 1.7892523 0.72752202 0
3.6640003 1.785053 0.72781968 0
3.6680002 1.781402 0.72821653 0
3.6730003 1.7782941 0.72871256 0
3.6780002 1.7751681 0.72920859 0
3.8850002 1.8398814 0.74974495 0
3.8930004 1.8379101 0.75053865 0
3.9010003 1.8359096 0.75133228 0
3.9100003 1.834416 0.75222522 0
3.9090002 1.8212211 0.75212598 0
3.9040003 1.8122399 0.75162995 0
3.9010003 1.8043339 0.75133228 0
3.8990002 1.7969652 0.75113392 0
3.8980002 1.7901288 0.75103468 0
3.8970003 1.7832961 0.75093544 0
3.8980002 1.7775095 0.75103468 0
3.8990002 1.7717192 0.75113392 0
3.9000003 1.7659254 0.7512331 0
3.9020002 1.7606437 0.75143147 0
3.9040003 1.7553551 0.75162995 0
3.9070003 1.7505714 0.75192755 0
3.9110003 1.7462873 0.7523244 0
3.9150002 1.7419888 0.75272125 0
3.9210002 1.7386897 0.75331652 0
3.6490002 1.8235227 0.72047091 0
3.6490002 1.8176621 0.72047091 0
3.6500003 1.8123735 0.72056836 0
3.6510003 1.807081 0.72066581 0
3.6520002 1.801785 0.72076315 0
3.6540003 1.7970519 0.72095799 0
3.6560001 1.7923113 0.72115278 0
3.6580002 1.7875638 0.72134757 0
3.6610003 1.7833699 0.72163981 0
3.6650002 1.7797245 0.72202945 0
3.6690001 1.7760645 0.72241902 0
3.6740003 1.7729458 0.72290611 0
3.6800003 1.7703629 0.72349054 0
3.8850002 1.8398814 0.74345869 0
3.8930004 1.8379101 0.7442379 0
3.9010003 1.8359096 0.74501717 0
3.9100003 1.834416 0.74589384 0
3.9120002 1.8228174 0.74608862 0
3.9050002 1.8127704 0.74540675 0
3.9010003 1.8043339 0.74501717 0
3.8990002 1.7969652 0.74482238 0
3.8970003 1.7896039 0.74462759 0
3.8960001 1.7827729 0.74453008 0
3.8970003 1.7769881 0.74462759 0
3.8970003 1.7706802 0.74462759 0
3.8980002 1.76489 0.74472499 0
3.9000003 1.7596121 0.74491978 0
3.9020002 1.7543268 0.74511456 0
3.9050002 1.7495468 0.74540675 0
3.9080002 1.7447559 0.74569905 0
3.9120002 1.7404628 0.74608862 0
3.9170003 1.7366621 0.74657571 0
3.9230003 1.7333486 0.74716008 0
3.6490002 1.8235227 0.71461034 0
3.6490002 1.8176621 0.71461034 0
3.6490002 1.8118016 0.71461034 0
3.6490002 1.8059411 0.71461034 0
3.6500003 1.8006487 0.714706 0
3.6520002 1.7959191 0.71489716 0
3.6540003 1.7911823 0.71508837 0
3.6560001 1.7864382 0.71527958 0
3.6590002 1.7822479 0.7155664 0
3.6620002 1.778047 0.71585321 0
3.6660004 1.7743925 0.71623564 0
3.6710002 1.771279 0.71671361 0
3.6760004 1.7681477 0.7171917 0
3.8930004 1.8379101 0.73793721 0
3.9010003 1.8359096 0.73870206 0
3.9100003 1.834416 0.73956251 0
3.9170003 1.8254781 0.74023169 0
3.9070003 1.813831 0.73927569 0
3.9020002 1.8048624 0.73879766 0
3.8990002 1.7969652 0.73851085 0
3.8970003 1.7896039 0.73831964 0
3.8960001 1.7827729 0.73822403 0
3.8960001 1.7764667 0.73822403 0
3.8960001 1.7701607 0.73822403 0
3.8970003 1.7643722 0.73831964 0
3.8980002 1.7585802 0.73841524 0
3.9000003 1.7532988 0.73860645 0
3.9030004 1.7485223 0.73889327 0
3.9060004 1.743735 0.73918009 0
3.9090002 1.7389368 0.73946685 0
3.9140003 1.7351415 0.73994482 0
3.9190001 1.7313282 0.74042284 0
3.6490002 1.8235227 0.70874977 0
3.6480002 1.8170885 0.70865601 0
3.6480002 1.8112299 0.70865601 0
3.6480002 1.805371 0.70865601 0
3.6490002 1.8000804 0.70874977 0
3.6500003 1.7947863 0.70884359 0
3.6520002 1.7900531 0.70903122 0
3.6540003 1.7853127 0.7092188 0
3.6570003 1.7811261 0.70950019 0
3.6600003 1.7769287 0.70978165 0
3.6640003 1.7732776 0.7101568 0
3.6680002 1.7696124 0.71053195 0
3.6730003 1.7664864 0.71100098 0
3.9010003 1.8359096 0.73238689 0
3.9100003 1.834416 0.73323107 0
3.9100003 1.8154219 0.73323107 0
3.9040003 1.8059193 0.73266828 0
3.9000003 1.797492 0.73229313 0
3.8970003 1.7896039 0.73201168 0
3.8960001 1.7827729 0.73191792 0
3.8950002 1.7759455 0.73182416 0
3.8950002 1.7696413 0.73182416 0
3.8950002 1.7633369 0.73182416 0
3.8970003 1.7580644 0.73201168 0
3.8980002 1.7522706 0.73210549 0
3.9010003 1.7474977 0.73238689 0
3.9030004 1.7422035 0.73257446 0
3.9070003 1.7379194 0.73294973 0
3.9110003 1.733621 0.73332489 0
3.9150002 1.729308 0.73370004 0
3.9210002 1.7259873 0.73426288 0
3.6480002 1.8229474 0.70279723 0
3.6480002 1.8170885 0.70279723 0
3.6470003 1.8106581 0.70270526 0
3.6470003 1.8048012 0.70270526 0
3.6480002 1.7995123 0.70279723 0
3.6490002 1.7942199 0.7028892 0
3.6500003 1.788924 0.70298123 0
3.6520002 1.7841871 0.70316517 0
3.6550002 1.7800041 0.7034412 0
3.6580002 1.7758102 0.70371717 0
3.6610003 1.7716056 0.7039932 0
3.6560001 1.7629454 0.70353317 0
3.6580002 1.7581798 0.70371717 0
3.6610003 1.7539588 0.7039932 0
3.8980002 1.7901288 0.72579581 0
3.8950002 1.7822498 0.72551978 0
3.8950002 1.7759455 0.72551978 0
3.8940003 1.7691216 0.72542787 0
3.8940003 1.7628193 0.72542787 0
3.8950002 1.7570325 0.72551978 0
3.8970003 1.7517565 0.72570384 0
3.8990002 1.7464731 0.72588778 0
3.9010003 1.7411824 0.72607177 0
3.9040003 1.7363935 0.7263478 0
3.9080002 1.7321004 0.72671574 0
3.9120002 1.7277929 0.72708368 0
3.9170003 1.7239742 0.72754371 0
3.6490002 1.8235227 0.69702864 0
3.6470003 1.816515 0.69684827 0
3.6460001 1.8100863 0.69675809 0
3.6460001 1.8042309 0.69675809 0
3.6470003 1.7989441 0.69684827 0
3.6480002 1.7936535 0.69693851 0
3.6490002 1.7883593 0.69702864 0
3.6510003 1.7836244 0.697209 0
3.6530004 1.7788823 0.69738942 0
3.6480002 1.7702185 0.69693851 0
3.6490002 1.764917 0.69702864 0
3.6510003 1.7601676 0.697209 0
3.6520002 1.7548572 0.69729924 0
3.6540003 1.7500951 0.69747961 0
3.6570003 1.7458761 0.69775021 0
3.8980002 1.7901288 0.71948612 0
3.8960001 1.7827729 0.71930569 0
3.8940003 1.7754242 0.71912533 0
3.8930004 1.7686023 0.71903515 0
3.8940003 1.7628193 0.71912533 0
3.8940003 1.7565167 0.71912533 0
3.8950002 1.7507282 0.71921551 0
3.8970003 1.7454486 0.71939588 0
3.8990002 1.7401615 0.71957624 0
3.9020002 1.735376 0.71984684 0
3.9050002 1.7305797 0.72011739 0
3.9090002 1.7262776 0.72047818 0
3.9130003 1.7219611 0.7208389 0
3.6490002 1.8235227 0.69116807 0
3.6470003 1.816515 0.69099128 0
3.6460001 1.8100863 0.69090295 0
3.6460001 1.8042309 0.69090295 0
3.6460001 1.7983757 0.69090295 0
3.6460001 1.7925206 0.69090295 0
3.6480002 1.7877947 0.69107974 0
3.6490002 1.7824987 0.69116807 0
3.6440003 1.7738333 0.69072616 0
3.6450002 1.7685409 0.6908145 0
3.6460001 1.7632449 0.69090295 0
3.6460001 1.7573897 0.69090295 0
3.6470003 1.7520883 0.69099128 0
3.6490002 1.7473353 0.69116807 0
3.6510003 1.742575 0.69134486 0
3.6530004 1.7378078 0.69152164 0
3.6560001 1.7335794 0.69178677 0
3.8960001 1.7827729 0.71299958 0
3.8940003 1.7754242 0.71282279 0
3.8930004 1.7686023 0.71273446 0
3.8930004 1.7623016 0.71273446 0
3.8930004 1.7560008 0.71273446 0
3.8940003 1.7502142 0.71282279 0
3.8950002 1.7444239 0.71291119 0
3.8970003 1.7391406 0.71308798 0
3.8990002 1.73385 0.7132647 0
3.9020002 1.7290591 0.71352988 0
3.9060004 1.7247624 0.7138834 0
3.9100003 1.7204514 0.71423697 0
3.6490002 1.8235227 0.6853075 0
3.6470003 1.816515 0.68513441 0
3.6460001 1.8100863 0.68504775 0
3.6450002 1.803661 0.6849612 0
3.6450002 1.7978077 0.6849612 0
3.6460001 1.7925206 0.68504775 0
3.6470003 1.7872303 0.68513441 0
3.6420002 1.7785592 0.68470144 0
3.6420002 1.7727113 0.68470144 0
3.6420002 1.7668633 0.68470144 0
3.6420002 1.7610153 0.68470144 0
3.6430004 1.755723 0.68478805 0
3.6440003 1.7504271 0.68487459 0
3.6450002 1.7451274 0.6849612 0
3.6460001 1.7398242 0.68504775 0
3.6480002 1.7350658 0.68522096 0
3.6500003 1.7303002 0.68539411 0
3.6520002 1.7255272 0.68556726 0
3.6550002 1.7212901 0.68582702 0
3.8940003 1.7754242 0.70652032 0
3.8930004 1.7686023 0.70643377 0
3.8920002 1.7617838 0.70634711 0
3.8920002 1.7554849 0.70634711 0
3.8920002 1.749186 0.70634711 0
3.8940003 1.7439117 0.70652032 0
3.8950002 1.7381196 0.70660686 0
3.8970003 1.7328327 0.70678008 0
3.9000003 1.7280455 0.70703983 0
3.9030004 1.7232473 0.70729959 0
3.9070003 1.7189416 0.70764589 0
3.6470003 1.816515 0.67927742 0
3.6460001 1.8100863 0.67919254 0
3.6450002 1.803661 0.67910779 0
3.6450002 1.7978077 0.67910779 0
3.6460001 1.7925206 0.67919254 0
3.6470003 1.7872303 0.67927742 0
3.6400003 1.7774338 0.67868394 0
3.6400003 1.7715894 0.67868394 0
3.6400003 1.765745 0.67868394 0
3.6400003 1.7599007 0.67868394 0
3.6400003 1.7540565 0.67868394 0
3.6400003 1.748212 0.67868394 0
3.6410003 1.7429196 0.67876875 0
3.6420002 1.7376237 0.67885351 0
3.6430004 1.7323241 0.67893827 0
3.6440003 1.7270209 0.67902303 0
3.6460001 1.7222587 0.67919254 0
3.6480002 1.7174896 0.67936218 0
3.6510003 1.7132542 0.67961651 0
3.8940003 1.7754242 0.70021778 0
3.8920002 1.7680827 0.70004821 0
3.8910003 1.7612661 0.69996345 0
3.8910003 1.754969 0.69996345 0
3.8910003 1.748672 0.69996345 0
3.8920002 1.7428871 0.70004821 0
3.8930004 1.7370988 0.70013303 0
3.8950002 1.7318153 0.7003026 0
3.8980002 1.7270317 0.70055687 0
3.9010003 1.7222371 0.70081127 0
3.8960001 1.7134056 0.70038736 0
3.8980002 1.7081025 0.70055687 0
3.6480002 1.8170885 0.6735034 0
3.6470003 1.8106581 0.67342043 0
3.6460001 1.8042309 0.67333746 0
3.6460001 1.7983757 0.67333746 0
3.6470003 1.7930871 0.67342043 0
3.6400003 1.783278 0.67283958 0
3.6390002 1.7768708 0.67275661 0
3.6380002 1.7704674 0.67267364 0
3.6380002 1.7646266 0.67267364 0
3.6370003 1.7582285 0.67259067 0
3.6370003 1.7523897 0.67259067 0
3.6380002 1.7471044 0.67267364 0
3.6380002 1.7412637 0.67267364 0
3.6380002 1.735423 0.67267364 0
3.6390002 1.7301306 0.67275661 0
3.6400003 1.7248347 0.67283958 0
3.6410003 1.719535 0.67292261 0
3.6430004 1.7147748 0.67308855 0
3.6450002 1.7100073 0.67325449 0
3.6470003 1.7052327 0.67342043 0
3.6500003 1.7009883 0.67366934 0
3.8930004 1.7686023 0.69383228 0
3.8910003 1.7612661 0.69366634 0
3.8900003 1.7544532 0.69358337 0
3.8900003 1.748158 0.69358337 0
3.8910003 1.7423748 0.69366634 0
3.8920002 1.7365882 0.69374931 0
3.8940003 1.7313067 0.69391531 0
3.8960001 1.726018 0.69408125 0
3.8900003 1.7166815 0.69358337 0
3.8910003 1.7108895 0.69366634 0
3.8920002 1.7050936 0.69374931 0
3.8940003 1.6997942 0.69391531 0
3.6480002 1.8112299 0.66764462 0
3.6470003 1.8048012 0.66756344 0
3.6470003 1.7989441 0.66756344 0
3.6480002 1.7936535 0.66764462 0
3.6400003 1.783278 0.66699529 0
3.6390002 1.7768708 0.66691411 0
3.6370003 1.7699064 0.66675174 0
3.6360002 1.7635082 0.66667056 0
3.6360002 1.7576711 0.66667056 0
3.6350002 1.7512785 0.66658938 0
3.6350002 1.7454431 0.66658938 0
3.6350002 1.7396078 0.66658938 0
3.6350002 1.7337725 0.66658938 0
3.6360002 1.7284855 0.66667056 0
3.6360002 1.7226483 0.66667056 0
3.6370003 1.7173561 0.66675174 0
3.6380002 1.7120601 0.66683292 0
3.6400003 1.7073016 0.66699529 0
3.6420002 1.7025359 0.66715759 0
3.6430004 1.6972256 0.66723877 0
3.6460001 1.6929829 0.66748226 0
3.6490002 1.6887295 0.6677258 0
3.8910003 1.7612661 0.68736923 0
3.8900003 1.7544532 0.68728811 0
3.8890002 1.7476438 0.68720692 0
3.8900003 1.7418627 0.68728811 0
3.8910003 1.7360778 0.68736923 0
3.8930004 1.730798 0.68753159 0
3.8870003 1.7214561 0.68704462 0
3.8870003 1.7151662 0.68704462 0
3.8880002 1.7093796 0.68712574 0
3.8880002 1.7030879 0.68712574 0
3.8890002 1.6972958 0.68720692 0
3.8910003 1.6919981 0.68736923 0
3.8930004 1.6866932 0.68753159 0
3.8940003 1.6808867 0.68761277 0
3.6510003 1.8129451 0.66202396 0
3.6500003 1.8065112 0.66194463 0
3.6490002 1.8000804 0.66186523 0
3.6420002 1.7902551 0.66130966 0
3.6400003 1.783278 0.66115093 0
3.6380002 1.7763081 0.66099215 0
3.6370003 1.7699064 0.66091281 0
3.6360002 1.7635082 0.66083348 0
3.6350002 1.7571138 0.66075408 0
3.6340003 1.7507229 0.66067469 0
3.6330001 1.7443355 0.6605953 0
3.6330001 1.7385038 0.6605953 0
3.6330001 1.7326721 0.6605953 0
3.6330001 1.7268404 0.6605953 0
3.6330001 1.7210087 0.6605953 0
3.6340003 1.7157218 0.66067469 0
3.6350002 1.7104312 0.66075408 0
3.6360002 1.705137 0.66083348 0
3.6370003 1.6998394 0.66091281 0
3.6380002 1.6945379 0.66099215 0
3.6400003 1.6897687 0.66115093 0
3.6420002 1.6849921 0.66130966 0
3.6450002 1.6807405 0.66154778 0
3.8890002 1.7539371 0.68091345 0
3.8890002 1.7476438 0.68091345 0
3.8900003 1.7418627 0.68099284 0
3.8910003 1.7360778 0.68107218 0
3.8850002 1.7267286 0.68059599 0
3.8850002 1.7204423 0.68059599 0
3.8840003 1.7136511 0.6805166 0
3.8850002 1.7078699 0.68059599 0
3.8850002 1.7015835 0.68059599 0
3.8850002 1.6952972 0.68059599 0
3.8860002 1.6895087 0.68067533 0
3.8880002 1.6842128 0.68083405 0
3.8890002 1.6784154 0.68091345 0
3.8910003 1.6731068 0.68107218 0
3.6520002 1.801785 0.65623736 0
3.6440003 1.791388 0.65561682 0
3.6410003 1.7838426 0.65538418 0
3.6390002 1.7768708 0.65522897 0
3.6370003 1.7699064 0.65507388 0
3.6350002 1.7629491 0.65491879 0
3.6340003 1.7565565 0.65484118 0
3.6330001 1.7501673 0.65476358 0
3.6320002 1.7437818 0.65468609 0
3.6310003 1.7373999 0.65460849 0
3.6310003 1.7315719 0.65460849 0
3.6310003 1.7257438 0.65460849 0
3.6310003 1.7199156 0.65460849 0
3.6310003 1.7140876 0.65460849 0
3.6310003 1.7082595 0.65460849 0
3.6320002 1.7029724 0.65468609 0
3.6330001 1.6976818 0.65476358 0
3.6340003 1.6923877 0.65484118 0
3.6350002 1.6870899 0.65491879 0
3.6370003 1.6823225 0.65507388 0
3.6390002 1.6775477 0.65522897 0
3.6420002 1.6732961 0.65546167 0
3.6440003 1.6685053 0.65561682 0
3.8900003 1.7418627 0.67469752 0
3.8910003 1.7360778 0.67477506 0
3.8840003 1.7262199 0.67423213 0
3.8830004 1.7194287 0.67415458 0
3.8830004 1.713146 0.67415458 0
3.8820002 1.70636 0.67407697 0
3.8820002 1.7000791 0.67407697 0
3.8820002 1.6937983 0.67407697 0
3.8830004 1.6880153 0.67415458 0
3.8830004 1.6817327 0.67415458 0
3.8850002 1.6764383 0.67430973 0
3.8860002 1.6706446 0.67438728 0
3.8870003 1.6648471 0.67446482 0
3.8890002 1.6595349 0.67461991 0
3.6460001 1.7925206 0.64991677 0
3.6430004 1.7849718 0.64968956 0
3.6400003 1.7774338 0.64946222 0
3.6380002 1.7704674 0.64931071 0
3.6360002 1.7635082 0.64915919 0
3.6340003 1.7565565 0.64900768 0
3.6320002 1.7496117 0.64885616 0
3.6310003 1.7432281 0.64878041 0
3.6300004 1.736848 0.64870465 0
3.6290002 1.7304715 0.64862889 0
3.6290002 1.7246469 0.64862889 0
3.6290002 1.7188225 0.64862889 0
3.6280003 1.7124534 0.64855313 0
3.6290002 1.7071735 0.64862889 0
3.6290002 1.701349 0.64862889 0
3.6290002 1.6955245 0.64862889 0
3.6300004 1.6902376 0.64870465 0
3.6310003 1.684947 0.64878041 0
3.6320002 1.6796528 0.64885616 0
3.6340003 1.6748873 0.64900768 0
3.6360002 1.6701143 0.64915919 0
3.6380002 1.6653342 0.64931071 0
3.6410003 1.6610737 0.64953804 0
3.8810003 1.7121358 0.66772044 0
3.8800004 1.7053535 0.66764462 0
3.8800004 1.6990763 0.66764462 0
3.8800004 1.6927991 0.66764462 0
3.8800004 1.6865218 0.66764462 0
3.8800004 1.6802444 0.66764462 0
3.8800004 1.6739672 0.66764462 0
3.8820002 1.6686748 0.66779613 0
3.8830004 1.6628847 0.66787195 0
3.8840003 1.6570908 0.66794765 0
3.8860002 1.6517804 0.66809916 0
3.8880002 1.6464627 0.66825068 0
3.6420002 1.7785592 0.64376581 0
3.6400003 1.7715894 0.64361793 0
3.6370003 1.7640675 0.64339602 0
3.6350002 1.7571138 0.64324814 0
3.6330001 1.7501673 0.6431002 0
3.6310003 1.7432281 0.64295232 0
3.6300004 1.736848 0.64287835 0
3.6290002 1.7304715 0.64280438 0
3.6280003 1.7240987 0.64273041 0
3.6270003 1.7177294 0.64265645 0
3.6270003 1.7119086 0.64265645 0
3.6260002 1.7055446 0.64258254 0
3.6260002 1.6997256 0.64258254 0
3.6260002 1.6939065 0.64258254 0
3.6270003 1.688625 0.64265645 0
3.6270003 1.6828041 0.64265645 0
3.6280003 1.6775171 0.64273041 0
3.6290002 1.6722265 0.64280438 0
3.6310003 1.6674627 0.64295232 0
3.6320002 1.662163 0.64302623 0
3.6340003 1.6573867 0.64317417 0
3.6370003 1.6531278 0.64339602 0
3.8780003 1.6917998 0.66121948 0
3.8770003 1.6850282 0.66114551 0
3.8770003 1.6787564 0.66114551 0
3.8780003 1.6729788 0.66121948 0
3.8780003 1.666705 0.66121948 0
3.8790002 1.6609221 0.66129339 0
3.8800004 1.6551355 0.66136742 0
3.8810003 1.6493453 0.66144133 0
3.8820002 1.6435513 0.6615153 0
3.8840003 1.6382374 0.66166317 0
3.6420002 1.7727113 0.63791788 0
3.6390002 1.7651857 0.63770139 0
3.6360002 1.7576711 0.63748491 0
3.6330001 1.7501673 0.63726848 0
3.6320002 1.7437818 0.6371963 0
3.6300004 1.736848 0.63705206 0
3.6280003 1.7299213 0.63690776 0
3.6270003 1.7235503 0.63683558 0
3.6260002 1.7171829 0.63676345 0
3.6250002 1.7108191 0.63669127 0
3.6250002 1.7050017 0.63669127 0
3.6240003 1.6986433 0.63661909 0
3.6240003 1.6928279 0.63661909 0
3.6240003 1.6870124 0.63661909 0
3.6240003 1.6811969 0.63661909 0
3.6250002 1.6759154 0.63669127 0
3.6260002 1.6706302 0.63676345 0
3.6270003 1.6653415 0.63683558 0
3.6270003 1.6595205 0.63683558 0
3.6290002 1.6547531 0.63697988 0
3.6310003 1.6499784 0.63712418 0
3.6330001 1.6451964 0.63726848 0
3.8750002 1.6777643 0.65472937 0
3.8750002 1.6714959 0.65472937 0
3.8750002 1.6652278 0.65472937 0
3.8750002 1.6589595 0.65472937 0
3.8760002 1.6531801 0.65480149 0
3.8770003 1.6473972 0.65487367 0
3.8780003 1.6416105 0.65494585 0
3.8790002 1.6358203 0.65501797 0
3.8810003 1.6305081 0.65516227 0
3.8830004 1.6251887 0.65530658 0
3.6380002 1.7587858 0.63178849 0
3.6350002 1.7512785 0.63157749 0
3.6330001 1.7443355 0.63143677 0
3.6300004 1.736848 0.63122571 0
3.6290002 1.7304715 0.63115537 0
3.6270003 1.7235503 0.6310147 0
3.6250002 1.7166363 0.63087398 0
3.6240003 1.7102743 0.63080364 0
3.6230001 1.7039157 0.63073325 0
3.6230001 1.6981021 0.63073325 0
3.6220002 1.6917492 0.63066292 0
3.6220002 1.6859372 0.63066292 0
3.6220002 1.6801254 0.63066292 0
3.6220002 1.6743135 0.63066292 0
3.6220002 1.6685017 0.63066292 0
3.6230001 1.66322 0.63073325 0
3.6240003 1.657935 0.63080364 0
3.6250002 1.6526462 0.63087398 0
3.6260002 1.6473538 0.63094437 0
3.6280003 1.642581 0.63108504 0
3.6300004 1.6378009 0.63122571 0
3.8730001 1.6705074 0.64832044 0
3.8730001 1.6642429 0.64832044 0
3.8720002 1.6574876 0.6482501 0
3.8730001 1.6517135 0.64832044 0
3.8730001 1.6454489 0.64832044 0
3.8740003 1.6396697 0.64839077 0
3.8750002 1.6338866 0.6484611 0
3.8760002 1.6281 0.64853144 0
3.8770003 1.6223098 0.64860183 0
3.8790002 1.6169939 0.6487425 0
3.6380002 1.7529452 0.62594777 0
3.6350002 1.7454431 0.6257422 0
3.6320002 1.7379519 0.6255365 0
3.6290002 1.7304715 0.62533087 0
3.6270003 1.7235503 0.62519383 0
3.6250002 1.7166363 0.62505674 0
3.6240003 1.7102743 0.6249882 0
3.6230001 1.7039157 0.62491959 0
3.6220002 1.697561 0.62485111 0
3.6210003 1.6912098 0.62478256 0
3.6200004 1.6848623 0.62471402 0
3.6200004 1.679054 0.62471402 0
3.6190002 1.6727117 0.62464547 0
3.6200004 1.6674376 0.62471402 0
3.6200004 1.6616292 0.62471402 0
3.6200004 1.655821 0.62471402 0
3.6210003 1.6505394 0.62478256 0
3.6220002 1.6452543 0.62485111 0
3.6230001 1.6399654 0.62491959 0
3.6250002 1.6351943 0.62505674 0
3.8710003 1.656997 0.64191872 0
3.8700004 1.6502472 0.64185017 0
3.8700004 1.643988 0.64185017 0
3.8710003 1.6382139 0.64191872 0
3.8710003 1.6319529 0.64191872 0
3.8720002 1.6261735 0.64198726 0
3.8730001 1.6203904 0.64205581 0
3.8740003 1.6146039 0.64212435 0
3.8760002 1.6092898 0.64226139 0
3.8780003 1.6039686 0.64239854 0
3.6340003 1.7390559 0.61984009 0
3.6310003 1.7315719 0.61963987 0
3.6280003 1.7240987 0.61943966 0
3.6260002 1.7171829 0.61930615 0
3.6240003 1.7102743 0.61917269 0
3.6220002 1.7033728 0.61903918 0
3.6210003 1.6970199 0.61897248 0
3.6200004 1.6906706 0.61890572 0
3.6190002 1.6843246 0.61883897 0
3.6180003 1.6779824 0.61877227 0
3.6180003 1.6721779 0.61877227 0
3.6170003 1.6658411 0.61870551 0
3.6170003 1.6600384 0.61870551 0
3.6180003 1.6547638 0.61877227 0
3.6180003 1.6489593 0.61877227 0
3.6180003 1.6431546 0.61877227 0
3.6190002 1.6378729 0.61883897 0
3.6150002 1.6299814 0.618572 0
3.6100001 1.6157944 0.61823833 0
3.6090002 1.6094882 0.61817157 0
3.6090002 1.6036998 0.61817157 0
3.6100001 1.5984237 0.61823833 0
3.6120002 1.5936544 0.61837178 0
3.6140003 1.588878 0.6185053 0
3.6160002 1.5840943 0.61863875 0
3.6200004 1.5803136 0.61890572 0
3.6240003 1.5765183 0.61917269 0
3.8680003 1.6492695 0.63545746 0
3.8680003 1.6430138 0.63545746 0
3.8680003 1.6367582 0.63545746 0
3.8680003 1.6305027 0.63545746 0
3.8680003 1.6242471 0.63545746 0
3.8690002 1.6184713 0.63552421 0
3.8700004 1.6126919 0.63559097 0
3.8710003 1.6069089 0.63565767 0
3.8720002 1.6011223 0.63572443 0
3.7490003 1.8689823 0.62147439 0
3.7570002 1.8675014 0.62199384 0
3.7640002 1.8654234 0.62244838 0
3.6340003 1.7332224 0.61400658 0
3.6300004 1.7251955 0.61374682 0
3.6280003 1.718276 0.61361694 0
3.6250002 1.7108191 0.61342216 0
3.6230001 1.7039157 0.61329228 0
3.6210003 1.6970199 0.6131624 0
3.6190002 1.6901311 0.61303252 0
3.6180003 1.6837871 0.61296761 0
3.6170003 1.6774468 0.61290264 0
3.6160002 1.6711099 0.61283767 0
3.6160002 1.665309 0.61283767 0
3.6150002 1.6589775 0.61277276 0
3.6150002 1.6531783 0.61277276 0
3.6150002 1.647379 0.61277276 0
3.6150002 1.6415799 0.61277276 0
3.6110003 1.6336882 0.61251307 0
3.6060002 1.6252896 0.61218834 0
3.6040003 1.6184677 0.61205846 0
3.6030002 1.6121706 0.61199355 0
3.6030002 1.606393 0.61199355 0
3.6030002 1.6006154 0.61199355 0
3.6050003 1.5958623 0.61212337 0
3.6060002 1.5905915 0.61218834 0
3.6080003 1.585826 0.61231822 0
3.6110003 1.58156 0.61251307 0
3.6140003 1.5772831 0.61270785 0
3.6180003 1.5734987 0.61296761 0
3.6230001 1.5702013 0.61329228 0
3.6280003 1.5668859 0.61361694 0
3.8660002 1.6420398 0.62907195 0
3.8660002 1.6357877 0.62907195 0
3.8650002 1.6290524 0.62900704 0
3.8650002 1.6228021 0.62900704 0
3.8660002 1.6170317 0.62907195 0
3.8660002 1.6107799 0.62907195 0
3.8670003 1.6050041 0.62913692 0
3.8680003 1.5992247 0.62920189 0
3.8690002 1.5934416 0.6292668 0
3.7410002 1.8704343 0.61492836 0
3.7490003 1.8689823 0.61543339 0
3.7570002 1.8675014 0.61593843 0
3.7640002 1.8654234 0.61638039 0
3.7720003 1.8638867 0.61688542 0
3.6300004 1.7193691 0.60792053 0
3.6270003 1.7119086 0.6077311 0
3.6240003 1.7044588 0.60754174 0
3.6220002 1.697561 0.60741544 0
3.6200004 1.6906706 0.6072892 0
3.6180003 1.6837871 0.60716295 0
3.6170003 1.6774468 0.60709977 0
3.6160002 1.6711099 0.60703665 0
3.6150002 1.6647768 0.60697353 0
3.6140003 1.6584473 0.60691041 0
3.6130002 1.6521212 0.60684729 0
3.6130002 1.6463257 0.60684729 0
3.6080003 1.6379056 0.60653162 0
3.6030002 1.6295033 0.60621595 0
3.6000001 1.6221617 0.60602653 0
3.5990002 1.6158701 0.60596341 0
3.5980003 1.6095821 0.60590029 0
3.5990002 1.6043295 0.60596341 0
3.5990002 1.598559 0.60596341 0
3.6000001 1.5933008 0.60602653 0
3.6020002 1.5885496 0.60615277 0
3.6040003 1.5837913 0.60627908 0
3.6070004 1.5795325 0.6064685 0
3.6100001 1.5752628 0.60665786 0
3.6140003 1.5714856 0.60691041 0
3.6180003 1.5676941 0.60716295 0
3.6220002 1.563888 0.60741544 0
3.6280003 1.5610633 0.60779428 0
3.8650002 1.6415528 0.62275684 0
3.8640003 1.6348174 0.62269372 0
3.8640003 1.628569 0.62269372 0
3.8630002 1.6218389 0.6226306 0
3.8630002 1.6155924 0.6226306 0
3.8630002 1.6093457 0.6226306 0
3.8630002 1.6030991 0.6226306 0
3.8640003 1.597327 0.62269372 0
3.8650002 1.5915512 0.62275684 0
3.7410002 1.8704343 0.6089018 0
3.7490003 1.8689823 0.6093924 0
3.7570002 1.8675014 0.60988307 0
3.7640002 1.8654234 0.61031234 0
3.7720003 1.8638867 0.61080301 0
3.7800002 1.8623209 0.61129367 0
3.7880003 1.8607262 0.61178428 0
3.6300004 1.7135428 0.60209423 0
3.6260002 1.7055446 0.6018489 0
3.6230001 1.6981021 0.6016649 0
3.6210003 1.6912098 0.60154229 0
3.6190002 1.6843246 0.60141963 0
3.6170003 1.6774468 0.60129696 0
3.6150002 1.670576 0.60117429 0
3.6140003 1.6642448 0.60111296 0
3.6130002 1.6579169 0.60105163 0
3.6120002 1.6515927 0.6009903 0
3.6080003 1.6436921 0.60074496 0
3.6020002 1.6347561 0.60037702 0
3.5980003 1.6268878 0.60013169 0
3.5960002 1.6200767 0.60000902 0
3.5950003 1.6137922 0.59994769 0
3.5950003 1.608029 0.59994769 0
3.5950003 1.6022658 0.59994769 0
3.5960002 1.5970168 0.60000902 0
3.5970004 1.5917641 0.60007036 0
3.5990002 1.5870183 0.60019302 0
3.6010003 1.5822653 0.60031569 0
3.6040003 1.5780119 0.60049963 0
3.6070004 1.5737478 0.60068369 0
3.6100001 1.5694726 0.60086763 0
3.6140003 1.5656883 0.60111296 0
3.6190002 1.562389 0.60141963 0
3.6240003 1.5590719 0.60172629 0
3.6300004 1.5562327 0.60209423 0
3.8640003 1.6348174 0.6164453 0
3.8620002 1.6276021 0.6163227 0
3.8620002 1.6213574 0.6163227 0
3.8610003 1.6146327 0.61626136 0
3.8610003 1.6083897 0.61626136 0
3.8610003 1.6021467 0.61626136 0
3.8610003 1.5959038 0.61626136 0
3.8610003 1.5896609 0.61626136 0
3.8520002 1.5418202 0.61570936 0
3.8540003 1.5365099 0.61583203 0
3.8570004 1.5316486 0.61601603 0
3.7410002 1.8704343 0.60287529 0
3.7490003 1.8689823 0.60335147 0
3.7570002 1.8675014 0.60382771 0
3.7640002 1.8654234 0.60424435 0
3.7720003 1.8638867 0.60472059 0
3.7800002 1.8623209 0.60519677 0
3.7880003 1.8607262 0.60567302 0
3.7950003 1.858542 0.60608965 0
3.6250002 1.6991845 0.59597027 0
3.6230001 1.6922884 0.59585124 0
3.6200004 1.6848623 0.59567267 0
3.6170003 1.6774468 0.59549409 0
3.6160002 1.6711099 0.59543455 0
3.6140003 1.6642448 0.59531552 0
3.6120002 1.6573867 0.59519649 0
3.6110003 1.6510643 0.59513694 0
3.6020002 1.6405319 0.59460121 0
3.5970004 1.6321316 0.59430361 0
3.5950003 1.6253185 0.59418452 0
3.5930002 1.6185127 0.59406549 0
3.5920002 1.6122336 0.59400594 0
3.5920002 1.6064759 0.59400594 0
3.5920002 1.6007181 0.59400594 0
3.5930002 1.5954745 0.59406549 0
3.5950003 1.5907396 0.59418452 0
3.5960002 1.5854868 0.59424406 0
