# .PCD v0.7 - Point Cloud Data file format
VERSION 0.7
FIELDS x y z intensity
SIZE 4 4 4 4
TYPE F F F F
COUNT 1 1 1 1
WIDTH 1410
HEIGHT 1
VIEWPOINT 0 0 0 1 0 0 0
POINTS 1410
DATA ascii
4.3670001 -2.2642691 0.18217309 0
4.3630004 -2.269181 0.18239675 0
4.3590002 -2.2740784 0.18262044 0
4.3540001 -2.2783966 0.18290003 0
4.3500004 -2.2832634 0.18312368 0
4.3460002 -2.2881155 0.18334737 0
4.342 -2.2929533 0.18357104 0
4.3380003 -2.2977767 0.18379472 0
4.3330002 -2.302012 0.18407431 0
5.1040001 -1.4290736 0.13247639 0
5.0980005 -1.4357837 0.13282269 0
5.0920005 -1.4424723 0.13316903 0
5.0860004 -1.4491391 0.13351536 0
5.0800004 -1.4557844 0.13386169 0
5.0740004 -1.4624079 0.13420802 0
5.0690002 -1.4693147 0.13449663 0
5.0630002 -1.4758968 0.13484296 0
5.0570002 -1.4824572 0.13518929 0
5.0510001 -1.488996 0.13553563 0
5.0450006 -1.4955133 0.13588193 0
5.0390005 -1.5020089 0.13622826 0
5.0340004 -1.5087984 0.1365169 0
5.0280004 -1.5152524 0.13686323 0
5.0220003 -1.5216848 0.13720956 0
5.0160003 -1.5280954 0.1375559 0
5.0110002 -1.5348073 0.1378445 0
5.0050001 -1.5411767 0.13819084 0
4.9990005 -1.5475243 0.13853714 0
4.9940004 -1.5541785 0.13882577 0
4.9880004 -1.5604846 0.13917211 0
4.9820004 -1.5667691 0.13951844 0
4.9770002 -1.5733657 0.13980705 0
4.9710002 -1.5796086 0.14015338 0
4.9660001 -1.5861671 0.14044201 0
4.9600005 -1.5923688 0.14078832 0
4.9540005 -1.5985487 0.14113465 0
4.9490004 -1.6050495 0.14142326 0
4.9430003 -1.6111878 0.14176959 0
4.9380002 -1.6176509 0.14205819 0
4.9320002 -1.6237477 0.14240453 0
4.9270005 -1.6301731 0.14269313 0
4.9210005 -1.6362284 0.14303946 0
4.9160004 -1.6426157 0.14332807 0
4.9100003 -1.6486294 0.1436744 0
4.9050002 -1.6549789 0.14396304 0
4.8990002 -1.6609513 0.14430937 0
4.8940005 -1.6672629 0.14459795 0
4.8880005 -1.6731938 0.14494428 0
4.8830004 -1.6794674 0.14523289 0
4.8780003 -1.6857231 0.14552152 0
4.8720002 -1.6915926 0.14586785 0
4.8670001 -1.6978102 0.14615646 0
4.8620005 -1.70401 0.14644504 0
4.8560004 -1.7098184 0.1467914 0
4.8510003 -1.7159801 0.14708 0
4.8460002 -1.7221239 0.14736861 0
4.8400002 -1.7278708 0.14771494 0
4.8350005 -1.7339768 0.14800355 0
4.8300004 -1.7400645 0.14829215 0
4.8240004 -1.7457502 0.14863849 0
4.8190002 -1.7518001 0.14892709 0
4.8140001 -1.7578321 0.14921573 0
4.8090005 -1.763846 0.1495043 0
4.8030005 -1.7694504 0.14985064 0
4.7980003 -1.7754264 0.15013924 0
4.7930002 -1.7813843 0.15042788 0
4.7880001 -1.7873242 0.15071648 0
4.7830005 -1.7932463 0.15100509 0
4.7780004 -1.7991501 0.15129369 0
4.7720003 -1.8046337 0.15164003 0
4.7670002 -1.8104995 0.15192863 0
4.7620001 -1.8163475 0.15221727 0
4.7570004 -1.8221775 0.15250584 0
4.7520003 -1.8279893 0.15279445 0
4.7470002 -1.8337831 0.15308309 0
4.7420001 -1.839559 0.15337169 0
4.7370005 -1.8453168 0.1536603 0
4.7320004 -1.8510566 0.1539489 0
4.7270002 -1.8567781 0.15423751 0
4.7220001 -1.8624817 0.15452613 0
4.7170005 -1.8681675 0.15481472 0
4.7120004 -1.873835 0.15510334 0
4.7070003 -1.8794844 0.15539195 0
4.7020001 -1.885116 0.15568057 0
4.6970005 -1.8907295 0.15596916 0
4.6920004 -1.8963249 0.15625778 0
4.6870003 -1.9019021 0.15654638 0
4.6820002 -1.9074615 0.156835 0
4.6770005 -1.9130028 0.1571236 0
4.6720004 -1.9185262 0.1574122 0
4.6670003 -1.9240314 0.15770082 0
4.6620002 -1.9295186 0.15798944 0
4.6570001 -1.9349877 0.15827805 0
4.6530004 -1.9408844 0.15850893 0
4.6480002 -1.9463191 0.15879755 0
4.6430001 -1.9517359 0.15908615 0
4.6380005 -1.957135 0.15937474 0
4.6330004 -1.9625156 0.15966336 0
4.6280003 -1.9678783 0.15995198 0
4.6240001 -1.9736793 0.16018288 0
4.6190004 -1.9790078 0.16047147 0
4.6140003 -1.9843183 0.16076007 0
4.6090002 -1.9896106 0.1610487 0
4.6050005 -1.9953486 0.16127957 0
4.6000004 -2.0006065 0.16156818 0
4.5950003 -2.0058465 0.1618568 0
4.5900002 -2.0110686 0.16214542 0
4.5860004 -2.0167437 0.16237628 0
4.5810003 -2.0219312 0.16266491 0
4.5760002 -2.027101 0.16295351 0
4.5720005 -2.0327289 0.16318439 0
4.5670004 -2.0378644 0.16347301 0
4.5620003 -2.0429816 0.16376162 0
4.5580001 -2.0485625 0.16399252 0
4.5530005 -2.0536458 0.1642811 0
4.5480003 -2.0587108 0.16456972 0
4.5440001 -2.064245 0.16480061 0
4.5390005 -2.0692759 0.1650892 0
4.5340004 -2.0742886 0.16537783 0
4.5300002 -2.0797756 0.16560872 0
4.5250001 -2.0847542 0.16589734 0
4.5210004 -2.0902107 0.1661282 0
4.5160003 -2.095155 0.16641682 0
4.5120001 -2.1005809 0.16664772 0
4.5070004 -2.1054909 0.16693631 0
4.5030003 -2.1108861 0.16716722 0
4.4980001 -2.1157618 0.16745582 0
4.4940004 -2.1211262 0.1676867 0
4.4890003 -2.1259675 0.16797531 0
4.4850001 -2.1313016 0.16820621 0
4.4800005 -2.1361086 0.16849481 0
4.4760003 -2.1414118 0.1687257 0
4.4710002 -2.1461847 0.16901432 0
4.4670005 -2.1514573 0.16924518 0
4.4620004 -2.1561959 0.1695338 0
4.4580002 -2.1614377 0.1697647 0
4.4530001 -2.166142 0.17005332 0
4.4490004 -2.1713533 0.17028418 0
4.4450002 -2.1765499 0.17051509 0
4.4400001 -2.1812038 0.1708037 0
4.4360003 -2.1863701 0.17103457 0
4.4310002 -2.1909895 0.17132318 0
4.4270005 -2.1961253 0.17155406 0
4.4230003 -2.201246 0.17178495 0
4.4180002 -2.2058151 0.17207357 0
4.4140005 -2.2109056 0.17230444 0
4.4100003 -2.2159815 0.17253534 0
4.4050002 -2.2204998 0.17282395 0
4.4010005 -2.2255452 0.17305483 0
4.3970003 -2.230576 0.17328572 0
4.3930001 -2.2355924 0.1735166 0
4.388 -2.2400441 0.17380522 0
4.3840003 -2.2450297 0.17403612 0
4.3800001 -2.2500012 0.17426699 0
4.3759999 -2.2549579 0.17449789 0
4.3710003 -2.2593431 0.17478649 0
4.3670001 -2.2642691 0.17501737 0
4.3630004 -2.269181 0.17524827 0
4.3590002 -2.2740784 0.17547916 0
4.3540001 -2.2783966 0.17576776 0
4.3500004 -2.2832634 0.17599864 0
4.3460002 -2.2881155 0.17622955 0
4.342 -2.2929533 0.17646043 0
4.3380003 -2.2977767 0.17669131 0
4.3330002 -2.302012 0.17697993 0
5.1040001 -1.4290736 0.12399128 0
5.0980005 -1.4357837 0.1243484 0
5.0920005 -1.4424723 0.12470555 0
5.0860004 -1.4491391 0.1250627 0
5.0800004 -1.4557844 0.12541988 0
5.0740004 -1.4624079 0.12577704 0
5.0690002 -1.4693147 0.12607464 0
5.0630002 -1.4758968 0.12643182 0
5.0570002 -1.4824572 0.12678897 0
5.0510001 -1.488996 0.12714612 0
5.0450006 -1.4955133 0.12750325 0
5.0390005 -1.5020089 0.1278604 0
5.0340004 -1.5087984 0.12815803 0
5.0280004 -1.5152524 0.12851518 0
5.0220003 -1.5216848 0.12887236 0
5.0160003 -1.5280954 0.12922952 0
5.0110002 -1.5348073 0.12952715 0
5.0050001 -1.5411767 0.1298843 0
4.9990005 -1.5475243 0.13024142 0
4.9940004 -1.5541785 0.13053909 0
4.9880004 -1.5604846 0.13089624 0
4.9820004 -1.5667691 0.13125339 0
4.9770002 -1.5733657 0.13155103 0
4.9710002 -1.5796086 0.13190818 0
4.9660001 -1.5861671 0.13220581 0
4.9600005 -1.5923688 0.13256294 0
4.9540005 -1.5985487 0.13292009 0
4.9490004 -1.6050495 0.13321775 0
4.9430003 -1.6111878 0.1335749 0
4.9380002 -1.6176509 0.13387254 0
4.9320002 -1.6237477 0.13422969 0
4.9270005 -1.6301731 0.13452727 0
4.9210005 -1.6362284 0.13488445 0
4.9160004 -1.6426157 0.13518205 0
4.9100003 -1.6486294 0.13553923 0
4.9050002 -1.6549789 0.13583687 0
4.8990002 -1.6609513 0.13619405 0
4.8940005 -1.6672629 0.13649163 0
4.8880005 -1.6731938 0.13684878 0
4.8830004 -1.6794674 0.13714641 0
4.8780003 -1.6857231 0.13744408 0
4.8720002 -1.6915926 0.13780123 0
4.8670001 -1.6978102 0.13809887 0
4.8620005 -1.70401 0.13839644 0
4.8560004 -1.7098184 0.13875362 0
4.8510003 -1.7159801 0.13905123 0
4.8460002 -1.7221239 0.13934889 0
4.8400002 -1.7278708 0.13970605 0
4.8350005 -1.7339768 0.14000365 0
4.8300004 -1.7400645 0.14030129 0
4.8240004 -1.7457502 0.14065844 0
4.8190002 -1.7518001 0.14095607 0
4.8140001 -1.7578321 0.14125371 0
4.8090005 -1.763846 0.14155132 0
4.8030005 -1.7694504 0.14190847 0
4.7980003 -1.7754264 0.14220613 0
4.7930002 -1.7813843 0.14250374 0
4.7880001 -1.7873242 0.14280137 0
4.7830005 -1.7932463 0.14309898 0
4.7780004 -1.7991501 0.14339662 0
4.7720003 -1.8046337 0.1437538 0
4.7670002 -1.8104995 0.1440514 0
4.7620001 -1.8163475 0.14434904 0
4.7570004 -1.8221775 0.14464667 0
4.7520003 -1.8279893 0.14494428 0
4.7470002 -1.8337831 0.14524192 0
4.7420001 -1.839559 0.14553958 0
4.7370005 -1.8453168 0.14583716 0
4.7320004 -1.8510566 0.14613479 0
4.7270002 -1.8567781 0.14643243 0
4.7220001 -1.8624817 0.14673007 0
4.7170005 -1.8681675 0.14702767 0
4.7120004 -1.873835 0.14732531 0
4.7070003 -1.8794844 0.14762294 0
4.7020001 -1.885116 0.14792058 0
4.6970005 -1.8907295 0.14821818 0
4.6920004 -1.8963249 0.14851582 0
4.6870003 -1.9019021 0.14881346 0
4.6820002 -1.9074615 0.14911109 0
4.6770005 -1.9130028 0.1494087 0
4.6720004 -1.9185262 0.14970633 0
4.6670003 -1.9240314 0.15000397 0
4.6620002 -1.9295186 0.15030164 0
4.6570001 -1.9349877 0.15059924 0
4.6530004 -1.9408844 0.15083733 0
4.6480002 -1.9463191 0.15113497 0
4.6430001 -1.9517359 0.1514326 0
4.6380005 -1.957135 0.15173021 0
4.6330004 -1.9625156 0.15202785 0
4.6280003 -1.9678783 0.15232548 0
4.6240001 -1.9736793 0.1525636 0
4.6190004 -1.9790078 0.15286121 0
4.6140003 -1.9843183 0.15315881 0
4.6090002 -1.9896106 0.15345648 0
4.6050005 -1.9953486 0.15369454 0
4.6000004 -2.0006065 0.15399221 0
4.5950003 -2.0058465 0.15428981 0
4.5900002 -2.0110686 0.15458745 0
4.5860004 -2.0167437 0.15482554 0
4.5810003 -2.0219312 0.15512317 0
4.5760002 -2.027101 0.15542082 0
4.5720005 -2.0327289 0.1556589 0
4.5670004 -2.0378644 0.15595652 0
4.5620003 -2.0429816 0.15625417 0
4.5580001 -2.0485625 0.15649228 0
4.5530005 -2.0536458 0.15678988 0
4.5480003 -2.0587108 0.15708753 0
4.5440001 -2.064245 0.15732564 0
4.5390005 -2.0692759 0.15762323 0
4.5340004 -2.0742886 0.15792088 0
4.5300002 -2.0797756 0.15815899 0
4.5250001 -2.0847542 0.15845662 0
4.5210004 -2.0902107 0.15869471 0
4.5160003 -2.095155 0.15899235 0
4.5120001 -2.1005809 0.15923047 0
4.5070004 -2.1054909 0.15952808 0
4.5030003 -2.1108861 0.1597662 0
4.4980001 -2.1157618 0.1600638 0
4.4940004 -2.1211262 0.16030192 0
4.4890003 -2.1259675 0.16059953 0
4.4850001 -2.1313016 0.16083764 0
4.4800005 -2.1361086 0.16113526 0
4.4760003 -2.1414118 0.16137336 0
4.4710002 -2.1461847 0.16167101 0
4.4670005 -2.1514573 0.16190909 0
4.4620004 -2.1561959 0.16220674 0
4.4580002 -2.1614377 0.16244484 0
4.4530001 -2.166142 0.1627425 0
4.4490004 -2.1713533 0.16298057 0
4.4450002 -2.1765499 0.16321868 0
4.4400001 -2.1812038 0.16351633 0
4.4360003 -2.1863701 0.1637544 0
4.4310002 -2.1909895 0.16405202 0
4.4270005 -2.1961253 0.1642901 0
4.4230003 -2.201246 0.16452825 0
4.4180002 -2.2058151 0.16482586 0
4.4140005 -2.2109056 0.16506395 0
4.4100003 -2.2159815 0.16530208 0
4.4050002 -2.2204998 0.16559969 0
4.4010005 -2.2255452 0.16583778 0
4.3970003 -2.230576 0.16607592 0
4.3930001 -2.2355924 0.16631399 0
4.388 -2.2400441 0.16661164 0
4.3840003 -2.2450297 0.16684975 0
4.3800001 -2.2500012 0.16708784 0
4.3759999 -2.2549579 0.16732594 0
4.3710003 -2.2593431 0.16762358 0
4.3670001 -2.2642691 0.16786167 0
4.3630004 -2.269181 0.16809978 0
4.3590002 -2.2740784 0.16833788 0
4.3540001 -2.2783966 0.1686355 0
4.3500004 -2.2832634 0.16887361 0
4.3460002 -2.2881155 0.16911171 0
4.342 -2.2929533 0.16934983 0
4.3380003 -2.2977767 0.16958791 0
4.3330002 -2.302012 0.16988556 0
5.1040001 -1.4290736 0.11550614 0
5.0980005 -1.4357837 0.11587411 0
5.0920005 -1.4424723 0.11624208 0
5.0860004 -1.4491391 0.11661008 0
5.0800004 -1.4557844 0.11697805 0
5.0740004 -1.4624079 0.11734602 0
5.0690002 -1.4693147 0.11765268 0
5.0630002 -1.4758968 0.11802065 0
5.0570002 -1.4824572 0.11838865 0
5.0510001 -1.488996 0.11875662 0
5.0450006 -1.4955133 0.11912456 0
5.0390005 -1.5020089 0.11949256 0
5.0340004 -1.5087984 0.1197992 0
5.0280004 -1.5152524 0.1201672 0
5.0220003 -1.5216848 0.12053517 0
5.0160003 -1.5280954 0.12090313 0
5.0110002 -1.5348073 0.1212098 0
5.0050001 -1.5411767 0.12157777 0
4.9990005 -1.5475243 0.12194574 0
4.9940004 -1.5541785 0.12225237 0
4.9880004 -1.5604846 0.12262037 0
4.9820004 -1.5667691 0.12298834 0
4.9770002 -1.5733657 0.12329498 0
4.9710002 -1.5796086 0.12366298 0
4.9660001 -1.5861671 0.12396961 0
4.9600005 -1.5923688 0.12433758 0
4.9540005 -1.5985487 0.12470555 0
4.9490004 -1.6050495 0.12501219 0
4.9430003 -1.6111878 0.12538019 0
4.9380002 -1.6176509 0.12568682 0
4.9320002 -1.6237477 0.12605482 0
4.9270005 -1.6301731 0.12636146 0
4.9210005 -1.6362284 0.1267294 0
4.9160004 -1.6426157 0.12703609 0
4.9100003 -1.6486294 0.12740406 0
4.9050002 -1.6549789 0.12771073 0
4.8990002 -1.6609513 0.1280787 0
4.8940005 -1.6672629 0.12838531 0
4.8880005 -1.6731938 0.1287533 0
4.8830004 -1.6794674 0.12905994 0
4.8780003 -1.6857231 0.12936661 0
4.8720002 -1.6915926 0.12973458 0
4.8670001 -1.6978102 0.13004124 0
4.8620005 -1.70401 0.13034788 0
4.8560004 -1.7098184 0.13071585 0
4.8510003 -1.7159801 0.13102248 0
4.8460002 -1.7221239 0.13132915 0
4.8400002 -1.7278708 0.13169712 0
4.8350005 -1.7339768 0.13200375 0
4.8300004 -1.7400645 0.13231042 0
4.8240004 -1.7457502 0.13267839 0
4.8190002 -1.7518001 0.13298506 0
4.8140001 -1.7578321 0.13329169 0
4.8090005 -1.763846 0.13359833 0
4.8030005 -1.7694504 0.1339663 0
4.7980003 -1.7754264 0.13427296 0
4.7930002 -1.7813843 0.13457963 0
4.7880001 -1.7873242 0.13488626 0
4.7830005 -1.7932463 0.13519287 0
4.7780004 -1.7991501 0.13549957 0
4.7720003 -1.8046337 0.13586754 0
4.7670002 -1.8104995 0.1361742 0
4.7620001 -1.8163475 0.13648084 0
4.7570004 -1.8221775 0.13678744 0
4.7520003 -1.8279893 0.13709414 0
4.7470002 -1.8337831 0.13740078 0
4.7420001 -1.839559 0.13770741 0
4.7370005 -1.8453168 0.13801405 0
4.7320004 -1.8510566 0.13832071 0
4.7270002 -1.8567781 0.13862735 0
4.7220001 -1.8624817 0.13893402 0
4.7170005 -1.8681675 0.13924062 0
4.7120004 -1.873835 0.13954732 0
4.7070003 -1.8794844 0.13985395 0
4.7020001 -1.885116 0.14016059 0
4.6970005 -1.8907295 0.14046723 0
4.6920004 -1.8963249 0.14077389 0
4.6870003 -1.9019021 0.14108053 0
4.6820002 -1.9074615 0.14138719 0
4.6770005 -1.9130028 0.1416938 0
4.6720004 -1.9185262 0.14200047 0
4.6670003 -1.9240314 0.14230713 0
4.6620002 -1.9295186 0.14261377 0
4.6570001 -1.9349877 0.1429204 0
4.6530004 -1.9408844 0.14316574 0
4.6480002 -1.9463191 0.14347237 0
4.6430001 -1.9517359 0.14377907 0
4.6380005 -1.957135 0.14408568 0
4.6330004 -1.9625156 0.14439231 0
4.6280003 -1.9678783 0.14469898 0
4.6240001 -1.9736793 0.14494431 0
4.6190004 -1.9790078 0.14525092 0
4.6140003 -1.9843183 0.14555758 0
4.6090002 -1.9896106 0.14586425 0
4.6050005 -1.9953486 0.14610952 0
4.6000004 -2.0006065 0.14641622 0
4.5950003 -2.0058465 0.14672285 0
4.5900002 -2.0110686 0.14702949 0
4.5860004 -2.0167437 0.14727482 0
4.5810003 -2.0219312 0.14758146 0
4.5760002 -2.027101 0.14788809 0
4.5720005 -2.0327289 0.14813343 0
4.5670004 -2.0378644 0.14844006 0
4.5620003 -2.0429816 0.1487467 0
4.5580001 -2.0485625 0.14899206 0
4.5530005 -2.0536458 0.14929867 0
4.5480003 -2.0587108 0.14960533 0
4.5440001 -2.064245 0.14985067 0
4.5390005 -2.0692759 0.15015727 0
4.5340004 -2.0742886 0.15046394 0
4.5300002 -2.0797756 0.15070927 0
4.5250001 -2.0847542 0.15101591 0
4.5210004 -2.0902107 0.15126121 0
4.5160003 -2.095155 0.15156788 0
4.5120001 -2.1005809 0.15181321 0
4.5070004 -2.1054909 0.15211982 0
4.5030003 -2.1108861 0.15236518 0
4.4980001 -2.1157618 0.15267181 0
4.4940004 -2.1211262 0.15291712 0
4.4890003 -2.1259675 0.15322378 0
4.4850001 -2.1313016 0.15346912 0
4.4800005 -2.1361086 0.15377572 0
4.4760003 -2.1414118 0.15402104 0
4.4710002 -2.1461847 0.15432771 0
4.4670005 -2.1514573 0.15457301 0
4.4620004 -2.1561959 0.15487967 0
4.4580002 -2.1614377 0.15512499 0
4.4530001 -2.166142 0.15543164 0
4.4490004 -2.1713533 0.15567693 0
4.4450002 -2.1765499 0.15592228 0
4.4400001 -2.1812038 0.15622893 0
4.4360003 -2.1863701 0.15647422 0
4.4310002 -2.1909895 0.15678088 0
4.4270005 -2.1961253 0.15702619 0
4.4230003 -2.201246 0.1572715 0
4.4180002 -2.2058151 0.15757817 0
4.4140005 -2.2109056 0.15782347 0
4.4100003 -2.2159815 0.15806879 0
4.4050002 -2.2204998 0.15837546 0
4.4010005 -2.2255452 0.15862076 0
4.3970003 -2.230576 0.15886608 0
4.3930001 -2.2355924 0.1591114 0
4.388 -2.2400441 0.15941805 0
4.3840003 -2.2450297 0.15966336 0
4.3800001 -2.2500012 0.15990868 0
4.3759999 -2.2549579 0.160154 0
4.3710003 -2.2593431 0.16046065 0
4.3670001 -2.2642691 0.16070597 0
4.3630004 -2.269181 0.16095129 0
4.3590002 -2.2740784 0.1611966 0
4.3540001 -2.2783966 0.16150326 0
4.3500004 -2.2832634 0.16174857 0
4.3460002 -2.2881155 0.16199389 0
4.342 -2.2929533 0.16223921 0
4.3380003 -2.2977767 0.16248451 0
4.3330002 -2.302012 0.16279118 0
5.1040001 -1.4290736 0.10702103 0
5.0980005 -1.4357837 0.10739982 0
5.0920005 -1.4424723 0.10777861 0
5.0860004 -1.4491391 0.10815743 0
5.0800004 -1.4557844 0.10853621 0
5.0740004 -1.4624079 0.10891503 0
5.0690002 -1.4693147 0.1092307 0
5.0630002 -1.4758968 0.10960951 0
5.0570002 -1.4824572 0.1099883 0
5.0510001 -1.488996 0.11036709 0
5.0450006 -1.4955133 0.11074588 0
5.0390005 -1.5020089 0.11112466 0
5.0340004 -1.5087984 0.11144033 0
5.0280004 -1.5152524 0.11181915 0
5.0220003 -1.5216848 0.11219797 0
5.0160003 -1.5280954 0.11257675 0
5.0110002 -1.5348073 0.11289242 0
5.0050001 -1.5411767 0.11327124 0
4.9990005 -1.5475243 0.11365002 0
4.9940004 -1.5541785 0.11396569 0
4.9880004 -1.5604846 0.11434448 0
4.9820004 -1.5667691 0.11472329 0
4.9770002 -1.5733657 0.11503896 0
4.9710002 -1.5796086 0.11541778 0
4.9660001 -1.5861671 0.11573344 0
4.9600005 -1.5923688 0.1161122 0
4.9540005 -1.5985487 0.11649102 0
4.9490004 -1.6050495 0.11680669 0
4.9430003 -1.6111878 0.1171855 0
4.9380002 -1.6176509 0.11750117 0
4.9320002 -1.6237477 0.11787999 0
4.9270005 -1.6301731 0.11819562 0
4.9210005 -1.6362284 0.11857441 0
4.9160004 -1.6426157 0.11889008 0
4.9100003 -1.6486294 0.11926889 0
4.9050002 -1.6549789 0.11958456 0
4.8990002 -1.6609513 0.11996338 0
4.8940005 -1.6672629 0.12027901 0
4.8880005 -1.6731938 0.1206578 0
4.8830004 -1.6794674 0.12097347 0
4.8780003 -1.6857231 0.12128913 0
4.8720002 -1.6915926 0.12166795 0
4.8670001 -1.6978102 0.12198362 0
4.8620005 -1.70401 0.12229928 0
4.8560004 -1.7098184 0.12267807 0
4.8510003 -1.7159801 0.12299377 0
4.8460002 -1.7221239 0.12330943 0
4.8400002 -1.7278708 0.12368822 0
4.8350005 -1.7339768 0.12400386 0
4.8300004 -1.7400645 0.12431952 0
4.8240004 -1.7457502 0.12469834 0
4.8190002 -1.7518001 0.12501401 0
4.8140001 -1.7578321 0.12532967 0
4.8090005 -1.763846 0.12564534 0
4.8030005 -1.7694504 0.12602413 0
4.7980003 -1.7754264 0.12633982 0
4.7930002 -1.7813843 0.12665549 0
4.7880001 -1.7873242 0.12697116 0
4.7830005 -1.7932463 0.12728679 0
4.7780004 -1.7991501 0.12760246 0
4.7720003 -1.8046337 0.12798128 0
4.7670002 -1.8104995 0.12829694 0
4.7620001 -1.8163475 0.12861264 0
4.7570004 -1.8221775 0.12892827 0
4.7520003 -1.8279893 0.12924394 0
4.7470002 -1.8337831 0.12955961 0
4.7420001 -1.839559 0.1298753 0
4.7370005 -1.8453168 0.13019094 0
4.7320004 -1.8510566 0.1305066 0
4.7270002 -1.8567781 0.13082227 0
4.7220001 -1.8624817 0.13113794 0
4.7170005 -1.8681675 0.1314536 0
4.7120004 -1.873835 0.13176927 0
4.7070003 -1.8794844 0.13208494 0
4.7020001 -1.885116 0.1324006 0
4.6970005 -1.8907295 0.13271624 0
4.6920004 -1.8963249 0.13303193 0
4.6870003 -1.9019021 0.1333476 0
4.6820002 -1.9074615 0.1336633 0
4.6770005 -1.9130028 0.13397893 0
4.6720004 -1.9185262 0.1342946 0
4.6670003 -1.9240314 0.1346103 0
4.6620002 -1.9295186 0.13492596 0
4.6570001 -1.9349877 0.13524163 0
4.6530004 -1.9408844 0.13549414 0
4.6480002 -1.9463191 0.13580981 0
4.6430001 -1.9517359 0.13612548 0
4.6380005 -1.957135 0.13644111 0
4.6330004 -1.9625156 0.13675681 0
4.6280003 -1.9678783 0.13707247 0
4.6240001 -1.9736793 0.13732502 0
4.6190004 -1.9790078 0.13764066 0
4.6140003 -1.9843183 0.13795635 0
4.6090002 -1.9896106 0.13827202 0
4.6050005 -1.9953486 0.1385245 0
4.6000004 -2.0006065 0.1388402 0
4.5950003 -2.0058465 0.13915586 0
4.5900002 -2.0110686 0.13947153 0
4.5860004 -2.0167437 0.13972408 0
4.5810003 -2.0219312 0.14003974 0
4.5760002 -2.027101 0.14035541 0
4.5720005 -2.0327289 0.14060792 0
4.5670004 -2.0378644 0.14092359 0
4.5620003 -2.0429816 0.14123926 0
4.5580001 -2.0485625 0.14149183 0
4.5530005 -2.0536458 0.14180747 0
4.5480003 -2.0587108 0.14212313 0
4.5440001 -2.064245 0.14237568 0
4.5390005 -2.0692759 0.14269131 0
4.5340004 -2.0742886 0.14300698 0
4.5300002 -2.0797756 0.14325956 0
4.5250001 -2.0847542 0.14357522 0
4.5210004 -2.0902107 0.14382771 0
4.5160003 -2.095155 0.1441434 0
4.5120001 -2.1005809 0.14439595 0
4.5070004 -2.1054909 0.14471158 0
4.5030003 -2.1108861 0.14496413 0
4.4980001 -2.1157618 0.14527979 0
4.4940004 -2.1211262 0.14553234 0
4.4890003 -2.1259675 0.14584801 0
4.4850001 -2.1313016 0.14610052 0
4.4800005 -2.1361086 0.14641619 0
4.4760003 -2.1414118 0.14666873 0
4.4710002 -2.1461847 0.1469844 0
4.4670005 -2.1514573 0.14723691 0
4.4620004 -2.1561959 0.14755258 0
4.4580002 -2.1614377 0.14780515 0
4.4530001 -2.166142 0.14812082 0
4.4490004 -2.1713533 0.14837334 0
4.4450002 -2.1765499 0.14862588 0
4.4400001 -2.1812038 0.14894155 0
4.4360003 -2.1863701 0.14919406 0
4.4310002 -2.1909895 0.14950973 0
4.4270005 -2.1961253 0.14976227 0
4.4230003 -2.201246 0.15001479 0
4.4180002 -2.2058151 0.15033045 0
4.4140005 -2.2109056 0.15058297 0
4.4100003 -2.2159815 0.15083554 0
4.4050002 -2.2204998 0.15115121 0
4.4010005 -2.2255452 0.1514037 0
4.3970003 -2.230576 0.15165627 0
4.3930001 -2.2355924 0.15190879 0
4.388 -2.2400441 0.15222448 0
4.3840003 -2.2450297 0.152477 0
4.3800001 -2.2500012 0.15272954 0
4.3759999 -2.2549579 0.15298206 0
4.3710003 -2.2593431 0.15329775 0
4.3670001 -2.2642691 0.15355027 0
4.3630004 -2.269181 0.15380278 0
4.3590002 -2.2740784 0.15405533 0
4.3540001 -2.2783966 0.15437098 0
4.3500004 -2.2832634 0.15462351 0
4.3460002 -2.2881155 0.15487607 0
4.342 -2.2929533 0.1551286 0
4.3380003 -2.2977767 0.15538113 0
4.3330002 -2.302012 0.15569681 0
5.1040001 -1.4290736 0.098535925 0
5.0980005 -1.4357837 0.098925501 0
5.0920005 -1.4424723 0.099315137 0
5.0860004 -1.4491391 0.099704772 0
5.0800004 -1.4557844 0.10009441 0
5.0740004 -1.4624079 0.10048401 0
5.0690002 -1.4693147 0.10080874 0
5.0630002 -1.4758968 0.10119832 0
5.0570002 -1.4824572 0.10158795 0
5.0510001 -1.488996 0.10197759 0
5.0450006 -1.4955133 0.10236719 0
5.0390005 -1.5020089 0.10275683 0
5.0340004 -1.5087984 0.10308152 0
5.0280004 -1.5152524 0.10347113 0
5.0220003 -1.5216848 0.10386074 0
5.0160003 -1.5280954 0.10425037 0
5.0110002 -1.5348073 0.10457507 0
5.0050001 -1.5411767 0.1049647 0
4.9990005 -1.5475243 0.10535431 0
4.9940004 -1.5541785 0.10567898 0
4.9880004 -1.5604846 0.10606861 0
4.9820004 -1.5667691 0.10645825 0
4.9770002 -1.5733657 0.10678294 0
4.9710002 -1.5796086 0.10717255 0
4.9660001 -1.5861671 0.10749725 0
4.9600005 -1.5923688 0.10788682 0
4.9540005 -1.5985487 0.10827646 0
4.9490004 -1.6050495 0.10860115 0
4.9430003 -1.6111878 0.10899079 0
4.9380002 -1.6176509 0.10931545 0
4.9320002 -1.6237477 0.10970509 0
4.9270005 -1.6301731 0.11002976 0
4.9210005 -1.6362284 0.11041939 0
4.9160004 -1.6426157 0.11074409 0
4.9100003 -1.6486294 0.11113369 0
4.9050002 -1.6549789 0.11145839 0
4.8990002 -1.6609513 0.11184803 0
4.8940005 -1.6672629 0.11217269 0
4.8880005 -1.6731938 0.11256233 0
4.8830004 -1.6794674 0.112887 0
4.8780003 -1.6857231 0.11321169 0
4.8720002 -1.6915926 0.11360133 0
4.8670001 -1.6978102 0.11392602 0
4.8620005 -1.70401 0.11425066 0
4.8560004 -1.7098184 0.1146403 0
4.8510003 -1.7159801 0.11496499 0
4.8460002 -1.7221239 0.11528969 0
4.8400002 -1.7278708 0.11567932 0
4.8350005 -1.7339768 0.11600396 0
4.8300004 -1.7400645 0.11632866 0
4.8240004 -1.7457502 0.11671829 0
4.8190002 -1.7518001 0.11704299 0
4.8140001 -1.7578321 0.11736768 0
4.8090005 -1.763846 0.11769235 0
4.8030005 -1.7694504 0.11808199 0
4.7980003 -1.7754264 0.11840668 0
4.7930002 -1.7813843 0.11873135 0
4.7880001 -1.7873242 0.11905605 0
4.7830005 -1.7932463 0.11938071 0
4.7780004 -1.7991501 0.11970541 0
4.7720003 -1.8046337 0.12009501 0
4.7670002 -1.8104995 0.12041971 0
4.7620001 -1.8163475 0.12074441 0
4.7570004 -1.8221775 0.12106907 0
4.7520003 -1.8279893 0.12139377 0
4.7470002 -1.8337831 0.12171847 0
4.7420001 -1.839559 0.12204316 0
4.7370005 -1.8453168 0.1223678 0
4.7320004 -1.8510566 0.1226925 0
4.7270002 -1.8567781 0.12301719 0
4.7220001 -1.8624817 0.12334192 0
4.7170005 -1.8681675 0.12366655 0
4.7120004 -1.873835 0.12399125 0
4.7070003 -1.8794844 0.12431595 0
4.7020001 -1.885116 0.12464061 0
4.6970005 -1.8907295 0.12496528 0
4.6920004 -1.8963249 0.12529001 0
4.6870003 -1.9019021 0.1256147 0
4.6820002 -1.9074615 0.12593937 0
4.6770005 -1.9130028 0.12626404 0
4.6720004 -1.9185262 0.12658873 0
4.6670003 -1.9240314 0.12691343 0
4.6620002 -1.9295186 0.12723812 0
4.6570001 -1.9349877 0.12756282 0
4.6530004 -1.9408844 0.12782255 0
4.6480002 -1.9463191 0.12814721 0
4.6430001 -1.9517359 0.12847191 0
4.6380005 -1.957135 0.12879661 0
4.6330004 -1.9625156 0.12912127 0
4.6280003 -1.9678783 0.12944597 0
4.6240001 -1.9736793 0.12970573 0
4.6190004 -1.9790078 0.13003039 0
4.6140003 -1.9843183 0.13035509 0
4.6090002 -1.9896106 0.13067979 0
4.6050005 -1.9953486 0.13093951 0
4.6000004 -2.0006065 0.13126421 0
4.5950003 -2.0058465 0.13158891 0
4.5900002 -2.0110686 0.1319136 0
4.5860004 -2.0167437 0.13217333 0
4.5810003 -2.0219312 0.13249803 0
4.5760002 -2.027101 0.13282272 0
4.5720005 -2.0327289 0.13308242 0
4.5670004 -2.0378644 0.13340712 0
4.5620003 -2.0429816 0.13373184 0
4.5580001 -2.0485625 0.13399157 0
4.5530005 -2.0536458 0.13431624 0
4.5480003 -2.0587108 0.13464093 0
4.5440001 -2.064245 0.13490069 0
4.5390005 -2.0692759 0.13522536 0
4.5340004 -2.0742886 0.13555005 0
4.5300002 -2.0797756 0.13580981 0
4.5250001 -2.0847542 0.13613451 0
4.5210004 -2.0902107 0.13639423 0
4.5160003 -2.095155 0.13671893 0
4.5120001 -2.1005809 0.13697869 0
4.5070004 -2.1054909 0.13730332 0
4.5030003 -2.1108861 0.13756311 0
4.4980001 -2.1157618 0.13788781 0
4.4940004 -2.1211262 0.13814753 0
4.4890003 -2.1259675 0.13847223 0
4.4850001 -2.1313016 0.13873199 0
4.4800005 -2.1361086 0.13905662 0
4.4760003 -2.1414118 0.13931641 0
4.4710002 -2.1461847 0.13964111 0
4.4670005 -2.1514573 0.13990083 0
4.4620004 -2.1561959 0.14022553 0
4.4580002 -2.1614377 0.14048529 0
4.4530001 -2.166142 0.14080995 0
4.4490004 -2.1713533 0.14106971 0
4.4450002 -2.1765499 0.14132947 0
4.4400001 -2.1812038 0.14165416 0
4.4360003 -2.1863701 0.14191389 0
4.4310002 -2.1909895 0.14223859 0
4.4270005 -2.1961253 0.14249831 0
4.4230003 -2.201246 0.14275807 0
4.4180002 -2.2058151 0.14308277 0
4.4140005 -2.2109056 0.14334249 0
4.4100003 -2.2159815 0.14360225 0
4.4050002 -2.2204998 0.14392695 0
4.4010005 -2.2255452 0.14418668 0
4.3970003 -2.230576 0.14444643 0
4.3930001 -2.2355924 0.14470616 0
4.388 -2.2400441 0.14503086 0
4.3840003 -2.2450297 0.14529061 0
4.3800001 -2.2500012 0.14555037 0
4.3759999 -2.2549579 0.14581013 0
4.3710003 -2.2593431 0.14613479 0
4.3670001 -2.2642691 0.14639455 0
4.3630004 -2.269181 0.14665428 0
4.3590002 -2.2740784 0.14691406 0
4.3540001 -2.2783966 0.14723873 0
4.3500004 -2.2832634 0.14749849 0
4.3460002 -2.2881155 0.14775825 0
4.342 -2.2929533 0.148018 0
4.3380003 -2.2977767 0.14827773 0
4.3330002 -2.302012 0.14860243 0
5.1040001 -1.4290736 0.090050817 0
5.0980005 -1.4357837 0.090451211 0
5.0920005 -1.4424723 0.090851665 0
5.0860004 -1.4491391 0.091252118 0
5.0800004 -1.4557844 0.091652602 0
5.0740004 -1.4624079 0.092053026 0
5.0690002 -1.4693147 0.092386723 0
5.0630002 -1.4758968 0.092787176 0
5.0570002 -1.4824572 0.09318763 0
5.0510001 -1.488996 0.093588084 0
5.0450006 -1.4955133 0.093988478 0
5.0390005 -1.5020089 0.094388932 0
5.0340004 -1.5087984 0.094722658 0
5.0280004 -1.5152524 0.095123112 0
5.0220003 -1.5216848 0.095523566 0
5.0160003 -1.5280954 0.09592399 0
5.0110002 -1.5348073 0.096257716 0
5.0050001 -1.5411767 0.09665817 0
4.9990005 -1.5475243 0.097058594 0
4.9940004 -1.5541785 0.097392291 0
4.9880004 -1.5604846 0.097792745 0
4.9820004 -1.5667691 0.098193169 0
4.9770002 -1.5733657 0.098526895 0
4.9710002 -1.5796086 0.098927349 0
4.9660001 -1.5861671 0.099261045 0
4.9600005 -1.5923688 0.099661469 0
4.9540005 -1.5985487 0.10006192 0
4.9490004 -1.6050495 0.10039565 0
4.9430003 -1.6111878 0.1007961 0
4.9380002 -1.6176509 0.1011298 0
4.9320002 -1.6237477 0.10153022 0
4.9270005 -1.6301731 0.10186392 0
4.9210005 -1.6362284 0.10226437 0
4.9160004 -1.6426157 0.10259807 0
4.9100003 -1.6486294 0.10299852 0
4.9050002 -1.6549789 0.10333225 0
4.8990002 -1.6609513 0.10373271 0
4.8940005 -1.6672629 0.10406637 0
4.8880005 -1.6731938 0.10446683 0
4.8830004 -1.6794674 0.10480052 0
4.8780003 -1.6857231 0.10513425 0
4.8720002 -1.6915926 0.1055347 0
4.8670001 -1.6978102 0.1058684 0
4.8620005 -1.70401 0.1062021 0
4.8560004 -1.7098184 0.10660255 0
4.8510003 -1.7159801 0.10693625 0
4.8460002 -1.7221239 0.10726997 0
4.8400002 -1.7278708 0.10767043 0
4.8350005 -1.7339768 0.10800409 0
4.8300004 -1.7400645 0.10833782 0
4.8240004 -1.7457502 0.10873827 0
4.8190002 -1.7518001 0.10907197 0
4.8140001 -1.7578321 0.10940567 0
4.8090005 -1.763846 0.10973936 0
4.8030005 -1.7694504 0.11013982 0
4.7980003 -1.7754264 0.11047351 0
4.7930002 -1.7813843 0.11080724 0
4.7880001 -1.7873242 0.11114094 0
4.7830005 -1.7932463 0.1114746 0
4.7780004 -1.7991501 0.11180833 0
4.7720003 -1.8046337 0.11220878 0
4.7670002 -1.8104995 0.11254248 0
4.7620001 -1.8163475 0.11287621 0
4.7570004 -1.8221775 0.11320987 0
4.7520003 -1.8279893 0.1135436 0
4.7470002 -1.8337831 0.1138773 0
4.7420001 -1.839559 0.11421099 0
4.7370005 -1.8453168 0.11454472 0
4.7320004 -1.8510566 0.11487842 0
4.7270002 -1.8567781 0.11521214 0
4.7220001 -1.8624817 0.11554584 0
4.7170005 -1.8681675 0.11587951 0
4.7120004 -1.873835 0.11621323 0
4.7070003 -1.8794844 0.11654693 0
4.7020001 -1.885116 0.11688066 0
4.6970005 -1.8907295 0.11721432 0
4.6920004 -1.8963249 0.11754805 0
4.6870003 -1.9019021 0.11788177 0
4.6820002 -1.9074615 0.11821547 0
4.6770005 -1.9130028 0.11854914 0
4.6720004 -1.9185262 0.11888286 0
4.6670003 -1.9240314 0.11921656 0
4.6620002 -1.9295186 0.11955029 0
4.6570001 -1.9349877 0.11988398 0
4.6530004 -1.9408844 0.12015095 0
4.6480002 -1.9463191 0.12048465 0
4.6430001 -1.9517359 0.12081838 0
4.6380005 -1.957135 0.12115204 0
4.6330004 -1.9625156 0.12148574 0
4.6280003 -1.9678783 0.12181947 0
4.6240001 -1.9736793 0.12208647 0
4.6190004 -1.9790078 0.12242013 0
4.6140003 -1.9843183 0.12275383 0
4.6090002 -1.9896106 0.12308756 0
4.6050005 -1.9953486 0.12335449 0
4.6000004 -2.0006065 0.12368822 0
4.5950003 -2.0058465 0.12402192 0
4.5900002 -2.0110686 0.12435564 0
4.5860004 -2.0167437 0.12462255 0
4.5810003 -2.0219312 0.12495628 0
4.5760002 -2.027101 0.12529001 0
4.5720005 -2.0327289 0.12555695 0
4.5670004 -2.0378644 0.12589064 0
4.5620003 -2.0429816 0.12622437 0
4.5580001 -2.0485625 0.12649137 0
4.5530005 -2.0536458 0.12682503 0
4.5480003 -2.0587108 0.12715873 0
4.5440001 -2.064245 0.1274257 0
4.5390005 -2.0692759 0.1277594 0
4.5340004 -2.0742886 0.12809312 0
4.5300002 -2.0797756 0.12836009 0
4.5250001 -2.0847542 0.12869379 0
4.5210004 -2.0902107 0.12896076 0
4.5160003 -2.095155 0.12929446 0
4.5120001 -2.1005809 0.12956142 0
4.5070004 -2.1054909 0.12989509 0
4.5030003 -2.1108861 0.13016209 0
4.4980001 -2.1157618 0.13049579 0
4.4940004 -2.1211262 0.13076276 0
4.4890003 -2.1259675 0.13109645 0
4.4850001 -2.1313016 0.13136342 0
4.4800005 -2.1361086 0.13169709 0
4.4760003 -2.1414118 0.13196409 0
4.4710002 -2.1461847 0.13229781 0
4.4670005 -2.1514573 0.13256472 0
4.4620004 -2.1561959 0.13289845 0
4.4580002 -2.1614377 0.13316545 0
4.4530001 -2.166142 0.13349915 0
4.4490004 -2.1713533 0.13376608 0
4.4450002 -2.1765499 0.13403305 0
4.4400001 -2.1812038 0.13436678 0
4.4360003 -2.1863701 0.13463372 0
4.4310002 -2.1909895 0.13496745 0
4.4270005 -2.1961253 0.13523436 0
4.4230003 -2.201246 0.13550135 0
4.4180002 -2.2058151 0.13583508 0
4.4140005 -2.2109056 0.13610199 0
4.4100003 -2.2159815 0.13636899 0
4.4050002 -2.2204998 0.13670272 0
4.4010005 -2.2255452 0.13696963 0
4.3970003 -2.230576 0.13723662 0
4.3930001 -2.2355924 0.13750356 0
4.388 -2.2400441 0.13783729 0
4.3840003 -2.2450297 0.13810426 0
4.3800001 -2.2500012 0.1383712 0
4.3759999 -2.2549579 0.1386382 0
4.3710003 -2.2593431 0.13897189 0
4.3670001 -2.2642691 0.13923883 0
4.3630004 -2.269181 0.1395058 0
4.3590002 -2.2740784 0.13977277 0
4.3540001 -2.2783966 0.14010647 0
4.3500004 -2.2832634 0.14037344 0
4.3460002 -2.2881155 0.14064041 0
4.342 -2.2929533 0.14090738 0
4.3380003 -2.2977767 0.14117432 0
4.3330002 -2.302012 0.14150804 0
5.1040001 -1.4290736 0.081565708 0
5.0980005 -1.4357837 0.08197695 0
5.0920005 -1.4424723 0.082388192 0
5.0860004 -1.4491391 0.082799494 0
5.0800004 -1.4557844 0.083210766 0
5.0740004 -1.4624079 0.083622009 0
5.0690002 -1.4693147 0.083964735 0
5.0630002 -1.4758968 0.084376037 0
5.0570002 -1.4824572 0.084787309 0
5.0510001 -1.488996 0.085198551 0
5.0450006 -1.4955133 0.085609823 0
5.0390005 -1.5020089 0.086021096 0
5.0340004 -1.5087984 0.086363822 0
5.0280004 -1.5152524 0.086775064 0
5.0220003 -1.5216848 0.087186366 0
5.0160003 -1.5280954 0.087597638 0
5.0110002 -1.5348073 0.087940365 0
5.0050001 -1.5411767 0.088351607 0
4.9990005 -1.5475243 0.08876285 0
4.9940004 -1.5541785 0.089105606 0
4.9880004 -1.5604846 0.089516878 0
4.9820004 -1.5667691 0.08992812 0
4.9770002 -1.5733657 0.090270847 0
4.9710002 -1.5796086 0.090682149 0
4.9660001 -1.5861671 0.091024876 0
4.9600005 -1.5923688 0.091436118 0
4.9540005 -1.5985487 0.09184739 0
4.9490004 -1.6050495 0.092190117 0
4.9430003 -1.6111878 0.092601389 0
4.9380002 -1.6176509 0.092944115 0
4.9320002 -1.6237477 0.093355387 0
4.9270005 -1.6301731 0.093698084 0
4.9210005 -1.6362284 0.094109356 0
4.9160004 -1.6426157 0.094452083 0
4.9100003 -1.6486294 0.094863355 0
4.9050002 -1.6549789 0.095206082 0
4.8990002 -1.6609513 0.095617354 0
4.8940005 -1.6672629 0.095960051 0
4.8880005 -1.6731938 0.096371323 0
4.8830004 -1.6794674 0.096714079 0
4.8780003 -1.6857231 0.097056806 0
4.8720002 -1.6915926 0.097468078 0
4.8670001 -1.6978102 0.097810805 0
4.8620005 -1.70401 0.098153502 0
4.8560004 -1.7098184 0.098564744 0
4.8510003 -1.7159801 0.098907501 0
4.8460002 -1.7221239 0.099250227 0
4.8400002 -1.7278708 0.099661499 0
4.8350005 -1.7339768 0.1000042 0
4.8300004 -1.7400645 0.10034692 0
4.8240004 -1.7457502 0.10075819 0
4.8190002 -1.7518001 0.10110092 0
4.8140001 -1.7578321 0.10144368 0
4.8090005 -1.763846 0.10178635 0
4.8030005 -1.7694504 0.10219765 0
4.7980003 -1.7754264 0.10254037 0
4.7930002 -1.7813843 0.1028831 0
4.7880001 -1.7873242 0.10322583 0
4.7830005 -1.7932463 0.10356852 0
4.7780004 -1.7991501 0.10391125 0
4.7720003 -1.8046337 0.10432255 0
4.7670002 -1.8104995 0.10466528 0
4.7620001 -1.8163475 0.10500801 0
4.7570004 -1.8221775 0.1053507 0
4.7520003 -1.8279893 0.10569343 0
4.7470002 -1.8337831 0.10603616 0
4.7420001 -1.839559 0.10637888 0
4.7370005 -1.8453168 0.10672158 0
4.7320004 -1.8510566 0.10706431 0
4.7270002 -1.8567781 0.10740703 0
4.7220001 -1.8624817 0.10774976 0
4.7170005 -1.8681675 0.10809246 0
4.7120004 -1.873835 0.10843518 0
4.7070003 -1.8794844 0.10877794 0
4.7020001 -1.885116 0.10912067 0
4.6970005 -1.8907295 0.10946336 0
4.6920004 -1.8963249 0.10980612 0
4.6870003 -1.9019021 0.11014885 0
4.6820002 -1.9074615 0.11049157 0
4.6770005 -1.9130028 0.11083427 0
4.6720004 -1.9185262 0.111177 0
4.6670003 -1.9240314 0.11151972 0
4.6620002 -1.9295186 0.11186245 0
4.6570001 -1.9349877 0.11220521 0
4.6530004 -1.9408844 0.11247933 0
4.6480002 -1.9463191 0.11282206 0
4.6430001 -1.9517359 0.11316478 0
4.6380005 -1.957135 0.11350751 0
4.6330004 -1.9625156 0.11385027 0
4.6280003 -1.9678783 0.11419299 0
4.6240001 -1.9736793 0.11446717 0
4.6190004 -1.9790078 0.11480987 0
4.6140003 -1.9843183 0.1151526 0
4.6090002 -1.9896106 0.11549532 0
4.6050005 -1.9953486 0.11576951 0
4.6000004 -2.0006065 0.11611223 0
4.5950003 -2.0058465 0.11645496 0
4.5900002 -2.0110686 0.11679769 0
4.5860004 -2.0167437 0.11707184 0
4.5810003 -2.0219312 0.11741456 0
4.5760002 -2.027101 0.11775729 0
4.5720005 -2.0327289 0.11803147 0
4.5670004 -2.0378644 0.1183742 0
4.5620003 -2.0429816 0.11871693 0
4.5580001 -2.0485625 0.11899111 0
4.5530005 -2.0536458 0.1193338 0
4.5480003 -2.0587108 0.11967653 0
4.5440001 -2.064245 0.11995074 0
4.5390005 -2.0692759 0.12029344 0
4.5340004 -2.0742886 0.12063617 0
4.5300002 -2.0797756 0.12091035 0
4.5250001 -2.0847542 0.12125307 0
4.5210004 -2.0902107 0.12152725 0
4.5160003 -2.095155 0.12186998 0
4.5120001 -2.1005809 0.12214416 0
4.5070004 -2.1054909 0.12248689 0
4.5030003 -2.1108861 0.12276107 0
4.4980001 -2.1157618 0.1231038 0
4.4940004 -2.1211262 0.12337795 0
4.4890003 -2.1259675 0.12372068 0
4.4850001 -2.1313016 0.12399489 0
4.4800005 -2.1361086 0.12433758 0
4.4760003 -2.1414118 0.12461177 0
4.4710002 -2.1461847 0.12495449 0
4.4670005 -2.1514573 0.12522864 0
4.4620004 -2.1561959 0.12557137 0
4.4580002 -2.1614377 0.12584555 0
4.4530001 -2.166142 0.12618831 0
4.4490004 -2.1713533 0.12646246 0
4.4450002 -2.1765499 0.12673664 0
4.4400001 -2.1812038 0.12707937 0
4.4360003 -2.1863701 0.12735355 0
4.4310002 -2.1909895 0.12769628 0
4.4270005 -2.1961253 0.12797043 0
4.4230003 -2.201246 0.12824464 0
4.4180002 -2.2058151 0.12858737 0
4.4140005 -2.2109056 0.12886152 0
4.4100003 -2.2159815 0.12913573 0
4.4050002 -2.2204998 0.12947845 0
4.4010005 -2.2255452 0.12975261 0
4.3970003 -2.230576 0.13002682 0
4.3930001 -2.2355924 0.13030097 0
4.388 -2.2400441 0.1306437 0
4.3840003 -2.2450297 0.13091788 0
4.3800001 -2.2500012 0.13119206 0
4.3759999 -2.2549579 0.13146624 0
4.3710003 -2.2593431 0.13180897 0
4.3670001 -2.2642691 0.13208315 0
4.3630004 -2.269181 0.1323573 0
4.3590002 -2.2740784 0.13263151 0
4.3540001 -2.2783966 0.13297421 0
4.3500004 -2.2832634 0.13324839 0
4.3460002 -2.2881155 0.1335226 0
4.342 -2.2929533 0.13379675 0
4.3380003 -2.2977767 0.13407093 0
4.3330002 -2.302012 0.13441366 0
5.1040001 -1.4290736 0.073080599 0
5.0980005 -1.4357837 0.07350266 0
5.0920005 -1.4424723 0.07392472 0
5.0860004 -1.4491391 0.07434684 0
5.0800004 -1.4557844 0.074768931 0
5.0740004 -1.4624079 0.075191021 0
5.0690002 -1.4693147 0.075542778 0
5.0630002 -1.4758968 0.075964868 0
5.0570002 -1.4824572 0.076386958 0
5.0510001 -1.488996 0.076809049 0
5.0450006 -1.4955133 0.077231109 0
5.0390005 -1.5020089 0.077653199 0
5.0340004 -1.5087984 0.078004956 0
5.0280004 -1.5152524 0.078427076 0
5.0220003 -1.5216848 0.078849137 0
5.0160003 -1.5280954 0.079271257 0
5.0110002 -1.5348073 0.079622984 0
5.0050001 -1.5411767 0.080045074 0
4.9990005 -1.5475243 0.080467135 0
4.9940004 -1.5541785 0.080818892 0
4.9880004 -1.5604846 0.081241012 0
4.9820004 -1.5667691 0.081663072 0
4.9770002 -1.5733657 0.082014829 0
4.9710002 -1.5796086 0.082436949 0
4.9660001 -1.5861671 0.082788676 0
4.9600005 -1.5923688 0.083210766 0
4.9540005 -1.5985487 0.083632827 0
4.9490004 -1.6050495 0.083984584 0
4.9430003 -1.6111878 0.084406704 0
4.9380002 -1.6176509 0.084758431 0
4.9320002 -1.6237477 0.085180521 0
4.9270005 -1.6301731 0.085532248 0
4.9210005 -1.6362284 0.085954338 0
4.9160004 -1.6426157 0.086306095 0
4.9100003 -1.6486294 0.086728185 0
4.9050002 -1.6549789 0.087079942 0
4.8990002 -1.6609513 0.087502033 0
4.8940005 -1.6672629 0.08785373 0
4.8880005 -1.6731938 0.08827585 0
4.8830004 -1.6794674 0.088627607 0
4.8780003 -1.6857231 0.088979334 0
4.8720002 -1.6915926 0.089401424 0
4.8670001 -1.6978102 0.089753181 0
4.8620005 -1.70401 0.090104878 0
4.8560004 -1.7098184 0.090526998 0
4.8510003 -1.7159801 0.090878755 0
4.8460002 -1.7221239 0.091230512 0
4.8400002 -1.7278708 0.091652602 0
4.8350005 -1.7339768 0.092004329 0
4.8300004 -1.7400645 0.092356056 0
4.8240004 -1.7457502 0.092778146 0
4.8190002 -1.7518001 0.093129903 0
4.8140001 -1.7578321 0.09348166 0
4.8090005 -1.763846 0.093833357 0
4.8030005 -1.7694504 0.094255477 0
4.7980003 -1.7754264 0.094607234 0
4.7930002 -1.7813843 0.094958961 0
4.7880001 -1.7873242 0.095310718 0
4.7830005 -1.7932463 0.095662445 0
4.7780004 -1.7991501 0.096014202 0
4.7720003 -1.8046337 0.096436262 0
4.7670002 -1.8104995 0.096788019 0
4.7620001 -1.8163475 0.097139776 0
4.7570004 -1.8221775 0.097491473 0
4.7520003 -1.8279893 0.09784323 0
4.7470002 -1.8337831 0.098194987 0
4.7420001 -1.839559 0.098546743 0
4.7370005 -1.8453168 0.098898441 0
4.7320004 -1.8510566 0.099250197 0
4.7270002 -1.8567781 0.099601954 0
4.7220001 -1.8624817 0.099953711 0
4.7170005 -1.8681675 0.10030544 0
4.7120004 -1.873835 0.10065717 0
4.7070003 -1.8794844 0.10100892 0
4.7020001 -1.885116 0.10136068 0
4.6970005 -1.8907295 0.10171241 0
4.6920004 -1.8963249 0.10206413 0
4.6870003 -1.9019021 0.10241589 0
4.6820002 -1.9074615 0.10276765 0
4.6770005 -1.9130028 0.10311937 0
4.6720004 -1.9185262 0.10347113 0
4.6670003 -1.9240314 0.10382286 0
4.6620002 -1.9295186 0.10417461 0
4.6570001 -1.9349877 0.10452637 0
4.6530004 -1.9408844 0.10480776 0
4.6480002 -1.9463191 0.10515949 0
4.6430001 -1.9517359 0.10551125 0
4.6380005 -1.957135 0.10586298 0
4.6330004 -1.9625156 0.10621473 0
4.6280003 -1.9678783 0.10656646 0
4.6240001 -1.9736793 0.10684788 0
4.6190004 -1.9790078 0.10719958 0
4.6140003 -1.9843183 0.10755134 0
4.6090002 -1.9896106 0.10790309 0
4.6050005 -1.9953486 0.10818449 0
4.6000004 -2.0006065 0.10853621 0
4.5950003 -2.0058465 0.10888797 0
4.5900002 -2.0110686 0.10923973 0
4.5860004 -2.0167437 0.10952109 0
4.5810003 -2.0219312 0.10987285 0
4.5760002 -2.027101 0.1102246 0
4.5720005 -2.0327289 0.11050597 0
4.5670004 -2.0378644 0.11085773 0
4.5620003 -2.0429816 0.11120948 0
4.5580001 -2.0485625 0.11149088 0
4.5530005 -2.0536458 0.1118426 0
4.5480003 -2.0587108 0.11219436 0
4.5440001 -2.064245 0.11247575 0
4.5390005 -2.0692759 0.11282745 0
4.5340004 -2.0742886 0.11317921 0
4.5300002 -2.0797756 0.11346063 0
4.5250001 -2.0847542 0.11381239 0
4.5210004 -2.0902107 0.11409375 0
4.5160003 -2.095155 0.11444551 0
4.5120001 -2.1005809 0.11472693 0
4.5070004 -2.1054909 0.11507863 0
4.5030003 -2.1108861 0.11536002 0
4.4980001 -2.1157618 0.11571178 0
4.4940004 -2.1211262 0.11599314 0
4.4890003 -2.1259675 0.1163449 0
4.4850001 -2.1313016 0.11662632 0
4.4800005 -2.1361086 0.11697805 0
4.4760003 -2.1414118 0.11725944 0
4.4710002 -2.1461847 0.1176112 0
4.4670005 -2.1514573 0.11789256 0
4.4620004 -2.1561959 0.11824432 0
4.4580002 -2.1614377 0.11852571 0
4.4530001 -2.166142 0.11887747 0
4.4490004 -2.1713533 0.11915883 0
4.4450002 -2.1765499 0.11944026 0
4.4400001 -2.1812038 0.11979201 0
4.4360003 -2.1863701 0.12007338 0
4.4310002 -2.1909895 0.12042513 0
4.4270005 -2.1961253 0.12070653 0
4.4230003 -2.201246 0.12098792 0
4.4180002 -2.2058151 0.12133965 0
4.4140005 -2.2109056 0.12162101 0
4.4100003 -2.2159815 0.12190244 0
4.4050002 -2.2204998 0.12225419 0
4.4010005 -2.2255452 0.12253556 0
4.3970003 -2.230576 0.12281698 0
4.3930001 -2.2355924 0.12309837 0
4.388 -2.2400441 0.1234501 0
4.3840003 -2.2450297 0.12373149 0
4.3800001 -2.2500012 0.12401289 0
4.3759999 -2.2549579 0.12429431 0
4.3710003 -2.2593431 0.12464604 0
4.3670001 -2.2642691 0.12492743 0
4.3630004 -2.269181 0.12520882 0
4.3590002 -2.2740784 0.12549022 0
4.3540001 -2.2783966 0.12584195 0
4.3500004 -2.2832634 0.12612334 0
4.3460002 -2.2881155 0.12640476 0
4.342 -2.2929533 0.12668616 0
4.3380003 -2.2977767 0.12696755 0
4.3330002 -2.302012 0.12731928 0
5.1040001 -1.4290736 0.064595461 0
5.0980005 -1.4357837 0.065028369 0
5.0920005 -1.4424723 0.065461248 0
5.0860004 -1.4491391 0.065894186 0
5.0800004 -1.4557844 0.066327095 0
5.0740004 -1.4624079 0.066760033 0
5.0690002 -1.4693147 0.06712079 0
5.0630002 -1.4758968 0.067553699 0
5.0570002 -1.4824572 0.067986637 0
5.0510001 -1.488996 0.068419516 0
5.0450006 -1.4955133 0.068852425 0
5.0390005 -1.5020089 0.069285363 0
5.0340004 -1.5087984 0.06964612 0
5.0280004 -1.5152524 0.070079029 0
5.0220003 -1.5216848 0.070511967 0
5.0160003 -1.5280954 0.070944846 0
5.0110002 -1.5348073 0.071305633 0
5.0050001 -1.5411767 0.071738571 0
4.9990005 -1.5475243 0.07217142 0
4.9940004 -1.5541785 0.072532207 0
4.9880004 -1.5604846 0.072965115 0
4.9820004 -1.5667691 0.073398024 0
4.9770002 -1.5733657 0.073758811 0
4.9710002 -1.5796086 0.074191749 0
4.9660001 -1.5861671 0.074552506 0
4.9600005 -1.5923688 0.074985355 0
4.9540005 -1.5985487 0.075418293 0
4.9490004 -1.6050495 0.07577908 0
4.9430003 -1.6111878 0.076211989 0
4.9380002 -1.6176509 0.076572746 0
4.9320002 -1.6237477 0.077005684 0
4.9270005 -1.6301731 0.077366412 0
4.9210005 -1.6362284 0.07779932 0
4.9160004 -1.6426157 0.078160077 0
4.9100003 -1.6486294 0.078593016 0
4.9050002 -1.6549789 0.078953773 0
4.8990002 -1.6609513 0.079386681 0
4.8940005 -1.6672629 0.079747438 0
4.8880005 -1.6731938 0.080180347 0
4.8830004 -1.6794674 0.080541134 0
4.8780003 -1.6857231 0.080901891 0
4.8720002 -1.6915926 0.0813348 0
4.8670001 -1.6978102 0.081695586 0
4.8620005 -1.70401 0.082056314 0
4.8560004 -1.7098184 0.082489222 0
4.8510003 -1.7159801 0.082850009 0
4.8460002 -1.7221239 0.083210766 0
4.8400002 -1.7278708 0.083643675 0
4.8350005 -1.7339768 0.084004402 0
4.8300004 -1.7400645 0.084365189 0
4.8240004 -1.7457502 0.084798098 0
4.8190002 -1.7518001 0.085158855 0
4.8140001 -1.7578321 0.085519642 0
4.8090005 -1.763846 0.085880369 0
4.8030005 -1.7694504 0.086313307 0
4.7980003 -1.7754264 0.086674064 0
4.7930002 -1.7813843 0.087034851 0
4.7880001 -1.7873242 0.087395608 0
4.7830005 -1.7932463 0.087756366 0
4.7780004 -1.7991501 0.088117123 0
4.7720003 -1.8046337 0.088550031 0
4.7670002 -1.8104995 0.088910788 0
4.7620001 -1.8163475 0.089271575 0
4.7570004 -1.8221775 0.089632303 0
4.7520003 -1.8279893 0.08999306 0
4.7470002 -1.8337831 0.090353847 0
4.7420001 -1.839559 0.090714633 0
4.7370005 -1.8453168 0.091075361 0
4.7320004 -1.8510566 0.091436118 0
4.7270002 -1.8567781 0.091796905 0
4.7220001 -1.8624817 0.092157662 0
4.7170005 -1.8681675 0.092518389 0
4.7120004 -1.873835 0.092879176 0
4.7070003 -1.8794844 0.093239963 0
4.7020001 -1.885116 0.09360069 0
4.6970005 -1.8907295 0.093961447 0
4.6920004 -1.8963249 0.094322205 0
4.6870003 -1.9019021 0.094682962 0
4.6820002 -1.9074615 0.095043749 0
4.6770005 -1.9130028 0.095404476 0
4.6720004 -1.9185262 0.095765263 0
4.6670003 -1.9240314 0.09612602 0
4.6620002 -1.9295186 0.096486777 0
4.6570001 -1.9349877 0.096847564 0
4.6530004 -1.9408844 0.09713614 0
4.6480002 -1.9463191 0.097496897 0
4.6430001 -1.9517359 0.097857684 0
4.6380005 -1.957135 0.098218411 0
4.6330004 -1.9625156 0.098579198 0
4.6280003 -1.9678783 0.098939955 0
4.6240001 -1.9736793 0.099228591 0
4.6190004 -1.9790078 0.099589348 0
4.6140003 -1.9843183 0.099950075 0
4.6090002 -1.9896106 0.10031086 0
4.6050005 -1.9953486 0.10059947 0
4.6000004 -2.0006065 0.10096022 0
4.5950003 -2.0058465 0.10132101 0
4.5900002 -2.0110686 0.10168177 0
4.5860004 -2.0167437 0.10197034 0
4.5810003 -2.0219312 0.10233113 0
4.5760002 -2.027101 0.10269189 0
4.5720005 -2.0327289 0.10298046 0
4.5670004 -2.0378644 0.10334125 0
4.5620003 -2.0429816 0.10370201 0
4.5580001 -2.0485625 0.10399064 0
4.5530005 -2.0536458 0.10435137 0
4.5480003 -2.0587108 0.10471213 0
4.5440001 -2.064245 0.10500076 0
4.5390005 -2.0692759 0.10536152 0
4.5340004 -2.0742886 0.10572228 0
4.5300002 -2.0797756 0.10601088 0
4.5250001 -2.0847542 0.10637167 0
4.5210004 -2.0902107 0.10666025 0
4.5160003 -2.095155 0.107021 0
4.5120001 -2.1005809 0.10730967 0
4.5070004 -2.1054909 0.1076704 0
4.5030003 -2.1108861 0.107959 0
4.4980001 -2.1157618 0.10831979 0
4.4940004 -2.1211262 0.10860837 0
4.4890003 -2.1259675 0.10896912 0
4.4850001 -2.1313016 0.10925779 0
4.4800005 -2.1361086 0.10961851 0
4.4760003 -2.1414118 0.10990712 0
4.4710002 -2.1461847 0.11026791 0
4.4670005 -2.1514573 0.11055645 0
4.4620004 -2.1561959 0.11091724 0
4.4580002 -2.1614377 0.11120588 0
4.4530001 -2.166142 0.11156663 0
4.4490004 -2.1713533 0.11185524 0
4.4450002 -2.1765499 0.11214384 0
4.4400001 -2.1812038 0.1125046 0
4.4360003 -2.1863701 0.11279324 0
4.4310002 -2.1909895 0.11315396 0
4.4270005 -2.1961253 0.11344257 0
4.4230003 -2.201246 0.11373118 0
4.4180002 -2.2058151 0.11409196 0
4.4140005 -2.2109056 0.11438057 0
4.4100003 -2.2159815 0.11466917 0
4.4050002 -2.2204998 0.11502993 0
4.4010005 -2.2255452 0.11531854 0
4.3970003 -2.230576 0.11560717 0
4.3930001 -2.2355924 0.11589575 0
4.388 -2.2400441 0.11625654 0
4.3840003 -2.2450297 0.11654511 0
4.3800001 -2.2500012 0.11683375 0
4.3759999 -2.2549579 0.11712235 0
4.3710003 -2.2593431 0.11748311 0
4.3670001 -2.2642691 0.11777171 0
4.3630004 -2.269181 0.11806032 0
4.3590002 -2.2740784 0.11834896 0
4.3540001 -2.2783966 0.11870971 0
4.3500004 -2.2832634 0.11899829 0
4.3460002 -2.2881155 0.11928695 0
