# .PCD v0.7 - Point Cloud Data file format
VERSION 0.7
FIELDS x y z intensity
SIZE 4 4 4 4
TYPE F F F F
COUNT 1 1 1 1
WIDTH 1539
HEIGHT 1
VIEWPOINT 0 0 0 1 0 0 0
POINTS 1539
DATA ascii
4.302 1.4391149 2.0087688 0
4.3070002 1.4339707 2.0108252 0
4.3130002 1.429185 2.0132928 0
4.3180003 1.4240026 2.0153491 0
4.3240004 1.4191757 2.0178168 0
4.329 1.4139555 2.0198729 0
4.335 1.4090871 2.0223408 0
4.3400002 1.403829 2.0243971 0
4.3460002 1.3989189 2.0268645 0
4.3510003 1.393623 2.0289209 0
4.3510003 1.3864962 2.0289209 0
4.349 1.3786478 2.0280983 0
4.3470001 1.3708066 2.027276 0
4.3460002 1.3633298 2.0268645 0
4.355 1.35941 2.030566 0
4.3670001 1.3565186 2.0355012 0
4.4020004 1.3472363 2.0498958 0
4.4070001 1.341749 2.0519519 0
4.4130001 1.3365884 2.0544195 0
4.4190001 1.3314059 2.0568871 0
4.4240003 1.3258611 2.0589435 0
4.296 1.4579142 1.9992735 0
4.296 1.4508866 1.9992735 0
4.296 1.443859 1.9992735 0
4.302 1.4391149 2.0017302 0
4.3070002 1.4339707 2.0037777 0
4.3130002 1.429185 2.0062344 0
4.3180003 1.4240026 2.0082817 0
4.3240004 1.4191757 2.0107386 0
4.329 1.4139555 2.0127859 0
4.335 1.4090871 2.0152426 0
4.3400002 1.403829 2.0172901 0
4.3460002 1.3989189 2.0197468 0
4.3510003 1.393623 2.0217941 0
4.3510003 1.3864962 2.0217941 0
4.349 1.3786478 2.0209751 0
4.3470001 1.3708066 2.0201564 0
4.3460002 1.3633298 2.0197468 0
4.355 1.35941 2.023432 0
4.3670001 1.3565186 2.0283456 0
4.4020004 1.3472363 2.0426769 0
4.4070001 1.341749 2.044724 0
4.4130001 1.3365884 2.0471809 0
4.4190001 1.3314059 2.0496376 0
4.4240003 1.3258611 2.0516851 0
4.3140001 1.4507424 1.999584 0
4.3140001 1.4436823 1.999584 0
4.3140001 1.4366221 1.999584 0
4.3140001 1.4295621 1.999584 0
4.3180003 1.4240026 2.0012145 0
4.3240004 1.4191757 2.0036604 0
4.329 1.4139555 2.0056987 0
4.3340001 1.4087172 2.0077369 0
4.3400002 1.403829 2.0101831 0
4.3450003 1.3985528 2.0122213 0
4.3510003 1.393623 2.0146673 0
4.3510003 1.3864962 2.0146673 0
4.349 1.3786478 2.0138519 0
4.3470001 1.3708066 2.0130365 0
4.3460002 1.3633298 2.0126288 0
4.355 1.35941 2.0162978 0
4.3670001 1.3565186 2.0211899 0
4.4010005 1.3468881 2.0350504 0
4.4070001 1.341749 2.0374961 0
4.4130001 1.3365884 2.039942 0
4.4190001 1.3314059 2.0423882 0
4.4240003 1.3258611 2.0444264 0
4.3310003 1.4430618 1.9994233 0
4.3310003 1.435971 1.9994233 0
4.323 1.4258786 1.9961765 0
4.3240004 1.4191757 1.9965824 0
4.329 1.4139555 1.9986116 0
4.3340001 1.4087172 2.0006409 0
4.3400002 1.403829 2.0030761 0
4.3450003 1.3985528 2.0051053 0
4.3510003 1.393623 2.0075405 0
4.3510003 1.3864962 2.0075405 0
4.349 1.3786478 2.0067286 0
4.3470001 1.3708066 2.0059171 0
4.3460002 1.3633298 2.005511 0
4.355 1.35941 2.0091639 0
4.3670001 1.3565186 2.0140343 0
4.4010005 1.3468881 2.0278335 0
4.4070001 1.341749 2.0302684 0
4.4130001 1.3365884 2.0327034 0
4.4190001 1.3314059 2.0351386 0
4.4240003 1.3258611 2.037168 0
4.3330002 1.4367249 1.9931406 0
4.323 1.4258786 1.9891001 0
4.323 1.4188023 1.9891001 0
4.329 1.4139555 1.9915243 0
4.3340001 1.4087172 1.9935448 0
4.3400002 1.403829 1.9959691 0
4.3450003 1.3985528 1.9979893 0
4.3510003 1.393623 2.0004137 0
4.3510003 1.3864962 2.0004137 0
4.349 1.3786478 1.9996055 0
4.348 1.3711655 1.9992015 0
4.3460002 1.3633298 1.9983934 0
4.355 1.35941 2.0020299 0
4.3670001 1.3565186 2.0068784 0
4.4010005 1.3468881 2.0206163 0
4.4070001 1.341749 2.0230405 0
4.4130001 1.3365884 2.0254648 0
4.4190001 1.3314059 2.027889 0
4.4240003 1.3258611 2.0299094 0
4.3330002 1.4367249 1.9860462 0
4.323 1.4258786 1.9820238 0
4.323 1.4188023 1.9820238 0
4.329 1.4139555 1.9844373 0
4.3340001 1.4087172 1.9864485 0
4.3400002 1.403829 1.988862 0
4.3450003 1.3985528 1.9908733 0
4.3510003 1.393623 1.9932868 0
4.3510003 1.3864962 1.9932868 0
4.349 1.3786478 1.9924822 0
4.348 1.3711655 1.9920801 0
4.3460002 1.3633298 1.9912754 0
4.355 1.35941 1.9948957 0
4.3670001 1.3565186 1.9997228 0
4.4010005 1.3468881 2.0133994 0
4.4070001 1.341749 2.0158126 0
4.4130001 1.3365884 2.0182261 0
4.4190001 1.3314059 2.0206397 0
4.4240003 1.3258611 2.022651 0
4.3330002 1.4367249 1.9789519 0
4.323 1.4258786 1.9749473 0
4.323 1.4188023 1.9749473 0
4.329 1.4139555 1.9773501 0
4.3340001 1.4087172 1.9793525 0
4.3400002 1.403829 1.981755 0
4.3450003 1.3985528 1.9837573 0
4.3510003 1.393623 1.9861599 0
4.3510003 1.3864962 1.9861599 0
4.349 1.3786478 1.9853591 0
4.348 1.3711655 1.9849586 0
4.3460002 1.3633298 1.9841577 0
4.355 1.35941 1.9877616 0
4.3670001 1.3565186 1.9925671 0
4.4010005 1.3468881 2.0061822 0
4.4070001 1.341749 2.0085847 0
4.4130001 1.3365884 2.0109873 0
4.4180002 1.3310633 2.0129898 0
4.4240003 1.3258611 2.0153925 0
4.3330002 1.4367249 1.9718574 0
4.323 1.4258786 1.9678711 0
4.323 1.4188023 1.9678711 0
4.329 1.4139555 1.9702629 0
4.3340001 1.4087172 1.9722562 0
4.3400002 1.403829 1.974648 0
4.3450003 1.3985528 1.9766412 0
4.3510003 1.393623 1.979033 0
4.3510003 1.3864962 1.979033 0
4.349 1.3786478 1.9782357 0
4.348 1.3711655 1.9778372 0
4.3460002 1.3633298 1.9770398 0
4.355 1.35941 1.9806277 0
4.3670001 1.3565186 1.9854113 0
4.4010005 1.3468881 1.9989653 0
4.4070001 1.341749 2.0013568 0
4.4130001 1.3365884 2.0037487 0
4.4180002 1.3310633 2.0057421 0
4.4240003 1.3258611 2.0081339 0
4.3330002 1.4367249 1.964763 0
4.323 1.4258786 1.9607947 0
4.323 1.4188023 1.9607947 0
4.329 1.4139555 1.9631758 0
4.3340001 1.4087172 1.96516 0
4.3400002 1.403829 1.967541 0
4.3450003 1.3985528 1.9695252 0
4.3510003 1.393623 1.9719062 0
4.3510003 1.3864962 1.9719062 0
4.349 1.3786478 1.9711125 0
4.348 1.3711655 1.9707158 0
4.3460002 1.3633298 1.9699219 0
4.3540001 1.3590548 1.9730968 0
4.3670001 1.3565186 1.9782556 0
4.4010005 1.3468881 1.9917482 0
4.4070001 1.341749 1.9941291 0
4.4130001 1.3365884 1.99651 0
4.4180002 1.3310633 1.9984944 0
4.4240003 1.3258611 2.0008752 0
4.323 1.4258786 1.9537184 0
4.323 1.4188023 1.9537184 0
4.329 1.4139555 1.9560887 0
4.3340001 1.4087172 1.9580638 0
4.3400002 1.403829 1.9604341 0
4.3450003 1.3985528 1.9624091 0
4.3510003 1.393623 1.9647794 0
4.3510003 1.3864962 1.9647794 0
4.349 1.3786478 1.9639894 0
4.348 1.3711655 1.9635943 0
4.3460002 1.3633298 1.9628042 0
4.3540001 1.3590548 1.9659644 0
4.3670001 1.3565186 1.9711 0
4.4010005 1.3468881 1.9845313 0
4.4070001 1.341749 1.9869013 0
4.4130001 1.3365884 1.9892714 0
4.4180002 1.3310633 1.9912466 0
4.4240003 1.3258611 1.9936168 0
4.3240004 1.4262539 1.9470354 0
4.323 1.4188023 1.9466422 0
4.329 1.4139555 1.9490014 0
4.3340001 1.4087172 1.9509677 0
4.3400002 1.403829 1.9533271 0
4.3450003 1.3985528 1.9552931 0
4.3510003 1.393623 1.9576526 0
4.3510003 1.3864962 1.9576526 0
4.349 1.3786478 1.956866 0
4.348 1.3711655 1.9564729 0
4.3460002 1.3633298 1.9556863 0
4.3540001 1.3590548 1.9588323 0
4.3670001 1.3565186 1.9639442 0
4.4010005 1.3468881 1.9773141 0
4.4070001 1.341749 1.9796734 0
4.4130001 1.3365884 1.9820327 0
4.4180002 1.3310633 1.9839989 0
4.4240003 1.3258611 1.9863584 0
4.3240004 1.4262539 1.9399573 0
4.323 1.4188023 1.9395657 0
4.329 1.4139555 1.9419143 0
4.3340001 1.4087172 1.9438715 0
4.3400002 1.403829 1.94622 0
4.3450003 1.3985528 1.9481772 0
4.3510003 1.393623 1.9505258 0
4.3510003 1.3864962 1.9505258 0
4.349 1.3786478 1.9497428 0
4.348 1.3711655 1.9493514 0
4.3460002 1.3633298 1.9485686 0
4.3540001 1.3590548 1.9517 0
4.3670001 1.3565186 1.9567885 0
4.4010005 1.3468881 1.9700972 0
4.4070001 1.341749 1.9724455 0
4.4130001 1.3365884 1.974794 0
4.4180002 1.3310633 1.9767512 0
4.4240003 1.3258611 1.9790998 0
4.3240004 1.4262539 1.9328791 0
4.323 1.4188023 1.9324894 0
4.329 1.4139555 1.9348271 0
4.3340001 1.4087172 1.9367753 0
4.3400002 1.403829 1.939113 0
4.3450003 1.3985528 1.9410611 0
4.3510003 1.393623 1.9433988 0
4.3510003 1.3864962 1.9433988 0
4.349 1.3786478 1.9426196 0
4.348 1.3711655 1.94223 0
4.3460002 1.3633298 1.9414507 0
4.3540001 1.3590548 1.9445677 0
4.3670001 1.3565186 1.9496329 0
4.4010005 1.3468881 1.96288 0
4.4070001 1.341749 1.9652176 0
4.4130001 1.3365884 1.9675554 0
4.4180002 1.3310633 1.9695035 0
4.4240003 1.3258611 1.9718412 0
4.3240004 1.4262539 1.9258009 0
4.323 1.4188023 1.925413 0
4.329 1.4139555 1.92774 0
4.3340001 1.4087172 1.9296792 0
4.3400002 1.403829 1.932006 0
4.3450003 1.3985528 1.9339451 0
4.3510003 1.393623 1.936272 0
4.3510003 1.3864962 1.936272 0
4.349 1.3786478 1.9354963 0
4.348 1.3711655 1.9351085 0
4.3460002 1.3633298 1.9343328 0
4.3540001 1.3590548 1.9374355 0
4.3660002 1.3561651 1.9420892 0
4.4010005 1.3468881 1.9556631 0
4.4070001 1.341749 1.9579898 0
4.4130001 1.3365884 1.9603167 0
4.4180002 1.3310633 1.9622558 0
4.4240003 1.3258611 1.9645828 0
4.3240004 1.4262539 1.9187229 0
4.323 1.4188023 1.9183367 0
4.329 1.4139555 1.9206529 0
4.3340001 1.4087172 1.9225829 0
4.3400002 1.403829 1.924899 0
4.3450003 1.3985528 1.9268291 0
4.3510003 1.393623 1.9291451 0
4.3510003 1.3864962 1.9291451 0
4.349 1.3786478 1.9283731 0
4.348 1.3711655 1.9279872 0
4.3460002 1.3633298 1.9272151 0
4.3540001 1.3590548 1.9303032 0
4.3660002 1.3561651 1.9349353 0
4.4010005 1.3468881 1.948446 0
4.4070001 1.341749 1.9507619 0
4.4130001 1.3365884 1.953078 0
4.4180002 1.3310633 1.9550081 0
4.4240003 1.3258611 1.9573243 0
4.3240004 1.4262539 1.9116447 0
4.323 1.4188023 1.9112604 0
4.329 1.4139555 1.9135656 0
4.3340001 1.4087172 1.9154868 0
4.3400002 1.403829 1.9177921 0
4.3450003 1.3985528 1.919713 0
4.3510003 1.393623 1.9220183 0
4.3510003 1.3864962 1.9220183 0
4.349 1.3786478 1.9212499 0
4.348 1.3711655 1.9208657 0
4.3460002 1.3633298 1.9200972 0
4.3540001 1.3590548 1.9231709 0
4.3660002 1.3561651 1.9277813 0
4.4010005 1.3468881 1.941229 0
4.4070001 1.341749 1.943534 0
4.4120002 1.3362437 1.9454552 0
4.4180002 1.3310633 1.9477605 0
4.4240003 1.3258611 1.9500657 0
4.3240004 1.4262539 1.9045665 0
4.323 1.4188023 1.904184 0
4.329 1.4139555 1.9064785 0
4.3340001 1.4087172 1.9083905 0
4.3400002 1.403829 1.9106851 0
4.3450003 1.3985528 1.9125969 0
4.3510003 1.393623 1.9148915 0
4.3510003 1.3864962 1.9148915 0
4.349 1.3786478 1.9141266 0
4.348 1.3711655 1.9137442 0
4.3460002 1.3633298 1.9129794 0
4.3540001 1.3590548 1.9160388 0
4.3660002 1.3561651 1.9206275 0
4.4010005 1.3468881 1.9340119 0
4.4070001 1.341749 1.9363062 0
4.4120002 1.3362437 1.9382182 0
4.4180002 1.3310633 1.9405128 0
4.4240003 1.3258611 1.9428072 0
4.3240004 1.4262539 1.8974884 0
4.323 1.4188023 1.8971076 0
4.329 1.4139555 1.8993913 0
4.3340001 1.4087172 1.9012944 0
4.3400002 1.403829 1.903578 0
4.3450003 1.3985528 1.905481 0
4.3510003 1.393623 1.9077647 0
4.3510003 1.3864962 1.9077647 0
4.349 1.3786478 1.9070034 0
4.348 1.3711655 1.9066228 0
4.3460002 1.3633298 1.9058616 0
4.3540001 1.3590548 1.9089065 0
4.3660002 1.3561651 1.9134736 0
4.4010005 1.3468881 1.9267949 0
4.4070001 1.341749 1.9290783 0
4.4120002 1.3362437 1.9309814 0
4.4180002 1.3310633 1.9332651 0
4.4240003 1.3258611 1.9355487 0
4.3240004 1.4262539 1.8904102 0
4.323 1.4188023 1.8900313 0
4.329 1.4139555 1.8923042 0
4.3340001 1.4087172 1.8941983 0
4.3400002 1.403829 1.896471 0
4.3450003 1.3985528 1.8983649 0
4.3510003 1.393623 1.9006377 0
4.3510003 1.3864962 1.9006377 0
4.349 1.3786478 1.8998802 0
4.348 1.3711655 1.8995013 0
4.3460002 1.3633298 1.8987437 0
4.3540001 1.3590548 1.9017742 0
4.3660002 1.3561651 1.9063197 0
4.4010005 1.3468881 1.9195778 0
4.4070001 1.341749 1.9218504 0
4.4120002 1.3362437 1.9237446 0
4.4180002 1.3310633 1.9260173 0
4.4240003 1.3258611 1.9282901 0
4.3240004 1.4262539 1.883332 0
4.323 1.4188023 1.8829551 0
4.329 1.4139555 1.885217 0
4.3340001 1.4087172 1.887102 0
4.3390002 1.4034609 1.8889869 0
4.3450003 1.3985528 1.8912489 0
4.3510003 1.393623 1.8935109 0
4.3510003 1.3864962 1.8935109 0
4.349 1.3786478 1.8927568 0
4.348 1.3711655 1.8923799 0
4.3460002 1.3633298 1.891626 0
4.3540001 1.3590548 1.8946419 0
4.3660002 1.3561651 1.8991659 0
4.4010005 1.3468881 1.9123608 0
4.4070001 1.341749 1.9146227 0
4.4120002 1.3362437 1.9165076 0
4.4180002 1.3310633 1.9187696 0
4.4240003 1.3258611 1.9210316 0
4.3240004 1.4262539 1.876254 0
4.323 1.4188023 1.8758787 0
4.3280001 1.4135839 1.8777547 0
4.3340001 1.4087172 1.8800058 0
4.3390002 1.4034609 1.8818817 0
4.3450003 1.3985528 1.884133 0
4.3510003 1.393623 1.8863841 0
4.3510003 1.3864962 1.8863841 0
4.349 1.3786478 1.8856337 0
4.348 1.3711655 1.8852584 0
4.3460002 1.3633298 1.884508 0
4.3540001 1.3590548 1.8875097 0
4.3660002 1.3561651 1.892012 0
4.4010005 1.3468881 1.9051437 0
4.4070001 1.341749 1.9073948 0
4.4120002 1.3362437 1.9092708 0
4.4180002 1.3310633 1.9115219 0
4.4240003 1.3258611 1.9137732 0
4.3240004 1.4262539 1.8691758 0
4.323 1.4188023 1.8688023 0
4.3280001 1.4135839 1.8706694 0
4.3340001 1.4087172 1.8729097 0
4.3390002 1.4034609 1.8747766 0
4.3450003 1.3985528 1.8770169 0
4.3500004 1.3932587 1.878884 0
4.3510003 1.3864962 1.8792573 0
4.349 1.3786478 1.8785105 0
4.348 1.3711655 1.878137 0
4.3460002 1.3633298 1.8773903 0
4.3540001 1.3590548 1.8803774 0
4.3660002 1.3561651 1.884858 0
4.4010005 1.3468881 1.8979267 0
4.4070001 1.341749 1.9001669 0
4.4120002 1.3362437 1.9020338 0
4.4180002 1.3310633 1.9042742 0
4.4240003 1.3258611 1.9065145 0
4.3240004 1.4262539 1.8620976 0
4.323 1.4188023 1.8617259 0
4.3280001 1.4135839 1.8635839 0
4.3340001 1.4087172 1.8658135 0
4.3390002 1.4034609 1.8676714 0
4.3450003 1.3985528 1.8699009 0
4.3500004 1.3932587 1.8717588 0
4.3510003 1.3864962 1.8721304 0
4.349 1.3786478 1.8713871 0
4.348 1.3711655 1.8710157 0
4.3460002 1.3633298 1.8702725 0
4.3540001 1.3590548 1.8732451 0
4.3660002 1.3561651 1.8777041 0
4.4010005 1.3468881 1.8907096 0
4.4070001 1.341749 1.8929391 0
4.4120002 1.3362437 1.8947971 0
4.4180002 1.3310633 1.8970265 0
4.4240003 1.3258611 1.899256 0
4.3240004 1.4262539 1.8550195 0
4.323 1.4188023 1.8546497 0
4.3280001 1.4135839 1.8564986 0
4.3340001 1.4087172 1.8587172 0
4.3390002 1.4034609 1.8605663 0
4.3450003 1.3985528 1.8627849 0
4.3500004 1.3932587 1.8646338 0
4.3510003 1.3864962 1.8650035 0
4.349 1.3786478 1.864264 0
4.348 1.3711655 1.8638942 0
4.3460002 1.3633298 1.8631545 0
4.3540001 1.3590548 1.8661129 0
4.3660002 1.3561651 1.8705503 0
4.4010005 1.3468881 1.8834926 0
4.4070001 1.341749 1.8857112 0
4.4120002 1.3362437 1.8875601 0
4.4180002 1.3310633 1.8897787 0
4.4240003 1.3258611 1.8919976 0
4.3240004 1.4262539 1.8479413 0
4.323 1.4188023 1.8475733 0
4.3280001 1.4135839 1.8494133 0
4.3340001 1.4087172 1.8516212 0
4.3390002 1.4034609 1.8534609 0
4.3450003 1.3985528 1.8556688 0
4.3500004 1.3932587 1.8575088 0
4.3510003 1.3864962 1.8578767 0
4.349 1.3786478 1.8571407 0
4.348 1.3711655 1.8567728 0
4.3460002 1.3633298 1.8560368 0
4.3530002 1.3586994 1.8586125 0
4.3660002 1.3561651 1.8633963 0
4.4010005 1.3468881 1.8762757 0
4.4070001 1.341749 1.8784833 0
4.4120002 1.3362437 1.8803232 0
4.4180002 1.3310633 1.882531 0
4.4240003 1.3258611 1.884739 0
4.3240004 1.4262539 1.8408632 0
4.323 1.4188023 1.840497 0
4.3280001 1.4135839 1.8423278 0
4.3340001 1.4087172 1.844525 0
4.3390002 1.4034609 1.8463557 0
4.3450003 1.3985528 1.8485528 0
4.3500004 1.3932587 1.8503836 0
4.3510003 1.3864962 1.8507499 0
4.349 1.3786478 1.8500175 0
4.348 1.3711655 1.8496513 0
4.3460002 1.3633298 1.8489189 0
4.3530002 1.3586994 1.8514822 0
4.3660002 1.3561651 1.8562424 0
4.4010005 1.3468881 1.8690585 0
4.4060001 1.3414026 1.8708893 0
4.4120002 1.3362437 1.8730865 0
4.4180002 1.3310633 1.8752835 0
4.4240003 1.3258611 1.8774804 0
4.3240004 1.4262539 1.8337851 0
4.323 1.4188023 1.8334206 0
4.3280001 1.4135839 1.8352425 0
4.3340001 1.4087172 1.8374287 0
4.3390002 1.4034609 1.8392506 0
4.3450003 1.3985528 1.8414367 0
4.3500004 1.3932587 1.8432587 0
4.3510003 1.3864962 1.843623 0
4.349 1.3786478 1.8428942 0
4.348 1.3711655 1.8425299 0
4.3460002 1.3633298 1.8418012 0
4.3530002 1.3586994 1.8443518 0
4.3660002 1.3561651 1.8490885 0
4.4010005 1.3468881 1.8618416 0
4.4060001 1.3414026 1.8636633 0
4.4120002 1.3362437 1.8658495 0
4.4180002 1.3310633 1.8680358 0
4.4240003 1.3258611 1.870222 0
4.3240004 1.4262539 1.8267069 0
4.323 1.4188023 1.8263443 0
4.3280001 1.4135839 1.8281571 0
4.3340001 1.4087172 1.8303326 0
4.3390002 1.4034609 1.8321453 0
4.3450003 1.3985528 1.8343207 0
4.3500004 1.3932587 1.8361336 0
4.3510003 1.3864962 1.8364962 0
4.349 1.3786478 1.835771 0
4.348 1.3711655 1.8354084 0
4.3460002 1.3633298 1.8346833 0
4.3530002 1.3586994 1.8372213 0
4.3660002 1.3561651 1.8419346 0
4.4010005 1.3468881 1.8546245 0
4.4060001 1.3414026 1.8564372 0
4.4120002 1.3362437 1.8586125 0
4.4180002 1.3310633 1.8607881 0
4.4240003 1.3258611 1.8629634 0
4.3240004 1.4262539 1.8196287 0
4.323 1.4188023 1.819268 0
4.3280001 1.4135839 1.8210717 0
4.3340001 1.4087172 1.8232363 0
4.3390002 1.4034609 1.8250402 0
4.3450003 1.3985528 1.8272048 0
4.3500004 1.3932587 1.8290086 0
4.3510003 1.3864962 1.8293694 0
4.349 1.3786478 1.8286479 0
4.348 1.3711655 1.828287 0
4.3460002 1.3633298 1.8275654 0
4.3530002 1.3586994 1.8300909 0
4.3660002 1.3561651 1.8347807 0
4.4010005 1.3468881 1.8474075 0
4.4060001 1.3414026 1.8492111 0
4.4120002 1.3362437 1.8513757 0
4.4180002 1.3310633 1.8535403 0
4.4240003 1.3258611 1.8557049 0
4.3240004 1.4262539 1.8125505 0
4.323 1.4188023 1.8121916 0
4.3280001 1.4135839 1.8139864 0
4.3340001 1.4087172 1.8161402 0
4.3390002 1.4034609 1.817935 0
4.3450003 1.3985528 1.8200887 0
4.3500004 1.3932587 1.8218836 0
4.3510003 1.3864962 1.8222424 0
4.349 1.3786478 1.8215245 0
4.348 1.3711655 1.8211656 0
4.3460002 1.3633298 1.8204477 0
4.3530002 1.3586994 1.8229604 0
4.3660002 1.3561651 1.8276268 0
4.4010005 1.3468881 1.8401904 0
4.4060001 1.3414026 1.8419851 0
4.4120002 1.3362437 1.8441389 0
4.4180002 1.3310633 1.8462926 0
4.4240003 1.3258611 1.8484464 0
4.3240004 1.4262539 1.8054725 0
4.323 1.4188023 1.8051153 0
4.3280001 1.4135839 1.8069011 0
4.3340001 1.4087172 1.809044 0
4.3390002 1.4034609 1.8108296 0
4.3450003 1.3985528 1.8129727 0
4.3500004 1.3932587 1.8147584 0
4.3510003 1.3864962 1.8151156 0
4.349 1.3786478 1.8144013 0
4.348 1.3711655 1.8140441 0
4.3460002 1.3633298 1.8133298 0
4.3530002 1.3586994 1.8158299 0
4.3650002 1.3558115 1.8201157 0
4.4010005 1.3468881 1.8329734 0
4.4060001 1.3414026 1.834759 0
4.4120002 1.3362437 1.836902 0
4.4180002 1.3310633 1.8390449 0
4.4230003 1.3255202 1.8408308 0
4.3240004 1.4262539 1.7983944 0
4.323 1.4188023 1.7980388 0
4.3280001 1.4135839 1.7998158 0
4.3340001 1.4087172 1.8019478 0
4.3390002 1.4034609 1.8037245 0
4.3450003 1.3985528 1.8058567 0
4.3500004 1.3932587 1.8076335 0
4.3510003 1.3864962 1.8079888 0
4.349 1.3786478 1.807278 0
4.348 1.3711655 1.8069227 0
4.3460002 1.3633298 1.8062119 0
4.3530002 1.3586994 1.8086995 0
4.3650002 1.3558115 1.8129637 0
4.4010005 1.3468881 1.8257563 0
4.4060001 1.3414026 1.827533 0
4.4120002 1.3362437 1.8296651 0
4.4180002 1.3310633 1.8317972 0
4.4230003 1.3255202 1.8335741 0
4.3240004 1.4262539 1.7913163 0
4.323 1.4188023 1.7909626 0
4.3280001 1.4135839 1.7927305 0
4.3340001 1.4087172 1.7948517 0
4.3390002 1.4034609 1.7966193 0
4.3450003 1.3985528 1.7987406 0
4.3500004 1.3932587 1.8005085 0
4.3510003 1.3864962 1.800862 0
4.349 1.3786478 1.8001548 0
4.348 1.3711655 1.7998013 0
4.3460002 1.3633298 1.7990942 0
4.3530002 1.3586994 1.801569 0
4.3650002 1.3558115 1.8058115 0
4.4010005 1.3468881 1.8185394 0
4.4060001 1.3414026 1.8203069 0
4.4120002 1.3362437 1.8224282 0
4.4180002 1.3310633 1.8245494 0
4.4230003 1.3255202 1.8263173 0
4.3250003 1.4266291 1.7845898 0
4.323 1.4188023 1.7838863 0
4.3280001 1.4135839 1.785645 0
4.3340001 1.4087172 1.7877555 0
4.3390002 1.4034609 1.7895142 0
4.3450003 1.3985528 1.7916245 0
4.3500004 1.3932587 1.7933834 0
4.3510003 1.3864962 1.7937351 0
4.349 1.3786478 1.7930316 0
4.348 1.3711655 1.7926799 0
4.3460002 1.3633298 1.7919763 0
4.3530002 1.3586994 1.7944385 0
4.3650002 1.3558115 1.7986594 0
4.4010005 1.3468881 1.8113222 0
4.4060001 1.3414026 1.8130808 0
4.4120002 1.3362437 1.8151914 0
4.4180002 1.3310633 1.8173018 0
4.4230003 1.3255202 1.8190606 0
4.3250003 1.4266291 1.7775098 0
4.323 1.4188023 1.7768099 0
4.3280001 1.4135839 1.7785597 0
4.3340001 1.4087172 1.7806593 0
4.3390002 1.4034609 1.782409 0
4.3450003 1.3985528 1.7845086 0
4.3500004 1.3932587 1.7862583 0
4.3510003 1.3864962 1.7866082 0
4.349 1.3786478 1.7859083 0
4.348 1.3711655 1.7855585 0
4.3460002 1.3633298 1.7848586 0
4.3530002 1.3586994 1.7873081 0
4.3650002 1.3558115 1.7915074 0
4.4010005 1.3468881 1.8041053 0
4.4060001 1.3414026 1.8058548 0
4.4120002 1.3362437 1.8079544 0
4.4180002 1.3310633 1.8100541 0
4.4230003 1.3255202 1.8118038 0
4.3250003 1.4266291 1.7704298 0
4.323 1.4188023 1.7697337 0
4.3280001 1.4135839 1.7714744 0
4.3340001 1.4087172 1.773563 0
4.3390002 1.4034609 1.7753038 0
4.3450003 1.3985528 1.7773925 0
4.3500004 1.3932587 1.7791332 0
4.3510003 1.3864962 1.7794814 0
4.349 1.3786478 1.7787851 0
4.348 1.3711655 1.778437 0
4.3460002 1.3633298 1.7777406 0
4.3530002 1.3586994 1.7801776 0
4.3650002 1.3558115 1.7843553 0
4.4010005 1.3468881 1.7968881 0
4.4060001 1.3414026 1.7986288 0
4.4120002 1.3362437 1.8007176 0
4.4180002 1.3310633 1.8028064 0
4.4230003 1.3255202 1.8045471 0
4.3250003 1.4266291 1.7633499 0
4.323 1.4188023 1.7626572 0
4.3280001 1.4135839 1.7643889 0
4.3340001 1.4087172 1.766467 0
4.3390002 1.4034609 1.7681985 0
4.3450003 1.3985528 1.7702765 0
4.3500004 1.3932587 1.7720082 0
4.3510003 1.3864962 1.7723546 0
4.349 1.3786478 1.7716619 0
4.348 1.3711655 1.7713156 0
4.3460002 1.3633298 1.7706228 0
4.3530002 1.3586994 1.7730472 0
4.3650002 1.3558115 1.7772032 0
4.4000001 1.3465399 1.7893248 0
4.4060001 1.3414026 1.7914027 0
4.4120002 1.3362437 1.7934808 0
4.4180002 1.3310633 1.7955588 0
4.4230003 1.3255202 1.7972903 0
4.3250003 1.4266291 1.7562701 0
4.323 1.4188023 1.7555809 0
4.3280001 1.4135839 1.7573036 0
4.3330002 1.4083474 1.7590262 0
4.3390002 1.4034609 1.7610933 0
4.3440003 1.3981867 1.7628161 0
4.3500004 1.3932587 1.7648833 0
4.3510003 1.3864962 1.7652277 0
4.349 1.3786478 1.7645386 0
4.348 1.3711655 1.7641941 0
4.3460002 1.3633298 1.7635051 0
4.3530002 1.3586994 1.7659167 0
4.3650002 1.3558115 1.770051 0
4.4000001 1.3465399 1.7821095 0
4.4060001 1.3414026 1.7841766 0
4.4120002 1.3362437 1.7862438 0
4.4180002 1.3310633 1.788311 0
4.4230003 1.3255202 1.7900337 0
4.3250003 1.4266291 1.7491901 0
4.323 1.4188023 1.7485045 0
4.3280001 1.4135839 1.7502183 0
4.3330002 1.4083474 1.7519318 0
4.3390002 1.4034609 1.7539881 0
4.3440003 1.3981867 1.7557018 0
4.3500004 1.3932587 1.7577581 0
4.3510003 1.3864962 1.7581009 0
4.349 1.3786478 1.7574153 0
4.348 1.3711655 1.7570727 0
4.3460002 1.3633298 1.7563871 0
4.3530002 1.3586994 1.7587862 0
4.3650002 1.3558115 1.7628989 0
4.4000001 1.3465399 1.7748942 0
4.4060001 1.3414026 1.7769506 0
4.4120002 1.3362437 1.779007 0
4.4180002 1.3310633 1.7810633 0
4.4230003 1.3255202 1.782777 0
4.3250003 1.4266291 1.74211 0
4.322 1.418429 1.7410873 0
4.3280001 1.4135839 1.7431328 0
4.3330002 1.4083474 1.7448374 0
4.3390002 1.4034609 1.7468829 0
4.3440003 1.3981867 1.7485875 0
4.3500004 1.3932587 1.7506331 0
4.3510003 1.3864962 1.7509739 0
4.349 1.3786478 1.7502922 0
4.348 1.3711655 1.7499512 0
4.3460002 1.3633298 1.7492694 0
4.3530002 1.3586994 1.7516558 0
4.3650002 1.3558115 1.7557468 0
4.4000001 1.3465399 1.767679 0
4.4060001 1.3414026 1.7697246 0
4.4120002 1.3362437 1.77177 0
4.4170003 1.3307205 1.7734747 0
4.4230003 1.3255202 1.7755202 0
4.3250003 1.4266291 1.7350302 0
4.322 1.418429 1.7340128 0
4.3280001 1.4135839 1.7360475 0
4.3330002 1.4083474 1.737743 0
4.3390002 1.4034609 1.7397778 0
4.3440003 1.3981867 1.7414733 0
4.3500004 1.3932587 1.743508 0
4.3510003 1.3864962 1.7438471 0
4.349 1.3786478 1.743169 0
4.348 1.3711655 1.7428298 0
4.3460002 1.3633298 1.7421515 0
4.3520002 1.358344 1.7441863 0
4.3650002 1.3558115 1.7485948 0
4.4000001 1.3465399 1.7604637 0
4.4060001 1.3414026 1.7624985 0
4.4120002 1.3362437 1.7645333 0
4.4170003 1.3307205 1.7662288 0
4.4230003 1.3255202 1.7682635 0
4.3250003 1.4266291 1.7279502 0
4.322 1.418429 1.7269382 0
4.3280001 1.4135839 1.7289621 0
4.3330002 1.4083474 1.7306486 0
4.3390002 1.4034609 1.7326726 0
4.3440003 1.3981867 1.7343591 0
4.3500004 1.3932587 1.736383 0
4.3510003 1.3864962 1.7367203 0
4.349 1.3786478 1.7360456 0
4.348 1.3711655 1.7357085 0
4.3460002 1.3633298 1.7350338 0
4.3520002 1.358344 1.7370577 0
4.3650002 1.3558115 1.7414427 0
4.4000001 1.3465399 1.7532486 0
4.4060001 1.3414026 1.7552724 0
4.4120002 1.3362437 1.7572963 0
4.4170003 1.3307205 1.7589829 0
4.4230003 1.3255202 1.7610067 0
4.3250003 1.4266291 1.7208703 0
4.322 1.418429 1.7198637 0
4.3280001 1.4135839 1.7218767 0
4.3330002 1.4083474 1.7235543 0
4.3390002 1.4034609 1.7255673 0
4.3440003 1.3981867 1.727245 0
4.3500004 1.3932587 1.7292581 0
4.3510003 1.3864962 1.7295935 0
4.349 1.3786478 1.7289225 0
4.348 1.3711655 1.728587 0
4.3460002 1.3633298 1.7279159 0
4.3520002 1.358344 1.729929 0
4.3650002 1.3558115 1.7342906 0
4.4000001 1.3465399 1.7460333 0
4.4060001 1.3414026 1.7480464 0
4.4120002 1.3362437 1.7500594 0
4.4170003 1.3307205 1.751737 0
4.4230003 1.3255202 1.75375 0
4.3250003 1.4266291 1.7137903 0
4.322 1.418429 1.7127892 0
4.3280001 1.4135839 1.7147914 0
4.3330002 1.4083474 1.71646 0
4.3390002 1.4034609 1.7184621 0
4.3440003 1.3981867 1.7201307 0
4.3500004 1.3932587 1.7221329 0
4.3510003 1.3864962 1.7224667 0
4.349 1.3786478 1.7217991 0
4.348 1.3711655 1.7214656 0
4.3460002 1.3633298 1.720798 0
4.3520002 1.358344 1.7228004 0
4.3650002 1.3558115 1.7271384 0
4.4000001 1.3465399 1.738818 0
4.4060001 1.3414026 1.7408203 0
4.4120002 1.3362437 1.7428225 0
4.4170003 1.3307205 1.7444911 0
4.4230003 1.3255202 1.7464933 0
4.3250003 1.4266291 1.7067103 0
4.322 1.418429 1.7057146 0
4.3280001 1.4135839 1.707706 0
4.3330002 1.4083474 1.7093655 0
4.3390002 1.4034609 1.7113569 0
4.3440003 1.3981867 1.7130165 0
4.3500004 1.3932587 1.7150079 0
4.3510003 1.3864962 1.7153398 0
4.349 1.3786478 1.7146759 0
4.348 1.3711655 1.714344 0
4.3460002 1.3633298 1.7136803 0
4.3520002 1.358344 1.7156717 0
4.3650002 1.3558115 1.7199864 0
4.4000001 1.3465399 1.7316028 0
4.4060001 1.3414026 1.7335943 0
4.4120002 1.3362437 1.7355857 0
4.4170003 1.3307205 1.7372452 0
4.4230003 1.3255202 1.7392367 0
4.3250003 1.4266291 1.6996304 0
4.322 1.418429 1.6986401 0
4.3280001 1.4135839 1.7006207 0
4.3330002 1.4083474 1.7022711 0
4.3390002 1.4034609 1.7042518 0
4.3440003 1.3981867 1.7059023 0
4.3500004 1.3932587 1.7078829 0
4.3510003 1.3864962 1.7082129 0
4.349 1.3786478 1.7075527 0
4.348 1.3711655 1.7072226 0
4.3460002 1.3633298 1.7065624 0
4.3520002 1.358344 1.7085429 0
4.3650002 1.3558115 1.7128342 0
4.4000001 1.3465399 1.7243876 0
4.4060001 1.3414026 1.7263682 0
4.4120002 1.3362437 1.7283489 0
4.4170003 1.3307205 1.7299993 0
4.4230003 1.3255202 1.73198 0
4.3250003 1.4266291 1.6925504 0
4.322 1.418429 1.6915655 0
4.3280001 1.4135839 1.6935353 0
4.3330002 1.4083474 1.6951768 0
4.3390002 1.4034609 1.6971465 0
4.3440003 1.3981867 1.698788 0
4.3500004 1.3932587 1.7007577 0
4.3510003 1.3864962 1.701086 0
4.3500004 1.3790085 1.7007577 0
4.348 1.3711655 1.7001011 0
4.3460002 1.3633298 1.6994445 0
4.3520002 1.358344 1.7014143 0
4.3640003 1.355458 1.705354 0
4.4000001 1.3465399 1.7171724 0
4.4060001 1.3414026 1.7191421 0
4.4120002 1.3362437 1.7211119 0
4.4170003 1.3307205 1.7227534 0
4.4230003 1.3255202 1.7247232 0
4.3250003 1.4266291 1.6854706 0
4.322 1.418429 1.684491 0
4.3280001 1.4135839 1.68645 0
4.3330002 1.4083474 1.6880823 0
4.3390002 1.4034609 1.6900414 0
4.3440003 1.3981867 1.6916738 0
4.3500004 1.3932587 1.6936328 0
4.3510003 1.3864962 1.6939592 0
4.3500004 1.3790085 1.6936328 0
4.348 1.3711655 1.6929797 0
4.3460002 1.3633298 1.6923268 0
4.3520002 1.358344 1.6942856 0
4.3640003 1.355458 1.6982037 0
4.4000001 1.3465399 1.7099571 0
4.4060001 1.3414026 1.7119161 0
4.4120002 1.3362437 1.7138751 0
4.4170003 1.3307205 1.7155075 0
4.4230003 1.3255202 1.7174665 0
4.3250003 1.4266291 1.6783906 0
4.322 1.418429 1.6774164 0
4.3280001 1.4135839 1.6793647 0
4.3330002 1.4083474 1.680988 0
4.3390002 1.4034609 1.6829361 0
4.3440003 1.3981867 1.6845596 0
4.3500004 1.3932587 1.6865077 0
4.3510003 1.3864962 1.6868324 0
4.3500004 1.3790085 1.6865077 0
4.348 1.3711655 1.6858582 0
4.3460002 1.3633298 1.6852089 0
4.3520002 1.358344 1.687157 0
4.3640003 1.355458 1.6910533 0
4.4000001 1.3465399 1.7027419 0
4.4060001 1.3414026 1.7046901 0
4.4120002 1.3362437 1.7066382 0
4.4170003 1.3307205 1.7082616 0
4.4230003 1.3255202 1.7102097 0
4.3250003 1.4266291 1.6713105 0
4.322 1.418429 1.670342 0
4.3280001 1.4135839 1.6722794 0
4.3330002 1.4083474 1.6738937 0
4.3390002 1.4034609 1.6758308 0
4.3440003 1.3981867 1.6774454 0
4.3500004 1.3932587 1.6793827 0
4.3510003 1.3864962 1.6797056 0
4.3500004 1.3790085 1.6793827 0
4.348 1.3711655 1.6787368 0
4.3460002 1.3633298 1.6780912 0
4.3520002 1.358344 1.6800284 0
4.3640003 1.355458 1.683903 0
4.4000001 1.3465399 1.6955267 0
4.4060001 1.3414026 1.697464 0
4.4110003 1.3358992 1.6990784 0
4.4170003 1.3307205 1.7010157 0
4.4230003 1.3255202 1.7029531 0
4.3250003 1.4266291 1.6642307 0
4.322 1.418429 1.6632674 0
4.3280001 1.4135839 1.6651939 0
4.3330002 1.4083474 1.6667993 0
4.3390002 1.4034609 1.6687257 0
4.3440003 1.3981867 1.6703311 0
4.3500004 1.3932587 1.6722577 0
4.3510003 1.3864962 1.6725787 0
4.3500004 1.3790085 1.6722577 0
4.348 1.3711655 1.6716155 0
4.3460002 1.3633298 1.6709733 0
4.3520002 1.358344 1.6728998 0
4.3640003 1.355458 1.6767527 0
4.4000001 1.3465399 1.6883115 0
4.4060001 1.3414026 1.6902379 0
4.4110003 1.3358992 1.6918433 0
4.4170003 1.3307205 1.6937699 0
4.4230003 1.3255202 1.6956964 0
4.3250003 1.4266291 1.6571507 0
4.322 1.418429 1.6561929 0
4.3280001 1.4135839 1.6581086 0
4.3330002 1.4083474 1.6597048 0
4.3390002 1.4034609 1.6616205 0
4.3440003 1.3981867 1.6632168 0
4.3500004 1.3932587 1.6651325 0
4.3510003 1.3864962 1.6654519 0
4.3500004 1.3790085 1.6651325 0
4.348 1.3711655 1.664494 0
4.3460002 1.3633298 1.6638554 0
4.3520002 1.358344 1.6657711 0
4.3640003 1.355458 1.6696024 0
4.4000001 1.3465399 1.6810962 0
4.4060001 1.3414026 1.6830119 0
4.4110003 1.3358992 1.6846082 0
4.4170003 1.3307205 1.6865239 0
4.4230003 1.3255202 1.6884396 0
4.3250003 1.4266291 1.6500708 0
4.322 1.418429 1.6491183 0
4.3280001 1.4135839 1.6510233 0
4.3330002 1.4083474 1.6526105 0
4.3390002 1.4034609 1.6545154 0
4.3440003 1.3981867 1.6561028 0
4.3500004 1.3932587 1.6580076 0
4.3510003 1.3864962 1.658325 0
4.3500004 1.3790085 1.6580076 0
4.348 1.3711655 1.6573726 0
4.3460002 1.3633298 1.6567377 0
4.3520002 1.358344 1.6586424 0
4.3640003 1.355458 1.6624522 0
4.4000001 1.3465399 1.6738809 0
4.4060001 1.3414026 1.6757859 0
4.4110003 1.3358992 1.6773732 0
4.4170003 1.3307205 1.6792781 0
4.4230003 1.3255202 1.6811829 0
4.3250003 1.4266291 1.6429908 0
4.322 1.418429 1.6420438 0
4.3280001 1.4135839 1.6439378 0
4.3330002 1.4083474 1.6455162 0
4.3390002 1.4034609 1.6474102 0
4.3440003 1.3981867 1.6489886 0
4.3500004 1.3932587 1.6508825 0
4.3510003 1.3864962 1.6511981 0
4.3500004 1.3790085 1.6508825 0
4.348 1.3711655 1.6502512 0
4.3460002 1.3633298 1.6496197 0
4.3520002 1.358344 1.6515138 0
4.3640003 1.355458 1.6553018 0
4.4000001 1.3465399 1.6666658 0
4.4060001 1.3414026 1.6685597 0
4.4110003 1.3358992 1.6701381 0
4.4170003 1.3307205 1.6720321 0
4.4230003 1.3255202 1.6739261 0
4.3250003 1.4266291 1.6359109 0
4.322 1.418429 1.6349694 0
4.3280001 1.4135839 1.6368525 0
4.3330002 1.4083474 1.6384218 0
4.3380003 1.403093 1.639991 0
4.3440003 1.3981867 1.6418743 0
4.3500004 1.3932587 1.6437575 0
4.3510003 1.3864962 1.6440713 0
4.3500004 1.3790085 1.6437575 0
4.348 1.3711655 1.6431297 0
4.3460002 1.3633298 1.642502 0
4.3520002 1.358344 1.6443851 0
4.3640003 1.355458 1.6481515 0
4.4000001 1.3465399 1.6594505 0
4.4060001 1.3414026 1.6613337 0
4.4110003 1.3358992 1.662903 0
4.4170003 1.3307205 1.6647862 0
4.4230003 1.3255202 1.6666694 0
4.3260002 1.4270042 1.6291429 0
4.322 1.418429 1.6278948 0
4.3270001 1.4132123 1.6294551 0
4.3330002 1.4083474 1.6313274 0
4.3380003 1.403093 1.6328877 0
4.3440003 1.3981867 1.63476 0
4.349 1.3928941 1.6363202 0
4.3510003 1.3864962 1.6369444 0
4.3500004 1.3790085 1.6366324 0
4.348 1.3711655 1.6360083 0
4.3460002 1.3633298 1.6353841 0
4.3520002 1.358344 1.6372565 0
4.3640003 1.355458 1.6410012 0
4.4000001 1.3465399 1.6522353 0
4.4060001 1.3414026 1.6541077 0
4.4110003 1.3358992 1.6556679 0
4.4170003 1.3307205 1.6575403 0
4.4230003 1.3255202 1.6594127 0
4.3260002 1.4270042 1.6220613 0
4.322 1.418429 1.6208203 0
4.3270001 1.4132123 1.6223714 0
4.3330002 1.4083474 1.624233 0
4.3380003 1.403093 1.6257844 0
4.3440003 1.3981867 1.6276459 0
4.349 1.3928941 1.6291971 0
4.3510003 1.3864962 1.6298176 0
4.3500004 1.3790085 1.6295073 0
4.348 1.3711655 1.6288868 0
4.3460002 1.3633298 1.6282663 0
4.3520002 1.358344 1.6301278 0
4.3640003 1.355458 1.6338509 0
4.4000001 1.3465399 1.64502 0
4.4060001 1.3414026 1.6468816 0
4.4110003 1.3358992 1.6484329 0
4.4170003 1.3307205 1.6502944 0
4.4230003 1.3255202 1.652156 0
4.3260002 1.4270042 1.6149794 0
4.322 1.418429 1.6137457 0
4.3270001 1.4132123 1.6152879 0
4.3330002 1.4083474 1.6171386 0
4.3380003 1.403093 1.6186808 0
4.3440003 1.3981867 1.6205317 0
4.349 1.3928941 1.6220738 0
4.3510003 1.3864962 1.6226908 0
4.3500004 1.3790085 1.6223824 0
4.348 1.3711655 1.6217654 0
4.3460002 1.3633298 1.6211485 0
4.3510003 1.3579887 1.6226908 0
4.3640003 1.355458 1.6267006 0
4.4000001 1.3465399 1.6378049 0
4.4060001 1.3414026 1.6396555 0
4.4110003 1.3358992 1.6411978 0
4.4170003 1.3307205 1.6430485 0
4.4230003 1.3255202 1.6448992 0
4.3260002 1.4270042 1.6078978 0
4.322 1.418429 1.6066712 0
4.3270001 1.4132123 1.6082044 0
4.3330002 1.4083474 1.6100442 0
4.3380003 1.403093 1.6115775 0
4.3440003 1.3981867 1.6134174 0
4.349 1.3928941 1.6149507 0
4.3510003 1.3864962 1.615564 0
4.3500004 1.3790085 1.6152574 0
4.348 1.3711655 1.6146439 0
4.3460002 1.3633298 1.6140306 0
4.3510003 1.3579887 1.615564 0
4.3640003 1.355458 1.6195503 0
4.4000001 1.3465399 1.6305896 0
4.4060001 1.3414026 1.6324295 0
4.4110003 1.3358992 1.6339628 0
4.4170003 1.3307205 1.6358026 0
4.4230003 1.3255202 1.6376425 0
4.3260002 1.4270042 1.600816 0
4.322 1.418429 1.5995966 0
4.3270001 1.4132123 1.6011208 0
4.3330002 1.4083474 1.6029499 0
4.3380003 1.403093 1.6044741 0
4.3440003 1.3981867 1.6063031 0
4.349 1.3928941 1.6078274 0
4.3510003 1.3864962 1.6084371 0
4.3500004 1.3790085 1.6081322 0
4.348 1.3711655 1.6075226 0
4.3460002 1.3633298 1.6069129 0
4.3510003 1.3579887 1.6084371 0
4.3640003 1.355458 1.6124001 0
4.4000001 1.3465399 1.6233743 0
4.4050002 1.3410563 1.6248987 0
4.4110003 1.3358992 1.6267277 0
4.4170003 1.3307205 1.6285567 0
4.4230003 1.3255202 1.6303858 0
4.3260002 1.4270042 1.5937341 0
4.322 1.418429 1.5925221 0
4.3270001 1.4132123 1.5940373 0
4.3330002 1.4083474 1.5958555 0
4.3380003 1.403093 1.5973707 0
4.3440003 1.3981867 1.5991889 0
4.349 1.3928941 1.6007041 0
4.3510003 1.3864962 1.6013103 0
4.3500004 1.3790085 1.6010072 0
4.348 1.3711655 1.6004012 0
4.3460002 1.3633298 1.599795 0
4.3510003 1.3579887 1.6013103 0
4.3640003 1.355458 1.6052498 0
4.4000001 1.3465399 1.6161591 0
4.4050002 1.3410563 1.6176744 0
4.4110003 1.3358992 1.6194927 0
4.4170003 1.3307205 1.6213108 0
4.4230003 1.3255202 1.623129 0
4.3260002 1.4270042 1.5866525 0
4.322 1.418429 1.5854474 0
4.3270001 1.4132123 1.5869536 0
4.3330002 1.4083474 1.5887611 0
4.3380003 1.403093 1.5902673 0
4.3440003 1.3981867 1.5920748 0
4.349 1.3928941 1.593581 0
4.3510003 1.3864962 1.5941833 0
4.3500004 1.3790085 1.5938821 0
4.348 1.3711655 1.5932797 0
4.3460002 1.3633298 1.5926771 0
4.3510003 1.3579887 1.5941833 0
4.3640003 1.355458 1.5980995 0
4.4000001 1.3465399 1.6089439 0
4.4050002 1.3410563 1.6104501 0
4.4110003 1.3358992 1.6122576 0
4.4170003 1.3307205 1.6140649 0
4.4230003 1.3255202 1.6158724 0
4.3260002 1.4270042 1.5795707 0
4.322 1.418429 1.578373 0
4.3270001 1.4132123 1.5798701 0
4.3330002 1.4083474 1.5816667 0
4.3380003 1.403093 1.5831639 0
4.3440003 1.3981867 1.5849606 0
4.349 1.3928941 1.5864576 0
4.3510003 1.3864962 1.5870565 0
4.3500004 1.3790085 1.5867572 0
4.348 1.3711655 1.5861583 0
4.3460002 1.3633298 1.5855594 0
4.3510003 1.3579887 1.5870565 0
4.3630004 1.3551044 1.5906497 0
4.4000001 1.3465399 1.6017287 0
4.4050002 1.3410563 1.6032258 0
4.4110003 1.3358992 1.6050225 0
4.4170003 1.3307205 1.606819 0
4.4230003 1.3255202 1.6086156 0
4.3260002 1.4270042 1.572489 0
4.322 1.418429 1.5712984 0
4.3270001 1.4132123 1.5727866 0
4.3330002 1.4083474 1.5745723 0
4.3380003 1.403093 1.5760605 0
4.3440003 1.3981867 1.5778463 0
4.349 1.3928941 1.5793344 0
4.3510003 1.3864962 1.5799297 0
4.3500004 1.3790085 1.5796322 0
4.348 1.3711655 1.5790368 0
4.3460002 1.3633298 1.5784415 0
4.3510003 1.3579887 1.5799297 0
4.3630004 1.3551044 1.5835012 0
4.4000001 1.3465399 1.5945134 0
4.4050002 1.3410563 1.5960016 0
4.4110003 1.3358992 1.5977874 0
4.4170003 1.3307205 1.5995733 0
4.4220004 1.3251793 1.6010613 0
4.3260002 1.4270042 1.5654072 0
4.322 1.418429 1.5642239 0
4.3270001 1.4132123 1.5657032 0
4.3330002 1.4083474 1.5674779 0
4.3380003 1.403093 1.5689571 0
4.3440003 1.3981867 1.5707321 0
4.349 1.3928941 1.5722113 0
4.3510003 1.3864962 1.5728029 0
4.3500004 1.3790085 1.572507 0
4.348 1.3711655 1.5719154 0
4.3460002 1.3633298 1.5713238 0
4.3510003 1.3579887 1.5728029 0
4.3630004 1.3551044 1.5763528 0
4.4000001 1.3465399 1.5872982 0
4.4050002 1.3410563 1.5887773 0
4.4110003 1.3358992 1.5905523 0
4.4170003 1.3307205 1.5923272 0
4.4220004 1.3251793 1.5938064 0
4.3260002 1.4270042 1.5583255 0
4.322 1.418429 1.5571494 0
4.3270001 1.4132123 1.5586196 0
4.3330002 1.4083474 1.5603837 0
4.3380003 1.403093 1.5618538 0
4.3440003 1.3981867 1.5636179 0
4.349 1.3928941 1.5650879 0
4.3510003 1.3864962 1.5656761 0
4.3500004 1.3790085 1.565382 0
4.348 1.3711655 1.5647939 0
4.3460002 1.3633298 1.5642059 0
4.3510003 1.3579887 1.5656761 0
4.3630004 1.3551044 1.5692043 0
4.4000001 1.3465399 1.580083 0
4.4050002 1.3410563 1.5815531 0
4.4110003 1.3358992 1.5833173 0
4.4170003 1.3307205 1.5850815 0
4.4220004 1.3251793 1.5865515 0
4.3260002 1.4270042 1.5512437 0
4.322 1.418429 1.5500748 0
4.3270001 1.4132123 1.551536 0
4.3330002 1.4083474 1.5532892 0
4.3380003 1.403093 1.5547503 0
4.3440003 1.3981867 1.5565037 0
4.349 1.3928941 1.5579647 0
4.3510003 1.3864962 1.5585492 0
4.3500004 1.3790085 1.5582569 0
4.348 1.3711655 1.5576725 0
4.3460002 1.3633298 1.557088 0
4.3510003 1.3579887 1.5585492 0
4.3630004 1.3551044 1.5620558 0
4.4000001 1.3465399 1.5728678 0
4.4050002 1.3410563 1.5743288 0
4.4110003 1.3358992 1.5760822 0
4.4170003 1.3307205 1.5778354 0
4.4220004 1.3251793 1.5792966 0
4.3260002 1.4270042 1.5441619 0
4.322 1.418429 1.5430003 0
4.3270001 1.4132123 1.5444524 0
4.3330002 1.4083474 1.5461948 0
4.3380003 1.403093 1.5476469 0
4.3440003 1.3981867 1.5493894 0
4.349 1.3928941 1.5508415 0
4.3510003 1.3864962 1.5514222 0
4.3500004 1.3790085 1.551132 0
4.348 1.3711655 1.5505511 0
4.3460002 1.3633298 1.5499703 0
4.3510003 1.3579887 1.5514222 0
4.3630004 1.3551044 1.5549072 0
4.4000001 1.3465399 1.5656525 0
4.4050002 1.3410563 1.5671046 0
4.4110003 1.3358992 1.5688471 0
4.4170003 1.3307205 1.5705897 0
4.4220004 1.3251793 1.5720416 0
4.3260002 1.4270042 1.5370803 0
4.322 1.418429 1.5359257 0
4.3270001 1.4132123 1.5373689 0
4.3330002 1.4083474 1.5391005 0
4.3380003 1.403093 1.5405436 0
4.3440003 1.3981867 1.5422752 0
4.349 1.3928941 1.5437182 0
4.3510003 1.3864962 1.5442954 0
4.3500004 1.3790085 1.5440069 0
4.348 1.3711655 1.5434296 0
4.3460002 1.3633298 1.5428523 0
4.3510003 1.3579887 1.5442954 0
4.3630004 1.3551044 1.5477588 0
4.4000001 1.3465399 1.5584372 0
4.4050002 1.3410563 1.5598804 0
4.4110003 1.3358992 1.561612 0
4.4170003 1.3307205 1.5633436 0
4.4220004 1.3251793 1.5647867 0
4.3260002 1.4270042 1.5299984 0
4.322 1.418429 1.5288513 0
4.3270001 1.4132123 1.5302854 0
4.3330002 1.4083474 1.532006 0
4.3380003 1.403093 1.5334401 0
4.3440003 1.3981867 1.535161 0
4.349 1.3928941 1.536595 0
4.3510003 1.3864962 1.5371686 0
4.3500004 1.3790085 1.5368818 0
4.348 1.3711655 1.5363083 0
4.3460002 1.3633298 1.5357345 0
4.3510003 1.3579887 1.5371686 0
4.3630004 1.3551044 1.5406103 0
4.3990002 1.3461918 1.5509353 0
4.4050002 1.3410563 1.5526562 0
4.4110003 1.3358992 1.554377 0
4.4170003 1.3307205 1.5560977 0
4.4220004 1.3251793 1.5575318 0
4.3260002 1.4270042 1.5229168 0
4.322 1.418429 1.5217767 0
4.3270001 1.4132123 1.5232018 0
4.3330002 1.4083474 1.5249116 0
4.3380003 1.403093 1.5263368 0
4.3440003 1.3981867 1.5280467 0
4.349 1.3928941 1.5294718 0
4.3510003 1.3864962 1.5300418 0
4.3500004 1.3790085 1.5297568 0
4.348 1.3711655 1.5291868 0
4.3460002 1.3633298 1.5286168 0
4.3510003 1.3579887 1.5300418 0
4.3630004 1.3551044 1.5334618 0
4.3990002 1.3461918 1.5437219 0
4.4050002 1.3410563 1.5454319 0
4.4110003 1.3358992 1.5471419 0
4.4170003 1.3307205 1.5488518 0
4.4220004 1.3251793 1.550277 0
4.3260002 1.4270042 1.5158349 0
4.322 1.418429 1.5147022 0
4.3270001 1.4132123 1.5161182 0
4.3330002 1.4083474 1.5178174 0
4.3380003 1.403093 1.5192333 0
4.3440003 1.3981867 1.5209324 0
4.349 1.3928941 1.5223485 0
4.3510003 1.3864962 1.5229149 0
4.3500004 1.3790085 1.5226318 0
4.348 1.3711655 1.5220654 0
4.3460002 1.3633298 1.5214989 0
4.3510003 1.3579887 1.5229149 0
4.3630004 1.3551044 1.5263133 0
4.3990002 1.3461918 1.5365084 0
4.4050002 1.3410563 1.5382077 0
4.4110003 1.3358992 1.5399069 0
4.4170003 1.3307205 1.5416059 0
4.4220004 1.3251793 1.543022 0
4.3260002 1.4270042 1.5087532 0
4.322 1.418429 1.5076276 0
4.3270001 1.4132123 1.5090346 0
4.3320003 1.4079777 1.5104415 0
4.3380003 1.403093 1.5121299 0
4.3429999 1.3978204 1.5135369 0
4.349 1.3928941 1.5152253 0
4.3510003 1.3864962 1.5157881 0
4.3500004 1.3790085 1.5155067 0
4.348 1.3711655 1.5149438 0
4.3460002 1.3633298 1.5143811 0
4.3510003 1.3579887 1.5157881 0
4.3630004 1.3551044 1.5191648 0
4.3990002 1.3461918 1.529295 0
4.4050002 1.3410563 1.5309833 0
4.4110003 1.3358992 1.5326717 0
4.4160004 1.3303778 1.5340787 0
4.4220004 1.3251793 1.5357671 0
4.3260002 1.4270042 1.5016714 0
4.322 1.418429 1.5005531 0
4.3270001 1.4132123 1.5019511 0
4.3320003 1.4079777 1.5033489 0
4.3380003 1.403093 1.5050266 0
4.3429999 1.3978204 1.5064245 0
4.349 1.3928941 1.5081021 0
4.3510003 1.3864962 1.5086613 0
4.3500004 1.3790085 1.5083817 0
4.348 1.3711655 1.5078224 0
4.3460002 1.3633298 1.5072632 0
4.3500004 1.3576335 1.5083817 0
4.3630004 1.3551044 1.5120164 0
4.3990002 1.3461918 1.5220816 0
4.4050002 1.3410563 1.5237591 0
4.4110003 1.3358992 1.5254366 0
4.4160004 1.3303778 1.5268346 0
4.4220004 1.3251793 1.5285121 0
4.3260002 1.4270042 1.4945897 0
4.3210001 1.4180555 1.4932008 0
4.3270001 1.4132123 1.4948676 0
4.3320003 1.4079777 1.4962564 0
4.3380003 1.403093 1.4979231 0
4.3429999 1.3978204 1.499312 0
4.349 1.3928941 1.5009787 0
4.3510003 1.3864962 1.5015343 0
4.3500004 1.3790085 1.5012566 0
4.348 1.3711655 1.500701 0
4.3460002 1.3633298 1.5001454 0
4.3500004 1.3576335 1.5012566 0
4.3630004 1.3551044 1.5048679 0
4.3990002 1.3461918 1.5148681 0
4.4050002 1.3410563 1.5165348 0
4.4110003 1.3358992 1.5182016 0
4.4160004 1.3303778 1.5195905 0
4.4220004 1.3251793 1.5212573 0
4.3260002 1.4270042 1.4875079 0
4.3210001 1.4180555 1.4861281 0
4.3270001 1.4132123 1.487784 0
4.3320003 1.4079777 1.4891639 0
4.3380003 1.403093 1.4908198 0
4.3429999 1.3978204 1.4921997 0
4.349 1.3928941 1.4938556 0
4.3510003 1.3864962 1.4944075 0
4.3500004 1.3790085 1.4941316 0
4.348 1.3711655 1.4935795 0
4.3460002 1.3633298 1.4930277 0
4.3500004 1.3576335 1.4941316 0
4.3630004 1.3551044 1.4977194 0
4.3990002 1.3461918 1.5076547 0
4.4050002 1.3410563 1.5093106 0
4.4110003 1.3358992 1.5109665 0
4.4160004 1.3303778 1.5123465 0
4.4220004 1.3251793 1.5140023 0
4.3260002 1.4270042 1.4804262 0
4.3210001 1.4180555 1.4790554 0
4.3270001 1.4132123 1.4807005 0
4.3320003 1.4079777 1.4820713 0
4.3380003 1.403093 1.4837164 0
4.3429999 1.3978204 1.4850872 0
4.349 1.3928941 1.4867324 0
4.3510003 1.3864962 1.4872806 0
4.3500004 1.3790085 1.4870065 0
4.348 1.3711655 1.4864581 0
4.3460002 1.3633298 1.4859097 0
4.3500004 1.3576335 1.4870065 0
4.3630004 1.3551044 1.4905709 0
4.3990002 1.3461918 1.5004413 0
4.4050002 1.3410563 1.5020863 0
4.4110003 1.3358992 1.5037314 0
4.4160004 1.3303778 1.5051024 0
4.4220004 1.3251793 1.5067475 0
4.3270001 1.4273794 1.4736168 0
4.3210001 1.4180555 1.4719826 0
4.3270001 1.4132123 1.4736168 0
4.3320003 1.4079777 1.4749787 0
4.3380003 1.403093 1.4766129 0
4.3429999 1.3978204 1.4779748 0
4.349 1.3928941 1.479609 0
4.3510003 1.3864962 1.4801538 0
4.3500004 1.3790085 1.4798815 0
4.348 1.3711655 1.4793367 0
4.3460002 1.3633298 1.478792 0
4.3500004 1.3576335 1.4798815 0
4.3630004 1.3551044 1.4834223 0
4.3990002 1.3461918 1.4932278 0
4.4050002 1.3410563 1.4948621 0
4.4110003 1.3358992 1.4964963 0
4.4160004 1.3303778 1.4978582 0
4.4220004 1.3251793 1.4994924 0
4.3270001 1.4273794 1.4665333 0
4.3210001 1.4180555 1.4649098 0
4.3270001 1.4132123 1.4665333 0
4.3320003 1.4079777 1.4678862 0
4.3380003 1.403093 1.4695095 0
4.3429999 1.3978204 1.4708624 0
4.349 1.3928941 1.4724859 0
4.3510003 1.3864962 1.473027 0
4.3500004 1.3790085 1.4727565 0
4.348 1.3711655 1.4722153 0
4.3460002 1.3633298 1.4716741 0
4.3500004 1.3576335 1.4727565 0
4.362 1.3547509 1.4760033 0
4.3990002 1.3461918 1.4860145 0
4.4050002 1.3410563 1.4876378 0
4.4110003 1.3358992 1.4892613 0
4.4160004 1.3303778 1.4906141 0
4.4220004 1.3251793 1.4922376 0
4.3270001 1.4273794 1.4594498 0
4.3210001 1.4180555 1.4578372 0
4.3270001 1.4132123 1.4594498 0
4.3320003 1.4079777 1.4607936 0
4.3380003 1.403093 1.4624062 0
4.3429999 1.3978204 1.46375 0
4.349 1.3928941 1.4653625 0
4.3510003 1.3864962 1.4659002 0
4.3500004 1.3790085 1.4656314 0
4.348 1.3711655 1.4650939 0
4.3460002 1.3633298 1.4645563 0
4.3500004 1.3576335 1.4656314 0
4.362 1.3547509 1.4688566 0
4.3990002 1.3461918 1.478801 0
4.4050002 1.3410563 1.4804136 0
4.4110003 1.3358992 1.4820262 0
4.4160004 1.3303778 1.4833701 0
4.4220004 1.3251793 1.4849827 0
4.3270001 1.4273794 1.4523662 0
4.3210001 1.4180555 1.4507644 0
4.3270001 1.4132123 1.4523662 0
4.3320003 1.4079777 1.453701 0
4.3380003 1.403093 1.4553028 0
4.3429999 1.3978204 1.4566376 0
4.349 1.3928941 1.4582393 0
4.3510003 1.3864962 1.4587734 0
4.3500004 1.3790085 1.4585063 0
4.348 1.3711655 1.4579724 0
4.3460002 1.3633298 1.4574385 0
4.3500004 1.3576335 1.4585063 0
4.362 1.3547509 1.46171 0
4.3990002 1.3461918 1.4715875 0
4.4050002 1.3410563 1.4731892 0
4.4110003 1.3358992 1.4747912 0
4.4160004 1.3303778 1.476126 0
4.4220004 1.3251793 1.4777278 0
4.3270001 1.4273794 1.4452827 0
4.3210001 1.4180555 1.4436916 0
4.3270001 1.4132123 1.4452827 0
4.3320003 1.4079777 1.4466084 0
4.3380003 1.403093 1.4481994 0
4.3429999 1.3978204 1.4495252 0
4.349 1.3928941 1.4511161 0
4.3510003 1.3864962 1.4516466 0
4.3500004 1.3790085 1.4513813 0
4.348 1.3711655 1.450851 0
4.3460002 1.3633298 1.4503206 0
4.3500004 1.3576335 1.4513813 0
4.362 1.3547509 1.4545631 0
4.3990002 1.3461918 1.4643741 0
4.4050002 1.3410563 1.4659652 0
4.4110003 1.3358992 1.467556 0
4.4160004 1.3303778 1.4688818 0
4.4220004 1.3251793 1.4704729 0
4.3270001 1.4273794 1.438199 0
4.3210001 1.4180555 1.436619 0
4.3270001 1.4132123 1.438199 0
4.3320003 1.4079777 1.4395158 0
4.3380003 1.403093 1.4410961 0
4.3429999 1.3978204 1.4424127 0
4.349 1.3928941 1.4439929 0
4.3510003 1.3864962 1.4445195 0
4.3500004 1.3790085 1.4442562 0
4.348 1.3711655 1.4437295 0
4.3460002 1.3633298 1.4432029 0
4.3500004 1.3576335 1.4442562 0
4.362 1.3547509 1.4474165 0
4.3990002 1.3461918 1.4571607 0
4.4050002 1.3410563 1.4587408 0
4.4100003 1.3355547 1.4600576 0
4.4160004 1.3303778 1.4616379 0
4.4220004 1.3251793 1.4632179 0
4.3270001 1.4273794 1.4311155 0
4.3210001 1.4180555 1.4295462 0
4.3270001 1.4132123 1.4311155 0
4.3320003 1.4079777 1.4324232 0
4.3380003 1.403093 1.4339925 0
4.3429999 1.3978204 1.4353002 0
4.349 1.3928941 1.4368697 0
4.3510003 1.3864962 1.4373927 0
4.3500004 1.3790085 1.4371313 0
4.348 1.3711655 1.4366081 0
4.3460002 1.3633298 1.436085 0
4.3500004 1.3576335 1.4371313 0
4.362 1.3547509 1.4402698 0
4.3990002 1.3461918 1.4499472 0
4.4050002 1.3410563 1.4515166 0
4.4100003 1.3355547 1.4528244 0
4.4160004 1.3303778 1.4543937 0
4.4220004 1.3251793 1.455963 0
4.3270001 1.4273794 1.424032 0
4.3210001 1.4180555 1.4224734 0
4.3270001 1.4132123 1.424032 0
4.3320003 1.4079777 1.4253306 0
4.3380003 1.403093 1.4268892 0
4.3429999 1.3978204 1.4281878 0
4.349 1.3928941 1.4297464 0
