# .PCD v0.7 - Point Cloud Data file format
VERSION 0.7
FIELDS x y z intensity
SIZE 4 4 4 4
TYPE F F F F
COUNT 1 1 1 1
WIDTH 1423
HEIGHT 1
VIEWPOINT 0 0 0 1 0 0 0
POINTS 1423
DATA ascii
4.375 -0.5622499 2.067472 0
4.3770003 -0.56968343 2.0683088 0
4.3790002 -0.57712412 2.0691459 0
4.382 -0.58470732 2.0704012 0
4.3840003 -0.59216428 2.0712383 0
4.3860002 -0.59962845 2.0720754 0
4.3889999 -0.6072405 2.0733306 0
4.3910003 -0.61472088 2.0741677 0
4.3930001 -0.62220854 2.0750046 0
4.3960004 -0.62984943 2.0762601 0
4.3980002 -0.63735324 2.0770969 0
4.4000001 -0.64486432 2.077934 0
4.4030004 -0.65253413 2.0791895 0
4.4050002 -0.66006142 2.0800264 0
4.4070001 -0.66759586 2.0808635 0
4.4100003 -0.67529458 2.082119 0
4.4120002 -0.68284529 2.0829558 0
4.4150004 -0.6905638 2.0842113 0
4.4170003 -0.69813079 2.0850482 0
4.4190001 -0.70570499 2.0858853 0
4.4220004 -0.71345234 2.0871408 0
4.4240003 -0.72104275 2.0879776 0
4.4260001 -0.72864038 2.0888145 0
4.4290004 -0.73641664 2.09007 0
4.4310002 -0.74403048 2.0909069 0
4.4340005 -0.75182658 2.0921626 0
4.4360003 -0.75945663 2.0929995 0
4.4380002 -0.76709402 2.0938363 0
4.4410005 -0.77491891 2.0950918 0
4.4430003 -0.78257245 2.0959289 0
4.4460001 -0.79041719 2.0971842 0
4.4480004 -0.79808706 2.0980213 0
4.4500003 -0.80576402 2.0988581 0
4.4530001 -0.81363761 2.1001136 0
4.4550004 -0.8213309 2.1009507 0
4.4580002 -0.82922435 2.102206 0
4.4600005 -0.83693385 2.1030431 0
4.4620004 -0.84465057 2.1038799 0
4.4650002 -0.8525728 2.1051354 0
4.4670005 -0.86030585 2.1059725 0
4.4700003 -0.86824799 2.1072278 0
4.4720001 -0.87599713 2.1080647 0
4.4750004 -0.88395911 2.1093204 0
4.4770002 -0.89172447 2.1101573 0
4.4790001 -0.89949709 2.1109941 0
4.4820004 -0.90748799 2.1122496 0
4.4820004 -0.91485113 2.1122496 0
4.4760003 -0.92092639 2.1097388 0
4.4710002 -0.92719638 2.1076465 0
4.4650002 -0.93323016 2.1051354 0
4.4670005 -0.94100279 2.1059725 0
4.4780002 -0.95077932 2.1105757 0
4.5040002 -0.97875643 2.1214564 0
4.5060005 -0.98661745 2.1222935 0
4.5090003 -0.99471653 2.1235487 0
4.2490001 -0.087657154 2.0078003 0
4.2490001 -0.094600007 2.0078003 0
4.2490001 -0.10154286 2.0078003 0
4.2490001 -0.10848572 2.0078003 0
4.2490001 -0.11542858 2.0078003 0
4.2490001 -0.12237144 2.0078003 0
4.2490001 -0.1293143 2.0078003 0
4.2490001 -0.13625716 2.0078003 0
4.2490001 -0.14320001 2.0078003 0
4.2490001 -0.15014288 2.0078003 0
4.2490001 -0.15708573 2.0078003 0
4.2509999 -0.16408992 2.0086334 0
4.2530003 -0.17110132 2.0094669 0
4.2550001 -0.17811994 2.0103002 0
4.2580004 -0.18518184 2.0115502 0
4.2600002 -0.19221669 2.0123837 0
4.2620001 -0.19925877 2.013217 0
4.2639999 -0.20630804 2.0140502 0
4.2660003 -0.21336454 2.0148838 0
4.2690001 -0.22047336 2.0161338 0
4.2710004 -0.2275461 2.0169671 0
4.2730002 -0.23462604 2.0178003 0
4.2750001 -0.2417132 2.0186338 0
4.277 -0.24880758 2.0194671 0
4.2800002 -0.25596327 2.0207171 0
4.2820001 -0.26307389 2.0215507 0
4.2840004 -0.27019173 2.0223839 0
4.2860003 -0.27731675 2.0232172 0
4.2880001 -0.28444901 2.0240507 0
4.2910004 -0.29165164 2.0253007 0
4.2930002 -0.29880014 2.026134 0
4.2950001 -0.30595583 2.0269675 0
4.2969999 -0.31311873 2.0278008 0
4.3000002 -0.32035923 2.0290508 0
4.302 -0.32753837 2.0298841 0
4.3040004 -0.33472478 2.0307176 0
4.3060002 -0.34191835 2.0315509 0
4.309 -0.3491967 2.0328009 0
4.3110003 -0.35640654 2.0336342 0
4.3130002 -0.36362356 2.0344677 0
4.3150001 -0.37084782 2.035301 0
4.3180003 -0.37816408 2.036551 0
4.3200002 -0.38540456 2.0373843 0
4.322 -0.39265227 2.0382178 0
4.3240004 -0.39990717 2.0390511 0
4.3270001 -0.40726131 2.0403013 0
4.329 -0.41453245 2.0411346 0
4.3310003 -0.42181084 2.0419679 0
4.3330002 -0.4290964 2.0428011 0
4.336 -0.43648842 2.0440512 0
4.3380003 -0.44379023 2.0448847 0
4.3400002 -0.45109928 2.045718 0
4.342 -0.45841548 2.0465515 0
4.3450003 -0.46584538 2.0478015 0
4.3470001 -0.47317788 2.0486348 0
4.349 -0.48051757 2.049468 0
4.3520002 -0.48797628 2.0507181 0
4.3540001 -0.49533227 2.0515516 0
4.3559999 -0.50269538 2.0523849 0
4.3590002 -0.51018298 2.0536349 0
4.3610001 -0.51756239 2.0544682 0
4.3630004 -0.52494895 2.0553017 0
4.3650002 -0.53234273 2.0561349 0
4.368 -0.5398683 2.057385 0
4.3700004 -0.54727834 2.0582185 0
4.3720002 -0.55469561 2.0590518 0
4.375 -0.5622499 2.0603018 0
4.3770003 -0.56968343 2.0611353 0
4.3790002 -0.57712412 2.0619686 0
4.382 -0.58470732 2.0632186 0
4.3840003 -0.59216428 2.0640519 0
4.3860002 -0.59962845 2.0648854 0
4.3889999 -0.6072405 2.0661354 0
4.3910003 -0.61472088 2.0669687 0
4.3930001 -0.62220854 2.067802 0
4.3960004 -0.62984943 2.069052 0
4.3980002 -0.63735324 2.0698855 0
4.4000001 -0.64486432 2.0707188 0
4.4030004 -0.65253413 2.0719688 0
4.4050002 -0.66006142 2.0728021 0
4.4070001 -0.66759586 2.0736356 0
4.4100003 -0.67529458 2.0748856 0
4.4120002 -0.68284529 2.0757189 0
4.4150004 -0.6905638 2.0769691 0
4.4170003 -0.69813079 2.0778024 0
4.4190001 -0.70570499 2.0786357 0
4.4220004 -0.71345234 2.0798857 0
4.4240003 -0.72104275 2.0807192 0
4.4260001 -0.72864038 2.0815523 0
4.4290004 -0.73641664 2.0828025 0
4.4310002 -0.74403048 2.0836358 0
4.4340005 -0.75182658 2.0848858 0
4.4360003 -0.75945663 2.0857193 0
4.4380002 -0.76709402 2.0865526 0
4.4410005 -0.77491891 2.0878026 0
4.4430003 -0.78257245 2.0886359 0
4.4460001 -0.79041719 2.089886 0
4.4480004 -0.79808706 2.0907195 0
4.4500003 -0.80576402 2.0915527 0
4.4530001 -0.81363761 2.0928028 0
4.4550004 -0.8213309 2.0936363 0
4.4580002 -0.82922435 2.0948861 0
4.4600005 -0.83693385 2.0957196 0
4.4620004 -0.84465057 2.0965531 0
4.4650002 -0.8525728 2.0978029 0
4.4670005 -0.86030585 2.0986364 0
4.4700003 -0.86824799 2.0998864 0
4.4720001 -0.87599713 2.1007197 0
4.4750004 -0.88395911 2.1019697 0
4.4770002 -0.89172447 2.1028032 0
4.4790001 -0.89949709 2.1036365 0
4.4820004 -0.90748799 2.1048865 0
4.4820004 -0.91485113 2.1048865 0
4.4760003 -0.92092639 2.1023865 0
4.4710002 -0.92719638 2.1003029 0
4.4650002 -0.93323016 2.0978029 0
4.4670005 -0.94100279 2.0986364 0
4.4780002 -0.95077932 2.1032197 0
4.5040002 -0.97875643 2.1140535 0
4.5060005 -0.98661745 2.114887 0
4.5090003 -0.99471653 2.116137 0
4.2660003 -0.14362931 2.0079103 0
4.2660003 -0.15060283 2.0079103 0
4.2660003 -0.15757637 2.0079103 0
4.2660003 -0.16454987 2.0079103 0
4.2660003 -0.17152341 2.0079103 0
4.2660003 -0.17849693 2.0079103 0
4.2660003 -0.18547046 2.0079103 0
4.2660003 -0.19244398 2.0079103 0
4.2660003 -0.1994175 2.0079103 0
4.2660003 -0.20639104 2.0079103 0
4.2660003 -0.21336454 2.0079103 0
4.2690001 -0.22047336 2.0091548 0
4.2710004 -0.2275461 2.0099847 0
4.2730002 -0.23462604 2.0108144 0
4.2750001 -0.2417132 2.0116441 0
4.277 -0.24880758 2.0124738 0
4.2800002 -0.25596327 2.0137184 0
4.2820001 -0.26307389 2.0145483 0
4.2840004 -0.27019173 2.015378 0
4.2860003 -0.27731675 2.0162077 0
4.2880001 -0.28444901 2.0170374 0
4.2910004 -0.29165164 2.0182822 0
4.2930002 -0.29880014 2.0191119 0
4.2950001 -0.30595583 2.0199416 0
4.2969999 -0.31311873 2.0207713 0
4.3000002 -0.32035923 2.0220158 0
4.302 -0.32753837 2.0228457 0
4.3040004 -0.33472478 2.0236754 0
4.3060002 -0.34191835 2.0245051 0
4.309 -0.3491967 2.0257497 0
4.3110003 -0.35640654 2.0265796 0
4.3130002 -0.36362356 2.0274093 0
4.3150001 -0.37084782 2.0282393 0
4.3180003 -0.37816408 2.0294838 0
4.3200002 -0.38540456 2.0303135 0
4.322 -0.39265227 2.0311432 0
4.3240004 -0.39990717 2.0319731 0
4.3270001 -0.40726131 2.0332177 0
4.329 -0.41453245 2.0340474 0
4.3310003 -0.42181084 2.0348771 0
4.3330002 -0.4290964 2.0357068 0
4.336 -0.43648842 2.0369515 0
4.3380003 -0.44379023 2.0377812 0
4.3400002 -0.45109928 2.0386112 0
4.342 -0.45841548 2.0394406 0
4.3450003 -0.46584538 2.0406854 0
4.3470001 -0.47317788 2.0415151 0
4.349 -0.48051757 2.0423448 0
4.3520002 -0.48797628 2.0435896 0
4.3540001 -0.49533227 2.0444193 0
4.3559999 -0.50269538 2.045249 0
4.3590002 -0.51018298 2.0464935 0
4.3610001 -0.51756239 2.0473235 0
4.3630004 -0.52494895 2.0481532 0
4.3650002 -0.53234273 2.0489829 0
4.368 -0.5398683 2.0502274 0
4.3700004 -0.54727834 2.0510573 0
4.3720002 -0.55469561 2.051887 0
4.375 -0.5622499 2.0531316 0
4.3770003 -0.56968343 2.0539615 0
4.3790002 -0.57712412 2.0547912 0
4.382 -0.58470732 2.0560358 0
4.3840003 -0.59216428 2.0568657 0
4.3860002 -0.59962845 2.0576954 0
4.3889999 -0.6072405 2.0589399 0
4.3910003 -0.61472088 2.0597696 0
4.3930001 -0.62220854 2.0605996 0
4.3960004 -0.62984943 2.0618441 0
4.3980002 -0.63735324 2.0626738 0
4.4000001 -0.64486432 2.0635035 0
4.4030004 -0.65253413 2.0647483 0
4.4050002 -0.66006142 2.065578 0
4.4070001 -0.66759586 2.0664077 0
4.4100003 -0.67529458 2.0676522 0
4.4120002 -0.68284529 2.0684819 0
4.4150004 -0.6905638 2.0697267 0
4.4170003 -0.69813079 2.0705564 0
4.4190001 -0.70570499 2.0713861 0
4.4220004 -0.71345234 2.0726309 0
4.4240003 -0.72104275 2.0734606 0
4.4260001 -0.72864038 2.0742903 0
4.4290004 -0.73641664 2.0755351 0
4.4310002 -0.74403048 2.0763648 0
4.4340005 -0.75182658 2.0776093 0
4.4360003 -0.75945663 2.078439 0
4.4380002 -0.76709402 2.0792689 0
4.4410005 -0.77491891 2.0805135 0
4.4430003 -0.78257245 2.0813432 0
4.4460001 -0.79041719 2.0825877 0
4.4480004 -0.79808706 2.0834177 0
4.4500003 -0.80576402 2.0842474 0
4.4530001 -0.81363761 2.0854919 0
4.4550004 -0.8213309 2.0863218 0
4.4580002 -0.82922435 2.0875664 0
4.4600005 -0.83693385 2.0883963 0
4.4620004 -0.84465057 2.089226 0
4.4650002 -0.8525728 2.0904706 0
4.4670005 -0.86030585 2.0913002 0
4.4700003 -0.86824799 2.0925448 0
4.4720001 -0.87599713 2.0933745 0
4.4750004 -0.88395911 2.0946193 0
4.4770002 -0.89172447 2.095449 0
4.4790001 -0.89949709 2.0962787 0
4.4820004 -0.90748799 2.0975235 0
4.4820004 -0.91485113 2.0975235 0
4.4760003 -0.92092639 2.0950341 0
4.4710002 -0.92719638 2.0929596 0
4.4650002 -0.93323016 2.0904706 0
4.4670005 -0.94100279 2.0913002 0
4.4780002 -0.95077932 2.0958638 0
4.5040002 -0.97875643 2.1066506 0
4.5060005 -0.98661745 2.1074805 0
4.5090003 -0.99471653 2.1087251 0
4.283 -0.20009212 2.0079589 0
4.283 -0.20709632 2.0079589 0
4.283 -0.21410049 2.0079589 0
4.283 -0.22110468 2.0079589 0
4.283 -0.22810887 2.0079589 0
4.283 -0.23511305 2.0079589 0
4.283 -0.24211726 2.0079589 0
4.283 -0.24912143 2.0079589 0
4.283 -0.25612563 2.0079589 0
4.283 -0.2631298 2.0079589 0
4.2840004 -0.27019173 2.0083721 0
4.2860003 -0.27731675 2.0091982 0
4.2880001 -0.28444901 2.0100243 0
4.2910004 -0.29165164 2.0112636 0
4.2930002 -0.29880014 2.0120895 0
4.2950001 -0.30595583 2.0129158 0
4.2969999 -0.31311873 2.013742 0
4.3000002 -0.32035923 2.014981 0
4.302 -0.32753837 2.0158072 0
4.3040004 -0.33472478 2.0166335 0
4.3060002 -0.34191835 2.0174596 0
4.309 -0.3491967 2.0186987 0
4.3110003 -0.35640654 2.0195251 0
4.3130002 -0.36362356 2.0203509 0
4.3150001 -0.37084782 2.0211773 0
4.3180003 -0.37816408 2.0224164 0
4.3200002 -0.38540456 2.0232425 0
4.322 -0.39265227 2.0240688 0
4.3240004 -0.39990717 2.024895 0
4.3270001 -0.40726131 2.026134 0
4.329 -0.41453245 2.0269601 0
4.3310003 -0.42181084 2.0277863 0
4.3330002 -0.4290964 2.0286126 0
4.336 -0.43648842 2.0298517 0
4.3380003 -0.44379023 2.0306778 0
4.3400002 -0.45109928 2.0315042 0
4.342 -0.45841548 2.03233 0
4.3450003 -0.46584538 2.0335693 0
4.3470001 -0.47317788 2.0343955 0
4.349 -0.48051757 2.0352216 0
4.3520002 -0.48797628 2.0364609 0
4.3540001 -0.49533227 2.037287 0
4.3559999 -0.50269538 2.0381131 0
4.3590002 -0.51018298 2.0393524 0
4.3610001 -0.51756239 2.0401785 0
4.3630004 -0.52494895 2.0410047 0
4.3650002 -0.53234273 2.0418308 0
4.368 -0.5398683 2.0430701 0
4.3700004 -0.54727834 2.0438962 0
4.3720002 -0.55469561 2.0447223 0
4.375 -0.5622499 2.0459614 0
4.3770003 -0.56968343 2.0467877 0
4.3790002 -0.57712412 2.0476139 0
4.382 -0.58470732 2.0488532 0
4.3840003 -0.59216428 2.0496793 0
4.3860002 -0.59962845 2.0505054 0
4.3889999 -0.6072405 2.0517445 0
4.3910003 -0.61472088 2.0525706 0
4.3930001 -0.62220854 2.0533967 0
4.3960004 -0.62984943 2.054636 0
4.3980002 -0.63735324 2.0554621 0
4.4000001 -0.64486432 2.0562882 0
4.4030004 -0.65253413 2.0575275 0
4.4050002 -0.66006142 2.0583537 0
4.4070001 -0.66759586 2.0591798 0
4.4100003 -0.67529458 2.0604191 0
4.4120002 -0.68284529 2.0612452 0
4.4150004 -0.6905638 2.0624845 0
4.4170003 -0.69813079 2.0633106 0
4.4190001 -0.70570499 2.0641367 0
4.4220004 -0.71345234 2.065376 0
4.4240003 -0.72104275 2.0662019 0
4.4260001 -0.72864038 2.067028 0
4.4290004 -0.73641664 2.0682673 0
4.4310002 -0.74403048 2.0690937 0
4.4340005 -0.75182658 2.0703328 0
4.4360003 -0.75945663 2.0711589 0
4.4380002 -0.76709402 2.071985 0
4.4410005 -0.77491891 2.0732243 0
4.4430003 -0.78257245 2.0740504 0
4.4460001 -0.79041719 2.0752895 0
4.4480004 -0.79808706 2.0761158 0
4.4500003 -0.80576402 2.076942 0
4.4530001 -0.81363761 2.078181 0
4.4550004 -0.8213309 2.0790074 0
4.4580002 -0.82922435 2.0802464 0
4.4600005 -0.83693385 2.0810728 0
4.4620004 -0.84465057 2.0818989 0
4.4650002 -0.8525728 2.083138 0
4.4670005 -0.86030585 2.0839641 0
4.4700003 -0.86824799 2.0852034 0
4.4720001 -0.87599713 2.0860293 0
4.4750004 -0.88395911 2.0872688 0
4.4770002 -0.89172447 2.0880949 0
4.4790001 -0.89949709 2.0889208 0
4.4820004 -0.90748799 2.0901604 0
4.4820004 -0.91485113 2.0901604 0
4.4760003 -0.92092639 2.0876818 0
4.4710002 -0.92719638 2.0856164 0
4.4650002 -0.93323016 2.083138 0
4.4670005 -0.94100279 2.0839641 0
4.4780002 -0.95077932 2.0885079 0
4.5040002 -0.97875643 2.0992479 0
4.5060005 -0.98661745 2.1000741 0
4.5090003 -0.99471653 2.1013131 0
4.3000002 -0.25704554 2.0079463 0
4.3000002 -0.26408041 2.0079463 0
4.3000002 -0.27111527 2.0079463 0
4.3000002 -0.27815011 2.0079463 0
4.3000002 -0.28518498 2.0079463 0
4.3000002 -0.29221982 2.0079463 0
4.3000002 -0.29925469 2.0079463 0
4.3000002 -0.30628952 2.0079463 0
4.3000002 -0.31332436 2.0079463 0
4.3000002 -0.32035923 2.0079463 0
4.302 -0.32753837 2.0087688 0
4.3040004 -0.33472478 2.0095913 0
4.3060002 -0.34191835 2.0104139 0
4.309 -0.3491967 2.0116477 0
4.3110003 -0.35640654 2.0124702 0
4.3130002 -0.36362356 2.0132928 0
4.3150001 -0.37084782 2.0141153 0
4.3180003 -0.37816408 2.0153491 0
4.3200002 -0.38540456 2.0161715 0
4.322 -0.39265227 2.0169942 0
4.3240004 -0.39990717 2.0178168 0
4.3270001 -0.40726131 2.0190506 0
4.329 -0.41453245 2.0198729 0
4.3310003 -0.42181084 2.0206957 0
4.3330002 -0.4290964 2.021518 0
4.336 -0.43648842 2.0227518 0
4.3380003 -0.44379023 2.0235746 0
4.3400002 -0.45109928 2.0243971 0
4.342 -0.45841548 2.0252197 0
4.3450003 -0.46584538 2.0264533 0
4.3470001 -0.47317788 2.027276 0
4.349 -0.48051757 2.0280983 0
4.3520002 -0.48797628 2.0293322 0
4.3540001 -0.49533227 2.0301547 0
4.3559999 -0.50269538 2.0309772 0
4.3590002 -0.51018298 2.0322111 0
4.3610001 -0.51756239 2.0330336 0
4.3630004 -0.52494895 2.0338562 0
4.3650002 -0.53234273 2.0346787 0
4.368 -0.5398683 2.0359125 0
4.3700004 -0.54727834 2.0367351 0
4.3720002 -0.55469561 2.0375576 0
4.375 -0.5622499 2.0387914 0
4.3770003 -0.56968343 2.039614 0
4.3790002 -0.57712412 2.0404365 0
4.382 -0.58470732 2.0416701 0
4.3840003 -0.59216428 2.0424929 0
4.3860002 -0.59962845 2.0433154 0
4.3889999 -0.6072405 2.044549 0
4.3910003 -0.61472088 2.0453718 0
4.3930001 -0.62220854 2.0461943 0
4.3960004 -0.62984943 2.0474281 0
4.3980002 -0.63735324 2.0482504 0
4.4000001 -0.64486432 2.049073 0
4.4030004 -0.65253413 2.050307 0
4.4050002 -0.66006142 2.0511293 0
4.4070001 -0.66759586 2.0519519 0
4.4100003 -0.67529458 2.0531857 0
4.4120002 -0.68284529 2.0540082 0
4.4150004 -0.6905638 2.0552423 0
4.4170003 -0.69813079 2.0560646 0
4.4190001 -0.70570499 2.0568871 0
4.4220004 -0.71345234 2.058121 0
4.4240003 -0.72104275 2.0589435 0
4.4260001 -0.72864038 2.0597661 0
4.4290004 -0.73641664 2.0609999 0
4.4310002 -0.74403048 2.0618224 0
4.4340005 -0.75182658 2.0630562 0
4.4360003 -0.75945663 2.0638788 0
4.4380002 -0.76709402 2.0647013 0
4.4410005 -0.77491891 2.0659351 0
4.4430003 -0.78257245 2.0667577 0
4.4460001 -0.79041719 2.0679913 0
4.4480004 -0.79808706 2.068814 0
4.4500003 -0.80576402 2.0696366 0
4.4530001 -0.81363761 2.0708702 0
4.4550004 -0.8213309 2.0716929 0
4.4580002 -0.82922435 2.0729265 0
4.4600005 -0.83693385 2.0737493 0
4.4620004 -0.84465057 2.0745718 0
4.4650002 -0.8525728 2.0758054 0
4.4670005 -0.86030585 2.0766282 0
4.4700003 -0.86824799 2.0778618 0
4.4720001 -0.87599713 2.0786843 0
4.4750004 -0.88395911 2.0799181 0
4.4770002 -0.89172447 2.0807407 0
4.4790001 -0.89949709 2.0815632 0
4.4820004 -0.90748799 2.0827971 0
4.4820004 -0.91485113 2.0827971 0
4.4760003 -0.92092639 2.0803294 0
4.4710002 -0.92719638 2.0782731 0
4.4650002 -0.93323016 2.0758054 0
4.4670005 -0.94100279 2.0766282 0
4.4780002 -0.95077932 2.081152 0
4.5040002 -0.97875643 2.091845 0
4.5060005 -0.98661745 2.0926676 0
4.5090003 -0.99471653 2.0939014 0
4.3170004 -0.32155517 2.0078723 0
4.3170004 -0.32862067 2.0078723 0
4.3170004 -0.33568621 2.0078723 0
4.3170004 -0.34275171 2.0078723 0
4.3170004 -0.34981725 2.0078723 0
4.3170004 -0.35688275 2.0078723 0
4.3170004 -0.36394829 2.0078723 0
4.3170004 -0.37101379 2.0078723 0
4.3180003 -0.37816408 2.0082817 0
4.3200002 -0.38540456 2.0091007 0
4.322 -0.39265227 2.0099196 0
4.3240004 -0.39990717 2.0107386 0
4.3270001 -0.40726131 2.0119669 0
4.329 -0.41453245 2.0127859 0
4.3310003 -0.42181084 2.0136049 0
4.3330002 -0.4290964 2.0144236 0
4.336 -0.43648842 2.0156522 0
4.3380003 -0.44379023 2.0164711 0
4.3400002 -0.45109928 2.0172901 0
4.342 -0.45841548 2.0181088 0
4.3450003 -0.46584538 2.0193372 0
4.3470001 -0.47317788 2.0201564 0
4.349 -0.48051757 2.0209751 0
4.3520002 -0.48797628 2.0222034 0
4.3540001 -0.49533227 2.0230224 0
4.3559999 -0.50269538 2.0238414 0
4.3590002 -0.51018298 2.02507 0
4.3610001 -0.51756239 2.0258887 0
4.3630004 -0.52494895 2.0267076 0
4.3650002 -0.53234273 2.0275266 0
4.368 -0.5398683 2.0287549 0
4.3700004 -0.54727834 2.0295739 0
4.3720002 -0.55469561 2.0303929 0
4.375 -0.5622499 2.0316212 0
4.3770003 -0.56968343 2.0324402 0
4.3790002 -0.57712412 2.0332592 0
4.382 -0.58470732 2.0344875 0
4.3840003 -0.59216428 2.0353065 0
4.3860002 -0.59962845 2.0361254 0
4.3889999 -0.6072405 2.0373538 0
4.3910003 -0.61472088 2.0381727 0
4.3930001 -0.62220854 2.0389917 0
4.3960004 -0.62984943 2.04022 0
4.3980002 -0.63735324 2.041039 0
4.4000001 -0.64486432 2.0418577 0
4.4030004 -0.65253413 2.0430863 0
4.4050002 -0.66006142 2.043905 0
4.4070001 -0.66759586 2.044724 0
4.4100003 -0.67529458 2.0459526 0
4.4120002 -0.68284529 2.0467713 0
4.4150004 -0.6905638 2.0479999 0
4.4170003 -0.69813079 2.0488188 0
4.4190001 -0.70570499 2.0496376 0
4.4220004 -0.71345234 2.0508661 0
4.4240003 -0.72104275 2.0516851 0
4.4260001 -0.72864038 2.0525038 0
4.4290004 -0.73641664 2.0537324 0
4.4310002 -0.74403048 2.0545514 0
4.4340005 -0.75182658 2.0557797 0
4.4360003 -0.75945663 2.0565987 0
4.4380002 -0.76709402 2.0574174 0
4.4410005 -0.77491891 2.058646 0
4.4430003 -0.78257245 2.0594649 0
4.4460001 -0.79041719 2.0606933 0
4.4480004 -0.79808706 2.0615122 0
4.4500003 -0.80576402 2.062331 0
4.4530001 -0.81363761 2.0635593 0
4.4550004 -0.8213309 2.0643785 0
4.4580002 -0.82922435 2.0656068 0
4.4600005 -0.83693385 2.0664258 0
4.4620004 -0.84465057 2.0672445 0
4.4650002 -0.8525728 2.0684729 0
4.4670005 -0.86030585 2.0692921 0
4.4700003 -0.86824799 2.0705204 0
4.4720001 -0.87599713 2.0713391 0
4.4750004 -0.88395911 2.0725677 0
4.4770002 -0.89172447 2.0733867 0
4.4790001 -0.89949709 2.0742054 0
4.4820004 -0.90748799 2.075434 0
4.4820004 -0.91485113 2.075434 0
4.4760003 -0.92092639 2.0729773 0
4.4710002 -0.92719638 2.0709298 0
4.4650002 -0.93323016 2.0684729 0
4.4670005 -0.94100279 2.0692921 0
4.4780002 -0.95077932 2.073796 0
4.5040002 -0.97875643 2.0844421 0
4.5060005 -0.98661745 2.0852611 0
4.5090003 -0.99471653 2.0864894 0
4.335 -0.37960532 2.0081446 0
4.335 -0.38670328 2.0081446 0
4.335 -0.39380127 2.0081446 0
4.335 -0.40089929 2.0081446 0
4.335 -0.40799725 2.0081446 0
4.335 -0.41509524 2.0081446 0
4.335 -0.42219323 2.0081446 0
4.335 -0.42929122 2.0081446 0
4.336 -0.43648842 2.0085523 0
4.3380003 -0.44379023 2.0093677 0
4.3400002 -0.45109928 2.0101831 0
4.342 -0.45841548 2.0109982 0
4.3450003 -0.46584538 2.0122213 0
4.3470001 -0.47317788 2.0130365 0
4.349 -0.48051757 2.0138519 0
4.3520002 -0.48797628 2.015075 0
4.3540001 -0.49533227 2.0158904 0
4.3559999 -0.50269538 2.0167055 0
4.3590002 -0.51018298 2.0179284 0
4.3610001 -0.51756239 2.0187438 0
4.3630004 -0.52494895 2.0195591 0
4.3650002 -0.53234273 2.0203745 0
4.368 -0.5398683 2.0215976 0
4.3700004 -0.54727834 2.0224128 0
4.3720002 -0.55469561 2.0232279 0
4.375 -0.5622499 2.024451 0
4.3770003 -0.56968343 2.0252664 0
4.3790002 -0.57712412 2.0260818 0
4.382 -0.58470732 2.0273046 0
4.3840003 -0.59216428 2.02812 0
4.3860002 -0.59962845 2.0289354 0
4.3889999 -0.6072405 2.0301583 0
4.3910003 -0.61472088 2.0309737 0
4.3930001 -0.62220854 2.0317891 0
4.3960004 -0.62984943 2.0330119 0
4.3980002 -0.63735324 2.0338273 0
4.4000001 -0.64486432 2.0346425 0
4.4030004 -0.65253413 2.0358655 0
4.4050002 -0.66006142 2.0366809 0
4.4070001 -0.66759586 2.0374961 0
4.4100003 -0.67529458 2.0387192 0
4.4120002 -0.68284529 2.0395346 0
4.4150004 -0.6905638 2.0407577 0
4.4170003 -0.69813079 2.0415728 0
4.4190001 -0.70570499 2.0423882 0
4.4220004 -0.71345234 2.043611 0
4.4240003 -0.72104275 2.0444264 0
4.4260001 -0.72864038 2.0452416 0
4.4290004 -0.73641664 2.0464649 0
4.4310002 -0.74403048 2.0472801 0
4.4340005 -0.75182658 2.0485032 0
4.4360003 -0.75945663 2.0493183 0
4.4380002 -0.76709402 2.0501337 0
4.4410005 -0.77491891 2.0513568 0
4.4430003 -0.78257245 2.0521722 0
4.4460001 -0.79041719 2.053395 0
4.4480004 -0.79808706 2.0542104 0
4.4500003 -0.80576402 2.0550256 0
4.4530001 -0.81363761 2.0562484 0
4.4550004 -0.8213309 2.0570641 0
4.4580002 -0.82922435 2.0582869 0
4.4600005 -0.83693385 2.0591023 0
4.4620004 -0.84465057 2.0599177 0
4.4650002 -0.8525728 2.0611405 0
4.4670005 -0.86030585 2.0619559 0
4.4700003 -0.86824799 2.063179 0
4.4720001 -0.87599713 2.0639942 0
4.4750004 -0.88395911 2.0652173 0
4.4770002 -0.89172447 2.0660324 0
4.4790001 -0.89949709 2.0668478 0
4.4820004 -0.90748799 2.0680709 0
4.4820004 -0.91485113 2.0680709 0
4.4760003 -0.92092639 2.0656247 0
4.4710002 -0.92719638 2.0635865 0
4.4650002 -0.93323016 2.0611405 0
4.4670005 -0.94100279 2.0619559 0
4.4780002 -0.95077932 2.0664401 0
4.5040002 -0.97875643 2.0770392 0
4.5060005 -0.98661745 2.0778549 0
4.5090003 -0.99471653 2.0790777 0
4.3520002 -0.43807575 2.0079463 0
4.3520002 -0.44520441 2.0079463 0
4.3520002 -0.45233306 2.0079463 0
4.3520002 -0.45946169 2.0079463 0
4.3520002 -0.46659037 2.0079463 0
4.3520002 -0.473719 2.0079463 0
4.3520002 -0.48084766 2.0079463 0
4.3540001 -0.49533227 2.0087578 0
4.3559999 -0.50269538 2.0095696 0
4.3590002 -0.51018298 2.0107872 0
4.3610001 -0.51756239 2.0115991 0
4.3630004 -0.52494895 2.0124106 0
4.3650002 -0.53234273 2.0132225 0
4.368 -0.5398683 2.0144401 0
4.3700004 -0.54727834 2.0152516 0
4.3720002 -0.55469561 2.0160635 0
4.375 -0.5622499 2.0172811 0
4.3770003 -0.56968343 2.0180926 0
4.3790002 -0.57712412 2.0189044 0
4.382 -0.58470732 2.0201218 0
4.3840003 -0.59216428 2.0209336 0
4.3860002 -0.59962845 2.0217454 0
4.3889999 -0.6072405 2.022963 0
4.3910003 -0.61472088 2.0237746 0
4.3930001 -0.62220854 2.0245864 0
4.3960004 -0.62984943 2.025804 0
4.3980002 -0.63735324 2.0266156 0
4.4000001 -0.64486432 2.0274274 0
4.4030004 -0.65253413 2.028645 0
4.4050002 -0.66006142 2.0294566 0
4.4070001 -0.66759586 2.0302684 0
4.4100003 -0.67529458 2.031486 0
4.4120002 -0.68284529 2.0322976 0
4.4150004 -0.6905638 2.0335152 0
4.4170003 -0.69813079 2.034327 0
4.4190001 -0.70570499 2.0351386 0
4.4220004 -0.71345234 2.0363562 0
4.4240003 -0.72104275 2.037168 0
4.4260001 -0.72864038 2.0379796 0
4.4290004 -0.73641664 2.0391972 0
4.4310002 -0.74403048 2.040009 0
4.4340005 -0.75182658 2.0412266 0
4.4360003 -0.75945663 2.0420382 0
4.4380002 -0.76709402 2.04285 0
4.4410005 -0.77491891 2.0440676 0
4.4430003 -0.78257245 2.0448792 0
4.4460001 -0.79041719 2.0460968 0
4.4480004 -0.79808706 2.0469086 0
4.4500003 -0.80576402 2.0477202 0
4.4530001 -0.81363761 2.0489378 0
4.4550004 -0.8213309 2.0497496 0
4.4580002 -0.82922435 2.0509672 0
4.4600005 -0.83693385 2.051779 0
4.4620004 -0.84465057 2.0525906 0
4.4650002 -0.8525728 2.053808 0
4.4670005 -0.86030585 2.0546198 0
4.4700003 -0.86824799 2.0558374 0
4.4720001 -0.87599713 2.056649 0
4.4750004 -0.88395911 2.0578666 0
4.4770002 -0.89172447 2.0586784 0
4.4790001 -0.89949709 2.05949 0
4.4820004 -0.90748799 2.0607078 0
4.4820004 -0.91485113 2.0607078 0
4.4760003 -0.92092639 2.0582726 0
4.4710002 -0.92719638 2.0562432 0
4.4650002 -0.93323016 2.053808 0
4.4670005 -0.94100279 2.0546198 0
4.4780002 -0.95077932 2.0590842 0
4.5040002 -0.97875643 2.0696366 0
4.5060005 -0.98661745 2.0704484 0
4.5090003 -0.99471653 2.0716658 0
4.3700004 -0.50431162 2.0080905 0
4.3700004 -0.5114727 2.0080905 0
4.3700004 -0.51863384 2.0080905 0
4.3700004 -0.52579498 2.0080905 0
4.3700004 -0.53295606 2.0080905 0
4.375 -0.5622499 2.0101109 0
4.3770003 -0.56968343 2.0109189 0
4.3790002 -0.57712412 2.0117271 0
4.382 -0.58470732 2.0129392 0
4.3840003 -0.59216428 2.0137472 0
4.3860002 -0.59962845 2.0145555 0
4.3889999 -0.6072405 2.0157676 0
4.3910003 -0.61472088 2.0165756 0
4.3930001 -0.62220854 2.0173838 0
4.3960004 -0.62984943 2.0185959 0
4.3980002 -0.63735324 2.0194039 0
4.4000001 -0.64486432 2.0202122 0
4.4030004 -0.65253413 2.0214243 0
4.4050002 -0.66006142 2.0222323 0
4.4070001 -0.66759586 2.0230405 0
4.4100003 -0.67529458 2.0242527 0
4.4120002 -0.68284529 2.0250607 0
4.4150004 -0.6905638 2.026273 0
4.4170003 -0.69813079 2.027081 0
4.4190001 -0.70570499 2.027889 0
4.4220004 -0.71345234 2.0291014 0
4.4240003 -0.72104275 2.0299094 0
4.4260001 -0.72864038 2.0307174 0
4.4290004 -0.73641664 2.0319297 0
4.4310002 -0.74403048 2.0327377 0
4.4340005 -0.75182658 2.0339501 0
4.4360003 -0.75945663 2.0347581 0
4.4380002 -0.76709402 2.0355661 0
4.4410005 -0.77491891 2.0367785 0
4.4430003 -0.78257245 2.0375865 0
4.4460001 -0.79041719 2.0387986 0
4.4480004 -0.79808706 2.0396068 0
4.4500003 -0.80576402 2.0404148 0
4.4530001 -0.81363761 2.0416269 0
4.4550004 -0.8213309 2.0424352 0
4.4580002 -0.82922435 2.0436471 0
4.4600005 -0.83693385 2.0444553 0
4.4620004 -0.84465057 2.0452635 0
4.4650002 -0.8525728 2.0464754 0
4.4670005 -0.86030585 2.0472836 0
4.4700003 -0.86824799 2.048496 0
4.4720001 -0.87599713 2.0493038 0
4.4750004 -0.88395911 2.0505161 0
4.4770002 -0.89172447 2.0513244 0
4.4790001 -0.89949709 2.0521321 0
4.4820004 -0.90748799 2.0533445 0
4.4820004 -0.91485113 2.0533445 0
4.4760003 -0.92092639 2.0509202 0
4.4710002 -0.92719638 2.0488999 0
4.4650002 -0.93323016 2.0464754 0
4.4670005 -0.94100279 2.0472836 0
4.4780002 -0.95077932 2.0517282 0
4.5040002 -0.97875643 2.0622337 0
4.5060005 -0.98661745 2.0630419 0
4.5090003 -0.99471653 2.0642538 0
4.388 -0.57113189 2.0081699 0
4.388 -0.57832545 2.0081699 0
4.388 -0.58551902 2.0081699 0
4.3930001 -0.62220854 2.0101812 0
4.3960004 -0.62984943 2.0113881 0
4.3980002 -0.63735324 2.0121925 0
4.4000001 -0.64486432 2.0129969 0
4.4030004 -0.65253413 2.0142038 0
4.4050002 -0.66006142 2.0150082 0
4.4070001 -0.66759586 2.0158126 0
4.4100003 -0.67529458 2.0170195 0
4.4120002 -0.68284529 2.0178239 0
4.4150004 -0.6905638 2.0190308 0
4.4170003 -0.69813079 2.0198352 0
4.4190001 -0.70570499 2.0206397 0
4.4220004 -0.71345234 2.0218465 0
4.4240003 -0.72104275 2.022651 0
4.4260001 -0.72864038 2.0234554 0
4.4290004 -0.73641664 2.0246623 0
4.4310002 -0.74403048 2.0254667 0
4.4340005 -0.75182658 2.0266736 0
4.4360003 -0.75945663 2.027478 0
4.4380002 -0.76709402 2.0282824 0
4.4410005 -0.77491891 2.0294893 0
4.4430003 -0.78257245 2.0302937 0
4.4460001 -0.79041719 2.0315003 0
4.4480004 -0.79808706 2.032305 0
4.4500003 -0.80576402 2.0331094 0
4.4530001 -0.81363761 2.0343161 0
4.4550004 -0.8213309 2.0351207 0
4.4580002 -0.82922435 2.0363274 0
4.4600005 -0.83693385 2.037132 0
4.4620004 -0.84465057 2.0379364 0
4.4650002 -0.8525728 2.0391431 0
4.4670005 -0.86030585 2.0399477 0
4.4700003 -0.86824799 2.0411544 0
4.4720001 -0.87599713 2.0419588 0
4.4750004 -0.88395911 2.0431657 0
4.4770002 -0.89172447 2.0439701 0
4.4790001 -0.89949709 2.0447745 0
4.4820004 -0.90748799 2.0459814 0
4.4820004 -0.91485113 2.0459814 0
4.4760003 -0.92092639 2.0435679 0
4.4710002 -0.92719638 2.0415566 0
4.4650002 -0.93323016 2.0391431 0
4.4670005 -0.94100279 2.0399477 0
4.4780002 -0.95077932 2.0443723 0
4.5040002 -0.97875643 2.0548308 0
4.5060005 -0.98661745 2.0556355 0
4.5090003 -0.99471653 2.0568421 0
4.4150004 -0.6905638 2.0117884 0
4.4170003 -0.69813079 2.0125892 0
4.4190001 -0.70570499 2.0133901 0
4.4220004 -0.71345234 2.0145917 0
4.4240003 -0.72104275 2.0153925 0
4.4260001 -0.72864038 2.0161932 0
4.4290004 -0.73641664 2.0173945 0
4.4310002 -0.74403048 2.0181954 0
4.4340005 -0.75182658 2.019397 0
4.4360003 -0.75945663 2.0201979 0
4.4380002 -0.76709402 2.0209987 0
4.4410005 -0.77491891 2.0221999 0
4.4430003 -0.78257245 2.0230007 0
4.4460001 -0.79041719 2.0242021 0
4.4480004 -0.79808706 2.0250032 0
4.4500003 -0.80576402 2.025804 0
4.4530001 -0.81363761 2.0270052 0
4.4550004 -0.8213309 2.0278063 0
4.4580002 -0.82922435 2.0290074 0
4.4600005 -0.83693385 2.0298085 0
4.4620004 -0.84465057 2.0306094 0
4.4650002 -0.8525728 2.0318105 0
4.4670005 -0.86030585 2.0326116 0
4.4700003 -0.86824799 2.0338128 0
4.4720001 -0.87599713 2.0346136 0
4.4750004 -0.88395911 2.0358152 0
4.4770002 -0.89172447 2.0366161 0
4.4790001 -0.89949709 2.0374169 0
4.4820004 -0.90748799 2.0386183 0
4.4820004 -0.91485113 2.0386183 0
4.4760003 -0.92092639 2.0362155 0
4.4710002 -0.92719638 2.0342133 0
4.4650002 -0.93323016 2.0318105 0
4.4670005 -0.94100279 2.0326116 0
4.4780002 -0.95077932 2.0370164 0
4.5040002 -0.97875643 2.0474279 0
4.5060005 -0.98661745 2.048229 0
4.5090003 -0.99471653 2.0494304 0
4.4340005 -0.75182658 2.0121205 0
4.4360003 -0.75945663 2.0129175 0
4.4380002 -0.76709402 2.0137148 0
4.4410005 -0.77491891 2.0149109 0
4.4430003 -0.78257245 2.015708 0
4.4460001 -0.79041719 2.0169039 0
4.4480004 -0.79808706 2.0177014 0
4.4500003 -0.80576402 2.0184987 0
4.4530001 -0.81363761 2.0196943 0
4.4550004 -0.8213309 2.0204918 0
4.4580002 -0.82922435 2.0216875 0
4.4600005 -0.83693385 2.022485 0
4.4620004 -0.84465057 2.0232823 0
4.4650002 -0.8525728 2.024478 0
4.4670005 -0.86030585 2.0252755 0
4.4700003 -0.86824799 2.0264714 0
4.4720001 -0.87599713 2.0272686 0
4.4750004 -0.88395911 2.0284646 0
4.4770002 -0.89172447 2.0292618 0
4.4790001 -0.89949709 2.0300591 0
4.4820004 -0.90748799 2.031255 0
4.4820004 -0.91485113 2.031255 0
4.4760003 -0.92092639 2.0288632 0
4.4710002 -0.92719638 2.02687 0
4.4650002 -0.93323016 2.024478 0
4.4670005 -0.94100279 2.0252755 0
4.4780002 -0.95077932 2.0296605 0
4.5040002 -0.97875643 2.0400252 0
4.5060005 -0.98661745 2.0408225 0
4.5090003 -0.99471653 2.0420184 0
4.4530001 -0.81363761 2.0123835 0
4.4550004 -0.8213309 2.0131774 0
4.4580002 -0.82922435 2.0143678 0
4.4600005 -0.83693385 2.0151615 0
4.4620004 -0.84465057 2.0159552 0
4.4650002 -0.8525728 2.0171456 0
4.4670005 -0.86030585 2.0179396 0
4.4700003 -0.86824799 2.0191298 0
4.4720001 -0.87599713 2.0199234 0
4.4750004 -0.88395911 2.0211141 0
4.4770002 -0.89172447 2.0219076 0
4.4790001 -0.89949709 2.0227013 0
4.4820004 -0.90748799 2.0238919 0
4.4820004 -0.91485113 2.0238919 0
4.4760003 -0.92092639 2.0215108 0
4.4710002 -0.92719638 2.0195267 0
4.4650002 -0.93323016 2.0171456 0
4.4670005 -0.94100279 2.0179396 0
4.4780002 -0.95077932 2.0223045 0
4.5040002 -0.97875643 2.0326223 0
4.5060005 -0.98661745 2.033416 0
4.5090003 -0.99471653 2.0346065 0
4.4620004 -0.84465057 2.0086281 0
4.4650002 -0.8525728 2.0098131 0
4.4670005 -0.86030585 2.0106034 0
4.4700003 -0.86824799 2.0117884 0
4.4720001 -0.87599713 2.0125785 0
4.4750004 -0.88395911 2.0137637 0
4.4770002 -0.89172447 2.0145535 0
4.4790001 -0.89949709 2.0153437 0
4.4820004 -0.90748799 2.0165288 0
4.4820004 -0.91485113 2.0165288 0
4.4760003 -0.92092639 2.0141585 0
4.4710002 -0.92719638 2.0121834 0
4.4650002 -0.93323016 2.0098131 0
4.4670005 -0.94100279 2.0106034 0
4.4780002 -0.95077932 2.0149486 0
4.5040002 -0.97875643 2.0252194 0
4.5060005 -0.98661745 2.0260098 0
4.5090003 -0.99471653 2.0271947 0
4.4800005 -0.84818959 2.0083792 0
4.4800005 -0.85554922 2.0083792 0
4.4800005 -0.86290872 2.0083792 0
4.4750004 -0.86925811 2.006413 0
4.4720001 -0.87599713 2.0052333 0
4.4750004 -0.88395911 2.006413 0
4.4770002 -0.89172447 2.0071995 0
4.4790001 -0.89949709 2.0079858 0
4.4820004 -0.90748799 2.0091655 0
4.4820004 -0.91485113 2.0091655 0
4.4760003 -0.92092639 2.0068064 0
4.4710002 -0.92719638 2.0048401 0
4.4650002 -0.93323016 2.0024805 0
4.4670005 -0.94100279 2.0032673 0
4.4780002 -0.95077932 2.0075927 0
4.5040002 -0.97875643 2.0178165 0
4.5060005 -0.98661745 2.0186033 0
4.5090003 -0.99471653 2.0197828 0
4.4900002 -0.8649109 2.0049338 0
4.4750004 -0.86925811 1.9990627 0
4.4720001 -0.87599713 1.9978882 0
4.4750004 -0.88395911 1.9990627 0
4.4770002 -0.89172447 1.9998454 0
4.4790001 -0.89949709 2.0006282 0
4.4820004 -0.90748799 2.0018024 0
4.4820004 -0.91485113 2.0018024 0
4.4760003 -0.92092639 1.999454 0
4.4710002 -0.92719638 1.9974968 0
4.4650002 -0.93323016 1.9951483 0
4.4670005 -0.94100279 1.9959311 0
4.4780002 -0.95077932 2.0002367 0
4.5040002 -0.97875643 2.0104139 0
4.5060005 -0.98661745 2.0111969 0
4.5090003 -0.99471653 2.0123711 0
4.4900002 -0.8649109 1.9975564 0
4.4750004 -0.86925811 1.9917121 0
4.4720001 -0.87599713 1.9905431 0
4.4750004 -0.88395911 1.9917121 0
4.4770002 -0.89172447 1.9924912 0
4.4790001 -0.89949709 1.9932705 0
4.4820004 -0.90748799 1.9944394 0
4.4820004 -0.91485113 1.9944394 0
4.4760003 -0.92092639 1.9921017 0
4.4710002 -0.92719638 1.9901534 0
4.4650002 -0.93323016 1.9878159 0
4.4670005 -0.94100279 1.9885951 0
4.4780002 -0.95077932 1.9928809 0
4.5040002 -0.97875643 2.003011 0
4.5060005 -0.98661745 2.0037904 0
4.5090003 -0.99471653 2.0049591 0
4.4900002 -0.8649109 1.9901788 0
4.4750004 -0.86925811 1.9843615 0
4.4720001 -0.87599713 1.9831979 0
4.4750004 -0.88395911 1.9843615 0
4.4770002 -0.89172447 1.9851372 0
4.4790001 -0.89949709 1.9859127 0
4.4820004 -0.90748799 1.9870763 0
4.4820004 -0.91485113 1.9870763 0
4.4760003 -0.92092639 1.9847493 0
4.4710002 -0.92719638 1.9828103 0
4.4650002 -0.93323016 1.9804833 0
4.4670005 -0.94100279 1.9812591 0
4.4780002 -0.95077932 1.9855249 0
4.5040002 -0.97875643 1.9956083 0
4.5060005 -0.98661745 1.996384 0
4.5090003 -0.99471653 1.9975474 0
4.4900002 -0.8649109 1.9828012 0
4.4750004 -0.86925811 1.9770111 0
4.4720001 -0.87599713 1.975853 0
4.4750004 -0.88395911 1.9770111 0
4.4770002 -0.89172447 1.977783 0
4.4790001 -0.89949709 1.978555 0
4.4820004 -0.90748799 1.9797131 0
4.4820004 -0.91485113 1.9797131 0
4.4760003 -0.92092639 1.977397 0
4.4710002 -0.92719638 1.975467 0
4.4650002 -0.93323016 1.9731508 0
4.4670005 -0.94100279 1.973923 0
4.4780002 -0.95077932 1.978169 0
4.5040002 -0.97875643 1.9882054 0
4.5060005 -0.98661745 1.9889776 0
4.5090003 -0.99471653 1.9901356 0
4.4900002 -0.8649109 1.9754237 0
4.4750004 -0.86925811 1.9696605 0
4.4720001 -0.87599713 1.9685078 0
4.4750004 -0.88395911 1.9696605 0
4.4770002 -0.89172447 1.9704288 0
4.4790001 -0.89949709 1.9711974 0
4.4820004 -0.90748799 1.97235 0
4.4820004 -0.91485113 1.97235 0
4.4760003 -0.92092639 1.9700447 0
4.4710002 -0.92719638 1.9681237 0
4.4650002 -0.93323016 1.9658184 0
4.4670005 -0.94100279 1.9665868 0
4.4780002 -0.95077932 1.970813 0
4.5040002 -0.97875643 1.9808027 0
4.5060005 -0.98661745 1.9815711 0
4.5090003 -0.99471653 1.9827237 0
4.4750004 -0.86925811 1.9623101 0
4.4720001 -0.87599713 1.9611627 0
4.4750004 -0.88395911 1.9623101 0
4.4770002 -0.89172447 1.9630748 0
4.4790001 -0.89949709 1.9638395 0
4.4820004 -0.90748799 1.9649868 0
4.4820004 -0.91485113 1.9649868 0
4.4760003 -0.92092639 1.9626924 0
4.4710002 -0.92719638 1.9607803 0
4.4650002 -0.93323016 1.9584858 0
4.4670005 -0.94100279 1.9592508 0
4.4780002 -0.95077932 1.9634571 0
4.5040002 -0.97875643 1.9733998 0
4.5060005 -0.98661745 1.9741647 0
4.5090003 -0.99471653 1.9753118 0
4.4750004 -0.86925811 1.9549595 0
4.4720001 -0.87599713 1.9538176 0
4.4750004 -0.88395911 1.9549595 0
4.4770002 -0.89172447 1.9557207 0
4.4790001 -0.89949709 1.9564818 0
4.4820004 -0.90748799 1.9576237 0
4.4820004 -0.91485113 1.9576237 0
4.4760003 -0.92092639 1.9553401 0
4.4710002 -0.92719638 1.953437 0
4.4650002 -0.93323016 1.9511534 0
4.4670005 -0.94100279 1.9519147 0
4.4780002 -0.95077932 1.9561012 0
4.5040002 -0.97875643 1.965997 0
4.5060005 -0.98661745 1.9667583 0
4.5090003 -0.99471653 1.9678999 0
4.4750004 -0.86925811 1.9476089 0
4.4720001 -0.87599713 1.9464724 0
4.4750004 -0.88395911 1.9476089 0
4.4770002 -0.89172447 1.9483665 0
4.4790001 -0.89949709 1.9491241 0
4.4820004 -0.90748799 1.9502605 0
4.4820004 -0.91485113 1.9502605 0
4.4760003 -0.92092639 1.9479877 0
4.4710002 -0.92719638 1.9460937 0
4.4650002 -0.93323016 1.943821 0
4.4670005 -0.94100279 1.9445786 0
4.4780002 -0.95077932 1.9487453 0
4.5040002 -0.97875643 1.9585941 0
4.5060005 -0.98661745 1.9593518 0
4.5090003 -0.99471653 1.9604881 0
4.4750004 -0.86925811 1.9402584 0
4.4720001 -0.87599713 1.9391274 0
4.4750004 -0.88395911 1.9402584 0
4.4770002 -0.89172447 1.9410124 0
4.4790001 -0.89949709 1.9417663 0
4.4820004 -0.90748799 1.9428974 0
4.4820004 -0.91485113 1.9428974 0
4.4760003 -0.92092639 1.9406354 0
4.4710002 -0.92719638 1.9387505 0
4.4650002 -0.93323016 1.9364884 0
4.4670005 -0.94100279 1.9372425 0
4.4780002 -0.95077932 1.9413893 0
4.5040002 -0.97875643 1.9511913 0
4.5060005 -0.98661745 1.9519454 0
4.5090003 -0.99471653 1.9530764 0
4.4750004 -0.86925811 1.9329079 0
4.4720001 -0.87599713 1.9317822 0
4.4750004 -0.88395911 1.9329079 0
4.4770002 -0.89172447 1.9336584 0
4.4790001 -0.89949709 1.9344087 0
4.4820004 -0.90748799 1.9355342 0
4.4820004 -0.91485113 1.9355342 0
4.4760003 -0.92092639 1.9332831 0
4.4710002 -0.92719638 1.9314071 0
4.4650002 -0.93323016 1.9291559 0
4.4670005 -0.94100279 1.9299065 0
4.4780002 -0.95077932 1.9340334 0
4.5040002 -0.97875643 1.9437884 0
4.5060005 -0.98661745 1.944539 0
4.5090003 -0.99471653 1.9456644 0
4.4750004 -0.86925811 1.9255575 0
4.4720001 -0.87599713 1.9244372 0
4.4750004 -0.88395911 1.9255575 0
4.4770002 -0.89172447 1.9263041 0
4.4790001 -0.89949709 1.9270509 0
4.4820004 -0.90748799 1.9281712 0
4.4820004 -0.91485113 1.9281712 0
4.4760003 -0.92092639 1.9259309 0
4.4710002 -0.92719638 1.9240638 0
4.4650002 -0.93323016 1.9218235 0
4.4670005 -0.94100279 1.9225703 0
4.4780002 -0.95077932 1.9266775 0
4.5040002 -0.97875643 1.9363856 0
4.5060005 -0.98661745 1.9371325 0
4.5090003 -0.99471653 1.9382526 0
4.4750004 -0.86925811 1.9182069 0
4.4720001 -0.87599713 1.9170921 0
4.4750004 -0.88395911 1.9182069 0
4.4770002 -0.89172447 1.91895 0
4.4790001 -0.89949709 1.9196931 0
4.4820004 -0.90748799 1.920808 0
4.4820004 -0.91485113 1.920808 0
4.4760003 -0.92092639 1.9185785 0
4.4710002 -0.92719638 1.9167205 0
4.4650002 -0.93323016 1.9144909 0
4.4670005 -0.94100279 1.9152342 0
4.4780002 -0.95077932 1.9193215 0
4.5040002 -0.97875643 1.9289827 0
4.5060005 -0.98661745 1.929726 0
4.5090003 -0.99471653 1.9308407 0
4.4750004 -0.86925811 1.9108564 0
4.4720001 -0.87599713 1.909747 0
4.4750004 -0.88395911 1.9108564 0
4.4770002 -0.89172447 1.9115959 0
4.4790001 -0.89949709 1.9123354 0
4.4820004 -0.90748799 1.9134449 0
4.4820004 -0.91485113 1.9134449 0
4.4760003 -0.92092639 1.911226 0
4.4710002 -0.92719638 1.9093771 0
4.4650002 -0.93323016 1.9071585 0
4.4670005 -0.94100279 1.9078982 0
4.4780002 -0.95077932 1.9119656 0
4.5040002 -0.97875643 1.92158 0
4.5060005 -0.98661745 1.9223197 0
4.5090003 -0.99471653 1.9234289 0
4.4750004 -0.86925811 1.9035058 0
4.4720001 -0.87599713 1.9024018 0
4.4750004 -0.88395911 1.9035058 0
4.4770002 -0.89172447 1.9042417 0
4.4790001 -0.89949709 1.9049777 0
4.4820004 -0.90748799 1.9060817 0
4.4820004 -0.91485113 1.9060817 0
4.4760003 -0.92092639 1.9038738 0
4.4710002 -0.92719638 1.9020338 0
4.4650002 -0.93323016 1.899826 0
4.4670005 -0.94100279 1.900562 0
4.4780002 -0.95077932 1.9046097 0
4.5040002 -0.97875643 1.9141771 0
4.5060005 -0.98661745 1.9149132 0
4.5090003 -0.99471653 1.9160171 0
4.4750004 -0.86925811 1.8961554 0
4.4720001 -0.87599713 1.8950567 0
4.4750004 -0.88395911 1.8961554 0
4.4770002 -0.89172447 1.8968877 0
4.4790001 -0.89949709 1.89762 0
4.4820004 -0.90748799 1.8987186 0
4.4820004 -0.91485113 1.8987186 0
4.4760003 -0.92092639 1.8965214 0
4.4710002 -0.92719638 1.8946906 0
4.4650002 -0.93323016 1.8924935 0
4.4670005 -0.94100279 1.893226 0
4.4780002 -0.95077932 1.8972538 0
4.5040002 -0.97875643 1.9067743 0
4.5060005 -0.98661745 1.9075067 0
4.5090003 -0.99471653 1.9086051 0
4.4750004 -0.86925811 1.8888049 0
4.4720001 -0.87599713 1.8877116 0
4.4750004 -0.88395911 1.8888049 0
4.4770002 -0.89172447 1.8895335 0
4.4790001 -0.89949709 1.8902622 0
4.4820004 -0.90748799 1.8913554 0
4.4820004 -0.91485113 1.8913554 0
4.4760003 -0.92092639 1.8891692 0
4.4710002 -0.92719638 1.8873473 0
4.4650002 -0.93323016 1.885161 0
4.4670005 -0.94100279 1.8858899 0
4.4780002 -0.95077932 1.8898979 0
4.5040002 -0.97875643 1.8993714 0
4.5060005 -0.98661745 1.9001004 0
4.5090003 -0.99471653 1.9011934 0
4.4750004 -0.86925811 1.8814543 0
4.4720001 -0.87599713 1.8803664 0
4.4750004 -0.88395911 1.8814543 0
4.4770002 -0.89172447 1.8821794 0
4.4790001 -0.89949709 1.8829045 0
4.4820004 -0.90748799 1.8839923 0
4.4820004 -0.91485113 1.8839923 0
4.4760003 -0.92092639 1.8818169 0
4.4710002 -0.92719638 1.8800039 0
4.4650002 -0.93323016 1.8778286 0
4.4670005 -0.94100279 1.8785539 0
4.4780002 -0.95077932 1.882542 0
4.5040002 -0.97875643 1.8919686 0
4.5060005 -0.98661745 1.8926939 0
4.5090003 -0.99471653 1.8937815 0
4.4750004 -0.86925811 1.8741038 0
4.4720001 -0.87599713 1.8730215 0
4.4750004 -0.88395911 1.8741038 0
4.4770002 -0.89172447 1.8748252 0
4.4790001 -0.89949709 1.8755467 0
4.4820004 -0.90748799 1.8766291 0
4.4820004 -0.91485113 1.8766291 0
4.4760003 -0.92092639 1.8744646 0
4.4710002 -0.92719638 1.8726606 0
4.4650002 -0.93323016 1.870496 0
4.4670005 -0.94100279 1.8712177 0
4.4780002 -0.95077932 1.8751861 0
4.5040002 -0.97875643 1.8845658 0
4.5060005 -0.98661745 1.8852874 0
4.5090003 -0.99471653 1.8863697 0
4.4750004 -0.86925811 1.8667532 0
4.4720001 -0.87599713 1.8656763 0
4.4750004 -0.88395911 1.8667532 0
4.4770002 -0.89172447 1.8674711 0
4.4790001 -0.89949709 1.868189 0
4.4820004 -0.90748799 1.8692659 0
4.4820004 -0.91485113 1.8692659 0
4.4760003 -0.92092639 1.8671122 0
4.4710002 -0.92719638 1.8653173 0
4.4650002 -0.93323016 1.8631636 0
4.4670005 -0.94100279 1.8638816 0
4.4780002 -0.95077932 1.8678302 0
4.5040002 -0.97875643 1.8771631 0
4.5060005 -0.98661745 1.8778809 0
4.5090003 -0.99471653 1.8789577 0
4.4750004 -0.86925811 1.8594027 0
4.4720001 -0.87599713 1.8583312 0
4.4750004 -0.88395911 1.8594027 0
4.4770002 -0.89172447 1.860117 0
4.4790001 -0.89949709 1.8608313 0
4.4820004 -0.90748799 1.8619027 0
4.4820004 -0.91485113 1.8619027 0
4.4760003 -0.92092639 1.8597598 0
4.4710002 -0.92719638 1.8579741 0
4.4650002 -0.93323016 1.8558311 0
4.4670005 -0.94100279 1.8565456 0
4.4780002 -0.95077932 1.8604741 0
4.5040002 -0.97875643 1.8697602 0
4.5060005 -0.98661745 1.8704746 0
4.5090003 -0.99471653 1.8715459 0
4.4750004 -0.86925811 1.8520523 0
4.4720001 -0.87599713 1.8509861 0
4.4750004 -0.88395911 1.8520523 0
4.4770002 -0.89172447 1.8527628 0
4.4790001 -0.89949709 1.8534735 0
4.4820004 -0.90748799 1.8545396 0
4.4820004 -0.91485113 1.8545396 0
4.4760003 -0.92092639 1.8524076 0
4.4710002 -0.92719638 1.8506308 0
4.4650002 -0.93323016 1.8484986 0
4.4670005 -0.94100279 1.8492095 0
4.4780002 -0.95077932 1.8531182 0
4.5040002 -0.97875643 1.8623574 0
4.5060005 -0.98661745 1.8630681 0
4.5090003 -0.99471653 1.8641341 0
4.4750004 -0.86925811 1.8447018 0
4.4720001 -0.87599713 1.8436409 0
4.4750004 -0.88395911 1.8447018 0
4.4770002 -0.89172447 1.8454088 0
4.4790001 -0.89949709 1.8461158 0
4.4820004 -0.90748799 1.8471764 0
4.4820004 -0.91485113 1.8471764 0
4.4760003 -0.92092639 1.8450552 0
4.4710002 -0.92719638 1.8432875 0
4.4650002 -0.93323016 1.8411661 0
4.4670005 -0.94100279 1.8418734 0
4.4780002 -0.95077932 1.8457623 0
4.5040002 -0.97875643 1.8549545 0
4.5060005 -0.98661745 1.8556616 0
4.5090003 -0.99471653 1.8567222 0
4.4750004 -0.86925811 1.8373512 0
4.4720001 -0.87599713 1.8362958 0
4.4750004 -0.88395911 1.8373512 0
4.4770002 -0.89172447 1.8380547 0
4.4790001 -0.89949709 1.8387581 0
4.4820004 -0.90748799 1.8398134 0
4.4820004 -0.91485113 1.8398134 0
4.4760003 -0.92092639 1.837703 0
4.4710002 -0.92719638 1.8359442 0
4.4650002 -0.93323016 1.8338337 0
4.4670005 -0.94100279 1.8345373 0
4.4780002 -0.95077932 1.8384063 0
4.5040002 -0.97875643 1.8475517 0
4.5060005 -0.98661745 1.8482553 0
4.5090003 -0.99471653 1.8493105 0
4.4750004 -0.86925811 1.8300006 0
4.4720001 -0.87599713 1.8289508 0
4.4750004 -0.88395911 1.8300006 0
4.4770002 -0.89172447 1.8307005 0
4.4790001 -0.89949709 1.8314003 0
4.4820004 -0.90748799 1.8324502 0
4.4820004 -0.91485113 1.8324502 0
4.4760003 -0.92092639 1.8303505 0
4.4710002 -0.92719638 1.8286009 0
4.4650002 -0.93323016 1.8265011 0
4.4670005 -0.94100279 1.8272011 0
4.4780002 -0.95077932 1.8310504 0
4.5040002 -0.97875643 1.8401488 0
4.5060005 -0.98661745 1.8408488 0
4.5090003 -0.99471653 1.8418986 0
4.4750004 -0.86925811 1.8226501 0
4.4720001 -0.87599713 1.8216057 0
4.4750004 -0.88395911 1.8226501 0
4.4770002 -0.89172447 1.8233464 0
4.4790001 -0.89949709 1.8240426 0
4.4820004 -0.90748799 1.8250871 0
4.4820004 -0.91485113 1.8250871 0
4.4760003 -0.92092639 1.8229983 0
4.4710002 -0.92719638 1.8212575 0
4.4650002 -0.93323016 1.8191687 0
4.4670005 -0.94100279 1.8198651 0
4.4780002 -0.95077932 1.8236945 0
4.5040002 -0.97875643 1.832746 0
4.5060005 -0.98661745 1.8334423 0
4.5090003 -0.99471653 1.8344867 0
4.4750004 -0.86925811 1.8152996 0
4.4720001 -0.87599713 1.8142605 0
4.4750004 -0.88395911 1.8152996 0
4.4770002 -0.89172447 1.8159924 0
4.4790001 -0.89949709 1.8166848 0
4.4820004 -0.90748799 1.8177239 0
4.4820004 -0.91485113 1.8177239 0
4.4760003 -0.92092639 1.8156459 0
4.4710002 -0.92719638 1.8139143 0
4.4650002 -0.93323016 1.8118362 0
4.4670005 -0.94100279 1.812529 0
4.4770002 -0.95055747 1.8159924 0
4.5040002 -0.97875643 1.8253431 0
4.5060005 -0.98661745 1.8260359 0
4.5090003 -0.99471653 1.8270749 0
4.4750004 -0.86925811 1.8079492 0
4.4720001 -0.87599713 1.8069155 0
4.4750004 -0.88395911 1.8079492 0
4.4770002 -0.89172447 1.8086381 0
4.4790001 -0.89949709 1.8093271 0
4.4820004 -0.90748799 1.8103608 0
4.4820004 -0.91485113 1.8103608 0
4.4760003 -0.92092639 1.8082937 0
4.4710002 -0.92719638 1.806571 0
4.4650002 -0.93323016 1.8045038 0
4.4670005 -0.94100279 1.8051929 0
4.4770002 -0.95055747 1.8086381 0
4.5040002 -0.97875643 1.8179404 0
4.5060005 -0.98661745 1.8186295 0
4.5090003 -0.99471653 1.819663 0
4.4750004 -0.86925811 1.8005986 0
4.4720001 -0.87599713 1.7995703 0
4.4750004 -0.88395911 1.8005986 0
4.4770002 -0.89172447 1.801284 0
4.4790001 -0.89949709 1.8019694 0
4.4820004 -0.90748799 1.8029977 0
4.4820004 -0.91485113 1.8029977 0
4.4760003 -0.92092639 1.8009413 0
4.4710002 -0.92719638 1.7992276 0
4.4650002 -0.93323016 1.7971714 0
4.4670005 -0.94100279 1.7978569 0
4.4770002 -0.95055747 1.801284 0
4.5040002 -0.97875643 1.8105375 0
4.5060005 -0.98661745 1.811223 0
4.5090003 -0.99471653 1.8122511 0
4.4750004 -0.86925811 1.7932481 0
4.4720001 -0.87599713 1.7922252 0
4.4750004 -0.88395911 1.7932481 0
4.4770002 -0.89172447 1.7939299 0
4.4790001 -0.89949709 1.7946116 0
4.4820004 -0.90748799 1.7956345 0
4.4820004 -0.91485113 1.7956345 0
4.4760003 -0.92092639 1.7935889 0
4.4710002 -0.92719638 1.7918843 0
4.4650002 -0.93323016 1.7898388 0
4.4670005 -0.94100279 1.7905208 0
4.4770002 -0.95055747 1.7939299 0
4.5040002 -0.97875643 1.8031347 0
4.5060005 -0.98661745 1.8038166 0
4.5090003 -0.99471653 1.8048393 0
4.4750004 -0.86925811 1.7858975 0
4.4720001 -0.87599713 1.7848802 0
4.4750004 -0.88395911 1.7858975 0
4.4770002 -0.89172447 1.7865757 0
4.4790001 -0.89949709 1.7872539 0
4.4820004 -0.90748799 1.7882714 0
4.4820004 -0.91485113 1.7882714 0
4.4760003 -0.92092639 1.7862366 0
4.4710002 -0.92719638 1.784541 0
4.4650002 -0.93323016 1.7825063 0
4.4670005 -0.94100279 1.7831846 0
4.4770002 -0.95055747 1.7865757 0
4.5040002 -0.97875643 1.7957318 0
4.5060005 -0.98661745 1.7964102 0
4.5090003 -0.99471653 1.7974275 0
4.4750004 -0.86925811 1.778547 0
4.4720001 -0.87599713 1.777535 0
