# .PCD v0.7 - Point Cloud Data file format
VERSION 0.7
FIELDS x y z intensity
SIZE 4 4 4 4
TYPE F F F F
COUNT 1 1 1 1
WIDTH 1456
HEIGHT 1
VIEWPOINT 0 0 0 1 0 0 0
POINTS 1456
DATA ascii
3.7240002 1.6868031 0.4759503 0
3.7220004 1.6797683 0.47590703 0
3.7200003 1.6727406 0.47586375 0
3.7190003 1.6662362 0.47584209 0
3.7170002 1.6592211 0.47579879 0
3.7150002 1.6522132 0.47575551 0
3.7140002 1.6457232 0.47573388 0
3.7120004 1.638728 0.47569057 0
3.7100003 1.6317401 0.47564727 0
3.7090003 1.6252645 0.47562563 0
3.7070003 1.618289 0.47558233 0
3.7050002 1.611321 0.47553903 0
3.7040002 1.6048597 0.47551739 0
3.7020001 1.5979041 0.47547412 0
3.7000003 1.590956 0.47543082 0
3.6990004 1.5845093 0.47540918 0
3.6970003 1.5775735 0.47536588 0
3.6950002 1.570645 0.4753226 0
3.6940002 1.5642127 0.47530094 0
3.6920002 1.5572969 0.47525766 0
3.6910002 1.5508735 0.475236 0
3.6890004 1.5439705 0.47519273 0
3.6870003 1.5370744 0.47514942 0
3.6860003 1.5306655 0.47512779 0
3.6840003 1.5237823 0.47508448 0
3.6820002 1.5169059 0.47504121 0
3.6810002 1.5105115 0.47501954 0
3.6800003 1.5041207 0.47499791 0
3.6800003 1.4982042 0.47499791 0
3.6800003 1.4922876 0.47499791 0
3.6820002 1.4873055 0.47504121 0
3.6830003 1.4818509 0.47506285 0
3.6860003 1.4773197 0.47512779 0
3.6890004 1.4727777 0.47519273 0
3.6920002 1.4682248 0.47525766 0
3.6960003 1.4641194 0.47534424 0
3.7010002 1.4604558 0.47545245 0
3.7060003 1.4567744 0.47556069 0
3.7130003 1.4539802 0.47571221 0
3.9410002 1.5252721 0.48064744 0
3.9400003 1.5184429 0.48062581 0
3.9380002 1.5111772 0.48058251 0
3.9360003 1.5039186 0.4805392 0
3.9340003 1.4966673 0.48049593 0
3.9330003 1.4898579 0.48047426 0
3.9310002 1.4826193 0.48043096 0
3.9290004 1.4753878 0.48038769 0
3.9270003 1.4681635 0.48034438 0
3.9260004 1.461374 0.48032275 0
3.9240003 1.4541624 0.48027945 0
3.9230003 1.4473819 0.48025781 0
3.9220002 1.4406049 0.48023617 0
3.9230003 1.4346722 0.48025781 0
3.9240003 1.428736 0.48027945 0
3.9260004 1.4232126 0.48032275 0
3.9290004 1.418097 0.48038769 0
3.9320002 1.4129705 0.48045263 0
3.9360003 1.4082447 0.4805392 0
3.9410002 1.4039136 0.48064744 0
3.9460003 1.3995647 0.48075566 0
3.9530003 1.3960094 0.48090717 0
3.8970003 1.9599178 0.47338712 0
3.9040003 1.9576125 0.473526 0
3.9120002 1.9558518 0.47368473 0
3.9200003 1.9540625 0.47384346 0
3.7590003 1.8322874 0.47064891 0
3.7580004 1.8256712 0.4706291 0
3.7570002 1.8190583 0.47060925 0
3.7570002 1.8130028 0.47060925 0
3.7580004 1.8074996 0.4706291 0
3.7590003 1.8019927 0.47064891 0
3.7610002 1.7970302 0.47068861 0
3.7630002 1.7920607 0.47072828 0
3.7660003 1.7876288 0.47078782 0
3.7690003 1.783186 0.47084734 0
3.7740002 1.7798146 0.47094655 0
3.7780004 1.7758861 0.47102594 0
3.7360003 1.7351813 0.47019255 0
3.7340002 1.7280995 0.47015288 0
3.7330003 1.7215552 0.47013304 0
3.7310002 1.7144861 0.47009337 0
3.7290003 1.7074243 0.47005367 0
3.7280002 1.7008944 0.47003382 0
3.7260003 1.6938452 0.46999413 0
3.7240002 1.6868031 0.46995446 0
3.7230003 1.6802877 0.46993461 0
3.7210002 1.6732583 0.46989495 0
3.7190003 1.6662362 0.46985525 0
3.7180002 1.6597351 0.4698354 0
3.7160003 1.6527257 0.46979573 0
3.7140002 1.6457232 0.46975604 0
3.7130003 1.6392367 0.46973619 0
3.7110002 1.632247 0.46969652 0
3.7090003 1.6252645 0.46965683 0
3.7080002 1.6187923 0.46963698 0
3.7060003 1.6118225 0.46959731 0
3.7040002 1.6048597 0.46955761 0
3.7030003 1.5984021 0.46953779 0
3.7010002 1.591452 0.4694981 0
3.6990004 1.5845093 0.4694584 0
3.6980002 1.5780659 0.46943855 0
3.6960003 1.5711358 0.46939889 0
3.6940002 1.5642127 0.46935922 0
3.6930003 1.557784 0.46933937 0
3.6910002 1.5508735 0.46929967 0
3.6900003 1.5444537 0.46927983 0
3.6880002 1.5375561 0.46924013 0
3.6860003 1.5306655 0.46920046 0
3.6850002 1.5242602 0.46918064 0
3.6820002 1.5169059 0.4691211 0
3.6810002 1.5105115 0.46910125 0
3.6800003 1.5041207 0.4690814 0
3.6800003 1.4982042 0.4690814 0
3.6800003 1.4922876 0.4690814 0
3.6820002 1.4873055 0.4691211 0
3.6830003 1.4818509 0.46914095 0
3.6860003 1.4773197 0.46920046 0
3.6890004 1.4727777 0.46926001 0
3.6920002 1.4682248 0.46931952 0
3.6960003 1.4641194 0.46939889 0
3.7010002 1.4604558 0.4694981 0
3.7060003 1.4567744 0.46959731 0
3.7130003 1.4539802 0.46973619 0
3.9420002 1.5257158 0.47428 0
3.9400003 1.5184429 0.4742403 0
3.9380002 1.5111772 0.47420061 0
3.9370003 1.5043569 0.47418079 0
3.9350002 1.4971038 0.47414109 0
3.9330003 1.4898579 0.47410142 0
3.9310002 1.4826193 0.47406173 0
3.9300003 1.4758189 0.47404188 0
3.9280002 1.4685928 0.47400221 0
3.9260004 1.461374 0.47396252 0
3.9240003 1.4541624 0.47392285 0
3.9230003 1.4473819 0.473903 0
3.9230003 1.4410272 0.473903 0
3.9230003 1.4346722 0.473903 0
3.9240003 1.428736 0.47392285 0
3.9260004 1.4232126 0.47396252 0
3.9290004 1.418097 0.47402206 0
3.9320002 1.4129705 0.47408158 0
3.9360003 1.4082447 0.47416094 0
3.9410002 1.4039136 0.47426015 0
3.9460003 1.3995647 0.47435936 0
3.9530003 1.3960094 0.47449827 0
3.8970003 1.9599178 0.46707919 0
3.9040003 1.9576125 0.46720546 0
3.9120002 1.9558518 0.46734977 0
3.9200003 1.9540625 0.46749407 0
3.7590003 1.8322874 0.46458995 0
3.7580004 1.8256712 0.46457189 0
3.7570002 1.8190583 0.46455386 0
3.7570002 1.8130028 0.46455386 0
3.7580004 1.8074996 0.46457189 0
3.7590003 1.8019927 0.46458995 0
3.7610002 1.7970302 0.46462601 0
3.7630002 1.7920607 0.46466208 0
3.7660003 1.7876288 0.4647162 0
3.7690003 1.783186 0.46477032 0
3.7740002 1.7798146 0.4648605 0
3.7780004 1.7758861 0.46493265 0
3.7380002 1.7362491 0.46421114 0
3.7360003 1.7291638 0.46417505 0
3.7340002 1.7220856 0.46413898 0
3.7330003 1.7155432 0.46412095 0
3.7310002 1.7084776 0.46408486 0
3.7290003 1.7014195 0.4640488 0
3.7280002 1.6948913 0.46403074 0
3.7260003 1.6878457 0.46399468 0
3.7240002 1.6808072 0.46395859 0
3.7230003 1.6742938 0.46394056 0
3.7210002 1.6672678 0.46390447 0
3.7190003 1.6602492 0.46386841 0
3.7180002 1.6537501 0.46385038 0
3.7160003 1.6467441 0.46381429 0
3.7150002 1.640254 0.46379626 0
3.7130003 1.6332607 0.46376017 0
3.7110002 1.6262745 0.46372411 0
3.7100003 1.6197989 0.46370608 0
3.7080002 1.6128253 0.46366999 0
3.7060003 1.6058592 0.46363392 0
3.7050002 1.5993977 0.46361586 0
3.7030003 1.5924442 0.4635798 0
3.7010002 1.5854976 0.46354371 0
3.7000003 1.5790508 0.46352568 0
3.6980002 1.572117 0.46348959 0
3.6970003 1.5656792 0.46347156 0
3.6950002 1.5587579 0.4634355 0
3.6930003 1.551844 0.46339941 0
3.6920002 1.5454206 0.46338138 0
3.6900003 1.5385193 0.46334529 0
3.6880002 1.531625 0.46330923 0
3.6860003 1.5247382 0.46327317 0
3.6820002 1.5169059 0.46320099 0
3.6810002 1.5105115 0.46318296 0
3.6800003 1.5041207 0.46316493 0
3.6800003 1.4982042 0.46316493 0
3.6800003 1.4922876 0.46316493 0
3.6820002 1.4873055 0.46320099 0
3.6830003 1.4818509 0.46321905 0
3.6860003 1.4773197 0.46327317 0
3.6890004 1.4727777 0.46332726 0
3.6920002 1.4682248 0.46338138 0
3.6960003 1.4641194 0.46345353 0
3.7010002 1.4604558 0.46354371 0
3.7060003 1.4567744 0.46363392 0
3.7130003 1.4539802 0.46376017 0
3.9430003 1.5261596 0.46790892 0
3.9410002 1.5188848 0.46787286 0
3.9400003 1.5120574 0.46785483 0
3.9380002 1.5047952 0.46781874 0
3.9360003 1.4975404 0.46778268 0
3.9340003 1.4902927 0.46774659 0
3.9330003 1.4834851 0.46772856 0
3.9310002 1.4762501 0.46769249 0
3.9290004 1.4690222 0.4676564 0
3.9270003 1.4618015 0.46762031 0
3.9240003 1.4541624 0.46756622 0
3.9230003 1.4473819 0.46754819 0
3.9230003 1.4410272 0.46754819 0
3.9230003 1.4346722 0.46754819 0
3.9240003 1.428736 0.46756622 0
3.9260004 1.4232126 0.46760228 0
3.9290004 1.418097 0.4676564 0
3.9320002 1.4129705 0.46771052 0
3.9360003 1.4082447 0.46778268 0
3.9410002 1.4039136 0.46787286 0
3.9460003 1.3995647 0.46796304 0
3.9530003 1.3960094 0.46808931 0
3.9040003 1.9576125 0.4608849 0
3.9120002 1.9558518 0.46101478 0
3.7590003 1.8322874 0.45853093 0
3.7580004 1.8256712 0.45851472 0
3.7570002 1.8190583 0.45849848 0
3.7570002 1.8130028 0.45849848 0
3.7580004 1.8074996 0.45851472 0
3.7590003 1.8019927 0.45853093 0
3.7610002 1.7970302 0.45856342 0
3.7630002 1.7920607 0.45859587 0
3.7660003 1.7876288 0.45864457 0
3.7690003 1.783186 0.4586933 0
3.7740002 1.7798146 0.45877445 0
3.7780004 1.7758861 0.45883939 0
3.7400002 1.737317 0.45822248 0
3.7390003 1.7307602 0.45820627 0
3.7370002 1.7236766 0.45817378 0
3.7350004 1.7166003 0.45814133 0
3.7340002 1.7100577 0.45812508 0
3.7320004 1.7029941 0.45809263 0
3.7300003 1.6959376 0.45806015 0
3.7290003 1.6894096 0.4580439 0
3.7270002 1.6823658 0.45801145 0
3.7250001 1.6753291 0.45797896 0
3.7240002 1.6688156 0.45796275 0
3.7220004 1.6617916 0.45793027 0
3.7200003 1.6547748 0.45789781 0
3.7190003 1.6482757 0.45788157 0
3.7170002 1.6412714 0.45784909 0
3.7150002 1.6342744 0.45781663 0
3.7140002 1.6277897 0.45780039 0
3.7120004 1.6208055 0.45776793 0
3.7110002 1.6143297 0.45775169 0
3.7090003 1.6073581 0.45771924 0
3.7070003 1.6003935 0.45768675 0
3.7060003 1.5939323 0.45767051 0
3.7040002 1.5869803 0.45763806 0
3.7020001 1.5800356 0.4576056 0
3.7010002 1.5735888 0.45758936 0
3.6990004 1.5666568 0.45755687 0
3.6980002 1.560219 0.45754066 0
3.6960003 1.5532998 0.45750818 0
3.6940002 1.5463876 0.45747572 0
3.6930003 1.5399642 0.45745948 0
3.6910002 1.5330645 0.45742702 0
3.6860003 1.5247382 0.45734584 0
3.6820002 1.5169059 0.4572809 0
3.6810002 1.5105115 0.45726466 0
3.6800003 1.5041207 0.45724845 0
3.6800003 1.4982042 0.45724845 0
3.6800003 1.4922876 0.45724845 0
3.6820002 1.4873055 0.4572809 0
3.6830003 1.4818509 0.45729715 0
3.6860003 1.4773197 0.45734584 0
3.6890004 1.4727777 0.45739454 0
3.6920002 1.4682248 0.45744324 0
3.6960003 1.4641194 0.45750818 0
3.7010002 1.4604558 0.45758936 0
3.7060003 1.4567744 0.45767051 0
3.7130003 1.4539802 0.45778418 0
3.9430003 1.5197687 0.46151805 0
3.9420002 1.5129375 0.46150181 0
3.9400003 1.5056719 0.46146935 0
3.9380002 1.4984134 0.46143687 0
3.9370003 1.4915968 0.46142066 0
3.9350002 1.4843509 0.46138817 0
3.9330003 1.4771123 0.46135572 0
3.9310002 1.4698808 0.46132323 0
3.9270003 1.4618015 0.46125829 0
3.9240003 1.4541624 0.4612096 0
3.9230003 1.4473819 0.46119335 0
3.9230003 1.4410272 0.46119335 0
3.9230003 1.4346722 0.46119335 0
3.9240003 1.428736 0.4612096 0
3.9260004 1.4232126 0.46124208 0
3.9290004 1.418097 0.46129078 0
3.9320002 1.4129705 0.46133947 0
3.9360003 1.4082447 0.46140441 0
3.9410002 1.4039136 0.46148556 0
3.9460003 1.3995647 0.46156675 0
3.9530003 1.3960094 0.46168038 0
3.9040003 1.9576125 0.45456436 0
3.9120002 1.9558518 0.45467982 0
3.7590003 1.8322874 0.45247194 0
3.7580004 1.8256712 0.45245752 0
3.7570002 1.8190583 0.45244309 0
3.7570002 1.8130028 0.45244309 0
3.7580004 1.8074996 0.45245752 0
3.7590003 1.8019927 0.45247194 0
3.7610002 1.7970302 0.45250082 0
3.7630002 1.7920607 0.45252967 0
3.7660003 1.7876288 0.45257297 0
3.7690003 1.783186 0.45261624 0
3.7740002 1.7798146 0.4526884 0
3.7780004 1.7758861 0.45274612 0
3.7420003 1.7323565 0.45222664 0
3.7410002 1.7257978 0.45221221 0
3.7390003 1.7187144 0.45218334 0
3.7370002 1.711638 0.45215449 0
3.7360003 1.7050937 0.45214003 0
3.7340002 1.69803 0.45211118 0
3.7320004 1.6909735 0.45208234 0
3.7310002 1.6844437 0.45206791 0
3.7290003 1.6774 0.45203903 0
3.7270002 1.6703632 0.45201018 0
3.7260003 1.6638478 0.45199573 0
3.7240002 1.6568239 0.45196688 0
3.7220004 1.6498071 0.45193803 0
3.7210002 1.643306 0.45192358 0
3.7190003 1.6363019 0.45189473 0
3.7180002 1.62981 0.45188031 0
3.7160003 1.6228185 0.45185143 0
3.7140002 1.6158341 0.45182258 0
3.7130003 1.6093566 0.45180815 0
3.7110002 1.6023849 0.45177928 0
3.7090003 1.5954205 0.45175043 0
3.7080002 1.5889573 0.451736 0
3.7060003 1.5820055 0.45170712 0
3.7050002 1.5755514 0.4516927 0
3.7030003 1.5686122 0.45166385 0
3.7010002 1.5616801 0.45163497 0
3.7000003 1.5552406 0.45162055 0
3.6980002 1.5483211 0.4515917 0
3.6960003 1.541409 0.45156282 0
3.6920002 1.5335443 0.45150509 0
3.6860003 1.5247382 0.45141852 0
3.6820002 1.5169059 0.45136079 0
3.6810002 1.5105115 0.45134637 0
3.6800003 1.5041207 0.45133194 0
3.6800003 1.4982042 0.45133194 0
3.6800003 1.4922876 0.45133194 0
3.6820002 1.4873055 0.45136079 0
3.6830003 1.4818509 0.45137525 0
3.6860003 1.4773197 0.45141852 0
3.6890004 1.4727777 0.45146182 0
3.6920002 1.4682248 0.45150509 0
3.6960003 1.4641194 0.45156282 0
3.7010002 1.4604558 0.45163497 0
3.7060003 1.4567744 0.45170712 0
3.7130003 1.4539802 0.45180815 0
3.9450002 1.514258 0.45515603 0
3.9440002 1.5074252 0.45514157 0
3.9420002 1.5001594 0.45511273 0
3.9400003 1.492901 0.45508385 0
3.9380002 1.4856496 0.455055 0
3.9370003 1.4788367 0.45504057 0
3.9310002 1.4698808 0.454954 0
3.9270003 1.4618015 0.45489627 0
3.9240003 1.4541624 0.45485297 0
3.9230003 1.4473819 0.45483854 0
3.9230003 1.4410272 0.45483854 0
3.9230003 1.4346722 0.45483854 0
3.9240003 1.428736 0.45485297 0
3.9260004 1.4232126 0.45488185 0
3.9290004 1.418097 0.45492512 0
3.9320002 1.4129705 0.45496842 0
3.9360003 1.4082447 0.45502615 0
3.9410002 1.4039136 0.4550983 0
3.9460003 1.3995647 0.45517045 0
3.9530003 1.3960094 0.45527145 0
3.7590003 1.8322874 0.44641295 0
3.7580004 1.8256712 0.44640034 0
3.7570002 1.8190583 0.44638771 0
3.7570002 1.8130028 0.44638771 0
3.7580004 1.8074996 0.44640034 0
3.7590003 1.8019927 0.44641295 0
3.7610002 1.7970302 0.44643819 0
3.7630002 1.7920607 0.44646347 0
3.7660003 1.7876288 0.44650134 0
3.7690003 1.783186 0.44653922 0
3.7740002 1.7798146 0.44660234 0
3.7780004 1.7758861 0.44665286 0
3.7430003 1.7147982 0.44621092 0
3.7410002 1.7077183 0.44618568 0
3.7390003 1.7006456 0.44616044 0
3.7380002 1.6941012 0.4461478 0
3.7360003 1.6870413 0.44612256 0
3.7340002 1.6799883 0.44609728 0
3.7330003 1.6734586 0.44608468 0
3.7310002 1.6664182 0.44605941 0
3.7290003 1.6593853 0.44603416 0
3.7280002 1.6528698 0.44602153 0
3.7260003 1.6458495 0.44599628 0
3.7250001 1.639343 0.44598365 0
3.7230003 1.6323353 0.44595841 0
3.7210002 1.6253347 0.44593313 0
3.7200003 1.6188428 0.44592053 0
3.7180002 1.6118548 0.44589525 0
3.7160003 1.6048741 0.44587001 0
3.7150002 1.5983965 0.44585738 0
3.7130003 1.5914286 0.44583213 0
3.7120004 1.5849602 0.4458195 0
3.7100003 1.5780047 0.44579425 0
3.6920002 1.5335443 0.44556698 0
3.6860003 1.5247382 0.44549122 0
3.6820002 1.5169059 0.44544071 0
3.6810002 1.5105115 0.44542807 0
3.6800003 1.5041207 0.44541544 0
3.6800003 1.4982042 0.44541544 0
3.6800003 1.4922876 0.44541544 0
3.6820002 1.4873055 0.44544071 0
3.6830003 1.4818509 0.44545335 0
3.6860003 1.4773197 0.44549122 0
3.6890004 1.4727777 0.4455291 0
3.6920002 1.4682248 0.44556698 0
3.6960003 1.4641194 0.44561747 0
3.7010002 1.4604558 0.44568062 0
3.7060003 1.4567744 0.44574374 0
3.7130003 1.4539802 0.44583213 0
3.9310002 1.4698808 0.44858474 0
3.9270003 1.4618015 0.44853425 0
3.9240003 1.4541624 0.44849634 0
3.9230003 1.4473819 0.44848374 0
3.9230003 1.4410272 0.44848374 0
3.9230003 1.4346722 0.44848374 0
3.9240003 1.428736 0.44849634 0
3.9260004 1.4232126 0.44852161 0
3.9290004 1.418097 0.44855949 0
3.9320002 1.4129705 0.44859737 0
3.9360003 1.4082447 0.44864789 0
3.9410002 1.4039136 0.44871101 0
3.9460003 1.3995647 0.44877416 0
3.9530003 1.3960094 0.44886252 0
3.7590003 1.8322874 0.44035396 0
3.7580004 1.8256712 0.44034314 0
3.7570002 1.8190583 0.44033232 0
3.7570002 1.8130028 0.44033232 0
3.7580004 1.8074996 0.44034314 0
3.7590003 1.8019927 0.44035396 0
3.7610002 1.7970302 0.44037563 0
3.7630002 1.7920607 0.44039726 0
3.7660003 1.7876288 0.44042972 0
3.7690003 1.783186 0.4404622 0
3.7740002 1.7798146 0.44051629 0
3.7780004 1.7758861 0.4405596 0
3.7320004 1.6428913 0.44006175 0
3.7300003 1.6358708 0.44004011 0
3.7290003 1.6293609 0.44002926 0
3.7270002 1.6223531 0.44000763 0
3.7250001 1.6153524 0.43998599 0
3.6920002 1.5335443 0.43962884 0
3.6860003 1.5247382 0.4395639 0
3.6820002 1.5169059 0.4395206 0
3.6810002 1.5105115 0.43950978 0
3.6800003 1.5041207 0.43949896 0
3.6800003 1.4982042 0.43949896 0
3.6800003 1.4922876 0.43949896 0
3.6820002 1.4873055 0.4395206 0
3.6830003 1.4818509 0.43953145 0
3.6860003 1.4773197 0.4395639 0
3.6890004 1.4727777 0.43959635 0
3.6920002 1.4682248 0.43962884 0
3.6960003 1.4641194 0.43967211 0
3.7010002 1.4604558 0.43972623 0
3.7060003 1.4567744 0.43978035 0
3.7130003 1.4539802 0.43985611 0
3.9310002 1.4698808 0.4422155 0
3.9270003 1.4618015 0.4421722 0
3.9240003 1.4541624 0.44213974 0
3.9230003 1.4473819 0.4421289 0
3.9230003 1.4410272 0.4421289 0
3.9230003 1.4346722 0.4421289 0
3.9240003 1.428736 0.44213974 0
3.9260004 1.4232126 0.44216138 0
3.9290004 1.418097 0.44219387 0
3.9320002 1.4129705 0.44222632 0
3.9360003 1.4082447 0.44226962 0
3.9400003 1.4035041 0.4423129 0
3.9460003 1.3995647 0.44237784 0
3.9530003 1.3960094 0.44245359 0
3.7580004 1.8256712 0.43428594 0
3.7570002 1.8190583 0.43427694 0
3.7570002 1.8130028 0.43427694 0
3.7580004 1.8074996 0.43428594 0
3.7590003 1.8019927 0.43429497 0
3.7610002 1.7970302 0.434313 0
3.7630002 1.7920607 0.43433106 0
3.7660003 1.7876288 0.43435812 0
3.7690003 1.783186 0.43438515 0
3.7740002 1.7798146 0.43443027 0
3.6860003 1.5247382 0.43363658 0
3.6820002 1.5169059 0.43360052 0
3.6810002 1.5105115 0.43359149 0
3.6800003 1.5041207 0.43358248 0
3.6800003 1.4982042 0.43358248 0
3.6800003 1.4922876 0.43358248 0
3.6820002 1.4873055 0.43360052 0
3.6830003 1.4818509 0.43360952 0
3.6860003 1.4773197 0.43363658 0
3.6890004 1.4727777 0.43366364 0
3.6920002 1.4682248 0.4336907 0
3.6960003 1.4641194 0.43372679 0
3.7010002 1.4604558 0.43377188 0
3.7060003 1.4567744 0.43381697 0
3.7130003 1.4539802 0.43388009 0
3.9270003 1.4618015 0.43581018 0
3.9240003 1.4541624 0.43578312 0
3.9230003 1.4473819 0.43577409 0
3.9230003 1.4410272 0.43577409 0
3.9230003 1.4346722 0.43577409 0
3.9240003 1.428736 0.43578312 0
3.9260004 1.4232126 0.43580115 0
3.9290004 1.418097 0.43582821 0
3.9320002 1.4129705 0.43585527 0
3.9360003 1.4082447 0.43589133 0
3.9400003 1.4035041 0.43592742 0
3.9460003 1.3995647 0.43598154 0
3.9530003 1.3960094 0.43604466 0
3.7570002 1.8190583 0.42822155 0
3.7570002 1.8130028 0.42822155 0
3.7580004 1.8074996 0.42822877 0
3.7590003 1.8019927 0.42823598 0
3.7610002 1.7970302 0.4282504 0
3.7630002 1.7920607 0.42826486 0
3.6860003 1.5247382 0.42770928 0
3.6820002 1.5169059 0.4276804 0
3.6810002 1.5105115 0.42767319 0
3.6800003 1.5041207 0.42766598 0
3.6800003 1.4982042 0.42766598 0
3.6800003 1.4922876 0.42766598 0
3.6820002 1.4873055 0.4276804 0
3.6830003 1.4818509 0.42768762 0
3.6860003 1.4773197 0.42770928 0
3.6890004 1.4727777 0.42773092 0
3.6920002 1.4682248 0.42775255 0
3.6960003 1.4641194 0.42778143 0
3.7010002 1.4604558 0.42781749 0
3.7060003 1.4567744 0.42785358 0
3.7130003 1.4539802 0.42790407 0
3.9270003 1.4618015 0.42944813 0
3.9240003 1.4541624 0.42942649 0
3.9230003 1.4473819 0.42941928 0
3.9230003 1.4410272 0.42941928 0
3.9230003 1.4346722 0.42941928 0
3.9240003 1.428736 0.42942649 0
3.9260004 1.4232126 0.42944092 0
3.9290004 1.418097 0.42946258 0
3.9320002 1.4129705 0.42948422 0
3.9360003 1.4082447 0.42951307 0
3.9400003 1.4035041 0.42954195 0
3.9460003 1.3995647 0.42958522 0
3.9530003 1.3960094 0.42963573 0
3.7060003 1.635676 0.4218902 0
3.7130003 1.6332607 0.42192808 0
3.7210002 1.6313251 0.42197135 0
3.7290003 1.6293609 0.42201465 0
3.7380002 1.627869 0.42206335 0
3.6860003 1.5247382 0.42178196 0
3.6820002 1.5169059 0.42176032 0
3.6810002 1.5105115 0.4217549 0
3.6800003 1.5041207 0.42174947 0
3.6800003 1.4982042 0.42174947 0
3.6800003 1.4922876 0.42174947 0
3.6820002 1.4873055 0.42176032 0
3.6830003 1.4818509 0.42176571 0
3.6860003 1.4773197 0.42178196 0
3.6890004 1.4727777 0.4217982 0
3.6920002 1.4682248 0.42181441 0
3.6960003 1.4641194 0.42183608 0
3.7010002 1.4604558 0.42186314 0
3.7060003 1.4567744 0.4218902 0
3.7130003 1.4539802 0.42192808 0
3.9270003 1.4618015 0.42308611 0
3.9240003 1.4541624 0.42306986 0
3.9230003 1.4473819 0.42306447 0
3.9230003 1.4410272 0.42306447 0
3.9230003 1.4346722 0.42306447 0
3.9240003 1.428736 0.42306986 0
3.9260004 1.4232126 0.42308068 0
3.9290004 1.418097 0.42309693 0
3.9320002 1.4129705 0.42311317 0
3.9360003 1.4082447 0.4231348 0
3.9400003 1.4035041 0.42315647 0
3.9460003 1.3995647 0.42318892 0
3.9530003 1.3960094 0.4232268 0
3.7360003 1.8434963 0.41603503 0
3.7340002 1.8363495 0.41602781 0
3.7330003 1.8297728 0.41602421 0
3.7310002 1.8226389 0.416017 0
3.7290003 1.8155122 0.41600978 0
3.7270002 1.8083925 0.41600254 0
3.6940002 1.6711642 0.41588351 0
3.6920002 1.6641833 0.4158763 0
3.6910002 1.6577275 0.41587269 0
3.6890004 1.6507595 0.41586545 0
3.6980002 1.6375556 0.41589794 0
3.7050002 1.6351672 0.41592318 0
3.7130003 1.6332607 0.41595206 0
3.7210002 1.6313251 0.41598091 0
3.7290003 1.6293609 0.41600978 0
3.7380002 1.627869 0.41604224 0
3.6860003 1.5247382 0.41585463 0
3.6830003 1.5173823 0.41584381 0
3.6810002 1.5105115 0.4158366 0
3.6800003 1.5041207 0.415833 0
3.6800003 1.4982042 0.415833 0
3.6800003 1.4922876 0.415833 0
3.6820002 1.4873055 0.41584021 0
3.6830003 1.4818509 0.41584381 0
3.6860003 1.4773197 0.41585463 0
3.6890004 1.4727777 0.41586545 0
3.6920002 1.4682248 0.4158763 0
3.6960003 1.4641194 0.41589072 0
3.7010002 1.4604558 0.41590875 0
3.7060003 1.4567744 0.41592678 0
3.7130003 1.4539802 0.41595206 0
3.9270003 1.4618015 0.41672409 0
3.9240003 1.4541624 0.41671327 0
3.9230003 1.4473819 0.41670966 0
3.9230003 1.4410272 0.41670966 0
3.9230003 1.4346722 0.41670966 0
3.9240003 1.428736 0.41671327 0
3.9260004 1.4232126 0.41672048 0
3.9290004 1.418097 0.4167313 0
3.9320002 1.4129705 0.41674212 0
3.9360003 1.4082447 0.41675654 0
3.9400003 1.4035041 0.41677096 0
3.9460003 1.3995647 0.41679263 0
3.9530003 1.3960094 0.41681787 0
3.7380002 1.8506501 0.41002113 0
3.7360003 1.8434963 0.41001752 0
3.7340002 1.8363495 0.41001391 0
3.7330003 1.8297728 0.4100121 0
3.7310002 1.8226389 0.41000849 0
3.7290003 1.8155122 0.41000488 0
3.7270002 1.8083925 0.41000128 0
3.7260003 1.8018357 0.40999949 0
3.7240002 1.7947285 0.40999588 0
3.7220004 1.7876289 0.40999228 0
3.7060003 1.7191634 0.4099634 0
3.7040002 1.7121358 0.40995979 0
3.7020001 1.7051153 0.40995619 0
3.7010002 1.6986307 0.4099544 0
3.6990004 1.691623 0.40995076 0
3.6970003 1.6846224 0.40994716 0
3.6960003 1.6781521 0.40994537 0
3.6940002 1.6711642 0.40994176 0
3.6920002 1.6641833 0.40993816 0
3.6910002 1.6577275 0.40993634 0
3.6890004 1.6507595 0.40993273 0
3.6980002 1.6375556 0.40994897 0
3.7050002 1.6351672 0.40996161 0
3.7130003 1.6332607 0.40997604 0
3.7210002 1.6313251 0.40999046 0
3.7290003 1.6293609 0.41000488 0
3.7370002 1.6273676 0.41001931 0
3.6860003 1.5247382 0.40992734 0
3.6830003 1.5173823 0.40992191 0
3.6810002 1.5105115 0.40991831 0
3.6800003 1.5041207 0.40991652 0
3.6800003 1.4982042 0.40991652 0
3.6800003 1.4922876 0.40991652 0
3.6820002 1.4873055 0.40992013 0
3.6830003 1.4818509 0.40992191 0
3.6860003 1.4773197 0.40992734 0
3.6890004 1.4727777 0.40993273 0
3.6920002 1.4682248 0.40993816 0
3.6960003 1.4641194 0.40994537 0
3.7000003 1.4599994 0.40995258 0
3.7060003 1.4567744 0.4099634 0
3.7130003 1.4539802 0.40997604 0
3.9270003 1.4618015 0.41036204 0
3.9240003 1.4541624 0.41035664 0
3.9230003 1.4473819 0.41035482 0
3.9230003 1.4410272 0.41035482 0
3.9230003 1.4346722 0.41035482 0
3.9240003 1.428736 0.41035664 0
3.9260004 1.4232126 0.41036025 0
3.9290004 1.418097 0.41036564 0
3.9320002 1.4129705 0.41037107 0
3.9360003 1.4082447 0.41037828 0
3.9400003 1.4035041 0.41038549 0
3.9460003 1.3995647 0.41039631 0
3.9530003 1.3960094 0.41040894 0
3.7380002 1.8506501 0.40400001 0
3.7360003 1.8434963 0.40400001 0
3.7340002 1.8363495 0.40400001 0
3.7330003 1.8297728 0.40400001 0
3.7310002 1.8226389 0.40400001 0
3.7290003 1.8155122 0.40400001 0
3.7270002 1.8083925 0.40400001 0
3.7260003 1.8018357 0.40400001 0
3.7240002 1.7947285 0.40400001 0
3.7220004 1.7876289 0.40400001 0
3.7210002 1.7810863 0.40400001 0
3.7190003 1.7739992 0.40400001 0
3.7170002 1.7669193 0.40400001 0
3.7160003 1.7603914 0.40400001 0
3.7140002 1.7533239 0.40400001 0
3.7120004 1.746264 0.40400001 0
3.7110002 1.7397503 0.40400001 0
3.7090003 1.7327029 0.40400001 0
3.7070003 1.7256626 0.40400001 0
3.7060003 1.7191634 0.40400001 0
3.7040002 1.7121358 0.40400001 0
3.7020001 1.7051153 0.40400001 0
3.7010002 1.6986307 0.40400001 0
3.6990004 1.691623 0.40400001 0
3.6970003 1.6846224 0.40400001 0
3.6960003 1.6781521 0.40400001 0
3.6940002 1.6711642 0.40400001 0
3.6920002 1.6641833 0.40400001 0
3.6910002 1.6577275 0.40400001 0
3.6890004 1.6507595 0.40400001 0
3.6870003 1.6437985 0.40400001 0
3.6900003 1.6394062 0.40400001 0
3.6980002 1.6375556 0.40400001 0
3.7050002 1.6351672 0.40400001 0
3.7130003 1.6332607 0.40400001 0
3.7210002 1.6313251 0.40400001 0
3.7290003 1.6293609 0.40400001 0
3.7370002 1.6273676 0.40400001 0
3.6860003 1.5247382 0.40400001 0
3.6830003 1.5173823 0.40400001 0
3.6810002 1.5105115 0.40400001 0
3.6800003 1.5041207 0.40400001 0
3.6800003 1.4982042 0.40400001 0
3.6800003 1.4922876 0.40400001 0
3.6820002 1.4873055 0.40400001 0
3.6830003 1.4818509 0.40400001 0
3.6860003 1.4773197 0.40400001 0
3.6890004 1.4727777 0.40400001 0
3.6920002 1.4682248 0.40400001 0
3.6960003 1.4641194 0.40400001 0
3.7000003 1.4599994 0.40400001 0
3.7060003 1.4567744 0.40400001 0
3.7130003 1.4539802 0.40400001 0
3.9270003 1.4618015 0.40400001 0
3.9240003 1.4541624 0.40400001 0
3.9230003 1.4473819 0.40400001 0
3.9230003 1.4410272 0.40400001 0
3.9230003 1.4346722 0.40400001 0
3.9240003 1.428736 0.40400001 0
3.9260004 1.4232126 0.40400001 0
3.9290004 1.418097 0.40400001 0
3.9320002 1.4129705 0.40400001 0
3.9360003 1.4082447 0.40400001 0
3.9400003 1.4035041 0.40400001 0
3.9460003 1.3995647 0.40400001 0
3.9530003 1.3960094 0.40400001 0
3.7360003 1.8434963 0.39798251 0
3.7340002 1.8363495 0.39798611 0
3.7330003 1.8297728 0.39798793 0
3.7310002 1.8226389 0.39799154 0
3.7290003 1.8155122 0.39799514 0
3.7070003 1.7256626 0.39803481 0
3.7060003 1.7191634 0.39803663 0
3.7040002 1.7121358 0.39804024 0
3.7020001 1.7051153 0.39804384 0
3.7010002 1.6986307 0.39804563 0
3.6990004 1.691623 0.39804927 0
3.6970003 1.6846224 0.39805287 0
3.6960003 1.6781521 0.39805466 0
3.6940002 1.6711642 0.39805827 0
3.6920002 1.6641833 0.39806187 0
3.6910002 1.6577275 0.39806369 0
3.6890004 1.6507595 0.3980673 0
3.6870003 1.6437985 0.3980709 0
3.6900003 1.6394062 0.39806548 0
3.6970003 1.637045 0.39805287 0
3.7050002 1.6351672 0.39803842 0
3.7130003 1.6332607 0.39802399 0
3.7210002 1.6313251 0.39800957 0
3.7290003 1.6293609 0.39799514 0
3.6860003 1.5247382 0.39807269 0
3.6830003 1.5173823 0.39807811 0
3.6810002 1.5105115 0.39808172 0
3.6800003 1.5041207 0.39808351 0
3.6800003 1.4982042 0.39808351 0
3.6800003 1.4922876 0.39808351 0
3.6820002 1.4873055 0.3980799 0
3.6830003 1.4818509 0.39807811 0
3.6860003 1.4773197 0.39807269 0
3.6890004 1.4727777 0.3980673 0
3.6920002 1.4682248 0.39806187 0
3.6960003 1.4641194 0.39805466 0
3.7000003 1.4599994 0.39804745 0
3.7060003 1.4567744 0.39803663 0
3.7130003 1.4539802 0.39802399 0
3.9270003 1.4618015 0.39763799 0
3.9240003 1.4541624 0.39764339 0
3.9230003 1.4473819 0.39764521 0
3.9230003 1.4410272 0.39764521 0
3.9230003 1.4346722 0.39764521 0
3.9240003 1.428736 0.39764339 0
3.9260004 1.4232126 0.39763978 0
3.9290004 1.418097 0.39763439 0
3.9320002 1.4129705 0.39762896 0
3.9360003 1.4082447 0.39762175 0
3.9400003 1.4035041 0.39761454 0
3.9460003 1.3995647 0.39760372 0
3.9530003 1.3960094 0.39759108 0
3.7020001 1.7051153 0.39208767 0
3.7010002 1.6986307 0.39209127 0
3.6990004 1.691623 0.39209849 0
3.6970003 1.6846224 0.3921057 0
3.6960003 1.6781521 0.3921093 0
3.6940002 1.6711642 0.39211652 0
3.6920002 1.6641833 0.39212373 0
3.6910002 1.6577275 0.39212734 0
3.6890004 1.6507595 0.39213458 0
3.6970003 1.637045 0.3921057 0
3.7050002 1.6351672 0.39207685 0
3.7130003 1.6332607 0.39204797 0
3.7210002 1.6313251 0.39201912 0
3.6860003 1.5247382 0.3921454 0
3.6830003 1.5173823 0.39215621 0
3.6810002 1.5105115 0.39216343 0
3.6800003 1.5041207 0.39216703 0
3.6800003 1.4982042 0.39216703 0
3.6800003 1.4922876 0.39216703 0
3.6820002 1.4873055 0.39215982 0
3.6830003 1.4818509 0.39215621 0
3.6860003 1.4773197 0.3921454 0
3.6890004 1.4727777 0.39213458 0
3.6920002 1.4682248 0.39212373 0
3.6960003 1.4641194 0.3921093 0
3.7000003 1.4599994 0.39209488 0
3.7060003 1.4567744 0.39207324 0
3.7130003 1.4539802 0.39204797 0
3.9270003 1.4618015 0.39127594 0
3.9240003 1.4541624 0.39128676 0
3.9230003 1.4473819 0.39129037 0
3.9230003 1.4410272 0.39129037 0
3.9230003 1.4346722 0.39129037 0
3.9240003 1.428736 0.39128676 0
3.9260004 1.4232126 0.39127955 0
3.9290004 1.418097 0.39126873 0
3.9320002 1.4129705 0.39125791 0
3.9350002 1.4078333 0.39124709 0
3.9400003 1.4035041 0.39122906 0
3.9460003 1.3995647 0.3912074 0
3.9530003 1.3960094 0.39118215 0
3.6990004 1.691623 0.38614774 0
3.6970003 1.6846224 0.38615856 0
3.6960003 1.6781521 0.38616395 0
3.6940002 1.6711642 0.38617477 0
3.6920002 1.6641833 0.38618562 0
3.6910002 1.6577275 0.38619101 0
3.6860003 1.5247382 0.38621807 0
3.6830003 1.5173823 0.38623431 0
3.6810002 1.5105115 0.38624513 0
3.6800003 1.5041207 0.38625056 0
3.6800003 1.4982042 0.38625056 0
3.6800003 1.4922876 0.38625056 0
3.6820002 1.4873055 0.38623971 0
3.6830003 1.4818509 0.38623431 0
3.6860003 1.4773197 0.38621807 0
3.6890004 1.4727777 0.38620183 0
3.6920002 1.4682248 0.38618562 0
3.6960003 1.4641194 0.38616395 0
3.7000003 1.4599994 0.38614231 0
3.7060003 1.4567744 0.38610983 0
3.7130003 1.4539802 0.38607195 0
3.9270003 1.4618015 0.38491392 0
3.9240003 1.4541624 0.38493016 0
3.9230003 1.4473819 0.38493556 0
3.9230003 1.4410272 0.38493556 0
3.9230003 1.4346722 0.38493556 0
3.9240003 1.428736 0.38493016 0
3.9260004 1.4232126 0.38491935 0
3.9290004 1.418097 0.3849031 0
3.9320002 1.4129705 0.38488686 0
3.9350002 1.4078333 0.38487062 0
3.9400003 1.4035041 0.38484356 0
3.9460003 1.3995647 0.3848111 0
3.9530003 1.3960094 0.38477322 0
3.7180002 1.6836753 0.38005987 0
3.7170002 1.6771708 0.38006708 0
3.7170002 1.6711876 0.38006708 0
3.7190003 1.6662362 0.38005266 0
3.7210002 1.6612774 0.38003823 0
3.7240002 1.6568239 0.38001657 0
3.7280002 1.6528698 0.37998772 0
3.7340002 1.6499189 0.37994441 0
3.6860003 1.5247382 0.38029075 0
3.6830003 1.5173823 0.38031241 0
3.6810002 1.5105115 0.38032684 0
3.6800003 1.5041207 0.38033405 0
3.6800003 1.4982042 0.38033405 0
3.6800003 1.4922876 0.38033405 0
3.6820002 1.4873055 0.38031963 0
3.6830003 1.4818509 0.38031241 0
3.6860003 1.4773197 0.38029075 0
3.6880002 1.4723159 0.38027632 0
3.6920002 1.4682248 0.38024747 0
3.6960003 1.4641194 0.3802186 0
3.7000003 1.4599994 0.38018975 0
3.7060003 1.4567744 0.38014644 0
3.7130003 1.4539802 0.38009596 0
3.9270003 1.4618015 0.3785519 0
3.9240003 1.4541624 0.37857354 0
3.9230003 1.4473819 0.37858075 0
3.9230003 1.4410272 0.37858075 0
3.9230003 1.4346722 0.37858075 0
3.9240003 1.428736 0.37857354 0
3.9260004 1.4232126 0.37855911 0
3.9290004 1.418097 0.37853745 0
3.9320002 1.4129705 0.37851581 0
3.9350002 1.4078333 0.37849417 0
3.9400003 1.4035041 0.37845808 0
3.9460003 1.3995647 0.37841481 0
3.9530003 1.3960094 0.37836429 0
3.7180002 1.6836753 0.37407485 0
3.7170002 1.6771708 0.37408385 0
3.7170002 1.6711876 0.37408385 0
3.7190003 1.6662362 0.37406582 0
3.7210002 1.6612774 0.37404779 0
3.7240002 1.6568239 0.37402073 0
3.7280002 1.6528698 0.37398463 0
3.7340002 1.6499189 0.37393054 0
3.6860003 1.5247382 0.37436345 0
3.6830003 1.5173823 0.37439051 0
3.6810002 1.5105115 0.37440854 0
3.6800003 1.5041207 0.37441754 0
3.6800003 1.4982042 0.37441754 0
3.6800003 1.4922876 0.37441754 0
3.6820002 1.4873055 0.37439951 0
3.6830003 1.4818509 0.37439051 0
3.6860003 1.4773197 0.37436345 0
3.6880002 1.4723159 0.37434542 0
3.6920002 1.4682248 0.37430933 0
3.6960003 1.4641194 0.37427324 0
3.7000003 1.4599994 0.37423718 0
3.7060003 1.4567744 0.37418306 0
3.7130003 1.4539802 0.37411994 0
3.9270003 1.4618015 0.37218985 0
3.9240003 1.4541624 0.37221691 0
3.9230003 1.4473819 0.37222594 0
3.9230003 1.4410272 0.37222594 0
3.9230003 1.4346722 0.37222594 0
3.9240003 1.428736 0.37221691 0
3.9260004 1.4232126 0.37219888 0
3.9290004 1.418097 0.37217182 0
3.9320002 1.4129705 0.37214476 0
3.9350002 1.4078333 0.3721177 0
3.9400003 1.4035041 0.37207261 0
3.9460003 1.3995647 0.37201849 0
3.9530003 1.3960094 0.37195536 0
3.7180002 1.6836753 0.3680898 0
3.7170002 1.6771708 0.36810061 0
3.7170002 1.6711876 0.36810061 0
3.7190003 1.6662362 0.36807898 0
3.7210002 1.6612774 0.36805734 0
3.7240002 1.6568239 0.36802486 0
3.7280002 1.6528698 0.36798158 0
3.7340002 1.6499189 0.36791664 0
3.7410002 1.6474531 0.36784089 0
3.6860003 1.5247382 0.36843613 0
3.6830003 1.5173823 0.36846858 0
3.6810002 1.5105115 0.36849025 0
3.6800003 1.5041207 0.36850107 0
3.6800003 1.4982042 0.36850107 0
3.6800003 1.4922876 0.36850107 0
3.6820002 1.4873055 0.36847943 0
3.6830003 1.4818509 0.36846858 0
3.6860003 1.4773197 0.36843613 0
3.6880002 1.4723159 0.36841449 0
3.6920002 1.4682248 0.36837119 0
3.6960003 1.4641194 0.36832792 0
3.7000003 1.4599994 0.36828461 0
3.7060003 1.4567744 0.36821967 0
3.7130003 1.4539802 0.36814392 0
3.9270003 1.4618015 0.36582783 0
3.9240003 1.4541624 0.36586028 0
3.9230003 1.4473819 0.36587113 0
3.9230003 1.4410272 0.36587113 0
3.9230003 1.4346722 0.36587113 0
3.9240003 1.428736 0.36586028 0
3.9260004 1.4232126 0.36583865 0
3.9290004 1.418097 0.36580616 0
3.9320002 1.4129705 0.36577371 0
3.9350002 1.4078333 0.36574125 0
3.9400003 1.4035041 0.36568713 0
3.9460003 1.3995647 0.36562219 0
3.9530003 1.3960094 0.36554644 0
3.7180002 1.6836753 0.36210477 0
3.7170002 1.6771708 0.36211738 0
3.7170002 1.6711876 0.36211738 0
3.7190003 1.6662362 0.36209214 0
3.7210002 1.6612774 0.36206689 0
3.7240002 1.6568239 0.36202902 0
3.7280002 1.6528698 0.3619785 0
3.7340002 1.6499189 0.36190274 0
3.7410002 1.6474531 0.36181435 0
3.6860003 1.5247382 0.3625088 0
3.6830003 1.5173823 0.36254668 0
3.6810002 1.5105115 0.36257195 0
3.6800003 1.5041207 0.36258459 0
3.6800003 1.4982042 0.36258459 0
3.6800003 1.4922876 0.36258459 0
3.6820002 1.4873055 0.36255932 0
3.6830003 1.4818509 0.36254668 0
3.6860003 1.4773197 0.3625088 0
3.6880002 1.4723159 0.36248356 0
3.6920002 1.4682248 0.36243305 0
3.6960003 1.4641194 0.36238256 0
3.7000003 1.4599994 0.36233205 0
3.7060003 1.4567744 0.36225629 0
3.7130003 1.4539802 0.36216789 0
3.9270003 1.4618015 0.35946578 0
3.9240003 1.4541624 0.35950369 0
3.9230003 1.4473819 0.35951629 0
3.9230003 1.4410272 0.35951629 0
3.9230003 1.4346722 0.35951629 0
3.9240003 1.428736 0.35950369 0
3.9260004 1.4232126 0.35947841 0
3.9290004 1.418097 0.35944054 0
3.9320002 1.4129705 0.35940266 0
3.9350002 1.4078333 0.35936478 0
3.9400003 1.4035041 0.35930166 0
3.9460003 1.3995647 0.35922587 0
3.9530003 1.3960094 0.35913751 0
3.7180002 1.6836753 0.35611972 0
3.7170002 1.6771708 0.35613415 0
3.7170002 1.6711876 0.35613415 0
3.7190003 1.6662362 0.3561053 0
3.7210002 1.6612774 0.35607645 0
3.7240002 1.6568239 0.35603315 0
3.7280002 1.6528698 0.35597542 0
3.7340002 1.6499189 0.35588884 0
3.7410002 1.6474531 0.35578781 0
3.6860003 1.5247382 0.35658151 0
3.6830003 1.5173823 0.35662478 0
3.6810002 1.5105115 0.35665366 0
3.6800003 1.5041207 0.35666808 0
3.6800003 1.4982042 0.35666808 0
3.6800003 1.4922876 0.35666808 0
3.6820002 1.4873055 0.35663924 0
3.6830003 1.4818509 0.35662478 0
3.6860003 1.4773197 0.35658151 0
3.6880002 1.4723159 0.35655263 0
3.6920002 1.4682248 0.35649493 0
3.6960003 1.4641194 0.35643721 0
3.7000003 1.4599994 0.35637948 0
3.7060003 1.4567744 0.3562929 0
3.7130003 1.4539802 0.35619187 0
3.9270003 1.4618015 0.35310376 0
3.9240003 1.4541624 0.35314706 0
3.9230003 1.4473819 0.35316148 0
3.9230003 1.4410272 0.35316148 0
3.9230003 1.4346722 0.35316148 0
3.9240003 1.428736 0.35314706 0
3.9260004 1.4232126 0.35311818 0
3.9290004 1.418097 0.35307491 0
3.9320002 1.4129705 0.35303161 0
3.9350002 1.4078333 0.3529883 0
3.9400003 1.4035041 0.35291618 0
3.9460003 1.3995647 0.35282958 0
3.9530003 1.3960094 0.35272858 0
3.7180002 1.6836753 0.3501347 0
3.7170002 1.6771708 0.35015094 0
3.7170002 1.6711876 0.35015094 0
3.7190003 1.6662362 0.35011846 0
3.7210002 1.6612774 0.350086 0
3.7240002 1.6568239 0.35003728 0
3.7280002 1.6528698 0.34997237 0
3.7340002 1.6499189 0.34987494 0
3.7410002 1.6474531 0.34976131 0
3.6860003 1.5247382 0.35065418 0
3.6830003 1.5173823 0.35070288 0
3.6810002 1.5105115 0.35073537 0
3.6800003 1.5041207 0.35075158 0
3.6800003 1.4982042 0.35075158 0
3.6800003 1.4922876 0.35075158 0
3.6820002 1.4873055 0.35071912 0
3.6830003 1.4818509 0.35070288 0
3.6860003 1.4773197 0.35065418 0
3.6880002 1.4723159 0.35062173 0
3.6920002 1.4682248 0.35055679 0
3.6960003 1.4641194 0.35049185 0
3.7000003 1.4599994 0.35042691 0
3.7060003 1.4567744 0.35032952 0
3.7130003 1.4539802 0.35021585 0
3.9270003 1.4618015 0.34674174 0
3.9240003 1.4541624 0.34679043 0
3.9230003 1.4473819 0.34680668 0
3.9230003 1.4410272 0.34680668 0
3.9230003 1.4346722 0.34680668 0
3.9240003 1.428736 0.34679043 0
3.9260004 1.4232126 0.34675795 0
3.9290004 1.418097 0.34670925 0
3.9320002 1.4129705 0.34666055 0
3.9350002 1.4078333 0.34661186 0
3.9400003 1.4035041 0.34653068 0
3.9460003 1.3995647 0.34643328 0
3.9530003 1.3960094 0.34631965 0
3.7180002 1.6836753 0.34414965 0
3.7170002 1.6771708 0.34416771 0
3.7170002 1.6711876 0.34416771 0
3.7190003 1.6662362 0.34413162 0
3.7210002 1.6612774 0.34409556 0
3.7240002 1.6568239 0.34404144 0
3.7280002 1.6528698 0.34396929 0
3.7340002 1.6499189 0.34386104 0
3.7410002 1.6474531 0.3437348 0
3.6860003 1.5247382 0.34472686 0
3.6830003 1.5173823 0.34478098 0
3.6810002 1.5105115 0.34481707 0
3.6800003 1.5041207 0.3448351 0
3.6800003 1.4982042 0.3448351 0
3.6800003 1.4922876 0.3448351 0
3.6820002 1.4873055 0.34479904 0
3.6830003 1.4818509 0.34478098 0
3.6860003 1.4773197 0.34472686 0
3.6880002 1.4723159 0.3446908 0
3.6920002 1.4682248 0.34461865 0
3.6960003 1.4641194 0.3445465 0
3.7000003 1.4599994 0.34447435 0
3.7060003 1.4567744 0.3443661 0
3.7130003 1.4539802 0.34423986 0
3.9270003 1.4618015 0.34037971 0
3.9240003 1.4541624 0.34043381 0
3.9230003 1.4473819 0.34045184 0
3.9230003 1.4410272 0.34045184 0
3.9230003 1.4346722 0.34045184 0
3.9240003 1.428736 0.34043381 0
3.9260004 1.4232126 0.34039775 0
3.9290004 1.418097 0.34034362 0
3.9320002 1.4129705 0.3402895 0
3.9350002 1.4078333 0.34023538 0
3.9400003 1.4035041 0.3401452 0
3.9460003 1.3995647 0.34003699 0
3.9530003 1.3960094 0.33991072 0
3.7180002 1.6836753 0.33816463 0
3.7170002 1.6771708 0.33818448 0
3.7170002 1.6711876 0.33818448 0
3.7190003 1.6662362 0.33814478 0
3.7210002 1.6612774 0.33810508 0
3.7240002 1.6568239 0.33804557 0
3.7280002 1.6528698 0.3379662 0
3.7340002 1.6499189 0.33784714 0
3.7410002 1.6474531 0.33770826 0
3.6860003 1.5247382 0.33879957 0
3.6830003 1.5173823 0.33885908 0
3.6810002 1.5105115 0.33889878 0
3.6800003 1.5041207 0.33891863 0
3.6800003 1.4982042 0.33891863 0
3.6800003 1.4922876 0.33891863 0
3.6820002 1.4873055 0.33887893 0
3.6830003 1.4818509 0.33885908 0
3.6860003 1.4773197 0.33879957 0
3.6880002 1.4723159 0.3387599 0
3.6920002 1.4682248 0.33868051 0
3.6960003 1.4641194 0.33860114 0
3.7000003 1.4599994 0.33852178 0
3.7060003 1.4567744 0.33840272 0
3.7130003 1.4539802 0.33826384 0
3.9270003 1.4618015 0.33401766 0
3.9240003 1.4541624 0.33407718 0
3.9230003 1.4473819 0.33409703 0
3.9230003 1.4410272 0.33409703 0
3.9230003 1.4346722 0.33409703 0
3.9240003 1.428736 0.33407718 0
3.9260004 1.4232126 0.33403751 0
3.9290004 1.418097 0.33397797 0
3.9320002 1.4129705 0.33391845 0
3.9350002 1.4078333 0.33385894 0
3.9400003 1.4035041 0.33375973 0
3.9460003 1.3995647 0.33364066 0
3.9530003 1.3960094 0.33350176 0
3.7180002 1.6836753 0.33217958 0
3.7170002 1.6771708 0.33220124 0
3.7170002 1.6711876 0.33220124 0
3.7190003 1.6662362 0.33215794 0
3.7210002 1.6612774 0.33211464 0
3.7240002 1.6568239 0.33204973 0
3.7280002 1.6528698 0.33196312 0
3.7340002 1.6499189 0.33183324 0
3.7410002 1.6474531 0.33168173 0
3.6860003 1.5247382 0.33287224 0
3.6830003 1.5173823 0.33293718 0
3.6810002 1.5105115 0.33298048 0
3.6800003 1.5041207 0.33300212 0
3.6800003 1.4982042 0.33300212 0
3.6800003 1.4922876 0.33300212 0
3.6820002 1.4873055 0.33295882 0
3.6830003 1.4818509 0.33293718 0
3.6860003 1.4773197 0.33287224 0
3.6880002 1.4723159 0.33282894 0
3.6920002 1.4682248 0.33274236 0
3.6960003 1.4641194 0.33265579 0
3.7000003 1.4599994 0.33256921 0
3.7060003 1.4567744 0.33243933 0
3.7130003 1.4539802 0.33228782 0
3.9270003 1.4618015 0.32765564 0
3.9240003 1.4541624 0.32772058 0
3.9230003 1.4473819 0.32774222 0
3.9230003 1.4410272 0.32774222 0
3.9230003 1.4346722 0.32774222 0
3.9240003 1.428736 0.32772058 0
3.9260004 1.4232126 0.32767728 0
3.9290004 1.418097 0.32761234 0
3.9320002 1.4129705 0.3275474 0
3.9350002 1.4078333 0.32748246 0
3.9400003 1.4035041 0.32737422 0
3.9460003 1.3995647 0.32724437 0
3.9530003 1.3960094 0.32709286 0
3.7180002 1.6836753 0.32619455 0
3.7170002 1.6771708 0.32621801 0
3.7170002 1.6711876 0.32621801 0
3.7190003 1.6662362 0.3261711 0
3.7210002 1.6612774 0.32612419 0
3.7240002 1.6568239 0.32605386 0
3.7280002 1.6528698 0.32596004 0
3.7340002 1.6499189 0.32581937 0
3.7410002 1.6474531 0.32565522 0
3.6860003 1.5247382 0.32694495 0
3.6830003 1.5173823 0.32701528 0
3.6810002 1.5105115 0.32706219 0
3.6800003 1.5041207 0.32708561 0
3.6800003 1.4982042 0.32708561 0
3.6800003 1.4922876 0.32708561 0
3.6820002 1.4873055 0.32703874 0
3.6830003 1.4818509 0.32701528 0
3.6860003 1.4773197 0.32694495 0
3.6880002 1.4723159 0.32689804 0
3.6920002 1.4682248 0.32680422 0
3.6960003 1.4641194 0.32671043 0
3.7000003 1.4599994 0.32661664 0
3.7060003 1.4567744 0.32647595 0
3.7130003 1.4539802 0.3263118 0
3.9270003 1.4618015 0.32129359 0
3.9240003 1.4541624 0.32136396 0
3.9230003 1.4473819 0.32138741 0
3.9230003 1.4410272 0.32138741 0
3.9230003 1.4346722 0.32138741 0
3.9240003 1.428736 0.32136396 0
3.9260004 1.4232126 0.32131705 0
3.9290004 1.418097 0.32124671 0
3.9320002 1.4129705 0.32117635 0
3.9350002 1.4078333 0.32110602 0
3.9400003 1.4035041 0.32098874 0
3.9460003 1.3995647 0.32084805 0
3.9520004 1.3956037 0.32070738 0
3.7180002 1.6836753 0.3202095 0
3.7170002 1.6771708 0.32023478 0
3.7170002 1.6711876 0.32023478 0
3.7190003 1.6662362 0.32018426 0
3.7210002 1.6612774 0.32013375 0
3.7240002 1.6568239 0.32005799 0
3.7280002 1.6528698 0.31995699 0
3.7340002 1.6499189 0.31980544 0
3.7410002 1.6474531 0.31962869 0
3.6860003 1.5247382 0.32101762 0
3.6830003 1.5173823 0.32109338 0
3.6810002 1.5105115 0.3211439 0
3.6800003 1.5041207 0.32116914 0
3.6800003 1.4982042 0.32116914 0
3.6800003 1.4922876 0.32116914 0
3.6820002 1.4873055 0.32111862 0
3.6830003 1.4818509 0.32109338 0
3.6860003 1.4773197 0.32101762 0
3.6880002 1.4723159 0.32096711 0
3.6920002 1.4682248 0.32086611 0
3.6960003 1.4641194 0.32076508 0
3.7000003 1.4599994 0.32066408 0
3.7060003 1.4567744 0.32051253 0
3.7130003 1.4539802 0.32033578 0
3.9270003 1.4618015 0.31493157 0
3.9240003 1.4541624 0.31500733 0
3.9230003 1.4473819 0.3150326 0
3.9230003 1.4410272 0.3150326 0
3.9230003 1.4346722 0.3150326 0
3.9240003 1.428736 0.31500733 0
3.9260004 1.4232126 0.31495681 0
3.9290004 1.418097 0.31488106 0
3.9320002 1.4129705 0.3148053 0
3.9350002 1.4078333 0.31472954 0
3.9400003 1.4035041 0.31460327 0
3.9460003 1.3995647 0.31445175 0
3.9520004 1.3956037 0.31430024 0
3.7180002 1.6836753 0.31422448 0
3.7170002 1.6771708 0.31425154 0
3.7170002 1.6711876 0.31425154 0
3.7190003 1.6662362 0.31419742 0
3.7210002 1.6612774 0.3141433 0
3.7240002 1.6568239 0.31406215 0
3.7280002 1.6528698 0.31395391 0
3.7330003 1.6494102 0.31381863 0
3.7410002 1.6474531 0.31360215 0
3.6860003 1.5247382 0.3150903 0
3.6830003 1.5173823 0.31517148 0
3.6810002 1.5105115 0.3152256 0
3.6800003 1.5041207 0.31525266 0
3.6800003 1.4982042 0.31525266 0
3.6800003 1.4922876 0.31525266 0
3.6820002 1.4873055 0.31519854 0
3.6830003 1.4818509 0.31517148 0
3.6860003 1.4773197 0.3150903 0
3.6880002 1.4723159 0.31503621 0
3.6920002 1.4682248 0.31492797 0
3.6960003 1.4641194 0.31481975 0
3.7000003 1.4599994 0.31471151 0
3.7060003 1.4567744 0.31454915 0
3.7130003 1.4539802 0.31435975 0
3.9270003 1.4618015 0.30856955 0
3.9240003 1.4541624 0.30865073 0
3.9230003 1.4473819 0.30867776 0
3.9230003 1.4410272 0.30867776 0
3.9230003 1.4346722 0.30867776 0
3.9240003 1.428736 0.30865073 0
3.9260004 1.4232126 0.30859661 0
3.9290004 1.418097 0.30851543 0
3.9320002 1.4129705 0.30843425 0
3.9350002 1.4078333 0.30835307 0
3.9400003 1.4035041 0.30821779 0
3.9460003 1.3995647 0.30805546 0
3.9520004 1.3956037 0.3078931 0
3.7180002 1.6836753 0.30823946 0
3.7170002 1.6771708 0.30826831 0
3.7170002 1.6711876 0.30826831 0
3.7190003 1.6662362 0.30821058 0
3.7210002 1.6612774 0.30815285 0
3.7240002 1.6568239 0.30806628 0
3.7280002 1.6528698 0.30795085 0
3.7330003 1.6494102 0.30780652 0
3.7400002 1.6469462 0.30760449 0
3.6860003 1.5247382 0.30916297 0
3.6830003 1.5173823 0.30924958 0
3.6810002 1.5105115 0.30930731 0
3.6800003 1.5041207 0.30933616 0
3.6800003 1.4982042 0.30933616 0
3.6800003 1.4922876 0.30933616 0
3.6820002 1.4873055 0.30927843 0
3.6830003 1.4818509 0.30924958 0
3.6860003 1.4773197 0.30916297 0
3.6880002 1.4723159 0.30910528 0
3.6920002 1.4682248 0.30898982 0
3.6960003 1.4641194 0.30887437 0
3.7000003 1.4599994 0.30875894 0
3.7060003 1.4567744 0.30858576 0
3.7130003 1.4539802 0.30838376 0
3.9270003 1.4618015 0.3022075 0
3.9240003 1.4541624 0.30229408 0
3.9230003 1.4473819 0.30232295 0
3.9230003 1.4410272 0.30232295 0
3.9230003 1.4346722 0.30232295 0
3.9240003 1.428736 0.30229408 0
3.9260004 1.4232126 0.30223638 0
3.9290004 1.418097 0.30214977 0
3.9320002 1.4129705 0.3020632 0
3.9350002 1.4078333 0.30197662 0
3.9400003 1.4035041 0.30183232 0
3.9460003 1.3995647 0.30165914 0
3.9520004 1.3956037 0.30148599 0
3.7180002 1.6836753 0.30225441 0
3.7170002 1.6771708 0.30228508 0
3.7170002 1.6711876 0.30228508 0
3.7190003 1.6662362 0.30222374 0
3.7210002 1.6612774 0.30216241 0
3.7240002 1.6568239 0.30207041 0
3.7280002 1.6528698 0.30194777 0
3.7330003 1.6494102 0.30179444 0
3.7400002 1.6469462 0.30157977 0
3.6860003 1.5247382 0.30323568 0
3.6830003 1.5173823 0.30332768 0
3.6810002 1.5105115 0.30338901 0
3.6800003 1.5041207 0.30341965 0
3.6800003 1.4982042 0.30341965 0
3.6800003 1.4922876 0.30341965 0
3.6820002 1.4873055 0.30335835 0
3.6830003 1.4818509 0.30332768 0
3.6860003 1.4773197 0.30323568 0
3.6880002 1.4723159 0.30317435 0
3.6920002 1.4682248 0.30305171 0
3.6960003 1.4641194 0.30292904 0
3.7000003 1.4599994 0.30280638 0
3.7060003 1.4567744 0.30262238 0
3.7130003 1.4539802 0.30240774 0
3.9270003 1.4618015 0.29584548 0
3.9240003 1.4541624 0.29593748 0
3.9230003 1.4473819 0.29596815 0
3.9230003 1.4410272 0.29596815 0
3.9230003 1.4346722 0.29596815 0
3.9240003 1.428736 0.29593748 0
3.9260004 1.4232126 0.29587615 0
3.9290004 1.418097 0.29578415 0
3.9320002 1.4129705 0.29569215 0
3.9350002 1.4078333 0.29560018 0
3.9400003 1.4035041 0.29544684 0
3.9460003 1.3995647 0.29526284 0
3.9520004 1.3956037 0.29507884 0
3.7180002 1.6836753 0.29626936 0
3.7170002 1.6771708 0.29630184 0
3.7170002 1.6711876 0.29630184 0
3.7190003 1.6662362 0.2962369 0
3.7210002 1.6612774 0.29617196 0
3.7240002 1.6568239 0.29607457 0
3.7280002 1.6528698 0.29594469 0
3.7330003 1.6494102 0.29578233 0
3.7400002 1.6469462 0.29555506 0
3.6860003 1.5247382 0.29730836 0
3.6830003 1.5173823 0.29740578 0
3.6810002 1.5105115 0.29747072 0
3.6800003 1.5041207 0.29750317 0
3.6800003 1.4982042 0.29750317 0
3.6800003 1.4922876 0.29750317 0
3.6820002 1.4873055 0.29743823 0
3.6830003 1.4818509 0.29740578 0
3.6860003 1.4773197 0.29730836 0
3.6880002 1.4723159 0.29724342 0
3.6920002 1.4682248 0.29711357 0
3.6960003 1.4641194 0.29698369 0
3.7000003 1.4599994 0.29685381 0
3.7060003 1.4567744 0.29665899 0
3.7120004 1.4535275 0.29646417 0
3.9270003 1.4618015 0.28948343 0
3.9240003 1.4541624 0.28958085 0
3.9230003 1.4473819 0.28961331 0
3.9230003 1.4410272 0.28961331 0
3.9230003 1.4346722 0.28961331 0
3.9240003 1.428736 0.28958085 0
3.9260004 1.4232126 0.28951591 0
3.9290004 1.418097 0.28941852 0
3.9320002 1.4129705 0.28932112 0
3.9350002 1.4078333 0.2892237 0
3.9400003 1.4035041 0.28906137 0
3.9460003 1.3995647 0.28886655 0
3.9520004 1.3956037 0.28867173 0
3.7180002 1.6836753 0.29028434 0
3.7170002 1.6771708 0.29031861 0
3.7170002 1.6711876 0.29031861 0
3.7190003 1.6662362 0.29025006 0
3.7210002 1.6612774 0.29018152 0
3.7240002 1.6568239 0.2900787 0
3.7280002 1.6528698 0.28994161 0
