# .PCD v0.7 - Point Cloud Data file format
VERSION 0.7
FIELDS x y z intensity
SIZE 4 4 4 4
TYPE F F F F
COUNT 1 1 1 1
WIDTH 1431
HEIGHT 1
VIEWPOINT 0 0 0 1 0 0 0
POINTS 1431
DATA ascii
4.0339999 0.13754109 0.69242167 0
4.0410004 0.13132697 0.69297731 0
4.0490003 0.1251345 0.69361222 0
4.0570002 0.11891316 0.69424719 0
4.0640001 0.11261968 0.69480276 0
4.072 0.10634242 0.69543767 0
4.0799999 0.10003631 0.69607264 0
4.0880003 0.093701333 0.69670761 0
4.0960002 0.087337494 0.69734251 0
4.1030002 0.080910534 0.69789809 0
4.1110001 0.074490786 0.69853306 0
4.119 0.068042174 0.69916797 0
4.1270003 0.061564695 0.69980288 0
4.1350002 0.055058356 0.7004379 0
4.1430001 0.048523162 0.70107281 0
4.151 0.041959096 0.70170772 0
4.1600003 0.035387825 0.70242202 0
4.1680002 0.028764244 0.70305699 0
4.1760001 0.0221118 0.70369196 0
4.184 0.015430491 0.70432687 0
4.1920004 0.0087203272 0.70496178 0
4.2010002 0.0019939244 0.70567608 0
4.2090001 -0.0047757663 0.70631105 0
4.217 -0.01157432 0.70694602 0
4.2260003 -0.018394519 0.70766032 0
4.164 0.47679412 0.69594997 0
4.1530004 0.46849662 0.69509679 0
4.1470003 0.46091521 0.6946314 0
4.1420002 0.45348895 0.69424355 0
4.1389999 0.44634399 0.69401085 0
4.1360002 0.43920997 0.69377822 0
4.1350002 0.43234286 0.69370067 0
4.1340003 0.42547938 0.69362307 0
4.1350002 0.41886839 0.69370067 0
4.1350002 0.41213122 0.69370067 0
4.138 0.40575656 0.69393337 0
4.1410003 0.39937106 0.694166 0
4.1440001 0.39297476 0.6943987 0
4.0870004 0.37964103 0.68997759 0
4.0750003 0.3716267 0.6890468 0
4.0680003 0.36421487 0.68850386 0
4.0640001 0.35715836 0.68819362 0
4.0610003 0.35022452 0.68796092 0
4.059 0.34340793 0.68780577 0
4.059 0.33680779 0.68780577 0
4.059 0.33020765 0.68780577 0
4.0599999 0.32370853 0.68788338 0
4.0620003 0.317305 0.68803847 0
4.0640001 0.31089428 0.68819362 0
4.0680003 0.30466753 0.68850386 0
4.0740004 0.29861397 0.68896925 0
4.0810003 0.29263073 0.68951219 0
4.0880003 0.28662223 0.69005513 0
4.0950003 0.28058851 0.69059813 0
4.1030002 0.27461606 0.69121861 0
3.9470003 0.25471106 0.67911863 0
3.9410002 0.2478151 0.67865324 0
3.9360003 0.24102196 0.67826545 0
3.9300003 0.23416749 0.67780006 0
3.9250002 0.22741222 0.67741227 0
3.9300003 0.2214326 0.67780006 0
3.9370003 0.21558288 0.678343 0
3.9450002 0.20978001 0.67896354 0
3.9520004 0.20387796 0.67950648 0
3.9590003 0.19795063 0.68004942 0
3.9670002 0.19206479 0.6806699 0
3.9740002 0.18608516 0.6812129 0
3.9810002 0.18008031 0.68175578 0
3.9890003 0.1741115 0.68237633 0
3.9960003 0.16805431 0.68291926 0
4.0040002 0.16202959 0.68353975 0
4.0110002 0.15592009 0.68408275 0
4.0190001 0.14983946 0.68470323 0
4.026 0.14367765 0.68524623 0
4.0339999 0.13754109 0.68586671 0
4.0410004 0.13132697 0.68640965 0
4.0490003 0.1251345 0.6870302 0
4.0570002 0.11891316 0.68765068 0
4.0640001 0.11261968 0.68819362 0
4.072 0.10634242 0.68881416 0
4.0799999 0.10003631 0.68943465 0
4.0880003 0.093701333 0.69005513 0
4.0960002 0.087337494 0.69067562 0
4.1030002 0.080910534 0.69121861 0
4.1110001 0.074490786 0.6918391 0
4.119 0.068042174 0.69245958 0
4.1270003 0.061564695 0.69308013 0
4.1350002 0.055058356 0.69370067 0
4.1430001 0.048523162 0.69432116 0
4.151 0.041959096 0.69494164 0
4.1600003 0.035387825 0.69563973 0
4.1680002 0.028764244 0.69626021 0
4.1760001 0.0221118 0.69688076 0
4.184 0.015430491 0.69750124 0
4.1920004 0.0087203272 0.69812179 0
4.2010002 0.0019939244 0.69881988 0
4.2090001 -0.0047757663 0.69944036 0
4.217 -0.01157432 0.70006084 0
4.2260003 -0.018394519 0.70075893 0
4.1760001 0.49208319 0.69006956 0
4.1760001 0.48527205 0.69006956 0
4.164 0.47679412 0.68916047 0
4.1530004 0.46849662 0.68832707 0
4.1470003 0.46091521 0.68787253 0
4.1430001 0.45362243 0.6875695 0
4.1400003 0.44647574 0.68734223 0
4.138 0.43946972 0.68719065 0
4.1370001 0.43259904 0.68711495 0
4.1370001 0.42585823 0.68711495 0
4.1370001 0.41911739 0.68711495 0
4.1389999 0.41262183 0.68726647 0
4.1410003 0.40611914 0.68741798 0
4.1440001 0.39972824 0.6876452 0
4.1490002 0.39356098 0.68802404 0
4.0870004 0.37964103 0.68332696 0
4.0750003 0.3716267 0.68241781 0
4.0680003 0.36421487 0.68188751 0
4.0640001 0.35715836 0.68158448 0
4.0610003 0.35022452 0.68135715 0
4.059 0.34340793 0.68120563 0
4.059 0.33680779 0.68120563 0
4.059 0.33020765 0.68120563 0
4.0599999 0.32370853 0.68128145 0
4.0620003 0.317305 0.68143296 0
4.0640001 0.31089428 0.68158448 0
4.0680003 0.30466753 0.68188751 0
4.0740004 0.29861397 0.68234205 0
4.0810003 0.29263073 0.68287241 0
4.0880003 0.28662223 0.68340266 0
4.0950003 0.28058851 0.68393302 0
4.1030002 0.27461606 0.68453908 0
3.9470003 0.25471106 0.67272055 0
3.9410002 0.2478151 0.67226601 0
3.9360003 0.24102196 0.67188716 0
3.9300003 0.23416749 0.67143261 0
3.9250002 0.22741222 0.67105383 0
3.9300003 0.2214326 0.67143261 0
3.9370003 0.21558288 0.67196292 0
3.9450002 0.20978001 0.67256904 0
3.9520004 0.20387796 0.67309934 0
3.9590003 0.19795063 0.67362964 0
3.9670002 0.19206479 0.67423576 0
3.9740002 0.18608516 0.67476606 0
3.9810002 0.18008031 0.67529643 0
3.9890003 0.1741115 0.67590249 0
3.9960003 0.16805431 0.67643279 0
4.0040002 0.16202959 0.67703891 0
4.0110002 0.15592009 0.67756915 0
4.0190001 0.14983946 0.67817521 0
4.026 0.14367765 0.67870557 0
4.0339999 0.13754109 0.67931163 0
4.0410004 0.13132697 0.679842 0
4.0490003 0.1251345 0.68044806 0
4.0570002 0.11891316 0.68105412 0
4.0640001 0.11261968 0.68158448 0
4.072 0.10634242 0.68219054 0
4.0799999 0.10003631 0.6827966 0
4.0880003 0.093701333 0.68340266 0
4.0960002 0.087337494 0.68400878 0
4.1030002 0.080910534 0.68453908 0
4.1110001 0.074490786 0.6851452 0
4.119 0.068042174 0.6857512 0
4.1270003 0.061564695 0.68635738 0
4.1350002 0.055058356 0.68696344 0
4.1430001 0.048523162 0.6875695 0
4.151 0.041959096 0.68817556 0
4.1600003 0.035387825 0.68885744 0
4.1680002 0.028764244 0.6894635 0
4.1760001 0.0221118 0.69006956 0
4.184 0.015430491 0.69067562 0
4.1920004 0.0087203272 0.69128174 0
4.2010002 0.0019939244 0.69196355 0
4.2090001 -0.0047757663 0.69256961 0
4.217 -0.01157432 0.69317573 0
4.2260003 -0.018394519 0.69385755 0
4.1940002 0.50833553 0.68458962 0
4.1820002 0.49976021 0.68370211 0
4.1730003 0.49165571 0.68303657 0
4.171 0.48456854 0.68288863 0
4.165 0.476933 0.68244487 0
4.1540003 0.46863371 0.68163133 0
4.1480002 0.46105045 0.68118763 0
4.1440001 0.45375586 0.68089181 0
4.1410003 0.44660741 0.6806699 0
4.1400003 0.43972951 0.68059599 0
4.1389999 0.43285513 0.68052197 0
4.1389999 0.42611071 0.68052197 0
4.1400003 0.41949078 0.68059599 0
4.1420002 0.41298983 0.68074387 0
4.145 0.40660253 0.68096572 0
4.1480002 0.40020442 0.68118763 0
4.1540003 0.39414725 0.68163133 0
4.0870004 0.37964103 0.67667627 0
4.0750003 0.3716267 0.67578882 0
4.0680003 0.36421487 0.67527115 0
4.0640001 0.35715836 0.67497528 0
4.0610003 0.35022452 0.67475343 0
4.059 0.34340793 0.67460549 0
4.059 0.33680779 0.67460549 0
4.059 0.33020765 0.67460549 0
4.0599999 0.32370853 0.67467946 0
4.0620003 0.317305 0.6748274 0
4.0640001 0.31089428 0.67497528 0
4.0680003 0.30466753 0.67527115 0
4.0740004 0.29861397 0.67571485 0
4.0810003 0.29263073 0.67623258 0
4.0880003 0.28662223 0.67675024 0
4.0950003 0.28058851 0.67726791 0
4.1030002 0.27461606 0.67785954 0
3.9470003 0.25471106 0.66632241 0
3.9410002 0.2478151 0.66587865 0
3.9360003 0.24102196 0.66550893 0
3.9300003 0.23416749 0.66506517 0
3.9250002 0.22741222 0.66469538 0
3.9300003 0.2214326 0.66506517 0
3.9370003 0.21558288 0.6655829 0
3.9450002 0.20978001 0.66617453 0
3.9520004 0.20387796 0.66669226 0
3.9590003 0.19795063 0.66720986 0
3.9670002 0.19206479 0.66780156 0
3.9740002 0.18608516 0.66831923 0
3.9810002 0.18008031 0.66883695 0
3.9890003 0.1741115 0.66942859 0
3.9960003 0.16805431 0.66994631 0
4.0040002 0.16202959 0.67053795 0
4.0110002 0.15592009 0.67105561 0
4.0190001 0.14983946 0.67164731 0
4.026 0.14367765 0.67216492 0
4.0339999 0.13754109 0.67275661 0
4.0410004 0.13132697 0.67327428 0
4.0490003 0.1251345 0.67386597 0
4.0570002 0.11891316 0.67445755 0
4.0640001 0.11261968 0.67497528 0
4.072 0.10634242 0.67556691 0
4.0799999 0.10003631 0.67615861 0
4.0880003 0.093701333 0.67675024 0
4.0960002 0.087337494 0.67734194 0
4.1030002 0.080910534 0.67785954 0
4.1110001 0.074490786 0.67845124 0
4.119 0.068042174 0.67904288 0
4.1270003 0.061564695 0.67963457 0
4.1350002 0.055058356 0.68022621 0
4.1430001 0.048523162 0.68081784 0
4.151 0.041959096 0.68140948 0
4.1600003 0.035387825 0.68207508 0
4.1680002 0.028764244 0.68266678 0
4.1760001 0.0221118 0.68325841 0
4.184 0.015430491 0.68385005 0
4.1920004 0.0087203272 0.68444169 0
4.2010002 0.0019939244 0.68510729 0
4.2090001 -0.0047757663 0.68569893 0
4.217 -0.01157432 0.68629062 0
4.2260003 -0.018394519 0.68695617 0
4.1990004 0.51591879 0.67810673 0
4.1880002 0.50745887 0.67731303 0
4.1790004 0.4993273 0.67666364 0
4.1719999 0.49151319 0.67615861 0
4.165 0.48372436 0.67565352 0
4.1700001 0.47762746 0.6760143 0
4.1570001 0.46904498 0.67507637 0
4.1500001 0.46132112 0.67457128 0
4.1460004 0.45402282 0.67428267 0
4.1430001 0.44687074 0.67406619 0
4.1420002 0.43998921 0.67399406 0
4.1410003 0.43311131 0.67392188 0
4.1420002 0.4264895 0.67399406 0
4.1430001 0.41986418 0.67406619 0
4.145 0.41335779 0.67421049 0
4.1480002 0.40696511 0.67442691 0
4.1530004 0.40079969 0.6747877 0
4.1589999 0.39473346 0.67522061 0
4.0870004 0.37964103 0.67002565 0
4.0750003 0.3716267 0.66915977 0
4.0680003 0.36421487 0.66865474 0
4.0640001 0.35715836 0.66836619 0
4.0610003 0.35022452 0.66814971 0
4.059 0.34340793 0.66800535 0
4.059 0.33680779 0.66800535 0
4.059 0.33020765 0.66800535 0
4.0599999 0.32370853 0.66807753 0
4.0620003 0.317305 0.66822183 0
4.0640001 0.31089428 0.66836619 0
4.0680003 0.30466753 0.66865474 0
4.0740004 0.29861397 0.66908765 0
4.0810003 0.29263073 0.66959274 0
4.0880003 0.28662223 0.67009783 0
4.0950003 0.28058851 0.67060286 0
4.1030002 0.27461606 0.67118007 0
3.9470003 0.25471106 0.65992433 0
3.9410002 0.2478151 0.65949142 0
3.9360003 0.24102196 0.65913063 0
3.9300003 0.23416749 0.65869772 0
3.9250002 0.22741222 0.658337 0
3.9300003 0.2214326 0.65869772 0
3.9370003 0.21558288 0.65920281 0
3.9450002 0.20978001 0.65978003 0
3.9520004 0.20387796 0.66028512 0
3.9590003 0.19795063 0.66079021 0
3.9670002 0.19206479 0.66136742 0
3.9740002 0.18608516 0.66187245 0
3.9810002 0.18008031 0.66237748 0
3.9890003 0.1741115 0.66295475 0
3.9960003 0.16805431 0.66345978 0
4.0040002 0.16202959 0.66403699 0
4.0110002 0.15592009 0.66454208 0
4.0190001 0.14983946 0.66511929 0
4.026 0.14367765 0.66562438 0
4.0339999 0.13754109 0.66620159 0
4.0410004 0.13132697 0.66670668 0
4.0490003 0.1251345 0.66728389 0
4.0570002 0.11891316 0.6678611 0
4.0640001 0.11261968 0.66836619 0
4.072 0.10634242 0.66894341 0
4.0799999 0.10003631 0.66952056 0
4.0880003 0.093701333 0.67009783 0
4.0960002 0.087337494 0.67067504 0
4.1030002 0.080910534 0.67118007 0
4.1110001 0.074490786 0.67175734 0
4.119 0.068042174 0.67233455 0
4.1270003 0.061564695 0.67291176 0
4.1350002 0.055058356 0.67348897 0
4.1430001 0.048523162 0.67406619 0
4.151 0.041959096 0.6746434 0
4.1600003 0.035387825 0.67529279 0
4.1680002 0.028764244 0.67586994 0
4.1760001 0.0221118 0.67644721 0
4.184 0.015430491 0.67702442 0
4.1920004 0.0087203272 0.67760164 0
4.2010002 0.0019939244 0.67825103 0
4.2090001 -0.0047757663 0.67882824 0
4.217 -0.01157432 0.67940545 0
4.2260003 -0.018394519 0.68005478 0
4.2049999 0.52366966 0.67167616 0
4.1940002 0.51517916 0.67090225 0
4.1849999 0.50702053 0.67026913 0
4.178 0.499183 0.66977674 0
4.1719999 0.49151319 0.66935462 0
4.1660004 0.48386508 0.66893256 0
4.1670003 0.47721082 0.66900289 0
4.1610003 0.46959329 0.66858077 0
4.1540003 0.46186221 0.66808832 0
4.1490002 0.45442325 0.66773659 0
4.1460004 0.44726577 0.66752559 0
4.145 0.44037884 0.6674552 0
4.1440001 0.43349549 0.66738486 0
4.145 0.42686829 0.6674552 0
4.1460004 0.42023757 0.66752559 0
4.1490002 0.41384843 0.66773659 0
4.152 0.4074485 0.66794765 0
4.1570001 0.4012759 0.66829944 0
4.0870004 0.37964103 0.66337502 0
4.0750003 0.3716267 0.66253084 0
4.0680003 0.36421487 0.66203839 0
4.0640001 0.35715836 0.66175699 0
4.0610003 0.35022452 0.66154599 0
4.059 0.34340793 0.66140521 0
4.059 0.33680779 0.66140521 0
4.059 0.33020765 0.66140521 0
4.0599999 0.32370853 0.6614756 0
4.0620003 0.317305 0.66161633 0
4.0640001 0.31089428 0.66175699 0
4.0680003 0.30466753 0.66203839 0
4.0740004 0.29861397 0.66246045 0
4.0810003 0.29263073 0.6629529 0
4.0880003 0.28662223 0.66344535 0
4.0950003 0.28058851 0.66393781 0
4.1030002 0.27461606 0.66450059 0
3.9470003 0.25471106 0.65352619 0
3.9410002 0.2478151 0.65310413 0
3.9360003 0.24102196 0.6527524 0
3.9300003 0.23416749 0.65233028 0
3.9250002 0.22741222 0.65197855 0
3.9300003 0.2214326 0.65233028 0
3.9370003 0.21558288 0.65282273 0
3.9450002 0.20978001 0.65338552 0
3.9520004 0.20387796 0.65387797 0
3.9590003 0.19795063 0.65437043 0
3.9670002 0.19206479 0.65493321 0
3.9740002 0.18608516 0.65542561 0
3.9810002 0.18008031 0.65591806 0
3.9890003 0.1741115 0.65648085 0
3.9960003 0.16805431 0.6569733 0
4.0040002 0.16202959 0.65753603 0
4.0110002 0.15592009 0.65802854 0
4.0190001 0.14983946 0.65859127 0
4.026 0.14367765 0.65908372 0
4.0339999 0.13754109 0.65964651 0
4.0410004 0.13132697 0.66013896 0
4.0490003 0.1251345 0.66070175 0
4.0570002 0.11891316 0.66126454 0
4.0640001 0.11261968 0.66175699 0
4.072 0.10634242 0.66231978 0
4.0799999 0.10003631 0.66288257 0
4.0880003 0.093701333 0.66344535 0
4.0960002 0.087337494 0.66400814 0
4.1030002 0.080910534 0.66450059 0
4.1110001 0.074490786 0.66506338 0
4.119 0.068042174 0.66562617 0
4.1270003 0.061564695 0.66618896 0
4.1350002 0.055058356 0.66675174 0
4.1430001 0.048523162 0.66731453 0
4.151 0.041959096 0.66787732 0
4.1600003 0.035387825 0.66851044 0
4.1680002 0.028764244 0.66907322 0
4.1760001 0.0221118 0.66963601 0
4.184 0.015430491 0.6701988 0
4.1920004 0.0087203272 0.67076159 0
4.2010002 0.0019939244 0.67139471 0
4.2090001 -0.0047757663 0.67195749 0
4.217 -0.01157432 0.67252028 0
4.2260003 -0.018394519 0.67315346 0
4.211 0.53144234 0.66522396 0
4.2000003 0.52292114 0.66446996 0
4.191 0.5147354 0.66385305 0
4.184 0.50687438 0.66337323 0
4.178 0.499183 0.66296196 0
4.1719999 0.49151319 0.66255069 0
4.1680002 0.48414648 0.66227651 0
4.1630001 0.47665524 0.66193378 0
4.1690001 0.47069007 0.66234505 0
4.1589999 0.46253866 0.6616596 0
4.1540003 0.4550907 0.66131687 0
4.1500001 0.44779253 0.66104269 0
4.1490002 0.44089833 0.66097414 0
4.1480002 0.43400776 0.6609056 0
4.1490002 0.42737335 0.66097414 0
4.1500001 0.42073542 0.66104269 0
4.1530004 0.41433907 0.66124833 0
4.1570001 0.4080528 0.66152251 0
4.1620002 0.40187114 0.66186523 0
4.0870004 0.37964103 0.65672439 0
4.0750003 0.3716267 0.65590185 0
4.0680003 0.36421487 0.65542197 0
4.0640001 0.35715836 0.65514785 0
4.0610003 0.35022452 0.65494221 0
4.059 0.34340793 0.65480512 0
4.059 0.33680779 0.65480512 0
4.059 0.33020765 0.65480512 0
4.0599999 0.32370853 0.65487367 0
4.0620003 0.317305 0.65501076 0
4.0640001 0.31089428 0.65514785 0
4.0680003 0.30466753 0.65542197 0
4.0740004 0.29861397 0.6558333 0
4.0810003 0.29263073 0.65631306 0
4.0880003 0.28662223 0.65679294 0
4.0960002 0.28067687 0.65734124 0
4.1030002 0.27461606 0.65782106 0
3.9470003 0.25471106 0.64712811 0
3.9410002 0.2478151 0.64671683 0
3.9360003 0.24102196 0.64637411 0
3.9300003 0.23416749 0.64596283 0
3.9250002 0.22741222 0.64562011 0
3.9300003 0.2214326 0.64596283 0
3.9370003 0.21558288 0.64644265 0
3.9450002 0.20978001 0.64699101 0
3.9520004 0.20387796 0.64747083 0
3.9590003 0.19795063 0.64795065 0
3.9670002 0.19206479 0.64849901 0
3.9740002 0.18608516 0.64897883 0
3.9810002 0.18008031 0.64945865 0
3.9890003 0.1741115 0.65000701 0
3.9960003 0.16805431 0.65048683 0
4.0040002 0.16202959 0.65103513 0
4.0110002 0.15592009 0.65151495 0
4.0190001 0.14983946 0.65206331 0
4.026 0.14367765 0.65254313 0
4.0339999 0.13754109 0.65309149 0
4.0410004 0.13132697 0.65357137 0
4.0490003 0.1251345 0.65411967 0
4.0570002 0.11891316 0.65466803 0
4.0640001 0.11261968 0.65514785 0
4.072 0.10634242 0.65569621 0
4.0799999 0.10003631 0.65624452 0
4.0880003 0.093701333 0.65679294 0
4.0960002 0.087337494 0.65734124 0
4.1030002 0.080910534 0.65782106 0
4.1110001 0.074490786 0.65836942 0
4.119 0.068042174 0.65891778 0
4.1270003 0.061564695 0.65946615 0
4.1350002 0.055058356 0.66001451 0
4.1430001 0.048523162 0.66056287 0
4.151 0.041959096 0.66111124 0
4.1600003 0.035387825 0.66172814 0
4.1680002 0.028764244 0.66227651 0
4.1760001 0.0221118 0.66282487 0
4.184 0.015430491 0.66337323 0
4.1920004 0.0087203272 0.66392159 0
4.2010002 0.0019939244 0.6645385 0
4.2090001 -0.0047757663 0.66508687 0
4.217 -0.01157432 0.66563517 0
4.2260003 -0.018394519 0.66625208 0
4.2160001 0.53908324 0.6586833 0
4.2060003 0.53068471 0.65801591 0
4.198 0.52262169 0.65748197 0
4.1900001 0.51458752 0.65694809 0
4.184 0.50687438 0.65654761 0
4.1790004 0.4993273 0.65621388 0
4.1740003 0.49179822 0.65588021 0
4.1700001 0.48442787 0.65561318 0
4.1660004 0.47707194 0.65534627 0
4.1630001 0.46986747 0.655146 0
4.1690001 0.46389151 0.65554655 0
4.1610003 0.45602512 0.65501261 0
4.1570001 0.44871426 0.65474558 0
4.1540003 0.44154775 0.65454537 0
4.1540003 0.43477625 0.65454537 0
4.1540003 0.42800471 0.65454537 0
4.1560001 0.42148218 0.65467888 0
4.1589999 0.415075 0.65487909 0
4.1630001 0.40877795 0.655146 0
4.0870004 0.37964103 0.65007371 0
4.0750003 0.3716267 0.64927286 0
4.0680003 0.36421487 0.64880562 0
4.0640001 0.35715836 0.64853871 0
4.0610003 0.35022452 0.6483385 0
4.059 0.34340793 0.64820498 0
4.059 0.33680779 0.64820498 0
4.059 0.33020765 0.64820498 0
4.0599999 0.32370853 0.64827168 0
4.0620003 0.317305 0.64840519 0
4.0640001 0.31089428 0.64853871 0
4.0680003 0.30466753 0.64880562 0
4.0740004 0.29861397 0.6492061 0
4.0810003 0.29263073 0.64967328 0
4.0880003 0.28662223 0.65014046 0
4.0960002 0.28067687 0.6506744 0
4.1030002 0.27461606 0.65114158 0
3.9470003 0.25471106 0.64073002 0
3.9410002 0.2478151 0.64032954 0
3.9360003 0.24102196 0.63999587 0
3.9300003 0.23416749 0.63959539 0
3.9250002 0.22741222 0.63926172 0
3.9300003 0.2214326 0.63959539 0
3.9370003 0.21558288 0.64006257 0
3.9450002 0.20978001 0.64059651 0
3.9520004 0.20387796 0.64106369 0
3.9590003 0.19795063 0.64153087 0
3.9670002 0.19206479 0.64206481 0
3.9740002 0.18608516 0.64253199 0
3.9810002 0.18008031 0.64299917 0
3.9890003 0.1741115 0.64353311 0
3.9960003 0.16805431 0.64400029 0
4.0040002 0.16202959 0.64453423 0
4.0110002 0.15592009 0.64500141 0
4.0190001 0.14983946 0.64553535 0
4.026 0.14367765 0.64600253 0
4.0339999 0.13754109 0.64653647 0
4.0410004 0.13132697 0.64700365 0
4.0490003 0.1251345 0.64753759 0
4.0570002 0.11891316 0.64807153 0
4.0640001 0.11261968 0.64853871 0
4.072 0.10634242 0.64907265 0
4.0799999 0.10003631 0.64960653 0
4.0880003 0.093701333 0.65014046 0
4.0960002 0.087337494 0.6506744 0
4.1030002 0.080910534 0.65114158 0
4.1110001 0.074490786 0.65167552 0
4.119 0.068042174 0.6522094 0
4.1270003 0.061564695 0.65274334 0
4.1350002 0.055058356 0.65327728 0
4.1430001 0.048523162 0.65381122 0
4.151 0.041959096 0.65434515 0
4.1600003 0.035387825 0.65494585 0
4.1680002 0.028764244 0.65547973 0
4.1760001 0.0221118 0.65601367 0
4.184 0.015430491 0.65654761 0
4.1920004 0.0087203272 0.65708154 0
4.2010002 0.0019939244 0.65768218 0
4.2090001 -0.0047757663 0.65821612 0
4.217 -0.01157432 0.65875006 0
4.2260003 -0.018394519 0.65935075 0
4.2220001 0.54689735 0.65218961 0
4.2120004 0.53846997 0.65154022 0
4.204 0.53038168 0.65102071 0
4.197 0.52247196 0.65056616 0
4.191 0.5147354 0.65017653 0
4.1849999 0.50702053 0.64978695 0
4.1800003 0.4994716 0.64946222 0
4.1760001 0.49208319 0.64920247 0
4.1730003 0.48484993 0.64900768 0
4.1700001 0.47762746 0.64881289 0
4.1670003 0.47041589 0.64861804 0
4.165 0.4633503 0.64848816 0
4.1730003 0.45762688 0.64900768 0
4.1660004 0.44989938 0.64855313 0
4.1630001 0.44271657 0.64835829 0
4.1610003 0.4356727 0.64822841 0
4.1610003 0.42888859 0.64822841 0
4.164 0.42247784 0.64842325 0
4.1670003 0.41605628 0.64861804 0
4.1730003 0.4099865 0.64900768 0
4.0870004 0.37964103 0.64342308 0
4.0750003 0.3716267 0.64264381 0
4.0680003 0.36421487 0.64218926 0
4.0640001 0.35715836 0.64192951 0
4.0610003 0.35022452 0.64173472 0
4.059 0.34340793 0.64160484 0
4.059 0.33680779 0.64160484 0
4.059 0.33020765 0.64160484 0
4.0599999 0.32370853 0.64166981 0
4.0620003 0.317305 0.64179963 0
4.0640001 0.31089428 0.64192951 0
4.0680003 0.30466753 0.64218926 0
4.0740004 0.29861397 0.6425789 0
4.0810003 0.29263073 0.64303344 0
4.0880003 0.28662223 0.64348805 0
4.0960002 0.28067687 0.6440075 0
4.1030002 0.27461606 0.64446205 0
3.9470003 0.25471106 0.63433188 0
3.9410002 0.2478151 0.63394225 0
3.9360003 0.24102196 0.63361758 0
3.9300003 0.23416749 0.63322794 0
3.9250002 0.22741222 0.63290328 0
3.9300003 0.2214326 0.63322794 0
3.9370003 0.21558288 0.63368255 0
3.9450002 0.20978001 0.634202 0
3.9520004 0.20387796 0.63465661 0
3.9590003 0.19795063 0.63511115 0
3.9670002 0.19206479 0.63563061 0
3.9740002 0.18608516 0.63608515 0
3.9810002 0.18008031 0.63653976 0
3.9890003 0.1741115 0.63705927 0
3.9960003 0.16805431 0.63751382 0
4.0040002 0.16202959 0.63803327 0
4.0110002 0.15592009 0.63848788 0
4.0190001 0.14983946 0.63900739 0
4.026 0.14367765 0.63946193 0
4.0339999 0.13754109 0.63998139 0
4.0410004 0.13132697 0.64043599 0
4.0490003 0.1251345 0.64095551 0
4.0570002 0.11891316 0.64147496 0
4.0640001 0.11261968 0.64192951 0
4.072 0.10634242 0.64244902 0
4.0799999 0.10003631 0.64296854 0
4.0880003 0.093701333 0.64348805 0
4.0960002 0.087337494 0.6440075 0
4.1030002 0.080910534 0.64446205 0
4.1110001 0.074490786 0.64498156 0
4.119 0.068042174 0.64550108 0
4.1270003 0.061564695 0.64602059 0
4.1350002 0.055058356 0.64654005 0
4.1430001 0.048523162 0.64705956 0
4.152 0.04198255 0.64764398 0
4.1600003 0.035387825 0.6481635 0
4.1680002 0.028764244 0.64868301 0
4.1760001 0.0221118 0.64920247 0
4.184 0.015430491 0.64972198 0
4.1920004 0.0087203272 0.65024149 0
4.2010002 0.0019939244 0.65082592 0
4.2090001 -0.0047757663 0.65134543 0
4.217 -0.01157432 0.65186489 0
4.2260003 -0.018394519 0.65244937 0
4.2280002 0.55473304 0.64567423 0
4.2179999 0.54627681 0.6450429 0
4.21 0.5381633 0.64453781 0
4.2030001 0.53023016 0.6440959 0
4.197 0.52247196 0.64371711 0
4.191 0.5147354 0.64333832 0
4.1870003 0.50731277 0.64308578 0
4.1830001 0.49990451 0.64283323 0
4.1790004 0.49251074 0.64258075 0
4.1760001 0.48527205 0.64239132 0
4.1740003 0.47818309 0.64226508 0
4.1719999 0.47110128 0.64213878 0
4.1700001 0.46402681 0.64201254 0
4.1690001 0.457093 0.64194942 0
4.1750002 0.45108443 0.64232814 0
4.178 0.44466472 0.64251757 0
4.1740003 0.43733764 0.64226508 0
4.1740003 0.43053007 0.64226508 0
4.177 0.42409587 0.64245445 0
4.0870004 0.37964103 0.63677245 0
4.0750003 0.3716267 0.63601482 0
4.0680003 0.36421487 0.63557291 0
4.0640001 0.35715836 0.63532037 0
4.0610003 0.35022452 0.635131 0
4.059 0.34340793 0.6350047 0
4.059 0.33680779 0.6350047 0
4.059 0.33020765 0.6350047 0
4.0599999 0.32370853 0.63506782 0
4.0620003 0.317305 0.63519412 0
4.0640001 0.31089428 0.63532037 0
4.0680003 0.30466753 0.63557291 0
4.0740004 0.29861397 0.63595176 0
4.0810003 0.29263073 0.63639367 0
4.0880003 0.28662223 0.63683558 0
4.0960002 0.28067687 0.63734066 0
4.1030002 0.27461606 0.63778257 0
3.9470003 0.25471106 0.6279338 0
3.9410002 0.2478151 0.62755501 0
3.9360003 0.24102196 0.62723935 0
3.9300003 0.23416749 0.6268605 0
3.9250002 0.22741222 0.62654483 0
3.9300003 0.2214326 0.6268605 0
3.9370003 0.21558288 0.62730247 0
3.9450002 0.20978001 0.6278075 0
3.9520004 0.20387796 0.62824947 0
3.9590003 0.19795063 0.62869138 0
3.9670002 0.19206479 0.62919647 0
3.9740002 0.18608516 0.62963837 0
3.9810002 0.18008031 0.63008034 0
3.9890003 0.1741115 0.63058537 0
3.9960003 0.16805431 0.63102734 0
4.0040002 0.16202959 0.63153237 0
4.0110002 0.15592009 0.63197434 0
4.0190001 0.14983946 0.63247937 0
4.026 0.14367765 0.63292134 0
4.0339999 0.13754109 0.63342637 0
4.0410004 0.13132697 0.63386834 0
4.0490003 0.1251345 0.63437337 0
4.0570002 0.11891316 0.63487846 0
4.0640001 0.11261968 0.63532037 0
4.072 0.10634242 0.63582546 0
4.0799999 0.10003631 0.63633049 0
4.0880003 0.093701333 0.63683558 0
4.0960002 0.087337494 0.63734066 0
4.1030002 0.080910534 0.63778257 0
4.1110001 0.074490786 0.63828766 0
4.119 0.068042174 0.63879275 0
4.1270003 0.061564695 0.63929778 0
4.1350002 0.055058356 0.63980281 0
4.1430001 0.048523162 0.6403079 0
4.152 0.04198255 0.64087611 0
4.1600003 0.035387825 0.64138114 0
4.1680002 0.028764244 0.64188623 0
4.1760001 0.0221118 0.64239132 0
4.184 0.015430491 0.64289635 0
4.1920004 0.0087203272 0.64340144 0
4.2010002 0.0019939244 0.64396966 0
4.2090001 -0.0047757663 0.64447469 0
4.217 -0.01157432 0.64497977 0
4.2260003 -0.018394519 0.64554799 0
4.2340002 0.56259042 0.63913727 0
4.224 0.55410534 0.63852394 0
4.2160001 0.54596657 0.63803327 0
4.2090001 0.53800994 0.637604 0
4.2030001 0.53023016 0.637236 0
4.198 0.52262169 0.63692939 0
4.1930003 0.51503128 0.63662273 0
4.1890001 0.50760502 0.63637739 0
4.1860003 0.50033742 0.63619345 0
4.1830001 0.49308074 0.63600945 0
4.1800003 0.48583484 0.63582546 0
4.178 0.47873861 0.63570279 0
4.177 0.47178674 0.63564146 0
4.1760001 0.4648385 0.63558012 0
4.1760001 0.4580273 0.63558012 0
4.1760001 0.45121613 0.63558012 0
4.178 0.44466472 0.63570279 0
4.184 0.4386183 0.63607079 0
4.0870004 0.37964103 0.63012183 0
4.0750003 0.3716267 0.62938583 0
4.0680003 0.36421487 0.62895656 0
4.0640001 0.35715836 0.62871122 0
4.0610003 0.35022452 0.62852722 0
4.059 0.34340793 0.62840462 0
4.059 0.33680779 0.62840462 0
4.059 0.33020765 0.62840462 0
4.0599999 0.32370853 0.62846589 0
4.0620003 0.317305 0.62858856 0
4.0640001 0.31089428 0.62871122 0
4.0680003 0.30466753 0.62895656 0
4.0740004 0.29861397 0.62932456 0
4.0810003 0.29263073 0.62975383 0
4.0880003 0.28662223 0.6301831 0
4.0960002 0.28067687 0.63067377 0
4.1030002 0.27461606 0.63110304 0
3.9470003 0.25471106 0.62153566 0
3.9410002 0.2478151 0.62116772 0
3.9360003 0.24102196 0.62086105 0
3.9300003 0.23416749 0.62049305 0
3.9250002 0.22741222 0.62018645 0
3.9300003 0.2214326 0.62049305 0
3.9370003 0.21558288 0.62092239 0
3.9450002 0.20978001 0.62141299 0
3.9520004 0.20387796 0.62184232 0
3.9590003 0.19795063 0.62227166 0
3.9670002 0.19206479 0.62276226 0
3.9740002 0.18608516 0.6231916 0
3.9810002 0.18008031 0.62362087 0
3.9890003 0.1741115 0.62411153 0
3.9960003 0.16805431 0.62454081 0
4.0040002 0.16202959 0.62503147 0
4.0110002 0.15592009 0.62546074 0
4.0190001 0.14983946 0.62595141 0
4.026 0.14367765 0.62638068 0
4.0339999 0.13754109 0.62687135 0
4.0410004 0.13132697 0.62730062 0
4.0490003 0.1251345 0.62779129 0
4.0570002 0.11891316 0.62828195 0
4.0640001 0.11261968 0.62871122 0
4.072 0.10634242 0.62920189 0
4.0799999 0.10003631 0.62969249 0
4.0880003 0.093701333 0.6301831 0
4.0960002 0.087337494 0.63067377 0
4.1030002 0.080910534 0.63110304 0
4.1110001 0.074490786 0.6315937 0
4.119 0.068042174 0.63208437 0
4.1270003 0.061564695 0.63257498 0
4.1350002 0.055058356 0.63306564 0
4.1430001 0.048523162 0.63355625 0
4.152 0.04198255 0.63410819 0
4.1600003 0.035387825 0.63459885 0
4.1680002 0.028764244 0.63508952 0
4.1760001 0.0221118 0.63558012 0
4.184 0.015430491 0.63607079 0
4.1920004 0.0087203272 0.63656139 0
4.2010002 0.0019939244 0.63711339 0
4.2090001 -0.0047757663 0.637604 0
4.217 -0.01157432 0.63809466 0
4.2260003 -0.018394519 0.6386466 0
4.2400002 0.5704695 0.63257861 0
4.2309999 0.56211424 0.63204288 0
4.223 0.5539484 0.63156664 0
4.2160001 0.54596657 0.63115001 0
4.21 0.5381633 0.6307928 0
4.204 0.53038168 0.63043571 0
4.2000003 0.52292114 0.63019758 0
4.1960001 0.51547503 0.62995946 0
4.1930003 0.50818944 0.62978089 0
4.1890001 0.50077039 0.62954283 0
4.1870003 0.49365067 0.62942374 0
4.1849999 0.48653829 0.62930465 0
4.184 0.479572 0.62924516 0
4.1830001 0.47260934 0.62918562 0
4.1830001 0.4657855 0.62918562 0
4.1830001 0.45896167 0.62918562 0
4.1849999 0.45240119 0.62930465 0
4.1880002 0.44596344 0.62948322 0
4.1920004 0.43964291 0.6297214 0
4.0870004 0.37964103 0.62347114 0
4.0750003 0.3716267 0.62275684 0
4.0680003 0.36421487 0.6223402 0
4.0640001 0.35715836 0.62210208 0
4.0610003 0.35022452 0.62192351 0
4.059 0.34340793 0.62180448 0
4.059 0.33680779 0.62180448 0
4.059 0.33020765 0.62180448 0
4.0599999 0.32370853 0.62186396 0
4.0620003 0.317305 0.62198305 0
4.0640001 0.31089428 0.62210208 0
4.0680003 0.30466753 0.6223402 0
4.0740004 0.29861397 0.62269735 0
4.0810003 0.29263073 0.62311399 0
4.0880003 0.28662223 0.62353069 0
4.0960002 0.28067687 0.62400687 0
4.1030002 0.27461606 0.62442356 0
3.9470003 0.25471106 0.61513758 0
3.9410002 0.2478151 0.61478043 0
3.9360003 0.24102196 0.61448282 0
3.9300003 0.23416749 0.61412561 0
3.9250002 0.22741222 0.613828 0
3.9300003 0.2214326 0.61412561 0
3.9370003 0.21558288 0.61454231 0
3.9450002 0.20978001 0.61501849 0
3.9520004 0.20387796 0.61543524 0
3.9590003 0.19795063 0.61585188 0
3.9670002 0.19206479 0.61632812 0
3.9740002 0.18608516 0.61674476 0
3.9810002 0.18008031 0.61716145 0
3.9890003 0.1741115 0.61763763 0
3.9960003 0.16805431 0.61805433 0
4.0040002 0.16202959 0.61853051 0
4.0110002 0.15592009 0.61894721 0
4.0190001 0.14983946 0.61942345 0
4.026 0.14367765 0.61984009 0
4.0339999 0.13754109 0.62031627 0
4.0410004 0.13132697 0.62073302 0
4.0490003 0.1251345 0.6212092 0
4.0570002 0.11891316 0.62168539 0
4.0640001 0.11261968 0.62210208 0
4.072 0.10634242 0.62257826 0
4.0799999 0.10003631 0.6230545 0
4.0880003 0.093701333 0.62353069 0
4.0960002 0.087337494 0.62400687 0
4.1030002 0.080910534 0.62442356 0
4.1110001 0.074490786 0.62489974 0
4.119 0.068042174 0.62537599 0
4.1270003 0.061564695 0.62585223 0
4.1350002 0.055058356 0.62632841 0
4.1430001 0.048523162 0.62680459 0
4.152 0.04198255 0.62734032 0
4.1600003 0.035387825 0.62781656 0
4.1680002 0.028764244 0.62829274 0
4.1760001 0.0221118 0.62876892 0
4.184 0.015430491 0.62924516 0
4.1920004 0.0087203272 0.6297214 0
4.2010002 0.0019939244 0.63025713 0
4.2090001 -0.0047757663 0.63073331 0
4.217 -0.01157432 0.63120949 0
4.2260003 -0.018394519 0.63174522 0
4.2580004 0.58727741 0.62669098 0
4.2460003 0.57837015 0.62599832 0
4.237 0.56998789 0.6254788 0
4.2290001 0.56179678 0.62501705 0
4.2220001 0.55379152 0.62461299 0
4.2160001 0.54596657 0.62426662 0
4.211 0.53831661 0.62397802 0
4.2070003 0.53083622 0.62374711 0
4.2020001 0.52322054 0.62345856 0
4.1990004 0.51591879 0.62328541 0
4.1960001 0.50862771 0.6231122 0
4.1940002 0.5014919 0.62299675 0
4.1920004 0.49436325 0.62288129 0
4.191 0.48738247 0.6228236 0
4.1900001 0.48040533 0.6227659 0
4.1900001 0.47356892 0.6227659 0
4.1900001 0.46673244 0.6227659 0
4.1920004 0.46016306 0.62288129 0
4.1950002 0.45371801 0.6230545 0
4.2000003 0.44752192 0.62334311 0
4.0870004 0.37964103 0.61682051 0
4.0750003 0.3716267 0.61612785 0
4.0680003 0.36421487 0.61572385 0
4.0640001 0.35715836 0.61549294 0
4.0610003 0.35022452 0.61531973 0
4.059 0.34340793 0.61520433 0
4.059 0.33680779 0.61520433 0
4.059 0.33020765 0.61520433 0
4.0599999 0.32370853 0.61526203 0
4.0620003 0.317305 0.61537749 0
4.0640001 0.31089428 0.61549294 0
4.0680003 0.30466753 0.61572385 0
4.0740004 0.29861397 0.61607015 0
4.0810003 0.29263073 0.61647421 0
4.0880003 0.28662223 0.61687827 0
4.0960002 0.28067687 0.61734003 0
4.1030002 0.27461606 0.61774409 0
3.9470003 0.25471106 0.6087395 0
3.9410002 0.2478151 0.60839313 0
3.9360003 0.24102196 0.60810453 0
3.9300003 0.23416749 0.60775816 0
3.9250002 0.22741222 0.60746956 0
3.9300003 0.2214326 0.60775816 0
3.9370003 0.21558288 0.60816222 0
3.9450002 0.20978001 0.60862398 0
3.9520004 0.20387796 0.6090281 0
3.9590003 0.19795063 0.6094321 0
3.9670002 0.19206479 0.60989392 0
3.9740002 0.18608516 0.61029792 0
3.9810002 0.18008031 0.61070204 0
3.9890003 0.1741115 0.61116379 0
3.9960003 0.16805431 0.61156785 0
4.0040002 0.16202959 0.61202961 0
4.0110002 0.15592009 0.61243367 0
4.0190001 0.14983946 0.61289543 0
4.026 0.14367765 0.61329949 0
4.0339999 0.13754109 0.61376125 0
4.0410004 0.13132697 0.61416531 0
4.0490003 0.1251345 0.61462712 0
4.0570002 0.11891316 0.61508888 0
4.0640001 0.11261968 0.61549294 0
4.072 0.10634242 0.6159547 0
4.0799999 0.10003631 0.61641645 0
4.0880003 0.093701333 0.61687827 0
4.0960002 0.087337494 0.61734003 0
4.1030002 0.080910534 0.61774409 0
4.1110001 0.074490786 0.61820585 0
4.119 0.068042174 0.6186676 0
4.1270003 0.061564695 0.61912942 0
4.1350002 0.055058356 0.61959118 0
4.1430001 0.048523162 0.62005293 0
4.152 0.04198255 0.62057245 0
4.1600003 0.035387825 0.6210342 0
4.1680002 0.028764244 0.62149596 0
4.1760001 0.0221118 0.62195778 0
4.184 0.015430491 0.62241954 0
4.1920004 0.0087203272 0.62288129 0
4.2010002 0.0019939244 0.62340081 0
4.2090001 -0.0047757663 0.62386262 0
4.217 -0.01157432 0.62432438 0
4.2260003 -0.018394519 0.62484384 0
4.2680001 0.60287315 0.62029105 0
4.2639999 0.59523213 0.62006736 0
4.2520003 0.58629251 0.61939639 0
4.243 0.57788318 0.61889309 0
4.2350001 0.56966686 0.61844575 0
4.2280002 0.56163806 0.61805433 0
4.223 0.5539484 0.61777472 0
4.2179999 0.54627681 0.61749512 0
4.2130003 0.53862327 0.61721557 0
4.2090001 0.53113925 0.61699188 0
4.2060003 0.52381939 0.61682415 0
4.2030001 0.51651037 0.61665636 0
4.2010002 0.50935829 0.61654454 0
4.1990004 0.50221342 0.61643273 0
4.198 0.49521822 0.61637676 0
4.197 0.48822665 0.61632085 0
4.197 0.4813776 0.61632085 0
4.198 0.47466564 0.61637676 0
4.2000003 0.46808529 0.61648864 0
4.2030001 0.46163136 0.61665636 0
4.0870004 0.37964103 0.61016989 0
4.0750003 0.3716267 0.60949886 0
4.0680003 0.36421487 0.60910743 0
4.0640001 0.35715836 0.60888374 0
4.0610003 0.35022452 0.60871601 0
4.059 0.34340793 0.60860419 0
4.059 0.33680779 0.60860419 0
4.059 0.33020765 0.60860419 0
4.0599999 0.32370853 0.6086601 0
4.0620003 0.317305 0.60877192 0
4.0640001 0.31089428 0.60888374 0
4.0680003 0.30466753 0.60910743 0
4.0740004 0.29861397 0.60944295 0
4.0810003 0.29263073 0.60983437 0
4.0880003 0.28662223 0.6102258 0
4.0960002 0.28067687 0.61067313 0
4.1030002 0.27461606 0.61106455 0
3.9470003 0.25471106 0.60234135 0
3.9410002 0.2478151 0.60200584 0
3.9360003 0.24102196 0.60172629 0
3.9300003 0.23416749 0.60139072 0
3.9250002 0.22741222 0.60111117 0
3.9300003 0.2214326 0.60139072 0
3.9370003 0.21558288 0.6017822 0
3.9450002 0.20978001 0.60222954 0
3.9520004 0.20387796 0.60262096 0
3.9590003 0.19795063 0.60301238 0
3.9670002 0.19206479 0.60345972 0
3.9740002 0.18608516 0.60385114 0
3.9810002 0.18008031 0.60424256 0
3.9890003 0.1741115 0.60468996 0
3.9960003 0.16805431 0.60508132 0
4.0040002 0.16202959 0.60552865 0
4.0110002 0.15592009 0.60592008 0
4.0190001 0.14983946 0.60636747 0
4.026 0.14367765 0.60675889 0
4.0339999 0.13754109 0.60720623 0
4.0410004 0.13132697 0.60759765 0
4.0490003 0.1251345 0.60804498 0
4.0570002 0.11891316 0.60849237 0
4.0640001 0.11261968 0.60888374 0
4.072 0.10634242 0.60933113 0
4.0799999 0.10003631 0.60977846 0
4.0880003 0.093701333 0.6102258 0
4.0960002 0.087337494 0.61067313 0
4.1030002 0.080910534 0.61106455 0
4.1110001 0.074490786 0.61151195 0
4.119 0.068042174 0.61195922 0
4.1270003 0.061564695 0.61240661 0
4.1350002 0.055058356 0.61285394 0
4.1430001 0.048523162 0.61330128 0
4.152 0.04198255 0.61380458 0
4.1600003 0.035387825 0.61425191 0
4.1680002 0.028764244 0.61469924 0
4.1760001 0.0221118 0.61514658 0
4.184 0.015430491 0.61559391 0
4.1920004 0.0087203272 0.6160413 0
4.2010002 0.0019939244 0.61654454 0
4.2090001 -0.0047757663 0.61699188 0
4.2179999 -0.011565302 0.61749512 0
4.2260003 -0.018394519 0.61794245 0
4.2690001 0.61699873 0.61336803 0
4.2639999 0.60917199 0.61309743 0
4.2610002 0.60169888 0.61293513 0
4.2590003 0.59440243 0.61282688 0
4.2490001 0.58580011 0.61228573 0
4.2420001 0.57772082 0.61190695 0
4.2350001 0.56966686 0.61152816 0
4.2290001 0.56179678 0.61120349 0
4.224 0.55410534 0.61093289 0
4.2200003 0.54658711 0.61071646 0
4.2160001 0.53908324 0.61049998 0
4.2130003 0.53174537 0.61033762 0
4.21 0.52441829 0.61017531 0
4.2080002 0.51724994 0.61006707 0
4.2060003 0.5100888 0.60995883 0
4.2049999 0.50307918 0.60990471 0
4.204 0.49607325 0.60985059 0
4.204 0.4892115 0.60985059 0
4.2049999 0.48248875 0.60990471 0
4.2070003 0.4758994 0.61001295 0
4.211 0.4695735 0.61022937 0
4.0870004 0.37964103 0.60351926 0
4.0750003 0.3716267 0.60286987 0
4.0680003 0.36421487 0.60249108 0
4.0640001 0.35715836 0.6022746 0
4.0610003 0.35022452 0.60211229 0
4.059 0.34340793 0.60200405 0
4.059 0.33680779 0.60200405 0
4.059 0.33020765 0.60200405 0
4.0599999 0.32370853 0.60205817 0
4.0620003 0.317305 0.60216641 0
4.0640001 0.31089428 0.6022746 0
4.0680003 0.30466753 0.60249108 0
4.0740004 0.29861397 0.60281575 0
4.0810003 0.29263073 0.60319459 0
4.0880003 0.28662223 0.60357338 0
4.0960002 0.28067687 0.60400629 0
4.1030002 0.27461606 0.60438508 0
3.9470003 0.25471106 0.59594321 0
3.9410002 0.2478151 0.59561855 0
3.9360003 0.24102196 0.595348 0
3.9300003 0.23416749 0.59502333 0
3.9250002 0.22741222 0.59475273 0
3.9300003 0.2214326 0.59502333 0
3.9370003 0.21558288 0.59540212 0
3.9450002 0.20978001 0.59583503 0
3.9520004 0.20387796 0.59621382 0
3.9590003 0.19795063 0.59659261 0
3.9670002 0.19206479 0.59702551 0
3.9740002 0.18608516 0.59740436 0
3.9810002 0.18008031 0.59778309 0
3.9890003 0.1741115 0.59821606 0
3.9960003 0.16805431 0.59859484 0
4.0040002 0.16202959 0.59902775 0
4.0110002 0.15592009 0.59940654 0
4.0190001 0.14983946 0.59983945 0
4.026 0.14367765 0.6002183 0
4.0339999 0.13754109 0.6006512 0
4.0410004 0.13132697 0.60102999 0
4.0490003 0.1251345 0.6014629 0
4.0570002 0.11891316 0.60189581 0
4.0640001 0.11261968 0.6022746 0
4.072 0.10634242 0.60270751 0
4.0799999 0.10003631 0.60314047 0
4.0880003 0.093701333 0.60357338 0
4.0960002 0.087337494 0.60400629 0
4.1040001 0.080944806 0.6044392 0
4.1110001 0.074490786 0.60481799 0
4.119 0.068042174 0.6052509 0
4.1270003 0.061564695 0.6056838 0
4.1350002 0.055058356 0.60611671 0
4.1430001 0.048523162 0.60654962 0
4.152 0.04198255 0.60703665 0
4.1600003 0.035387825 0.60746956 0
4.1680002 0.028764244 0.60790247 0
4.1760001 0.0221118 0.60833538 0
4.184 0.015430491 0.60876834 0
4.1920004 0.0087203272 0.60920125 0
4.2010002 0.0019939244 0.60968828 0
4.2090001 -0.0047757663 0.61012119 0
4.2179999 -0.011565302 0.61060822 0
4.2260003 -0.018394519 0.61104113 0
4.2690001 0.62397766 0.60638911 0
4.263 0.61597055 0.60607523 0
4.2590003 0.60832423 0.60586601 0
4.257 0.60102785 0.60576141 0
4.256 0.59390455 0.60570908 0
4.2480001 0.58563596 0.60529059 0
4.2420001 0.57772082 0.60497671 0
4.2360001 0.56982738 0.60466284 0
4.2309999 0.56211424 0.60440129 0
4.2260003 0.55441922 0.60413975 0
4.223 0.54705244 0.60398281 0
4.2190003 0.53954321 0.60377359 0
4.217 0.53235143 0.60366893 0
4.2140002 0.52501714 0.60351205 0
4.2130003 0.51798952 0.60345972 0
4.2120004 0.51096553 0.60340738 0
4.211 0.50394505 0.60335511 0
4.211 0.49707073 0.60335511 0
4.2120004 0.49033713 0.60340738 0
4.2150002 0.48387772 0.60356438 0
4.2179999 0.4774074 0.60372126 0
4.0870004 0.37964103 0.59686863 0
4.0750003 0.3716267 0.59624088 0
4.0680003 0.36421487 0.59587473 0
4.0640001 0.35715836 0.59566545 0
4.0610003 0.35022452 0.59550852 0
4.059 0.34340793 0.59540391 0
4.059 0.33680779 0.59540391 0
4.059 0.33020765 0.59540391 0
4.0599999 0.32370853 0.59545624 0
4.0620003 0.317305 0.59556085 0
4.0640001 0.31089428 0.59566545 0
4.0680003 0.30466753 0.59587473 0
4.0740004 0.29861397 0.59618855 0
4.0810003 0.29263073 0.59655476 0
4.0880003 0.28662223 0.59692091 0
4.0960002 0.28067687 0.59733939 0
4.1030002 0.27461606 0.59770554 0
3.9470003 0.25471106 0.58954513 0
3.9410002 0.2478151 0.58923125 0
3.9360003 0.24102196 0.58896971 0
3.9300003 0.23416749 0.58865583 0
3.9250002 0.22741222 0.58839428 0
3.9300003 0.2214326 0.58865583 0
3.9370003 0.21558288 0.58902204 0
3.9450002 0.20978001 0.58944052 0
3.9520004 0.20387796 0.58980668 0
3.9590003 0.19795063 0.59017289 0
3.9670002 0.19206479 0.59059131 0
3.9740002 0.18608516 0.59095752 0
3.9810002 0.18008031 0.59132367 0
3.9890003 0.1741115 0.59174216 0
3.9960003 0.16805431 0.59210837 0
4.0040002 0.16202959 0.59252685 0
4.0110002 0.15592009 0.592893 0
4.0190001 0.14983946 0.59331149 0
4.026 0.14367765 0.59367764 0
4.0339999 0.13754109 0.59409612 0
4.0410004 0.13132697 0.59446234 0
4.0490003 0.1251345 0.59488082 0
4.0570002 0.11891316 0.5952993 0
4.0640001 0.11261968 0.59566545 0
4.072 0.10634242 0.59608394 0
4.0799999 0.10003631 0.59650242 0
4.0880003 0.093701333 0.59692091 0
4.0960002 0.087337494 0.59733939 0
4.1040001 0.080944806 0.59775788 0
4.1110001 0.074490786 0.59812403 0
4.119 0.068042174 0.59854257 0
4.1270003 0.061564695 0.598961 0
4.1350002 0.055058356 0.59937948 0
4.1430001 0.048523162 0.59979796 0
4.152 0.04198255 0.60026878 0
4.1600003 0.035387825 0.60068727 0
4.1680002 0.028764244 0.60110575 0
4.1760001 0.0221118 0.60152423 0
4.184 0.015430491 0.60194272 0
4.1920004 0.0087203272 0.6023612 0
4.2010002 0.0019939244 0.60283196 0
4.2090001 -0.0047757663 0.6032505 0
4.2179999 -0.011565302 0.60372126 0
4.2260003 -0.018394519 0.60413975 0
4.2710004 0.63130659 0.59951121 0
4.2639999 0.62311178 0.59915763 0
4.2590003 0.6152851 0.59890509 0
4.256 0.60781556 0.59875357 0
4.2540002 0.60052449 0.59865254 0
4.2530003 0.59340674 0.59860206 0
4.2480001 0.58563596 0.59834957 0
4.2420001 0.57772082 0.59804648 0
4.2380004 0.57014847 0.59784448 0
4.2330003 0.56243175 0.59759194 0
4.2290001 0.55489004 0.59738994 0
4.2260003 0.54751784 0.59723836 0
4.223 0.54015648 0.59708685 0
4.2210002 0.53295749 0.59698582 0
4.2200003 0.52591544 0.59693533 0
4.2190003 0.51887697 0.59688485 0
4.2179999 0.51184207 0.5968343 0
4.2190003 0.50509948 0.59688485 0
4.2200003 0.49835324 0.59693533 0
4.2220001 0.4917441 0.59703636 0
4.2260003 0.4854055 0.59723836 0
4.0870004 0.37964103 0.59021795 0
4.0750003 0.3716267 0.58961189 0
4.0680003 0.36421487 0.58925831 0
4.0640001 0.35715836 0.58905631 0
4.0610003 0.35022452 0.5889048 0
4.059 0.34340793 0.58880377 0
4.059 0.33680779 0.58880377 0
4.059 0.33020765 0.58880377 0
4.0599999 0.32370853 0.58885431 0
4.0620003 0.317305 0.58895528 0
4.0640001 0.31089428 0.58905631 0
4.0680003 0.30466753 0.58925831 0
4.0740004 0.29861397 0.5895614 0
4.0810003 0.29263073 0.58991492 0
4.0880003 0.28662223 0.59026849 0
4.0960002 0.28067687 0.59067249 0
4.1030002 0.27461606 0.59102607 0
3.9470003 0.25471106 0.58314705 0
3.9410002 0.2478151 0.58284402 0
3.9360003 0.24102196 0.58259147 0
3.9300003 0.23416749 0.58228838 0
3.9250002 0.22741222 0.5820359 0
3.9300003 0.2214326 0.58228838 0
3.9370003 0.21558288 0.58264196 0
3.9450002 0.20978001 0.58304602 0
3.9520004 0.20387796 0.58339959 0
3.9590003 0.19795063 0.58375311 0
3.9670002 0.19206479 0.58415717 0
3.9740002 0.18608516 0.58451068 0
3.9810002 0.18008031 0.58486426 0
3.9890003 0.1741115 0.58526832 0
3.9960003 0.16805431 0.58562183 0
4.0040002 0.16202959 0.58602589 0
4.0110002 0.15592009 0.58637947 0
4.0190001 0.14983946 0.58678353 0
4.026 0.14367765 0.58713704 0
4.0339999 0.13754109 0.5875411 0
4.0410004 0.13132697 0.58789468 0
4.0490003 0.1251345 0.58829868 0
4.0570002 0.11891316 0.58870274 0
4.0640001 0.11261968 0.58905631 0
4.072 0.10634242 0.58946037 0
4.0799999 0.10003631 0.58986437 0
4.0880003 0.093701333 0.59026849 0
4.0960002 0.087337494 0.59067249 0
4.1040001 0.080944806 0.59107655 0
4.1110001 0.074490786 0.59143013 0
4.119 0.068042174 0.59183419 0
4.1270003 0.061564695 0.59223819 0
4.1350002 0.055058356 0.59264231 0
4.1430001 0.048523162 0.59304631 0
4.152 0.04198255 0.59350085 0
4.1600003 0.035387825 0.59390497 0
4.1680002 0.028764244 0.59430897 0
4.1760001 0.0221118 0.59471303 0
4.184 0.015430491 0.59511709 0
4.1920004 0.0087203272 0.59552115 0
4.2010002 0.0019939244 0.5959757 0
4.2090001 -0.0047757663 0.59637976 0
4.2179999 -0.011565302 0.5968343 0
4.2260003 -0.018394519 0.59723836 0
4.2680001 0.63078165 0.59238255 0
4.2610002 0.62259239 0.59204161 0
4.257 0.61494237 0.59184682 0
4.2540002 0.60747641 0.59170067 0
4.2520003 0.60018903 0.59160328 0
4.2509999 0.5930748 0.59155458 0
4.2490001 0.58580011 0.59145719 0
4.244 0.57804549 0.59121364 0
4.2400002 0.5704695 0.59101886 0
4.2360001 0.56290793 0.59082401 0
4.2330003 0.55551773 0.59067792 0
4.23 0.54813832 0.59053183 0
4.2280002 0.54092312 0.59043443 0
4.2270002 0.53386664 0.59038568 0
4.2260003 0.52681375 0.59033704 0
4.2250004 0.51976448 0.59028828 0
4.2260003 0.51301098 0.59033704 0
4.2270002 0.5062539 0.59038568 0
4.2290001 0.49963576 0.59048313 0
4.2340002 0.49343246 0.59072661 0
4.4550004 0.45869654 0.60148996 0
4.4510002 0.45089146 0.60129511 0
4.0870004 0.37964103 0.58356732 0
4.0750003 0.3716267 0.5829829 0
4.0680003 0.36421487 0.58264196 0
4.0640001 0.35715836 0.58244717 0
4.0610003 0.35022452 0.58230102 0
4.059 0.34340793 0.58220363 0
4.059 0.33680779 0.58220363 0
4.059 0.33020765 0.58220363 0
4.0599999 0.32370853 0.58225232 0
4.0620003 0.317305 0.58234978 0
4.0640001 0.31089428 0.58244717 0
4.0680003 0.30466753 0.58264196 0
4.0740004 0.29861397 0.5829342 0
4.0810003 0.29263073 0.58327508 0
4.0880003 0.28662223 0.58361602 0
4.0960002 0.28067687 0.58400565 0
4.1030002 0.27461606 0.58434653 0
3.9470003 0.25471106 0.57674891 0
3.9410002 0.2478151 0.57645673 0
3.9360003 0.24102196 0.57621318 0
3.9300003 0.23416749 0.575921 0
3.9250002 0.22741222 0.57567745 0
3.9300003 0.2214326 0.575921 0
3.9380002 0.21565679 0.57631058 0
3.9450002 0.20978001 0.57665151 0
3.9520004 0.20387796 0.57699245 0
3.9590003 0.19795063 0.57733333 0
3.9670002 0.19206479 0.57772297 0
3.9740002 0.18608516 0.57806391 0
3.9810002 0.18008031 0.57840478 0
3.9890003 0.1741115 0.57879448 0
3.9960003 0.16805431 0.57913536 0
4.0040002 0.16202959 0.57952499 0
4.0110002 0.15592009 0.57986593 0
4.0190001 0.14983946 0.58025551 0
4.026 0.14367765 0.58059645 0
4.0339999 0.13754109 0.58098608 0
4.0410004 0.13132697 0.58132696 0
4.0490003 0.1251345 0.5817166 0
4.0570002 0.11891316 0.58210623 0
4.0640001 0.11261968 0.58244717 0
4.072 0.10634242 0.58283675 0
4.0799999 0.10003631 0.58322638 0
4.0880003 0.093701333 0.58361602 0
4.0960002 0.087337494 0.58400565 0
4.1040001 0.080944806 0.58439529 0
4.1110001 0.074490786 0.58473617 0
4.119 0.068042174 0.5851258 0
4.1270003 0.061564695 0.58551544 0
4.1350002 0.055058356 0.58590508 0
4.1430001 0.048523162 0.58629465 0
4.152 0.04198255 0.58673298 0
4.1600003 0.035387825 0.58712262 0
4.1680002 0.028764244 0.58751225 0
4.1760001 0.0221118 0.58790189 0
4.184 0.015430491 0.58829153 0
4.1920004 0.0087203272 0.5886811 0
4.2010002 0.0019939244 0.58911943 0
4.2090001 -0.0047757663 0.58950907 0
4.2179999 -0.011565302 0.58994734 0
4.2260003 -0.018394519 0.59033704 0
4.2660003 0.63043171 0.58531159 0
4.2590003 0.62224603 0.58498335 0
4.2550001 0.6145997 0.58479571 0
4.2520003 0.60713732 0.58465505 0
4.25 0.59985352 0.58456123 0
4.2490001 0.59274292 0.58451432 0
4.2490001 0.58580011 0.58451432 0
4.2460003 0.57837015 0.58437359 0
4.243 0.5709511 0.58423293 0
4.2400002 0.56354284 0.58409226 0
4.237 0.55614543 0.58395153 0
4.2350001 0.54891402 0.58385772 0
4.2340002 0.54184306 0.58381081 0
4.2330003 0.53477573 0.58376396 0
4.2330003 0.52786171 0.58376396 0
4.2330003 0.52094775 0.58376396 0
4.2350001 0.51432598 0.58385772 0
4.237 0.50769699 0.58395153 0
4.2420001 0.50148827 0.58418602 0
4.4560003 0.46613723 0.59422243 0
4.4520001 0.45832312 0.59403479 0
4.4480004 0.45052353 0.59384722 0
4.4460001 0.44297993 0.5937534 0
4.0870004 0.37964103 0.57691669 0
4.0750003 0.3716267 0.57635391 0
4.0680003 0.36421487 0.57602561 0
4.0640001 0.35715836 0.57583803 0
4.0610003 0.35022452 0.5756973 0
4.059 0.34340793 0.57560349 0
4.059 0.33680779 0.57560349 0
4.059 0.33020765 0.57560349 0
4.0599999 0.32370853 0.57565039 0
4.0620003 0.317305 0.57574421 0
4.0640001 0.31089428 0.57583803 0
4.0680003 0.30466753 0.57602561 0
4.0740004 0.29861397 0.576307 0
4.0810003 0.29263073 0.5766353 0
4.0880003 0.28662223 0.5769636 0
4.0960002 0.28067687 0.57733876 0
4.1030002 0.27461606 0.57766706 0
3.9470003 0.25471106 0.57035083 0
3.9410002 0.2478151 0.57006943 0
3.9360003 0.24102196 0.56983495 0
3.9300003 0.23416749 0.56955355 0
3.9250002 0.22741222 0.56931901 0
3.9300003 0.2214326 0.56955355 0
3.9380002 0.21565679 0.56992877 0
3.9450002 0.20978001 0.57025701 0
3.9520004 0.20387796 0.57058531 0
