# .PCD v0.7 - Point Cloud Data file format
VERSION 0.7
FIELDS x y z intensity
SIZE 4 4 4 4
TYPE F F F F
COUNT 1 1 1 1
WIDTH 1409
HEIGHT 1
VIEWPOINT 0 0 0 1 0 0 0
POINTS 1409
DATA ascii
2.8070002 0.23621482 0.33453175 0
3.0920002 0.20650429 0.3263064 0
3.0840001 0.20091248 0.32653728 0
3.0780003 0.19552992 0.32671043 0
3.0740001 0.19034576 0.32682589 0
3.0710003 0.18526265 0.32691246 0
3.0690002 0.18027511 0.32697019 0
3.0670002 0.17529479 0.32702792 0
3.0660002 0.17040287 0.32705677 0
2.8560002 0.14892672 0.33311757 0
2.8450003 0.14364338 0.33343503 0
2.8390002 0.13877851 0.33360821 0
2.8350003 0.1340832 0.33372363 0
2.8310003 0.12940231 0.33383909 0
2.8290002 0.12487654 0.33389682 0
2.8260002 0.12028947 0.33398339 0
2.8250003 0.11584669 0.33401227 0
2.8240001 0.1114075 0.33404112 0
2.8230002 0.10697195 0.33406997 0
2.8230002 0.10260132 0.33406997 0
2.8230002 0.09823069 0.33406997 0
2.8240001 0.093917787 0.33404112 0
2.8250003 0.089601278 0.33401227 0
2.8260002 0.085281163 0.33398339 0
2.8280003 0.081009746 0.33392566 0
2.8300002 0.076731101 0.33386797 0
2.8330002 0.07249397 0.33378136 0
2.8360002 0.068245992 0.33369479 0
2.8410003 0.064077407 0.33355048 0
2.8460002 0.059890758 0.33340618 0
2.8550003 0.055852037 0.33314642 0
2.7160003 0.580643 0.33298045 0
2.7110002 0.57512152 0.33313382 0
2.7080002 0.57015204 0.33322579 0
2.7060001 0.56545848 0.33328712 0
2.7050002 0.56103557 0.33331779 0
2.7050002 0.55687779 0.33331779 0
2.7050002 0.55272001 0.33331779 0
2.7060001 0.54882014 0.33328712 0
2.7070003 0.54491675 0.33325645 0
2.7090001 0.541264 0.33319515 0
2.7120001 0.53785658 0.33310312 0
2.7150002 0.53443843 0.33301115 0
2.7190001 0.53125829 0.33288848 0
2.7250001 0.52855796 0.33270448 0
2.7370002 0.52730799 0.33233652 0
3.0860002 0.36582747 0.32163453 0
3.0770001 0.35961875 0.3219105 0
3.0720003 0.35404137 0.32206383 0
3.0700002 0.34892577 0.32212517 0
3.0680003 0.34381738 0.32218647 0
3.0680003 0.33900484 0.32218647 0
3.0680003 0.33419228 0.32218647 0
2.7890003 0.29012522 0.33074194 0
2.7830002 0.28498259 0.33092594 0
2.7800002 0.28027281 0.33101794 0
2.7780001 0.27570918 0.33107927 0
2.7770002 0.27128625 0.33110994 0
2.7770002 0.26699862 0.33110994 0
2.7770002 0.26271096 0.33110994 0
2.7780001 0.25855136 0.33107927 0
2.7790003 0.25438818 0.33104861 0
2.7810001 0.25034583 0.33098727 0
2.7840002 0.24641895 0.33089527 0
2.7880001 0.24260208 0.33077261 0
2.7940001 0.2390089 0.33058864 0
2.8070002 0.23621482 0.33018997 0
3.0920002 0.20650429 0.32145053 0
3.0840001 0.20091248 0.32169586 0
3.0780003 0.19552992 0.32187983 0
3.0740001 0.19034576 0.3220025 0
3.0710003 0.18526265 0.3220945 0
3.0690002 0.18027511 0.32215583 0
3.0670002 0.17529479 0.32221717 0
3.0660002 0.17040287 0.3222478 0
2.8560002 0.14892672 0.32868743 0
2.8450003 0.14364338 0.32902473 0
2.8390002 0.13877851 0.32920873 0
2.8350003 0.1340832 0.32933137 0
2.8310003 0.12940231 0.32945403 0
2.8290002 0.12487654 0.32951537 0
2.8260002 0.12028947 0.32960737 0
2.8250003 0.11584669 0.329638 0
2.8240001 0.1114075 0.3296687 0
2.8230002 0.10697195 0.32969934 0
2.8230002 0.10260132 0.32969934 0
2.8230002 0.09823069 0.32969934 0
2.8240001 0.093917787 0.3296687 0
2.8250003 0.089601278 0.329638 0
2.8260002 0.085281163 0.32960737 0
2.8280003 0.081009746 0.32954603 0
2.8300002 0.076731101 0.3294847 0
2.8330002 0.07249397 0.3293927 0
2.8360002 0.068245992 0.3293007 0
2.8410003 0.064077407 0.32914737 0
2.8460002 0.059890758 0.32899407 0
2.8550003 0.055852037 0.32871807 0
2.7160003 0.580643 0.32880285 0
2.7110002 0.57512152 0.32896519 0
2.7080002 0.57015204 0.32906261 0
2.7060001 0.56545848 0.32912755 0
2.7050002 0.56103557 0.32916 0
2.7050002 0.55687779 0.32916 0
2.7050002 0.55272001 0.32916 0
2.7060001 0.54882014 0.32912755 0
2.7070003 0.54491675 0.32909507 0
2.7090001 0.541264 0.32903016 0
2.7120001 0.53785658 0.32893273 0
2.7150002 0.53443843 0.32883531 0
2.7190001 0.53125829 0.32870546 0
2.7250001 0.52855796 0.32851064 0
2.7370002 0.52730799 0.32812101 0
3.0860002 0.36582747 0.31678951 0
3.0770001 0.35961875 0.31708172 0
3.0720003 0.35404137 0.31724405 0
3.0700002 0.34892577 0.31730899 0
3.0680003 0.34381738 0.31737393 0
3.0680003 0.33900484 0.31737393 0
3.0680003 0.33419228 0.31737393 0
2.7890003 0.29012522 0.32643265 0
2.7830002 0.28498259 0.32662746 0
2.7800002 0.28027281 0.32672486 0
2.7780001 0.27570918 0.3267898 0
2.7770002 0.27128625 0.32682228 0
2.7770002 0.26699862 0.32682228 0
2.7770002 0.26271096 0.32682228 0
2.7780001 0.25855136 0.3267898 0
2.7790003 0.25438818 0.32675734 0
2.7810001 0.25034583 0.3266924 0
2.7840002 0.24641895 0.32659501 0
2.7880001 0.24260208 0.32646513 0
2.7940001 0.2390089 0.32627031 0
2.8070002 0.23621482 0.32584822 0
3.0920002 0.20650429 0.31659469 0
3.0840001 0.20091248 0.31685442 0
3.0780003 0.19552992 0.31704924 0
3.0740001 0.19034576 0.31717911 0
3.0710003 0.18526265 0.31727654 0
3.0690002 0.18027511 0.31734145 0
3.0670002 0.17529479 0.31740642 0
3.0660002 0.17040287 0.31743887 0
2.8560002 0.14892672 0.32425725 0
2.8450003 0.14364338 0.32461441 0
2.8390002 0.13877851 0.32480922 0
2.8350003 0.1340832 0.3249391 0
2.8310003 0.12940231 0.32506898 0
2.8290002 0.12487654 0.32513392 0
2.8260002 0.12028947 0.32523131 0
2.8250003 0.11584669 0.3252638 0
2.8240001 0.1114075 0.32529625 0
2.8230002 0.10697195 0.32532871 0
2.8230002 0.10260132 0.32532871 0
2.8230002 0.09823069 0.32532871 0
2.8240001 0.093917787 0.32529625 0
2.8250003 0.089601278 0.3252638 0
2.8260002 0.085281163 0.32523131 0
2.8280003 0.081009746 0.32516637 0
2.8300002 0.076731101 0.32510144 0
2.8330002 0.07249397 0.32500404 0
2.8360002 0.068245992 0.32490662 0
2.8410003 0.064077407 0.32474428 0
2.8460002 0.059890758 0.32458195 0
2.8550003 0.055852037 0.32428974 0
2.7160003 0.580643 0.32462522 0
2.7110002 0.57512152 0.32479662 0
2.7080002 0.57015204 0.32489944 0
2.7060001 0.56545848 0.32496798 0
2.7050002 0.56103557 0.32500222 0
2.7050002 0.55687779 0.32500222 0
2.7050002 0.55272001 0.32500222 0
2.7060001 0.54882014 0.32496798 0
2.7070003 0.54491675 0.32493368 0
2.7090001 0.541264 0.32486513 0
2.7120001 0.53785658 0.32476234 0
2.7150002 0.53443843 0.32465953 0
2.7190001 0.53125829 0.32452244 0
2.7250001 0.52855796 0.3243168 0
2.7370002 0.52730799 0.32390553 0
3.0860002 0.36582747 0.31194448 0
3.0770001 0.35961875 0.31225294 0
3.0720003 0.35404137 0.31242427 0
3.0700002 0.34892577 0.31249282 0
3.0680003 0.34381738 0.31256136 0
3.0680003 0.33900484 0.31256136 0
3.0680003 0.33419228 0.31256136 0
2.7890003 0.29012522 0.32212335 0
2.7830002 0.28498259 0.32232898 0
2.7800002 0.28027281 0.3224318 0
2.7780001 0.27570918 0.32250035 0
2.7770002 0.27128625 0.32253462 0
2.7770002 0.26699862 0.32253462 0
2.7770002 0.26271096 0.32253462 0
2.7780001 0.25855136 0.32250035 0
2.7790003 0.25438818 0.32246608 0
2.7810001 0.25034583 0.32239753 0
2.7840002 0.24641895 0.32229471 0
2.7880001 0.24260208 0.32215762 0
2.7940001 0.2390089 0.32195199 0
2.8070002 0.23621482 0.32150644 0
3.0920002 0.20650429 0.31173885 0
3.0840001 0.20091248 0.312013 0
3.0780003 0.19552992 0.31221864 0
3.0740001 0.19034576 0.31235573 0
3.0710003 0.18526265 0.31245854 0
3.0690002 0.18027511 0.31252709 0
3.0670002 0.17529479 0.31259564 0
3.0660002 0.17040287 0.31262991 0
2.8560002 0.14892672 0.31982711 0
2.8450003 0.14364338 0.32020411 0
2.8390002 0.13877851 0.32040974 0
2.8350003 0.1340832 0.32054681 0
2.8310003 0.12940231 0.3206839 0
2.8290002 0.12487654 0.32075247 0
2.8260002 0.12028947 0.32085526 0
2.8250003 0.11584669 0.32088953 0
2.8240001 0.1114075 0.32092384 0
2.8230002 0.10697195 0.32095808 0
2.8230002 0.10260132 0.32095808 0
2.8230002 0.09823069 0.32095808 0
2.8240001 0.093917787 0.32092384 0
2.8250003 0.089601278 0.32088953 0
2.8260002 0.085281163 0.32085526 0
2.8280003 0.081009746 0.32078671 0
2.8300002 0.076731101 0.3207182 0
2.8330002 0.07249397 0.32061538 0
2.8360002 0.068245992 0.32051256 0
2.8410003 0.064077407 0.32034117 0
2.8460002 0.059890758 0.32016984 0
2.8550003 0.055852037 0.31986138 0
2.7160003 0.580643 0.32044762 0
2.7110002 0.57512152 0.32062799 0
2.7080002 0.57015204 0.32073623 0
2.7060001 0.56545848 0.32080838 0
2.7050002 0.56103557 0.32084447 0
2.7050002 0.55687779 0.32084447 0
2.7050002 0.55272001 0.32084447 0
2.7060001 0.54882014 0.32080838 0
2.7070003 0.54491675 0.32077229 0
2.7090001 0.541264 0.32070017 0
2.7120001 0.53785658 0.32059193 0
2.7150002 0.53443843 0.32048368 0
2.7190001 0.53125829 0.32033938 0
2.7250001 0.52855796 0.32012293 0
2.7370002 0.52730799 0.31969002 0
3.0860002 0.36582747 0.30709943 0
3.0770001 0.35961875 0.30742413 0
3.0720003 0.35404137 0.30760449 0
3.0700002 0.34892577 0.30767667 0
3.0680003 0.34381738 0.30774879 0
3.0680003 0.33900484 0.30774879 0
3.0680003 0.33419228 0.30774879 0
2.7890003 0.29012522 0.31781405 0
2.7830002 0.28498259 0.31803051 0
2.7800002 0.28027281 0.31813875 0
2.7780001 0.27570918 0.3182109 0
2.7770002 0.27128625 0.31824696 0
2.7770002 0.26699862 0.31824696 0
2.7770002 0.26271096 0.31824696 0
2.7780001 0.25855136 0.3182109 0
2.7790003 0.25438818 0.31817481 0
2.7810001 0.25034583 0.31810266 0
2.7840002 0.24641895 0.31799445 0
2.7880001 0.24260208 0.31785014 0
2.7940001 0.2390089 0.31763369 0
2.8070002 0.23621482 0.31716469 0
3.0920002 0.20650429 0.30688298 0
3.0840001 0.20091248 0.30717158 0
3.0780003 0.19552992 0.30738804 0
3.0740001 0.19034576 0.30753237 0
3.0710003 0.18526265 0.30764058 0
3.0690002 0.18027511 0.30771273 0
3.0670002 0.17529479 0.30778489 0
3.0660002 0.17040287 0.30782098 0
2.8560002 0.14892672 0.31539696 0
2.8450003 0.14364338 0.31579378 0
2.8390002 0.13877851 0.31601024 0
2.8350003 0.1340832 0.31615454 0
2.8310003 0.12940231 0.31629884 0
2.8290002 0.12487654 0.31637102 0
2.8260002 0.12028947 0.31647924 0
2.8250003 0.11584669 0.31651533 0
2.8240001 0.1114075 0.31655139 0
2.8230002 0.10697195 0.31658745 0
2.8230002 0.10260132 0.31658745 0
2.8230002 0.09823069 0.31658745 0
2.8240001 0.093917787 0.31655139 0
2.8250003 0.089601278 0.31651533 0
2.8260002 0.085281163 0.31647924 0
2.8280003 0.081009746 0.31640708 0
2.8300002 0.076731101 0.31633493 0
2.8330002 0.07249397 0.31622672 0
2.8360002 0.068245992 0.31611848 0
2.8410003 0.064077407 0.31593809 0
2.8460002 0.059890758 0.31575772 0
2.8550003 0.055852037 0.31543303 0
2.7160003 0.580643 0.31626999 0
2.7110002 0.57512152 0.31645939 0
2.7080002 0.57015204 0.31657302 0
2.7060001 0.56545848 0.31664881 0
2.7050002 0.56103557 0.31668669 0
2.7050002 0.55687779 0.31668669 0
2.7050002 0.55272001 0.31668669 0
2.7060001 0.54882014 0.31664881 0
2.7070003 0.54491675 0.31661093 0
2.7090001 0.541264 0.31653517 0
2.7120001 0.53785658 0.31642151 0
2.7150002 0.53443843 0.31630787 0
2.7190001 0.53125829 0.31615636 0
2.7250001 0.52855796 0.31592909 0
2.7370002 0.52730799 0.31547451 0
3.0860002 0.36582747 0.30225441 0
3.0770001 0.35961875 0.30259532 0
3.0720003 0.35404137 0.30278474 0
3.0700002 0.34892577 0.3028605 0
3.0680003 0.34381738 0.30293626 0
3.0680003 0.33900484 0.30293626 0
3.0680003 0.33419228 0.30293626 0
2.7890003 0.29012522 0.31350476 0
2.7830002 0.28498259 0.31373203 0
2.7800002 0.28027281 0.31384569 0
2.7780001 0.27570918 0.31392145 0
2.7770002 0.27128625 0.3139593 0
2.7770002 0.26699862 0.3139593 0
2.7770002 0.26271096 0.3139593 0
2.7780001 0.25855136 0.31392145 0
2.7790003 0.25438818 0.31388354 0
2.7810001 0.25034583 0.31380779 0
2.7840002 0.24641895 0.31369415 0
2.7880001 0.24260208 0.31354263 0
2.7940001 0.2390089 0.31331536 0
2.8070002 0.23621482 0.31282294 0
3.0920002 0.20650429 0.30202714 0
3.0840001 0.20091248 0.30233017 0
3.0780003 0.19552992 0.30255744 0
3.0740001 0.19034576 0.30270898 0
3.0710003 0.18526265 0.30282259 0
3.0690002 0.18027511 0.30289835 0
3.0670002 0.17529479 0.30297413 0
3.0660002 0.17040287 0.30301201 0
2.8560002 0.14892672 0.31096679 0
2.8450003 0.14364338 0.31138349 0
2.8390002 0.13877851 0.31161076 0
2.8350003 0.1340832 0.31176227 0
2.8310003 0.12940231 0.31191379 0
2.8290002 0.12487654 0.31198955 0
2.8260002 0.12028947 0.31210321 0
2.8250003 0.11584669 0.31214106 0
2.8240001 0.1114075 0.31217897 0
2.8230002 0.10697195 0.31221685 0
2.8230002 0.10260132 0.31221685 0
2.8230002 0.09823069 0.31221685 0
2.8240001 0.093917787 0.31217897 0
2.8250003 0.089601278 0.31214106 0
2.8260002 0.085281163 0.31210321 0
2.8280003 0.081009746 0.31202745 0
2.8300002 0.076731101 0.3119517 0
2.8330002 0.07249397 0.31183803 0
2.8360002 0.068245992 0.31172439 0
2.8410003 0.064077407 0.311535 0
2.8460002 0.059890758 0.31134561 0
2.8550003 0.055852037 0.31100467 0
2.7160003 0.580643 0.31209236 0
2.7110002 0.57512152 0.31229079 0
2.7080002 0.57015204 0.31240985 0
2.7060001 0.56545848 0.31248921 0
2.7050002 0.56103557 0.31252891 0
2.7050002 0.55687779 0.31252891 0
2.7050002 0.55272001 0.31252891 0
2.7060001 0.54882014 0.31248921 0
2.7070003 0.54491675 0.31244951 0
2.7090001 0.541264 0.31237018 0
2.7120001 0.53785658 0.31225112 0
2.7150002 0.53443843 0.31213206 0
2.7190001 0.53125829 0.31197333 0
2.7250001 0.52855796 0.31173521 0
2.7370002 0.52730799 0.31125903 0
3.0860002 0.36582747 0.29740939 0
3.0770001 0.35961875 0.29776654 0
3.0720003 0.35404137 0.29796493 0
3.0700002 0.34892577 0.29804432 0
3.0680003 0.34381738 0.29812369 0
3.0680003 0.33900484 0.29812369 0
3.0680003 0.33419228 0.29812369 0
2.7890003 0.29012522 0.30919546 0
2.7830002 0.28498259 0.30943358 0
2.7800002 0.28027281 0.30955261 0
2.7780001 0.27570918 0.30963197 0
2.7770002 0.27128625 0.30967167 0
2.7770002 0.26699862 0.30967167 0
2.7770002 0.26271096 0.30967167 0
2.7780001 0.25855136 0.30963197 0
2.7790003 0.25438818 0.30959231 0
2.7810001 0.25034583 0.30951294 0
2.7840002 0.24641895 0.30939388 0
2.7880001 0.24260208 0.30923516 0
2.7940001 0.2390089 0.30899704 0
2.8070002 0.23621482 0.30848116 0
3.0920002 0.20650429 0.29717126 0
3.0840001 0.20091248 0.29748875 0
3.0780003 0.19552992 0.29772684 0
3.0740001 0.19034576 0.2978856 0
3.0710003 0.18526265 0.29800463 0
3.0690002 0.18027511 0.29808402 0
3.0670002 0.17529479 0.29816338 0
3.0660002 0.17040287 0.29820305 0
2.8560002 0.14892672 0.30653664 0
2.8450003 0.14364338 0.30697316 0
2.8390002 0.13877851 0.30721128 0
2.8350003 0.1340832 0.30737001 0
2.8310003 0.12940231 0.30752873 0
2.8290002 0.12487654 0.3076081 0
2.8260002 0.12028947 0.30772716 0
2.8250003 0.11584669 0.30776685 0
2.8240001 0.1114075 0.30780655 0
2.8230002 0.10697195 0.30784622 0
2.8230002 0.10260132 0.30784622 0
2.8230002 0.09823069 0.30784622 0
2.8240001 0.093917787 0.30780655 0
2.8250003 0.089601278 0.30776685 0
2.8260002 0.085281163 0.30772716 0
2.8280003 0.081009746 0.30764779 0
2.8300002 0.076731101 0.30756843 0
2.8330002 0.07249397 0.30744937 0
2.8360002 0.068245992 0.30733031 0
2.8410003 0.064077407 0.30713189 0
2.8460002 0.059890758 0.30693349 0
2.8550003 0.055852037 0.30657634 0
2.7160003 0.580643 0.30791473 0
2.7110002 0.57512152 0.30812219 0
2.7080002 0.57015204 0.30824667 0
2.7060001 0.56545848 0.30832964 0
2.7050002 0.56103557 0.30837113 0
2.7050002 0.55687779 0.30837113 0
2.7050002 0.55272001 0.30837113 0
2.7060001 0.54882014 0.30832964 0
2.7070003 0.54491675 0.30828816 0
2.7090001 0.541264 0.30820519 0
2.7120001 0.53785658 0.3080807 0
2.7150002 0.53443843 0.30795625 0
2.7190001 0.53125829 0.30779028 0
2.7250001 0.52855796 0.30754137 0
2.7370002 0.52730799 0.30704352 0
3.0860002 0.36582747 0.29256433 0
3.0770001 0.35961875 0.29293776 0
3.0720003 0.35404137 0.29314518 0
3.0700002 0.34892577 0.29322815 0
3.0680003 0.34381738 0.29331112 0
3.0680003 0.33900484 0.29331112 0
3.0680003 0.33419228 0.29331112 0
2.7890003 0.29012522 0.30488616 0
2.7830002 0.28498259 0.30513507 0
2.7800002 0.28027281 0.30525956 0
2.7780001 0.27570918 0.30534253 0
2.7770002 0.27128625 0.30538401 0
2.7770002 0.26699862 0.30538401 0
2.7770002 0.26271096 0.30538401 0
2.7780001 0.25855136 0.30534253 0
2.7790003 0.25438818 0.30530104 0
2.7810001 0.25034583 0.30521807 0
2.7840002 0.24641895 0.30509359 0
2.7880001 0.24260208 0.30492765 0
2.7940001 0.2390089 0.30467874 0
2.8070002 0.23621482 0.30413938 0
3.0920002 0.20650429 0.29231542 0
3.0840001 0.20091248 0.29264733 0
3.0780003 0.19552992 0.29289624 0
3.0740001 0.19034576 0.29306221 0
3.0710003 0.18526265 0.29318666 0
3.0690002 0.18027511 0.29326963 0
3.0670002 0.17529479 0.2933526 0
3.0660002 0.17040287 0.29339409 0
2.8560002 0.14892672 0.3021065 0
2.8450003 0.14364338 0.30256286 0
2.8390002 0.13877851 0.30281177 0
2.8350003 0.1340832 0.30297774 0
2.8310003 0.12940231 0.30314368 0
2.8290002 0.12487654 0.30322665 0
2.8260002 0.12028947 0.3033511 0
2.8250003 0.11584669 0.30339259 0
2.8240001 0.1114075 0.3034341 0
2.8230002 0.10697195 0.30347559 0
2.8230002 0.10260132 0.30347559 0
2.8230002 0.09823069 0.30347559 0
2.8240001 0.093917787 0.3034341 0
2.8250003 0.089601278 0.30339259 0
2.8260002 0.085281163 0.3033511 0
2.8280003 0.081009746 0.30326813 0
2.8300002 0.076731101 0.30318516 0
2.8330002 0.07249397 0.30306071 0
2.8360002 0.068245992 0.30293626 0
2.8410003 0.064077407 0.3027288 0
2.8460002 0.059890758 0.30252138 0
2.8550003 0.055852037 0.30214798 0
2.7160003 0.580643 0.30373713 0
2.7110002 0.57512152 0.30395359 0
2.7080002 0.57015204 0.30408347 0
2.7060001 0.56545848 0.30417004 0
2.7050002 0.56103557 0.30421335 0
2.7050002 0.55687779 0.30421335 0
2.7050002 0.55272001 0.30421335 0
2.7060001 0.54882014 0.30417004 0
2.7070003 0.54491675 0.30412674 0
2.7090001 0.541264 0.30404019 0
2.7120001 0.53785658 0.30391032 0
2.7150002 0.53443843 0.30378044 0
2.7190001 0.53125829 0.30360729 0
2.7250001 0.52855796 0.30334753 0
2.7370002 0.52730799 0.30282801 0
3.0860002 0.36582747 0.28771931 0
3.0770001 0.35961875 0.28810894 0
3.0720003 0.35404137 0.2883254 0
3.0700002 0.34892577 0.28841197 0
3.0680003 0.34381738 0.28849855 0
3.0680003 0.33900484 0.28849855 0
3.0680003 0.33419228 0.28849855 0
2.7890003 0.29012522 0.30057687 0
2.7830002 0.28498259 0.30083662 0
2.7800002 0.28027281 0.3009665 0
2.7780001 0.27570918 0.30105308 0
2.7770002 0.27128625 0.30109635 0
2.7770002 0.26699862 0.30109635 0
2.7770002 0.26271096 0.30109635 0
2.7780001 0.25855136 0.30105308 0
2.7790003 0.25438818 0.30100977 0
2.7810001 0.25034583 0.3009232 0
2.7840002 0.24641895 0.30079332 0
2.7880001 0.24260208 0.30062017 0
2.7940001 0.2390089 0.30036041 0
2.8070002 0.23621482 0.29979762 0
3.0920002 0.20650429 0.28745958 0
3.0840001 0.20091248 0.28780591 0
3.0780003 0.19552992 0.28806564 0
3.0740001 0.19034576 0.28823882 0
3.0710003 0.18526265 0.2883687 0
3.0690002 0.18027511 0.28845528 0
3.0670002 0.17529479 0.28854185 0
3.0660002 0.17040287 0.28858516 0
2.8560002 0.14892672 0.29767635 0
2.8450003 0.14364338 0.29815254 0
2.8390002 0.13877851 0.29841229 0
2.8350003 0.1340832 0.29858547 0
2.8310003 0.12940231 0.29875863 0
2.8290002 0.12487654 0.2988452 0
2.8260002 0.12028947 0.29897508 0
2.8250003 0.11584669 0.29901838 0
2.8240001 0.1114075 0.29906166 0
2.8230002 0.10697195 0.29910496 0
2.8230002 0.10260132 0.29910496 0
2.8230002 0.09823069 0.29910496 0
2.8240001 0.093917787 0.29906166 0
2.8250003 0.089601278 0.29901838 0
2.8260002 0.085281163 0.29897508 0
2.8280003 0.081009746 0.2988885 0
2.8300002 0.076731101 0.29880193 0
2.8330002 0.07249397 0.29867205 0
2.8360002 0.068245992 0.29854217 0
2.8410003 0.064077407 0.29832572 0
2.8460002 0.059890758 0.29810926 0
2.8550003 0.055852037 0.29771963 0
2.7160003 0.580643 0.2995595 0
2.7110002 0.57512152 0.29978499 0
2.7080002 0.57015204 0.29992029 0
2.7060001 0.56545848 0.30001047 0
2.7050002 0.56103557 0.30005556 0
2.7050002 0.55687779 0.30005556 0
2.7050002 0.55272001 0.30005556 0
2.7060001 0.54882014 0.30001047 0
2.7070003 0.54491675 0.29996538 0
2.7090001 0.541264 0.2998752 0
2.7120001 0.53785658 0.2997399 0
2.7150002 0.53443843 0.29960462 0
2.7190001 0.53125829 0.29942423 0
2.7250001 0.52855796 0.29915366 0
2.7370002 0.52730799 0.29861253 0
3.0860002 0.36582747 0.28287429 0
3.0770001 0.35961875 0.28328013 0
3.0720003 0.35404137 0.28350562 0
3.0700002 0.34892577 0.28359583 0
3.0680003 0.34381738 0.28368601 0
3.0680003 0.33900484 0.28368601 0
3.0680003 0.33419228 0.28368601 0
2.7890003 0.29012522 0.29626757 0
2.7830002 0.28498259 0.29653814 0
2.7800002 0.28027281 0.29667342 0
2.7780001 0.27570918 0.29676363 0
2.7770002 0.27128625 0.29680872 0
2.7770002 0.26699862 0.29680872 0
2.7770002 0.26271096 0.29680872 0
2.7780001 0.25855136 0.29676363 0
2.7790003 0.25438818 0.29671851 0
2.7810001 0.25034583 0.29662833 0
2.7840002 0.24641895 0.29649305 0
2.7880001 0.24260208 0.29631266 0
2.7940001 0.2390089 0.29604208 0
2.8070002 0.23621482 0.29545584 0
3.0920002 0.20650429 0.28260371 0
3.0840001 0.20091248 0.2829645 0
3.0780003 0.19552992 0.28323504 0
3.0740001 0.19034576 0.28341544 0
3.0710003 0.18526265 0.28355071 0
3.0690002 0.18027511 0.28364092 0
3.0670002 0.17529479 0.2837311 0
3.0660002 0.17040287 0.28377619 0
2.8560002 0.14892672 0.29324621 0
2.8450003 0.14364338 0.29374224 0
2.8390002 0.13877851 0.29401281 0
2.8350003 0.1340832 0.29419318 0
2.8310003 0.12940231 0.29437357 0
2.8290002 0.12487654 0.29446375 0
2.8260002 0.12028947 0.29459906 0
2.8250003 0.11584669 0.29464415 0
2.8240001 0.1114075 0.29468924 0
2.8230002 0.10697195 0.29473433 0
2.8230002 0.10260132 0.29473433 0
2.8230002 0.09823069 0.29473433 0
2.8240001 0.093917787 0.29468924 0
2.8250003 0.089601278 0.29464415 0
2.8260002 0.085281163 0.29459906 0
2.8280003 0.081009746 0.29450884 0
2.8300002 0.076731101 0.29441866 0
2.8330002 0.07249397 0.29428339 0
2.8360002 0.068245992 0.29414809 0
2.8410003 0.064077407 0.2939226 0
2.8460002 0.059890758 0.29369715 0
2.8550003 0.055852037 0.29329127 0
2.7160003 0.580643 0.2953819 0
2.7110002 0.57512152 0.29561639 0
2.7080002 0.57015204 0.29575709 0
2.7060001 0.56545848 0.29585087 0
2.7050002 0.56103557 0.29589778 0
2.7050002 0.55687779 0.29589778 0
2.7050002 0.55272001 0.29589778 0
2.7060001 0.54882014 0.29585087 0
2.7070003 0.54491675 0.29580399 0
2.7090001 0.541264 0.29571021 0
2.7120001 0.53785658 0.29556951 0
2.7150002 0.53443843 0.29542881 0
2.7190001 0.53125829 0.29524121 0
2.7250001 0.52855796 0.29495981 0
2.7370002 0.52730799 0.294397 0
3.0860002 0.36582747 0.27802926 0
3.0770001 0.35961875 0.27845135 0
3.0720003 0.35404137 0.27868584 0
3.0700002 0.34892577 0.27877966 0
3.0680003 0.34381738 0.27887344 0
3.0680003 0.33900484 0.27887344 0
3.0680003 0.33419228 0.27887344 0
2.7890003 0.29012522 0.29195827 0
2.7830002 0.28498259 0.29223967 0
2.7800002 0.28027281 0.29238036 0
2.7780001 0.27570918 0.29247415 0
2.7770002 0.27128625 0.29252106 0
2.7770002 0.26699862 0.29252106 0
2.7770002 0.26271096 0.29252106 0
2.7780001 0.25855136 0.29247415 0
2.7790003 0.25438818 0.29242724 0
2.7810001 0.25034583 0.29233345 0
2.7840002 0.24641895 0.29219276 0
2.7880001 0.24260208 0.29200518 0
2.7940001 0.2390089 0.29172379 0
2.8070002 0.23621482 0.29111409 0
3.0920002 0.20650429 0.27774787 0
3.0840001 0.20091248 0.27812308 0
3.0780003 0.19552992 0.27840444 0
3.0740001 0.19034576 0.27859205 0
3.0710003 0.18526265 0.27873275 0
3.0690002 0.18027511 0.27882653 0
3.0670002 0.17529479 0.27892035 0
3.0660002 0.17040287 0.27896726 0
2.8560002 0.14892672 0.28881603 0
2.8450003 0.14364338 0.28933191 0
2.8390002 0.13877851 0.28961331 0
2.8350003 0.1340832 0.28980091 0
2.8310003 0.12940231 0.28998852 0
2.8290002 0.12487654 0.29008231 0
2.8260002 0.12028947 0.290223 0
2.8250003 0.11584669 0.29026991 0
2.8240001 0.1114075 0.29031682 0
2.8230002 0.10697195 0.2903637 0
2.8230002 0.10260132 0.2903637 0
2.8230002 0.09823069 0.2903637 0
2.8240001 0.093917787 0.29031682 0
2.8250003 0.089601278 0.29026991 0
2.8260002 0.085281163 0.290223 0
2.8280003 0.081009746 0.29012918 0
2.8300002 0.076731101 0.29003543 0
2.8330002 0.07249397 0.2898947 0
2.8360002 0.068245992 0.28975403 0
2.8410003 0.064077407 0.28951952 0
2.8460002 0.059890758 0.28928503 0
2.8550003 0.055852037 0.28886294 0
2.7160003 0.580643 0.29120427 0
2.7110002 0.57512152 0.29144779 0
2.7080002 0.57015204 0.29159391 0
2.7060001 0.56545848 0.2916913 0
2.7050002 0.56103557 0.29174 0
2.7050002 0.55687779 0.29174 0
2.7050002 0.55272001 0.29174 0
2.7060001 0.54882014 0.2916913 0
2.7070003 0.54491675 0.29164261 0
2.7090001 0.541264 0.29154521 0
2.7120001 0.53785658 0.29139909 0
2.7150002 0.53443843 0.29125297 0
2.7190001 0.53125829 0.29105818 0
2.7250001 0.52855796 0.29076594 0
2.7370002 0.52730799 0.29018152 0
3.0860002 0.36582747 0.27318424 0
3.0770001 0.35961875 0.27362257 0
3.0720003 0.35404137 0.27386606 0
3.0700002 0.34892577 0.27396348 0
3.0680003 0.34381738 0.2740609 0
3.0680003 0.33900484 0.2740609 0
3.0680003 0.33419228 0.2740609 0
2.7890003 0.29012522 0.28764898 0
2.7830002 0.28498259 0.28794119 0
2.7800002 0.28027281 0.28808731 0
2.7780001 0.27570918 0.2881847 0
2.7770002 0.27128625 0.2882334 0
2.7770002 0.26699862 0.2882334 0
2.7770002 0.26271096 0.2882334 0
2.7780001 0.25855136 0.2881847 0
2.7790003 0.25438818 0.28813601 0
2.7810001 0.25034583 0.28803861 0
2.7840002 0.24641895 0.28789249 0
2.7880001 0.24260208 0.28769767 0
2.7940001 0.2390089 0.28740546 0
2.8070002 0.23621482 0.28677231 0
3.0920002 0.20650429 0.272892 0
3.0840001 0.20091248 0.27328163 0
3.0780003 0.19552992 0.27357385 0
3.0740001 0.19034576 0.27376866 0
3.0710003 0.18526265 0.27391475 0
3.0690002 0.18027511 0.27401218 0
3.0670002 0.17529479 0.2741096 0
3.0660002 0.17040287 0.2741583 0
2.8560002 0.14892672 0.28438589 0
2.8450003 0.14364338 0.28492162 0
2.8390002 0.13877851 0.28521383 0
2.8350003 0.1340832 0.28540865 0
2.8310003 0.12940231 0.28560343 0
2.8290002 0.12487654 0.28570086 0
2.8260002 0.12028947 0.28584695 0
2.8250003 0.11584669 0.28589568 0
2.8240001 0.1114075 0.28594437 0
2.8230002 0.10697195 0.28599307 0
2.8230002 0.10260132 0.28599307 0
2.8230002 0.09823069 0.28599307 0
2.8240001 0.093917787 0.28594437 0
2.8250003 0.089601278 0.28589568 0
2.8260002 0.085281163 0.28584695 0
2.8280003 0.081009746 0.28574955 0
2.8300002 0.076731101 0.28565216 0
2.8330002 0.07249397 0.28550604 0
2.8360002 0.068245992 0.28535995 0
2.8410003 0.064077407 0.28511643 0
2.8460002 0.059890758 0.28487292 0
2.8550003 0.055852037 0.28443459 0
2.7160003 0.580643 0.28702664 0
2.7110002 0.57512152 0.28727919 0
2.7080002 0.57015204 0.2874307 0
2.7060001 0.56545848 0.28753173 0
2.7050002 0.56103557 0.28758222 0
2.7050002 0.55687779 0.28758222 0
2.7050002 0.55272001 0.28758222 0
2.7060001 0.54882014 0.28753173 0
2.7070003 0.54491675 0.28748122 0
2.7090001 0.541264 0.28738022 0
2.7120001 0.53785658 0.2872287 0
2.7150002 0.53443843 0.28707719 0
2.7190001 0.53125829 0.28687513 0
2.7250001 0.52855796 0.2865721 0
2.7370002 0.52730799 0.28596601 0
3.0860002 0.36582747 0.26833922 0
3.0770001 0.35961875 0.26879376 0
3.0720003 0.35404137 0.26904631 0
3.0700002 0.34892577 0.26914731 0
3.0680003 0.34381738 0.26924831 0
3.0680003 0.33900484 0.26924831 0
3.0680003 0.33419228 0.26924831 0
2.7890003 0.29012522 0.28333968 0
2.7830002 0.28498259 0.28364271 0
2.7800002 0.28027281 0.28379422 0
2.7780001 0.27570918 0.28389525 0
2.7770002 0.27128625 0.28394577 0
2.7770002 0.26699862 0.28394577 0
2.7770002 0.26271096 0.28394577 0
2.7780001 0.25855136 0.28389525 0
2.7790003 0.25438818 0.28384474 0
2.7810001 0.25034583 0.28374374 0
2.7840002 0.24641895 0.28359222 0
2.7880001 0.24260208 0.28339019 0
2.7940001 0.2390089 0.28308713 0
2.8070002 0.23621482 0.28243056 0
3.0920002 0.20650429 0.26803616 0
3.0840001 0.20091248 0.26844022 0
3.0780003 0.19552992 0.26874325 0
3.0740001 0.19034576 0.26894528 0
3.0710003 0.18526265 0.26909679 0
3.0690002 0.18027511 0.26919782 0
3.0670002 0.17529479 0.26929885 0
3.0660002 0.17040287 0.26934934 0
2.8560002 0.14892672 0.27995571 0
2.8450003 0.14364338 0.28051129 0
2.8390002 0.13877851 0.28081435 0
2.8350003 0.1340832 0.28101635 0
2.8310003 0.12940231 0.28121838 0
2.8290002 0.12487654 0.28131941 0
2.8260002 0.12028947 0.28147092 0
2.8250003 0.11584669 0.28152144 0
2.8240001 0.1114075 0.28157195 0
2.8230002 0.10697195 0.28162247 0
2.8230002 0.10260132 0.28162247 0
2.8230002 0.09823069 0.28162247 0
2.8240001 0.093917787 0.28157195 0
2.8250003 0.089601278 0.28152144 0
2.8260002 0.085281163 0.28147092 0
2.8280003 0.081009746 0.28136989 0
2.8300002 0.076731101 0.28126889 0
2.8330002 0.07249397 0.28111738 0
2.8360002 0.068245992 0.28096586 0
2.8410003 0.064077407 0.28071332 0
2.8460002 0.059890758 0.28046077 0
2.8550003 0.055852037 0.28000623 0
2.7160003 0.580643 0.28284901 0
2.7110002 0.57512152 0.28311059 0
2.7080002 0.57015204 0.28326753 0
2.7060001 0.56545848 0.28337216 0
2.7050002 0.56103557 0.28342447 0
2.7050002 0.55687779 0.28342447 0
2.7050002 0.55272001 0.28342447 0
2.7060001 0.54882014 0.28337216 0
2.7070003 0.54491675 0.28331983 0
2.7090001 0.541264 0.28321522 0
2.7120001 0.53785658 0.28305829 0
2.7150002 0.53443843 0.28290135 0
2.7190001 0.53125829 0.2826921 0
2.7250001 0.52855796 0.28237826 0
2.7370002 0.52730799 0.28175053 0
3.0860002 0.36582747 0.26349419 0
3.0770001 0.35961875 0.26396495 0
3.0720003 0.35404137 0.2642265 0
3.0700002 0.34892577 0.26433116 0
3.0680003 0.34381738 0.26443577 0
3.0680003 0.33900484 0.26443577 0
3.0680003 0.33419228 0.26443577 0
2.7890003 0.29012522 0.27903038 0
2.7830002 0.28498259 0.27934423 0
2.7800002 0.28027281 0.27950117 0
2.7780001 0.27570918 0.27960581 0
2.7770002 0.27128625 0.27965808 0
2.7770002 0.26699862 0.27965808 0
2.7770002 0.26271096 0.27965808 0
2.7780001 0.25855136 0.27960581 0
2.7790003 0.25438818 0.27955347 0
2.7810001 0.25034583 0.27944887 0
2.7840002 0.24641895 0.27929193 0
2.7880001 0.24260208 0.27908269 0
2.7940001 0.2390089 0.27876884 0
2.8070002 0.23621482 0.27808881 0
3.0920002 0.20650429 0.26318032 0
3.0840001 0.20091248 0.2635988 0
3.0780003 0.19552992 0.26391268 0
3.0740001 0.19034576 0.26412189 0
3.0710003 0.18526265 0.26427883 0
3.0690002 0.18027511 0.26438347 0
3.0670002 0.17529479 0.26448807 0
3.0660002 0.17040287 0.26454037 0
2.8560002 0.14892672 0.27552557 0
2.8450003 0.14364338 0.27610099 0
2.8390002 0.13877851 0.27641487 0
2.8350003 0.1340832 0.27662408 0
2.8310003 0.12940231 0.27683333 0
2.8290002 0.12487654 0.27693796 0
2.8260002 0.12028947 0.2770949 0
2.8250003 0.11584669 0.2771472 0
2.8240001 0.1114075 0.27719951 0
2.8230002 0.10697195 0.27725181 0
2.8230002 0.10260132 0.27725181 0
2.8230002 0.09823069 0.27725181 0
2.8240001 0.093917787 0.27719951 0
2.8250003 0.089601278 0.2771472 0
2.8260002 0.085281163 0.2770949 0
2.8280003 0.081009746 0.27699026 0
2.8300002 0.076731101 0.27688566 0
2.8330002 0.07249397 0.27672872 0
2.8360002 0.068245992 0.27657178 0
2.8410003 0.064077407 0.27631021 0
2.8460002 0.059890758 0.27604866 0
2.8550003 0.055852037 0.27557787 0
2.7160003 0.580643 0.27867141 0
2.7110002 0.57512152 0.27894199 0
2.7080002 0.57015204 0.27910432 0
2.7060001 0.56545848 0.27921256 0
2.7050002 0.56103557 0.27926669 0
2.7050002 0.55687779 0.27926669 0
2.7050002 0.55272001 0.27926669 0
2.7060001 0.54882014 0.27921256 0
2.7070003 0.54491675 0.27915844 0
2.7090001 0.541264 0.27905023 0
2.7120001 0.53785658 0.27888787 0
2.7150002 0.53443843 0.27872553 0
2.7190001 0.53125829 0.27850908 0
2.7250001 0.52855796 0.27818441 0
2.7370002 0.52730799 0.27753502 0
3.0860002 0.36582747 0.25864917 0
3.0770001 0.35961875 0.2591362 0
3.0720003 0.35404137 0.25940675 0
3.0700002 0.34892577 0.25951499 0
3.0680003 0.34381738 0.2596232 0
3.0680003 0.33900484 0.2596232 0
3.0680003 0.33419228 0.2596232 0
2.7890003 0.29012522 0.27472109 0
2.7830002 0.28498259 0.27504575 0
2.7800002 0.28027281 0.27520812 0
2.7780001 0.27570918 0.27531633 0
2.7770002 0.27128625 0.27537045 0
2.7770002 0.26699862 0.27537045 0
2.7770002 0.26271096 0.27537045 0
2.7780001 0.25855136 0.27531633 0
2.7790003 0.25438818 0.27526224 0
2.7810001 0.25034583 0.27515399 0
2.7840002 0.24641895 0.27499163 0
2.7880001 0.24260208 0.27477521 0
2.7940001 0.2390089 0.27445051 0
2.8070002 0.23621482 0.27374703 0
3.0920002 0.20650429 0.25832444 0
3.0840001 0.20091248 0.25875735 0
3.0780003 0.19552992 0.25908208 0
3.0740001 0.19034576 0.2592985 0
3.0710003 0.18526265 0.25946087 0
3.0690002 0.18027511 0.25956908 0
3.0670002 0.17529479 0.25967732 0
3.0660002 0.17040287 0.25973141 0
2.8560002 0.14892672 0.27109542 0
2.8450003 0.14364338 0.27169067 0
2.8390002 0.13877851 0.27201536 0
2.8350003 0.1340832 0.27223182 0
2.8310003 0.12940231 0.27244827 0
2.8290002 0.12487654 0.27255651 0
2.8260002 0.12028947 0.27271885 0
2.8250003 0.11584669 0.27277297 0
2.8240001 0.1114075 0.27282709 0
2.8230002 0.10697195 0.27288121 0
2.8230002 0.10260132 0.27288121 0
2.8230002 0.09823069 0.27288121 0
2.8240001 0.093917787 0.27282709 0
2.8250003 0.089601278 0.27277297 0
2.8260002 0.085281163 0.27271885 0
2.8280003 0.081009746 0.2726106 0
2.8300002 0.076731101 0.27250239 0
2.8330002 0.07249397 0.27234006 0
2.8360002 0.068245992 0.2721777 0
2.8410003 0.064077407 0.27190715 0
2.8460002 0.059890758 0.27163655 0
2.8550003 0.055852037 0.27114955 0
2.7160003 0.580643 0.27449381 0
2.7110002 0.57512152 0.27477339 0
2.7080002 0.57015204 0.27494115 0
2.7060001 0.56545848 0.27505296 0
2.7050002 0.56103557 0.2751089 0
2.7050002 0.55687779 0.2751089 0
2.7050002 0.55272001 0.2751089 0
2.7060001 0.54882014 0.27505296 0
2.7070003 0.54491675 0.27499706 0
2.7090001 0.541264 0.27488524 0
2.7120001 0.53785658 0.27471745 0
2.7150002 0.53443843 0.27454972 0
2.7190001 0.53125829 0.27432606 0
2.7250001 0.52855796 0.27399051 0
2.7370002 0.52730799 0.27331951 0
3.0860002 0.36582747 0.25380412 0
3.0770001 0.35961875 0.25430739 0
3.0720003 0.35404137 0.25458696 0
3.0700002 0.34892577 0.25469881 0
3.0680003 0.34381738 0.25481063 0
3.0680003 0.33900484 0.25481063 0
3.0680003 0.33419228 0.25481063 0
2.7890003 0.29012522 0.27041179 0
2.7830002 0.28498259 0.2707473 0
2.7800002 0.28027281 0.27091503 0
2.7780001 0.27570918 0.27102688 0
2.7770002 0.27128625 0.27108279 0
2.7770002 0.26699862 0.27108279 0
2.7770002 0.26271096 0.27108279 0
2.7780001 0.25855136 0.27102688 0
2.7790003 0.25438818 0.27097094 0
2.7810001 0.25034583 0.27085912 0
2.7840002 0.24641895 0.27069139 0
2.7880001 0.24260208 0.2704677 0
2.7940001 0.2390089 0.27013218 0
2.8070002 0.23621482 0.26940525 0
3.0920002 0.20650429 0.2534686 0
3.0840001 0.20091248 0.25391597 0
3.0780003 0.19552992 0.25425148 0
3.0740001 0.19034576 0.25447515 0
3.0710003 0.18526265 0.25464287 0
3.0690002 0.18027511 0.25475472 0
3.0670002 0.17529479 0.25486657 0
3.0660002 0.17040287 0.25492248 0
2.8560002 0.14892672 0.26666528 0
2.8450003 0.14364338 0.26728037 0
2.8390002 0.13877851 0.26761588 0
2.8350003 0.1340832 0.26783955 0
2.8310003 0.12940231 0.26806322 0
2.8290002 0.12487654 0.26817507 0
2.8260002 0.12028947 0.26834282 0
2.8250003 0.11584669 0.26839873 0
2.8240001 0.1114075 0.26845467 0
2.8230002 0.10697195 0.26851058 0
2.8230002 0.10260132 0.26851058 0
2.8230002 0.09823069 0.26851058 0
2.8240001 0.093917787 0.26845467 0
2.8250003 0.089601278 0.26839873 0
2.8260002 0.085281163 0.26834282 0
2.8280003 0.081009746 0.26823097 0
2.8300002 0.076731101 0.26811916 0
2.8330002 0.07249397 0.26795137 0
2.8360002 0.068245992 0.26778364 0
2.8410003 0.064077407 0.26750404 0
2.8460002 0.059890758 0.26722443 0
2.8550003 0.055852037 0.26672119 0
2.7160003 0.580643 0.27031618 0
2.7110002 0.57512152 0.27060479 0
2.7080002 0.57015204 0.27077794 0
2.7060001 0.56545848 0.27089339 0
2.7050002 0.56103557 0.27095112 0
2.7050002 0.55687779 0.27095112 0
2.7050002 0.55272001 0.27095112 0
2.7060001 0.54882014 0.27089339 0
2.7070003 0.54491675 0.27083567 0
2.7090001 0.541264 0.27072024 0
2.7120001 0.53785658 0.27054709 0
2.7150002 0.53443843 0.27037391 0
2.7190001 0.53125829 0.27014303 0
2.7250001 0.52855796 0.26979667 0
2.7370002 0.52730799 0.269104 0
3.0860002 0.36582747 0.24895909 0
3.0770001 0.35961875 0.24947859 0
3.0720003 0.35404137 0.2497672 0
3.0700002 0.34892577 0.24988264 0
3.0680003 0.34381738 0.24999808 0
3.0680003 0.33900484 0.24999808 0
3.0680003 0.33419228 0.24999808 0
2.7890003 0.29012522 0.26610249 0
2.7830002 0.28498259 0.2664488 0
2.7800002 0.28027281 0.26662198 0
2.7780001 0.27570918 0.26673743 0
2.7770002 0.27128625 0.26679516 0
2.7770002 0.26699862 0.26679516 0
2.7770002 0.26271096 0.26679516 0
2.7780001 0.25855136 0.26673743 0
2.7790003 0.25438818 0.2666797 0
2.7810001 0.25034583 0.26656425 0
2.7840002 0.24641895 0.2663911 0
2.7880001 0.24260208 0.26616019 0
2.7940001 0.2390089 0.26581389 0
2.8070002 0.23621482 0.26506349 0
3.0920002 0.20650429 0.24861276 0
3.0840001 0.20091248 0.24907453 0
3.0780003 0.19552992 0.24942085 0
3.0740001 0.19034576 0.24965176 0
3.0710003 0.18526265 0.24982491 0
3.0690002 0.18027511 0.24994037 0
3.0670002 0.17529479 0.25005579 0
3.0660002 0.17040287 0.25011355 0
2.8560002 0.14892672 0.26223511 0
2.8450003 0.14364338 0.26287007 0
2.8390002 0.13877851 0.26321638 0
2.8350003 0.1340832 0.26344728 0
2.8310003 0.12940231 0.26367816 0
2.8290002 0.12487654 0.26379359 0
2.8260002 0.12028947 0.26396677 0
2.8250003 0.11584669 0.2640245 0
2.8240001 0.1114075 0.26408222 0
2.8230002 0.10697195 0.26413995 0
2.8230002 0.10260132 0.26413995 0
2.8230002 0.09823069 0.26413995 0
2.8240001 0.093917787 0.26408222 0
2.8250003 0.089601278 0.2640245 0
2.8260002 0.085281163 0.26396677 0
2.8280003 0.081009746 0.26385134 0
2.8300002 0.076731101 0.26373589 0
2.8330002 0.07249397 0.26356274 0
2.8360002 0.068245992 0.26338956 0
2.8410003 0.064077407 0.26310092 0
2.8460002 0.059890758 0.26281232 0
2.8550003 0.055852037 0.26229283 0
2.7160003 0.580643 0.26613855 0
2.7110002 0.57512152 0.26643619 0
2.7080002 0.57015204 0.26661476 0
2.7060001 0.56545848 0.26673383 0
2.7050002 0.56103557 0.26679334 0
2.7050002 0.55687779 0.26679334 0
2.7050002 0.55272001 0.26679334 0
2.7060001 0.54882014 0.26673383 0
2.7070003 0.54491675 0.26667428 0
2.7090001 0.541264 0.26655525 0
2.7120001 0.53785658 0.26637667 0
2.7150002 0.53443843 0.2661981 0
2.7190001 0.53125829 0.26595998 0
2.7250001 0.52855796 0.26560283 0
2.7370002 0.52730799 0.26488853 0
3.0860002 0.36582747 0.24411407 0
3.0770001 0.35961875 0.2446498 0
3.0720003 0.35404137 0.24494742 0
3.0700002 0.34892577 0.24506648 0
3.0680003 0.34381738 0.24518552 0
3.0680003 0.33900484 0.24518552 0
3.0680003 0.33419228 0.24518552 0
2.7890003 0.29012522 0.2617932 0
2.7830002 0.28498259 0.26215035 0
2.7800002 0.28027281 0.26232892 0
2.7780001 0.27570918 0.26244795 0
2.7770002 0.27128625 0.2625075 0
2.7770002 0.26699862 0.2625075 0
2.7770002 0.26271096 0.2625075 0
2.7780001 0.25855136 0.26244795 0
2.7790003 0.25438818 0.26238844 0
2.7810001 0.25034583 0.26226938 0
2.7840002 0.24641895 0.2620908 0
2.7880001 0.24260208 0.26185271 0
2.7940001 0.2390089 0.26149556 0
2.8070002 0.23621482 0.26072174 0
3.0920002 0.20650429 0.24375691 0
3.0840001 0.20091248 0.24423312 0
3.0780003 0.19552992 0.24459025 0
3.0740001 0.19034576 0.24482837 0
3.0710003 0.18526265 0.24500695 0
3.0690002 0.18027511 0.24512599 0
3.0670002 0.17529479 0.24524505 0
3.0660002 0.17040287 0.24530457 0
2.8560002 0.14892672 0.25780496 0
2.8450003 0.14364338 0.25845975 0
2.8390002 0.13877851 0.2588169 0
2.8350003 0.1340832 0.25905502 0
2.8310003 0.12940231 0.25929308 0
2.8290002 0.12487654 0.25941217 0
2.8260002 0.12028947 0.25959074 0
2.8250003 0.11584669 0.25965023 0
2.8240001 0.1114075 0.25970978 0
2.8230002 0.10697195 0.25976932 0
2.8230002 0.10260132 0.25976932 0
2.8230002 0.09823069 0.25976932 0
2.8240001 0.093917787 0.25970978 0
2.8250003 0.089601278 0.25965023 0
2.8260002 0.085281163 0.25959074 0
2.8280003 0.081009746 0.25947165 0
2.8300002 0.076731101 0.25935262 0
2.8330002 0.07249397 0.25917405 0
2.8360002 0.068245992 0.25899547 0
2.8410003 0.064077407 0.25869784 0
2.8460002 0.059890758 0.2584002 0
2.8550003 0.055852037 0.25786448 0
2.7160003 0.580643 0.26196092 0
2.7110002 0.57512152 0.26226759 0
2.7080002 0.57015204 0.26245159 0
2.7060001 0.56545848 0.26257426 0
2.7050002 0.56103557 0.26263556 0
2.7050002 0.55687779 0.26263556 0
2.7050002 0.55272001 0.26263556 0
2.7060001 0.54882014 0.26257426 0
2.7070003 0.54491675 0.26251292 0
2.7090001 0.541264 0.26239026 0
2.7120001 0.53785658 0.26220626 0
2.7150002 0.53443843 0.26202226 0
2.7190001 0.53125829 0.26177695 0
2.7250001 0.52855796 0.26140898 0
2.7370002 0.52730799 0.26067302 0
3.0860002 0.36582747 0.23926903 0
3.0770001 0.35961875 0.239821 0
3.0720003 0.35404137 0.24012764 0
3.0700002 0.34892577 0.24025032 0
3.0680003 0.34381738 0.24037296 0
3.0680003 0.33900484 0.24037296 0
3.0680003 0.33419228 0.24037296 0
2.7890003 0.29012522 0.2574839 0
2.7830002 0.28498259 0.25785187 0
2.7800002 0.28027281 0.25803584 0
2.7780001 0.27570918 0.2581585 0
2.7770002 0.27128625 0.25821984 0
2.7770002 0.26699862 0.25821984 0
2.7770002 0.26271096 0.25821984 0
2.7780001 0.25855136 0.2581585 0
2.7790003 0.25438818 0.25809717 0
2.7810001 0.25034583 0.25797451 0
2.7840002 0.24641895 0.25779054 0
2.7880001 0.24260208 0.25754523 0
2.7940001 0.2390089 0.25717723 0
2.8070002 0.23621482 0.25637996 0
3.0920002 0.20650429 0.23890105 0
3.0840001 0.20091248 0.2393917 0
3.0780003 0.19552992 0.23975965 0
3.0740001 0.19034576 0.24000499 0
3.0710003 0.18526265 0.24018896 0
3.0690002 0.18027511 0.24031164 0
3.0670002 0.17529479 0.24043429 0
3.0660002 0.17040287 0.24049562 0
2.8560002 0.14892672 0.25337481 0
2.8450003 0.14364338 0.25404942 0
2.8390002 0.13877851 0.25441742 0
2.8350003 0.1340832 0.25466272 0
2.8310003 0.12940231 0.25490803 0
2.8290002 0.12487654 0.25503069 0
2.8260002 0.12028947 0.25521469 0
2.8250003 0.11584669 0.25527602 0
2.8240001 0.1114075 0.25533736 0
2.8230002 0.10697195 0.25539869 0
2.8230002 0.10260132 0.25539869 0
2.8230002 0.09823069 0.25539869 0
2.8240001 0.093917787 0.25533736 0
2.8250003 0.089601278 0.25527602 0
2.8260002 0.085281163 0.25521469 0
2.8280003 0.081009746 0.25509202 0
2.8300002 0.076731101 0.25496936 0
2.8330002 0.07249397 0.25478542 0
2.8360002 0.068245992 0.25460142 0
2.8410003 0.064077407 0.25429475 0
2.8460002 0.059890758 0.25398812 0
2.8550003 0.055852037 0.25343615 0
2.7160003 0.580643 0.25778332 0
2.7110002 0.57512152 0.25809899 0
2.7080002 0.57015204 0.25828838 0
2.7060001 0.56545848 0.25841466 0
2.7050002 0.56103557 0.25847781 0
2.7050002 0.55687779 0.25847781 0
2.7050002 0.55272001 0.25847781 0
2.7060001 0.54882014 0.25841466 0
2.7070003 0.54491675 0.2583515 0
2.7090001 0.541264 0.25822526 0
2.7120001 0.53785658 0.25803587 0
2.7150002 0.53443843 0.25784647 0
2.7190001 0.53125829 0.25759393 0
2.7250001 0.52855796 0.25721514 0
2.7370002 0.52730799 0.25645751 0
3.0860002 0.36582747 0.23442401 0
3.0770001 0.35961875 0.23499221 0
3.0720003 0.35404137 0.23530787 0
3.0700002 0.34892577 0.23543413 0
3.0680003 0.34381738 0.2355604 0
3.0680003 0.33900484 0.2355604 0
3.0680003 0.33419228 0.2355604 0
2.7890003 0.29012522 0.2531746 0
2.7830002 0.28498259 0.25355339 0
2.7800002 0.28027281 0.25374278 0
2.7780001 0.27570918 0.25386906 0
2.7770002 0.27128625 0.25393218 0
2.7770002 0.26699862 0.25393218 0
2.7770002 0.26271096 0.25393218 0
2.7780001 0.25855136 0.25386906 0
2.7790003 0.25438818 0.25380594 0
2.7810001 0.25034583 0.25367966 0
2.7840002 0.24641895 0.25349027 0
2.7880001 0.24260208 0.25323772 0
2.7940001 0.2390089 0.25285894 0
2.8070002 0.23621482 0.25203818 0
3.0920002 0.20650429 0.23404519 0
3.0840001 0.20091248 0.23455027 0
3.0780003 0.19552992 0.23492905 0
3.0740001 0.19034576 0.2351816 0
3.0710003 0.18526265 0.23537099 0
3.0690002 0.18027511 0.23549727 0
3.0670002 0.17529479 0.23562354 0
3.0660002 0.17040287 0.23568666 0
2.8560002 0.14892672 0.24894466 0
2.8450003 0.14364338 0.24963912 0
2.8390002 0.13877851 0.25001794 0
2.8350003 0.1340832 0.25027046 0
2.8310003 0.12940231 0.25052297 0
2.8290002 0.12487654 0.25064927 0
2.8260002 0.12028947 0.25083864 0
2.8250003 0.11584669 0.25090179 0
2.8240001 0.1114075 0.25096494 0
2.8230002 0.10697195 0.25102806 0
2.8230002 0.10260132 0.25102806 0
2.8230002 0.09823069 0.25102806 0
2.8240001 0.093917787 0.25096494 0
2.8250003 0.089601278 0.25090179 0
2.8260002 0.085281163 0.25083864 0
2.8280003 0.081009746 0.25071239 0
2.8300002 0.076731101 0.25058612 0
2.8330002 0.07249397 0.25039673 0
2.8360002 0.068245992 0.25020733 0
2.8410003 0.064077407 0.24989165 0
2.8460002 0.059890758 0.249576 0
2.8550003 0.055852037 0.24900779 0
2.7160003 0.580643 0.25360569 0
2.7110002 0.57512152 0.25393039 0
2.7080002 0.57015204 0.25412518 0
2.7060001 0.56545848 0.25425509 0
2.7050002 0.56103557 0.25432003 0
2.7050002 0.55687779 0.25432003 0
2.7050002 0.55272001 0.25432003 0
2.7060001 0.54882014 0.25425509 0
2.7070003 0.54491675 0.25419015 0
2.7090001 0.541264 0.25406027 0
2.7120001 0.53785658 0.25386545 0
2.7150002 0.53443843 0.25367063 0
2.7190001 0.53125829 0.25341088 0
2.7250001 0.52855796 0.25302127 0
2.7370002 0.52730799 0.25224203 0
3.0860002 0.36582747 0.22957897 0
3.0770001 0.35961875 0.23016341 0
3.0720003 0.35404137 0.23048809 0
3.0700002 0.34892577 0.23061797 0
3.0680003 0.34381738 0.23074785 0
3.0680003 0.33900484 0.23074785 0
3.0680003 0.33419228 0.23074785 0
2.7890003 0.29012522 0.24886529 0
2.7830002 0.28498259 0.24925491 0
2.7800002 0.28027281 0.24944972 0
2.7780001 0.27570918 0.24957961 0
2.7770002 0.27128625 0.24964453 0
2.7770002 0.26699862 0.24964453 0
2.7770002 0.26271096 0.24964453 0
2.7780001 0.25855136 0.24957961 0
2.7790003 0.25438818 0.24951465 0
2.7810001 0.25034583 0.24938479 0
2.7840002 0.24641895 0.24918997 0
2.7880001 0.24260208 0.24893023 0
2.7940001 0.2390089 0.2485406 0
2.8070002 0.23621482 0.24769643 0
3.0920002 0.20650429 0.22918935 0
3.0840001 0.20091248 0.22970885 0
3.0780003 0.19552992 0.23009847 0
3.0740001 0.19034576 0.23035823 0
3.0710003 0.18526265 0.23055303 0
3.0690002 0.18027511 0.23068289 0
3.0670002 0.17529479 0.23081279 0
3.0660002 0.17040287 0.23087771 0
2.8560002 0.14892672 0.24451451 0
2.8450003 0.14364338 0.24522881 0
2.8390002 0.13877851 0.24561845 0
2.8350003 0.1340832 0.24587819 0
2.8310003 0.12940231 0.24613793 0
2.8290002 0.12487654 0.2462678 0
2.8260002 0.12028947 0.24646261 0
2.8250003 0.11584669 0.24652755 0
2.8240001 0.1114075 0.24659251 0
2.8230002 0.10697195 0.24665743 0
2.8230002 0.10260132 0.24665743 0
2.8230002 0.09823069 0.24665743 0
2.8240001 0.093917787 0.24659251 0
2.8250003 0.089601278 0.24652755 0
2.8260002 0.085281163 0.24646261 0
2.8280003 0.081009746 0.24633275 0
2.8300002 0.076731101 0.24620287 0
2.8330002 0.07249397 0.24600805 0
2.8360002 0.068245992 0.24581324 0
2.8410003 0.064077407 0.24548855 0
2.8460002 0.059890758 0.24516389 0
2.8550003 0.055852037 0.24457943 0
2.7160003 0.580643 0.24942806 0
2.7110002 0.57512152 0.24976179 0
2.7080002 0.57015204 0.249962 0
2.7060001 0.56545848 0.25009549 0
2.7050002 0.56103557 0.25016224 0
2.7050002 0.55687779 0.25016224 0
2.7050002 0.55272001 0.25016224 0
2.7060001 0.54882014 0.25009549 0
2.7070003 0.54491675 0.25002873 0
2.7090001 0.541264 0.24989527 0
2.7120001 0.53785658 0.24969505 0
2.7150002 0.53443843 0.24949484 0
2.7190001 0.53125829 0.24922787 0
2.7250001 0.52855796 0.24882741 0
2.7370002 0.52730799 0.24802652 0
3.0860002 0.36582747 0.22473395 0
3.0770001 0.35961875 0.22533461 0
3.0720003 0.35404137 0.22566831 0
3.0700002 0.34892577 0.22580181 0
3.0680003 0.34381738 0.22593527 0
3.0680003 0.33900484 0.22593527 0
3.0680003 0.33419228 0.22593527 0
2.7890003 0.29012522 0.24455599 0
2.7830002 0.28498259 0.24495643 0
2.7800002 0.28027281 0.24515666 0
2.7780001 0.27570918 0.24529015 0
2.7770002 0.27128625 0.24535689 0
2.7770002 0.26699862 0.24535689 0
2.7770002 0.26271096 0.24535689 0
2.7780001 0.25855136 0.24529015 0
2.7790003 0.25438818 0.24522339 0
2.7810001 0.25034583 0.24508993 0
2.7840002 0.24641895 0.24488971 0
2.7880001 0.24260208 0.24462274 0
2.7940001 0.2390089 0.24422228 0
2.8070002 0.23621482 0.24335465 0
3.0920002 0.20650429 0.22433349 0
3.0840001 0.20091248 0.22486743 0
3.0780003 0.19552992 0.22526787 0
3.0740001 0.19034576 0.22553484 0
3.0710003 0.18526265 0.22573505 0
3.0690002 0.18027511 0.22586854 0
3.0670002 0.17529479 0.22600202 0
3.0660002 0.17040287 0.22606876 0
2.8560002 0.14892672 0.24008435 0
2.8450003 0.14364338 0.2408185 0
2.8390002 0.13877851 0.24121895 0
2.8350003 0.1340832 0.24148591 0
2.8310003 0.12940231 0.24175288 0
2.8290002 0.12487654 0.24188635 0
2.8260002 0.12028947 0.24208659 0
2.8250003 0.11584669 0.24215332 0
2.8240001 0.1114075 0.24222006 0
2.8230002 0.10697195 0.2422868 0
2.8230002 0.10260132 0.2422868 0
2.8230002 0.09823069 0.2422868 0
2.8240001 0.093917787 0.24222006 0
2.8250003 0.089601278 0.24215332 0
