# .PCD v0.7 - Point Cloud Data file format
VERSION 0.7
FIELDS x y z intensity
SIZE 4 4 4 4
TYPE F F F F
COUNT 1 1 1 1
WIDTH 1439
HEIGHT 1
VIEWPOINT 0 0 0 1 0 0 0
POINTS 1439
DATA ascii
4.6120005 1.9673746 0.13808259 0
4.6170001 1.962158 0.13776696 0
4.6220002 1.9569232 0.13745129 0
4.6260004 1.9511981 0.13719875 0
4.6310005 1.9459293 0.13688305 0
4.6360002 1.9406421 0.13656741 0
4.6410003 1.9353373 0.13625172 0
4.6460004 1.9300141 0.13593605 0
4.6510005 1.9246732 0.13562039 0
4.6560001 1.9193139 0.13530475 0
4.6610003 1.9139369 0.13498908 0
4.6660004 1.9085417 0.13467339 0
4.6710005 1.9031285 0.13435772 0
4.6760001 1.8976971 0.13404208 0
4.6810002 1.8922478 0.13372642 0
4.6860003 1.8867806 0.13341072 0
4.6910005 1.8812952 0.13309506 0
4.6960001 1.8757915 0.13277942 0
4.7010002 1.8702703 0.13246375 0
4.7060003 1.8647307 0.13214809 0
4.7110004 1.8591733 0.13183239 0
4.7170005 1.854038 0.1314536 0
4.7220001 1.8484422 0.13113794 0
4.7270002 1.8428289 0.13082227 0
4.7320004 1.8371975 0.1305066 0
4.7370005 1.8315481 0.13019094 0
4.7420001 1.8258803 0.1298753 0
4.7480001 1.8206239 0.12949648 0
4.7530003 1.8149185 0.12918082 0
4.7580004 1.809195 0.12886512 0
4.7630005 1.8034536 0.12854946 0
4.7680001 1.797694 0.12823382 0
4.7740002 1.7923367 0.12785503 0
4.7790003 1.7865393 0.12753937 0
4.7840004 1.7807238 0.12722367 0
4.7890005 1.7748904 0.12690797 0
4.7950001 1.7694517 0.12652922 0
4.8000002 1.7635803 0.12621355 0
4.8050003 1.757691 0.12589788 0
4.8110003 1.7521912 0.12551907 0
4.8160005 1.746264 0.1252034 0
4.8210001 1.7403184 0.12488776 0
4.8270001 1.7347573 0.12450895 0
4.8320003 1.7287742 0.12419328 0
4.8380003 1.7231715 0.12381449 0
4.8430004 1.7171504 0.12349883 0
4.8480005 1.7111114 0.12318316 0
4.8540001 1.7054472 0.12280437 0
4.8590002 1.6993703 0.12248868 0
4.8650002 1.6936648 0.12210989 0
4.8700004 1.6875499 0.12179419 0
4.8760004 1.681803 0.12141544 0
4.8810005 1.6756502 0.12109971 0
4.8870001 1.6698617 0.12072095 0
4.8920002 1.663671 0.12040529 0
4.8980002 1.6578411 0.12002647 0
4.9030004 1.6516126 0.1197108 0
4.9090004 1.6457412 0.11933199 0
4.9150004 1.6398482 0.11895323 0
4.9200001 1.6335618 0.11863756 0
4.9260001 1.6276274 0.11825874 0
4.9310002 1.6213032 0.11794308 0
4.9370003 1.6153272 0.11756426 0
4.9430003 1.6093296 0.1171855 0
4.9480004 1.6029477 0.11686981 0
4.9540005 1.5969086 0.11649102 0
4.9600005 1.5908477 0.1161122 0
4.9650002 1.584408 0.11579654 0
4.9710002 1.5783058 0.11541778 0
4.9770002 1.5721819 0.11503896 0
4.9830003 1.5660363 0.11466017 0
4.9880004 1.5595193 0.11434448 0
4.9940004 1.5533322 0.11396569 0
5.0000005 1.5471234 0.11358687 0
5.0060005 1.5408932 0.11320806 0
5.0120001 1.5346409 0.1128293 0
5.0180001 1.5283674 0.11245048 0
5.0230002 1.521733 0.11213481 0
5.0290003 1.5154179 0.11175603 0
5.0350003 1.5090811 0.11137724 0
5.0410004 1.5027226 0.11099842 0
5.0470004 1.4963427 0.11061963 0
5.0530005 1.489941 0.11024082 0
5.0590005 1.4835175 0.109862 0
5.0650005 1.4770726 0.10948321 0
5.0710001 1.4706059 0.10910442 0
5.0770001 1.4641175 0.10872564 0
5.0830002 1.4576076 0.10834685 0
5.0890002 1.451076 0.10796803 0
5.0950003 1.4445227 0.10758922 0
5.1010003 1.437948 0.10721043 0
5.1070004 1.4313514 0.10683161 0
5.1130004 1.4247333 0.10645282 0
5.1190004 1.4180934 0.10607404 0
5.1250005 1.4114319 0.10569522 0
5.1320004 1.4050555 0.10525328 0
5.1380005 1.3983489 0.10487449 0
4.3640003 2.2349446 0.14658937 0
4.369 2.2306621 0.14626467 0
4.3730001 2.22579 0.14600492 0
4.3770003 2.2209036 0.14574516 0
4.382 2.2165709 0.14542049 0
4.3860002 2.2116537 0.14516073 0
4.3900003 2.206722 0.14490098 0
4.395 2.2023387 0.14457631 0
4.3990002 2.1973763 0.14431658 0
4.4030004 2.1923997 0.14405683 0
4.4080005 2.1879661 0.14373213 0
4.4120002 2.1829586 0.14347237 0
4.4170003 2.1784906 0.14314771 0
4.4210005 2.1734526 0.14288795 0
4.4260001 2.1689503 0.14256325 0
4.4300003 2.1638815 0.14230353 0
4.4350004 2.1593451 0.14197883 0
4.4390001 2.1542454 0.14171907 0
4.4430003 2.149132 0.14145935 0
4.4480004 2.1445448 0.14113465 0
4.4520001 2.1394 0.14087489 0
4.4570003 2.134779 0.14055023 0
4.4620004 2.1301396 0.14022553 0
4.4660001 2.124948 0.13996577 0
4.4710002 2.1202745 0.13964111 0
4.4750004 2.1150525 0.13938135 0
4.4800005 2.1103444 0.13905662 0
4.4840002 2.1050918 0.13879693 0
4.4890003 2.1003497 0.13847223 0
4.4930005 2.0950663 0.13821244 0
4.4980001 2.0902896 0.13788781 0
4.5030003 2.0854952 0.13756311 0
4.5070004 2.0801651 0.13730332 0
4.5120001 2.075336 0.13697869 0
4.5170002 2.0704892 0.13665399 0
4.5210004 2.0651124 0.13639423 0
4.5260005 2.0602312 0.13606954 0
4.5310001 2.0553319 0.13574487 0
4.5350003 2.0499079 0.13548511 0
4.5400004 2.0449746 0.13516045 0
4.5450001 2.0400229 0.13483575 0
4.5490003 2.0345521 0.13457599 0
4.5540004 2.0295665 0.13425133 0
4.5590005 2.0245628 0.13392663 0
4.5640001 2.0195405 0.13360193 0
4.5680003 2.0140069 0.13334221 0
4.5730004 2.0089507 0.13301751 0
4.5780001 2.0038764 0.13269284 0
4.5830002 1.9987843 0.13236815 0
4.5880003 1.993674 0.13204345 0
4.5920005 1.9880607 0.13178369 0
4.5970001 1.9829161 0.13145903 0
4.6020002 1.9777539 0.13113433 0
4.6070004 1.9725733 0.13080963 0
4.6120005 1.9673746 0.13048494 0
4.6170001 1.962158 0.1301603 0
4.6220002 1.9569232 0.12983561 0
4.6260004 1.9511981 0.12957582 0
4.6310005 1.9459293 0.12925115 0
4.6360002 1.9406421 0.12892649 0
4.6410003 1.9353373 0.12860179 0
4.6460004 1.9300141 0.12827709 0
4.6510005 1.9246732 0.1279524 0
4.6560001 1.9193139 0.12762773 0
4.6610003 1.9139369 0.12730303 0
4.6660004 1.9085417 0.12697837 0
4.6710005 1.9031285 0.12665367 0
4.6760001 1.8976971 0.126329 0
4.6810002 1.8922478 0.12600431 0
4.6860003 1.8867806 0.12567961 0
4.6910005 1.8812952 0.12535492 0
4.6960001 1.8757915 0.12503025 0
4.7010002 1.8702703 0.12470558 0
4.7060003 1.8647307 0.12438089 0
4.7120004 1.8596152 0.12399125 0
4.7170005 1.854038 0.12366655 0
4.7220001 1.8484422 0.12334192 0
4.7270002 1.8428289 0.12301719 0
4.7320004 1.8371975 0.1226925 0
4.7370005 1.8315481 0.1223678 0
4.7420001 1.8258803 0.12204316 0
4.7480001 1.8206239 0.12165353 0
4.7530003 1.8149185 0.12132883 0
4.7580004 1.809195 0.12100413 0
4.7630005 1.8034536 0.12067947 0
4.7680001 1.797694 0.1203548 0
4.7740002 1.7923367 0.11996517 0
4.7790003 1.7865393 0.11964047 0
4.7840004 1.7807238 0.11931577 0
4.7890005 1.7748904 0.11899108 0
4.7950001 1.7694517 0.1186015 0
4.8000002 1.7635803 0.11827677 0
4.8050003 1.757691 0.11795211 0
4.8110003 1.7521912 0.11756247 0
4.8160005 1.746264 0.11723778 0
4.8210001 1.7403184 0.11691311 0
4.8270001 1.7347573 0.11652347 0
4.8320003 1.7287742 0.11619881 0
4.8380003 1.7231715 0.11580917 0
4.8430004 1.7171504 0.11548448 0
4.8480005 1.7111114 0.11515978 0
4.8540001 1.7054472 0.1147702 0
4.8590002 1.6993703 0.11444551 0
4.8650002 1.6936648 0.11405587 0
4.8700004 1.6875499 0.11373118 0
4.8760004 1.681803 0.11334154 0
4.8810005 1.6756502 0.11301687 0
4.8870001 1.6698617 0.11262727 0
4.8920002 1.663671 0.11230257 0
4.8980002 1.6578411 0.11191297 0
4.9030004 1.6516126 0.11158827 0
4.9090004 1.6457412 0.11119866 0
4.9150004 1.6398482 0.11080903 0
4.9200001 1.6335618 0.11048436 0
4.9260001 1.6276274 0.11009473 0
4.9310002 1.6213032 0.10977006 0
4.9370003 1.6153272 0.10938042 0
4.9430003 1.6093296 0.10899079 0
4.9480004 1.6029477 0.10866609 0
4.9540005 1.5969086 0.10827646 0
4.9600005 1.5908477 0.10788682 0
4.9650002 1.584408 0.10756218 0
4.9710002 1.5783058 0.10717255 0
4.9770002 1.5721819 0.10678294 0
4.9830003 1.5660363 0.10639331 0
4.9890003 1.5598692 0.10600367 0
4.9940004 1.5533322 0.10567898 0
5.0000005 1.5471234 0.10528937 0
5.0060005 1.5408932 0.10489973 0
5.0120001 1.5346409 0.10451016 0
5.0180001 1.5283674 0.10412052 0
5.0230002 1.521733 0.10379583 0
5.0290003 1.5154179 0.10340619 0
5.0350003 1.5090811 0.10301656 0
5.0410004 1.5027226 0.10262695 0
5.0470004 1.4963427 0.10223731 0
5.0530005 1.489941 0.10184771 0
5.0590005 1.4835175 0.10145807 0
5.0650005 1.4770726 0.10106844 0
5.0710001 1.4706059 0.10067883 0
5.0770001 1.4641175 0.10028923 0
5.0830002 1.4576076 0.09989962 0
5.0890002 1.451076 0.099509984 0
5.0950003 1.4445227 0.099120349 0
5.1010003 1.437948 0.098730713 0
5.1070004 1.4313514 0.098341107 0
5.1130004 1.4247333 0.097951472 0
5.1190004 1.4180934 0.097561836 0
5.1250005 1.4114319 0.09717223 0
5.1320004 1.4050555 0.096717656 0
5.1380005 1.3983489 0.09632805 0
4.3640003 2.2349446 0.13943905 0
4.369 2.2306621 0.13910538 0
4.3730001 2.22579 0.13883841 0
4.3770003 2.2209036 0.13857144 0
4.382 2.2165709 0.13823774 0
4.3860002 2.2116537 0.13797078 0
4.3900003 2.206722 0.13770381 0
4.395 2.2023387 0.13737011 0
4.3990002 2.1973763 0.13710314 0
4.4030004 2.1923997 0.13683617 0
4.4080005 2.1879661 0.13650244 0
4.4120002 2.1829586 0.13623551 0
4.4170003 2.1784906 0.13590178 0
4.4210005 2.1734526 0.13563484 0
4.4260001 2.1689503 0.13530114 0
4.4300003 2.1638815 0.13503417 0
4.4350004 2.1593451 0.13470045 0
4.4390001 2.1542454 0.13443351 0
4.4430003 2.149132 0.13416654 0
4.4480004 2.1445448 0.13383281 0
4.4520001 2.1394 0.1335659 0
4.4570003 2.134779 0.13323215 0
4.4620004 2.1301396 0.13289845 0
4.4660001 2.124948 0.13263151 0
4.4710002 2.1202745 0.13229781 0
4.4750004 2.1150525 0.13203081 0
4.4800005 2.1103444 0.13169709 0
4.4840002 2.1050918 0.13143018 0
4.4890003 2.1003497 0.13109645 0
4.4930005 2.0950663 0.13082948 0
4.4980001 2.0902896 0.13049579 0
4.5030003 2.0854952 0.13016209 0
4.5070004 2.0801651 0.12989509 0
4.5120001 2.075336 0.12956142 0
4.5170002 2.0704892 0.1292277 0
4.5210004 2.0651124 0.12896076 0
4.5260005 2.0602312 0.12862703 0
4.5310001 2.0553319 0.12829334 0
4.5350003 2.0499079 0.12802637 0
4.5400004 2.0449746 0.12769267 0
4.5450001 2.0400229 0.12735897 0
4.5490003 2.0345521 0.127092 0
4.5540004 2.0295665 0.12675828 0
4.5590005 2.0245628 0.12642458 0
4.5640001 2.0195405 0.12609088 0
4.5680003 2.0140069 0.12582394 0
4.5730004 2.0089507 0.12549019 0
4.5780001 2.0038764 0.12515652 0
4.5830002 1.9987843 0.12482283 0
4.5880003 1.993674 0.1244891 0
4.5920005 1.9880607 0.12422213 0
4.5970001 1.9829161 0.12388846 0
4.6020002 1.9777539 0.12355474 0
4.6070004 1.9725733 0.12322101 0
4.6120005 1.9673746 0.12288731 0
4.6170001 1.962158 0.12255362 0
4.6220002 1.9569232 0.12221992 0
4.6260004 1.9511981 0.12195295 0
4.6310005 1.9459293 0.12161922 0
4.6360002 1.9406421 0.12128556 0
4.6410003 1.9353373 0.12095183 0
4.6460004 1.9300141 0.12061813 0
4.6510005 1.9246732 0.12028441 0
4.6560001 1.9193139 0.11995074 0
4.6610003 1.9139369 0.11961702 0
4.6660004 1.9085417 0.11928332 0
4.6710005 1.9031285 0.11894962 0
4.6760001 1.8976971 0.1186159 0
4.6810002 1.8922478 0.1182822 0
4.6860003 1.8867806 0.11794847 0
4.6910005 1.8812952 0.11761478 0
4.6960001 1.8757915 0.11728111 0
4.7010002 1.8702703 0.11694738 0
4.7060003 1.8647307 0.11661369 0
4.7120004 1.8596152 0.11621323 0
4.7170005 1.854038 0.11587951 0
4.7220001 1.8484422 0.11554584 0
4.7270002 1.8428289 0.11521214 0
4.7320004 1.8371975 0.11487842 0
4.7370005 1.8315481 0.11454472 0
4.7420001 1.8258803 0.11421099 0
4.7480001 1.8206239 0.11381057 0
4.7530003 1.8149185 0.11347687 0
4.7580004 1.809195 0.11314315 0
4.7630005 1.8034536 0.11280942 0
4.7680001 1.797694 0.11247575 0
4.7740002 1.7923367 0.11207533 0
4.7790003 1.7865393 0.1117416 0
4.7840004 1.7807238 0.11140788 0
4.7890005 1.7748904 0.11107415 0
4.7950001 1.7694517 0.11067376 0
4.8000002 1.7635803 0.11034003 0
4.8050003 1.757691 0.11000633 0
4.8110003 1.7521912 0.10960588 0
4.8160005 1.746264 0.10927218 0
4.8210001 1.7403184 0.10893849 0
4.8270001 1.7347573 0.10853806 0
4.8320003 1.7287742 0.10820433 0
4.8380003 1.7231715 0.10780388 0
4.8430004 1.7171504 0.10747018 0
4.8480005 1.7111114 0.10713646 0
4.8540001 1.7054472 0.10673603 0
4.8590002 1.6993703 0.10640234 0
4.8650002 1.6936648 0.10600188 0
4.8700004 1.6875499 0.10566816 0
4.8760004 1.681803 0.1052677 0
4.8810005 1.6756502 0.10493401 0
4.8870001 1.6698617 0.10453358 0
4.8920002 1.663671 0.10419986 0
4.8980002 1.6578411 0.10379943 0
4.9030004 1.6516126 0.10346571 0
4.9090004 1.6457412 0.10306528 0
4.9150004 1.6398482 0.10266483 0
4.9200001 1.6335618 0.10233113 0
4.9260001 1.6276274 0.10193068 0
4.9310002 1.6213032 0.10159698 0
4.9370003 1.6153272 0.10119653 0
4.9430003 1.6093296 0.1007961 0
4.9480004 1.6029477 0.10046238 0
4.9540005 1.5969086 0.10006192 0
4.9600005 1.5908477 0.099661469 0
4.9650002 1.584408 0.099327803 0
4.9710002 1.5783058 0.098927349 0
4.9770002 1.5721819 0.098526895 0
4.9830003 1.5660363 0.098126441 0
4.9890003 1.5598692 0.097725987 0
4.9940004 1.5533322 0.097392291 0
5.0000005 1.5471234 0.096991837 0
5.0060005 1.5408932 0.096591413 0
5.0120001 1.5346409 0.096190989 0
5.0180001 1.5283674 0.095790535 0
5.0230002 1.521733 0.095456809 0
5.0290003 1.5154179 0.095056355 0
5.0350003 1.5090811 0.094655931 0
5.0410004 1.5027226 0.094255477 0
5.0470004 1.4963427 0.093855023 0
5.0530005 1.489941 0.09345457 0
5.0590005 1.4835175 0.093054146 0
5.0650005 1.4770726 0.092653692 0
5.0710001 1.4706059 0.092253268 0
5.0770001 1.4641175 0.091852814 0
5.0830002 1.4576076 0.09145239 0
5.0890002 1.451076 0.091051906 0
5.0950003 1.4445227 0.090651453 0
5.1010003 1.437948 0.090251029 0
5.1070004 1.4313514 0.089850575 0
5.1130004 1.4247333 0.089450121 0
5.1190004 1.4180934 0.089049667 0
5.1250005 1.4114319 0.088649243 0
5.1320004 1.4050555 0.088182032 0
5.1380005 1.3983489 0.087781608 0
4.3640003 2.2349446 0.13228878 0
4.369 2.2306621 0.13194606 0
4.3730001 2.22579 0.13167185 0
4.3770003 2.2209036 0.13139769 0
4.382 2.2165709 0.13105497 0
4.3860002 2.2116537 0.13078076 0
4.3900003 2.206722 0.1305066 0
4.395 2.2023387 0.13016391 0
4.3990002 2.1973763 0.1298897 0
4.4030004 2.1923997 0.12961552 0
4.4080005 2.1879661 0.12927279 0
4.4120002 2.1829586 0.12899864 0
4.4170003 2.1784906 0.12865588 0
4.4210005 2.1734526 0.1283817 0
4.4260001 2.1689503 0.128039 0
4.4300003 2.1638815 0.12776482 0
4.4350004 2.1593451 0.12742209 0
4.4390001 2.1542454 0.12714794 0
4.4430003 2.149132 0.12687376 0
4.4480004 2.1445448 0.12653103 0
4.4520001 2.1394 0.12625685 0
4.4570003 2.134779 0.12591413 0
4.4620004 2.1301396 0.12557137 0
4.4660001 2.124948 0.12529722 0
4.4710002 2.1202745 0.12495449 0
4.4750004 2.1150525 0.12468031 0
4.4800005 2.1103444 0.12433758 0
4.4840002 2.1050918 0.12406343 0
4.4890003 2.1003497 0.12372068 0
4.4930005 2.0950663 0.12344649 0
4.4980001 2.0902896 0.1231038 0
4.5030003 2.0854952 0.12276107 0
4.5070004 2.0801651 0.12248689 0
4.5120001 2.075336 0.12214416 0
4.5170002 2.0704892 0.12180144 0
4.5210004 2.0651124 0.12152725 0
4.5260005 2.0602312 0.12118453 0
4.5310001 2.0553319 0.12084183 0
4.5350003 2.0499079 0.12056762 0
4.5400004 2.0449746 0.12022489 0
4.5450001 2.0400229 0.1198822 0
4.5490003 2.0345521 0.11960801 0
4.5540004 2.0295665 0.11926529 0
4.5590005 2.0245628 0.11892253 0
4.5640001 2.0195405 0.11857986 0
4.5680003 2.0140069 0.11830565 0
4.5730004 2.0089507 0.11796293 0
4.5780001 2.0038764 0.11762023 0
4.5830002 1.9987843 0.11727747 0
4.5880003 1.993674 0.11693475 0
4.5920005 1.9880607 0.11666057 0
4.5970001 1.9829161 0.11631787 0
4.6020002 1.9777539 0.11597511 0
4.6070004 1.9725733 0.11563239 0
4.6120005 1.9673746 0.11528966 0
4.6170001 1.962158 0.11494696 0
4.6220002 1.9569232 0.11460423 0
4.6260004 1.9511981 0.11433005 0
4.6310005 1.9459293 0.11398733 0
4.6360002 1.9406421 0.11364463 0
4.6410003 1.9353373 0.1133019 0
4.6460004 1.9300141 0.11295918 0
4.6510005 1.9246732 0.11261645 0
4.6560001 1.9193139 0.11227372 0
4.6610003 1.9139369 0.111931 0
4.6660004 1.9085417 0.11158824 0
4.6710005 1.9031285 0.11124551 0
4.6760001 1.8976971 0.11090282 0
4.6810002 1.8922478 0.11056009 0
4.6860003 1.8867806 0.11021736 0
4.6910005 1.8812952 0.10987464 0
4.6960001 1.8757915 0.10953194 0
4.7010002 1.8702703 0.10918921 0
4.7060003 1.8647307 0.10884649 0
4.7120004 1.8596152 0.10843518 0
4.7170005 1.854038 0.10809246 0
4.7220001 1.8484422 0.10774976 0
4.7270002 1.8428289 0.10740703 0
4.7320004 1.8371975 0.10706431 0
4.7370005 1.8315481 0.10672158 0
4.7420001 1.8258803 0.10637888 0
4.7480001 1.8206239 0.10596761 0
4.7530003 1.8149185 0.10562488 0
4.7580004 1.809195 0.10528216 0
4.7630005 1.8034536 0.1049394 0
4.7680001 1.797694 0.1045967 0
4.7740002 1.7923367 0.10418543 0
4.7790003 1.7865393 0.10384271 0
4.7840004 1.7807238 0.10349998 0
4.7890005 1.7748904 0.10315725 0
4.7950001 1.7694517 0.10274604 0
4.8000002 1.7635803 0.10240328 0
4.8050003 1.757691 0.10206056 0
4.8110003 1.7521912 0.10164928 0
4.8160005 1.746264 0.10130656 0
4.8210001 1.7403184 0.10096386 0
4.8270001 1.7347573 0.10055259 0
4.8320003 1.7287742 0.10020986 0
4.8380003 1.7231715 0.09979856 0
4.8430004 1.7171504 0.099455833 0
4.8480005 1.7111114 0.099113107 0
4.8540001 1.7054472 0.098701894 0
4.8590002 1.6993703 0.098359138 0
4.8650002 1.6936648 0.097947866 0
4.8700004 1.6875499 0.097605139 0
4.8760004 1.681803 0.097193867 0
4.8810005 1.6756502 0.09685114 0
4.8870001 1.6698617 0.096439898 0
4.8920002 1.663671 0.096097171 0
4.8980002 1.6578411 0.095685899 0
4.9030004 1.6516126 0.095343173 0
4.9090004 1.6457412 0.094931901 0
4.9150004 1.6398482 0.094520628 0
4.9200001 1.6335618 0.094177932 0
4.9260001 1.6276274 0.093766659 0
4.9310002 1.6213032 0.093423933 0
4.9370003 1.6153272 0.093012661 0
4.9430003 1.6093296 0.092601389 0
4.9480004 1.6029477 0.092258662 0
4.9540005 1.5969086 0.09184739 0
4.9600005 1.5908477 0.091436118 0
4.9660001 1.5847652 0.091024876 0
4.9710002 1.5783058 0.090682149 0
4.9770002 1.5721819 0.090270847 0
4.9830003 1.5660363 0.089859605 0
4.9890003 1.5598692 0.089448333 0
4.9940004 1.5533322 0.089105606 0
5.0000005 1.5471234 0.088694304 0
5.0060005 1.5408932 0.088283062 0
5.0120001 1.5346409 0.08787182 0
5.0180001 1.5283674 0.087460518 0
5.0230002 1.521733 0.087117791 0
5.0290003 1.5154179 0.086706549 0
5.0350003 1.5090811 0.086295277 0
5.0410004 1.5027226 0.085883975 0
5.0470004 1.4963427 0.085472733 0
5.0530005 1.489941 0.085061461 0
5.0590005 1.4835175 0.084650159 0
5.0650005 1.4770726 0.084238917 0
5.0710001 1.4706059 0.083827674 0
5.0770001 1.4641175 0.083416402 0
5.0830002 1.4576076 0.08300513 0
5.0890002 1.451076 0.082593858 0
5.0950003 1.4445227 0.082182586 0
5.1010003 1.437948 0.081771344 0
5.1070004 1.4313514 0.081360042 0
5.1130004 1.4247333 0.08094877 0
5.1190004 1.4180934 0.080537528 0
5.1250005 1.4114319 0.080126226 0
5.1320004 1.4050555 0.079646438 0
5.1380005 1.3983489 0.079235137 0
4.3640003 2.2349446 0.12513846 0
4.369 2.2306621 0.12478673 0
4.3730001 2.22579 0.12450534 0
4.3770003 2.2209036 0.12422395 0
4.382 2.2165709 0.12387222 0
4.3860002 2.2116537 0.1235908 0
4.3900003 2.206722 0.1233094 0
4.395 2.2023387 0.12295768 0
4.3990002 2.1973763 0.12267628 0
4.4030004 2.1923997 0.12239489 0
4.4080005 2.1879661 0.12204313 0
4.4120002 2.1829586 0.12176177 0
4.4170003 2.1784906 0.12141001 0
4.4210005 2.1734526 0.12112859 0
4.4260001 2.1689503 0.12077686 0
4.4300003 2.1638815 0.12049547 0
4.4350004 2.1593451 0.12014374 0
4.4390001 2.1542454 0.11986235 0
4.4430003 2.149132 0.11958095 0
4.4480004 2.1445448 0.1192292 0
4.4520001 2.1394 0.11894783 0
4.4570003 2.134779 0.11859608 0
4.4620004 2.1301396 0.11824432 0
4.4660001 2.124948 0.11796293 0
4.4710002 2.1202745 0.1176112 0
4.4750004 2.1150525 0.11732978 0
4.4800005 2.1103444 0.11697805 0
4.4840002 2.1050918 0.11669666 0
4.4890003 2.1003497 0.1163449 0
4.4930005 2.0950663 0.11606351 0
4.4980001 2.0902896 0.11571178 0
4.5030003 2.0854952 0.11536002 0
4.5070004 2.0801651 0.11507863 0
4.5120001 2.075336 0.11472693 0
4.5170002 2.0704892 0.11437517 0
4.5210004 2.0651124 0.11409375 0
4.5260005 2.0602312 0.11374199 0
4.5310001 2.0553319 0.11339027 0
4.5350003 2.0499079 0.11310887 0
4.5400004 2.0449746 0.11275715 0
4.5450001 2.0400229 0.11240542 0
4.5490003 2.0345521 0.112124 0
4.5540004 2.0295665 0.11177224 0
4.5590005 2.0245628 0.11142048 0
4.5640001 2.0195405 0.11106879 0
4.5680003 2.0140069 0.11078739 0
4.5730004 2.0089507 0.11043563 0
4.5780001 2.0038764 0.11008391 0
4.5830002 1.9987843 0.10973215 0
4.5880003 1.993674 0.10938042 0
4.5920005 1.9880607 0.109099 0
4.5970001 1.9829161 0.10874727 0
4.6020002 1.9777539 0.10839552 0
4.6070004 1.9725733 0.10804379 0
4.6120005 1.9673746 0.10769203 0
4.6170001 1.962158 0.10734031 0
4.6220002 1.9569232 0.10698855 0
4.6260004 1.9511981 0.10670716 0
4.6310005 1.9459293 0.1063554 0
4.6360002 1.9406421 0.10600367 0
4.6410003 1.9353373 0.10565194 0
4.6460004 1.9300141 0.10530019 0
4.6510005 1.9246732 0.10494843 0
4.6560001 1.9193139 0.1045967 0
4.6610003 1.9139369 0.10424498 0
4.6660004 1.9085417 0.10389322 0
4.6710005 1.9031285 0.10354146 0
4.6760001 1.8976971 0.10318974 0
4.6810002 1.8922478 0.10283801 0
4.6860003 1.8867806 0.10248625 0
4.6910005 1.8812952 0.1021345 0
4.6960001 1.8757915 0.10178277 0
4.7010002 1.8702703 0.10143104 0
4.7060003 1.8647307 0.10107929 0
4.7120004 1.8596152 0.10065717 0
4.7170005 1.854038 0.10030544 0
4.7220001 1.8484422 0.099953711 0
4.7270002 1.8428289 0.099601954 0
4.7320004 1.8371975 0.099250197 0
4.7370005 1.8315481 0.098898441 0
4.7420001 1.8258803 0.098546743 0
4.7480001 1.8206239 0.098124653 0
4.7530003 1.8149185 0.097772896 0
4.7580004 1.809195 0.097421169 0
4.7630005 1.8034536 0.097069412 0
4.7680001 1.797694 0.096717685 0
4.7740002 1.7923367 0.096295595 0
4.7790003 1.7865393 0.095943838 0
4.7840004 1.7807238 0.095592082 0
4.7890005 1.7748904 0.095240325 0
4.7950001 1.7694517 0.094818294 0
4.8000002 1.7635803 0.094466537 0
4.8050003 1.757691 0.09411478 0
4.8110003 1.7521912 0.09369269 0
4.8160005 1.746264 0.093340933 0
4.8210001 1.7403184 0.092989206 0
4.8270001 1.7347573 0.092567116 0
4.8320003 1.7287742 0.092215359 0
4.8380003 1.7231715 0.091793299 0
4.8430004 1.7171504 0.091441542 0
4.8480005 1.7111114 0.091089785 0
4.8540001 1.7054472 0.090667725 0
4.8590002 1.6993703 0.090315968 0
4.8650002 1.6936648 0.089893878 0
4.8700004 1.6875499 0.089542121 0
4.8760004 1.681803 0.08912003 0
4.8810005 1.6756502 0.088768274 0
4.8870001 1.6698617 0.088346213 0
4.8920002 1.663671 0.087994456 0
4.8980002 1.6578411 0.087572366 0
4.9030004 1.6516126 0.087220639 0
4.9090004 1.6457412 0.086798519 0
4.9150004 1.6398482 0.086376458 0
4.9200001 1.6335618 0.086024702 0
4.9260001 1.6276274 0.085602611 0
4.9310002 1.6213032 0.085250884 0
4.9370003 1.6153272 0.084828764 0
4.9430003 1.6093296 0.084406704 0
4.9480004 1.6029477 0.084054947 0
4.9540005 1.5969086 0.083632827 0
4.9600005 1.5908477 0.083210766 0
4.9660001 1.5847652 0.082788676 0
4.9710002 1.5783058 0.082436949 0
4.9770002 1.5721819 0.082014829 0
4.9830003 1.5660363 0.081592768 0
4.9890003 1.5598692 0.081170648 0
4.9940004 1.5533322 0.080818892 0
5.0000005 1.5471234 0.080396801 0
5.0060005 1.5408932 0.079974711 0
5.0120001 1.5346409 0.07955265 0
5.0180001 1.5283674 0.07913056 0
5.0230002 1.521733 0.078778803 0
5.0290003 1.5154179 0.078356713 0
5.0350003 1.5090811 0.077934623 0
5.0410004 1.5027226 0.077512532 0
5.0470004 1.4963427 0.077090412 0
5.0530005 1.489941 0.076668352 0
5.0590005 1.4835175 0.076246232 0
5.0650005 1.4770726 0.075824142 0
5.0710001 1.4706059 0.075402081 0
5.0770001 1.4641175 0.074979991 0
5.0830002 1.4576076 0.0745579 0
5.0890002 1.451076 0.07413581 0
5.0950003 1.4445227 0.07371369 0
5.1010003 1.437948 0.07329163 0
5.1070004 1.4313514 0.072869509 0
5.1130004 1.4247333 0.072447449 0
5.1190004 1.4180934 0.072025329 0
5.1250005 1.4114319 0.071603239 0
5.1320004 1.4050555 0.071110785 0
5.1380005 1.3983489 0.070688725 0
4.3640003 2.2349446 0.11798817 0
4.369 2.2306621 0.11762741 0
4.3730001 2.22579 0.11733881 0
4.3770003 2.2209036 0.11705017 0
4.382 2.2165709 0.11668944 0
4.3860002 2.2116537 0.11640081 0
4.3900003 2.206722 0.11611223 0
4.395 2.2023387 0.11575148 0
4.3990002 2.1973763 0.11546284 0
4.4030004 2.1923997 0.11517423 0
4.4080005 2.1879661 0.11481348 0
4.4120002 2.1829586 0.11452487 0
4.4170003 2.1784906 0.11416411 0
4.4210005 2.1734526 0.11387548 0
4.4260001 2.1689503 0.11351472 0
4.4300003 2.1638815 0.11322612 0
4.4350004 2.1593451 0.11286536 0
4.4390001 2.1542454 0.11257678 0
4.4430003 2.149132 0.11228815 0
4.4480004 2.1445448 0.11192736 0
4.4520001 2.1394 0.11163878 0
4.4570003 2.134779 0.11127803 0
4.4620004 2.1301396 0.11091724 0
4.4660001 2.124948 0.11062866 0
4.4710002 2.1202745 0.11026791 0
4.4750004 2.1150525 0.10997927 0
4.4800005 2.1103444 0.10961851 0
4.4840002 2.1050918 0.10932991 0
4.4890003 2.1003497 0.10896912 0
4.4930005 2.0950663 0.10868052 0
4.4980001 2.0902896 0.10831979 0
4.5030003 2.0854952 0.107959 0
4.5070004 2.0801651 0.1076704 0
4.5120001 2.075336 0.10730967 0
4.5170002 2.0704892 0.10694888 0
4.5210004 2.0651124 0.10666025 0
4.5260005 2.0602312 0.10629949 0
4.5310001 2.0553319 0.10593873 0
4.5350003 2.0499079 0.10565013 0
4.5400004 2.0449746 0.10528937 0
4.5450001 2.0400229 0.10492861 0
4.5490003 2.0345521 0.10464001 0
4.5540004 2.0295665 0.10427925 0
4.5590005 2.0245628 0.10391846 0
4.5640001 2.0195405 0.10355774 0
4.5680003 2.0140069 0.10326913 0
4.5730004 2.0089507 0.10290834 0
4.5780001 2.0038764 0.10254762 0
4.5830002 1.9987843 0.10218683 0
4.5880003 1.993674 0.10182607 0
4.5920005 1.9880607 0.10153744 0
4.5970001 1.9829161 0.10117668 0
4.6020002 1.9777539 0.10081595 0
4.6070004 1.9725733 0.10045516 0
4.6120005 1.9673746 0.10009441 0
4.6170001 1.962158 0.09973368 0
4.6220002 1.9569232 0.099372894 0
4.6260004 1.9511981 0.099084258 0
4.6310005 1.9459293 0.098723471 0
4.6360002 1.9406421 0.098362744 0
4.6410003 1.9353373 0.098001987 0
4.6460004 1.9300141 0.09764123 0
4.6510005 1.9246732 0.097280473 0
4.6560001 1.9193139 0.096919715 0
4.6610003 1.9139369 0.096558958 0
4.6660004 1.9085417 0.096198171 0
4.6710005 1.9031285 0.095837414 0
4.6760001 1.8976971 0.095476657 0
4.6810002 1.8922478 0.0951159 0
4.6860003 1.8867806 0.094755143 0
4.6910005 1.8812952 0.094394356 0
4.6960001 1.8757915 0.094033629 0
4.7010002 1.8702703 0.093672842 0
4.7060003 1.8647307 0.093312085 0
4.7120004 1.8596152 0.092879176 0
4.7170005 1.854038 0.092518389 0
4.7220001 1.8484422 0.092157662 0
4.7270002 1.8428289 0.091796905 0
4.7320004 1.8371975 0.091436118 0
4.7370005 1.8315481 0.091075361 0
4.7420001 1.8258803 0.090714633 0
4.7480001 1.8206239 0.090281695 0
4.7530003 1.8149185 0.089920908 0
4.7580004 1.809195 0.089560151 0
4.7630005 1.8034536 0.089199394 0
4.7680001 1.797694 0.088838667 0
4.7740002 1.7923367 0.088405728 0
4.7790003 1.7865393 0.088044971 0
4.7840004 1.7807238 0.087684184 0
4.7890005 1.7748904 0.087323427 0
4.7950001 1.7694517 0.086890548 0
4.8000002 1.7635803 0.086529791 0
4.8050003 1.757691 0.086169004 0
4.8110003 1.7521912 0.085736096 0
4.8160005 1.746264 0.085375309 0
4.8210001 1.7403184 0.085014582 0
4.8270001 1.7347573 0.084581673 0
4.8320003 1.7287742 0.084220916 0
4.8380003 1.7231715 0.083787978 0
4.8430004 1.7171504 0.083427191 0
4.8480005 1.7111114 0.083066434 0
4.8540001 1.7054472 0.082633555 0
4.8590002 1.6993703 0.082272798 0
4.8650002 1.6936648 0.081839859 0
4.8700004 1.6875499 0.081479073 0
4.8760004 1.681803 0.081046194 0
4.8810005 1.6756502 0.080685407 0
4.8870001 1.6698617 0.080252528 0
4.8920002 1.663671 0.079891741 0
4.8980002 1.6578411 0.079458833 0
4.9030004 1.6516126 0.079098076 0
4.9090004 1.6457412 0.078665137 0
4.9150004 1.6398482 0.078232259 0
4.9200001 1.6335618 0.077871501 0
4.9260001 1.6276274 0.077438563 0
4.9310002 1.6213032 0.077077806 0
4.9370003 1.6153272 0.076644897 0
4.9430003 1.6093296 0.076211989 0
4.9480004 1.6029477 0.075851202 0
4.9540005 1.5969086 0.075418293 0
4.9600005 1.5908477 0.074985355 0
4.9660001 1.5847652 0.074552506 0
4.9710002 1.5783058 0.074191749 0
4.9770002 1.5721819 0.073758811 0
4.9830003 1.5660363 0.073325902 0
4.9890003 1.5598692 0.072892964 0
4.9940004 1.5533322 0.072532207 0
5.0000005 1.5471234 0.072099298 0
5.0060005 1.5408932 0.07166636 0
5.0120001 1.5346409 0.071233481 0
5.0180001 1.5283674 0.070800573 0
5.0230002 1.521733 0.070439786 0
5.0290003 1.5154179 0.070006877 0
5.0350003 1.5090811 0.069573969 0
5.0410004 1.5027226 0.06914103 0
5.0470004 1.4963427 0.068708152 0
5.0530005 1.489941 0.068275213 0
5.0590005 1.4835175 0.067842305 0
5.0650005 1.4770726 0.067409366 0
5.0710001 1.4706059 0.066976517 0
5.0770001 1.4641175 0.066543579 0
5.0830002 1.4576076 0.066110671 0
5.0890002 1.451076 0.065677762 0
5.0950003 1.4445227 0.065244824 0
5.1010003 1.437948 0.064811915 0
5.1070004 1.4313514 0.064378977 0
5.1130004 1.4247333 0.063946068 0
5.1190004 1.4180934 0.06351316 0
5.1250005 1.4114319 0.063080251 0
5.1320004 1.4050555 0.062575191 0
5.1380005 1.3983489 0.062142253 0
4.3640003 2.2349446 0.11083791 0
4.369 2.2306621 0.11046812 0
4.3730001 2.22579 0.11017227 0
4.3770003 2.2209036 0.10987645 0
4.382 2.2165709 0.10950667 0
4.3860002 2.2116537 0.10921085 0
4.3900003 2.206722 0.10891503 0
4.395 2.2023387 0.10854527 0
4.3990002 2.1973763 0.10824943 0
4.4030004 2.1923997 0.10795358 0
4.4080005 2.1879661 0.10758379 0
4.4120002 2.1829586 0.107288 0
4.4170003 2.1784906 0.10691822 0
4.4210005 2.1734526 0.10662237 0
4.4260001 2.1689503 0.10625264 0
4.4300003 2.1638815 0.10595676 0
4.4350004 2.1593451 0.10558698 0
4.4390001 2.1542454 0.10529119 0
4.4430003 2.149132 0.10499534 0
4.4480004 2.1445448 0.10462555 0
4.4520001 2.1394 0.10432976 0
4.4570003 2.134779 0.10395998 0
4.4620004 2.1301396 0.10359019 0
4.4660001 2.124948 0.10329437 0
4.4710002 2.1202745 0.10292459 0
4.4750004 2.1150525 0.10262874 0
4.4800005 2.1103444 0.10225895 0
4.4840002 2.1050918 0.10196316 0
4.4890003 2.1003497 0.10159338 0
4.4930005 2.0950663 0.10129753 0
4.4980001 2.0902896 0.10092777 0
4.5030003 2.0854952 0.10055798 0
4.5070004 2.0801651 0.10026217 0
4.5120001 2.075336 0.099892408 0
4.5170002 2.0704892 0.09952262 0
4.5210004 2.0651124 0.099226773 0
4.5260005 2.0602312 0.098856986 0
4.5310001 2.0553319 0.098487228 0
4.5350003 2.0499079 0.098191381 0
4.5400004 2.0449746 0.097821593 0
4.5450001 2.0400229 0.097451866 0
4.5490003 2.0345521 0.097155988 0
4.5540004 2.0295665 0.096786201 0
4.5590005 2.0245628 0.096416444 0
4.5640001 2.0195405 0.096046686 0
4.5680003 2.0140069 0.095750809 0
4.5730004 2.0089507 0.095381021 0
4.5780001 2.0038764 0.095011264 0
4.5830002 1.9987843 0.094641507 0
4.5880003 1.993674 0.094271719 0
4.5920005 1.9880607 0.093975872 0
4.5970001 1.9829161 0.093606114 0
4.6020002 1.9777539 0.093236327 0
4.6070004 1.9725733 0.09286654 0
4.6120005 1.9673746 0.092496753 0
4.6170001 1.962158 0.092126995 0
4.6220002 1.9569232 0.091757208 0
4.6260004 1.9511981 0.09146139 0
4.6310005 1.9459293 0.091091573 0
4.6360002 1.9406421 0.090721846 0
4.6410003 1.9353373 0.090352029 0
4.6460004 1.9300141 0.089982241 0
4.6510005 1.9246732 0.089612454 0
4.6560001 1.9193139 0.089242697 0
4.6610003 1.9139369 0.08887291 0
4.6660004 1.9085417 0.088503122 0
4.6710005 1.9031285 0.088133335 0
4.6760001 1.8976971 0.087763608 0
4.6810002 1.8922478 0.08739379 0
4.6860003 1.8867806 0.087024003 0
4.6910005 1.8812952 0.086654216 0
4.6960001 1.8757915 0.086284459 0
4.7010002 1.8702703 0.085914671 0
4.7060003 1.8647307 0.085544884 0
4.7120004 1.8596152 0.085101157 0
4.7170005 1.854038 0.08473137 0
4.7220001 1.8484422 0.084361613 0
4.7270002 1.8428289 0.083991796 0
4.7320004 1.8371975 0.083622009 0
4.7370005 1.8315481 0.083252221 0
4.7420001 1.8258803 0.082882464 0
4.7480001 1.8206239 0.082438737 0
4.7530003 1.8149185 0.08206895 0
4.7580004 1.809195 0.081699163 0
4.7630005 1.8034536 0.081329376 0
4.7680001 1.797694 0.080959618 0
4.7740002 1.7923367 0.080515891 0
4.7790003 1.7865393 0.080146104 0
4.7840004 1.7807238 0.079776287 0
4.7890005 1.7748904 0.0794065 0
4.7950001 1.7694517 0.078962833 0
4.8000002 1.7635803 0.078593016 0
4.8050003 1.757691 0.078223228 0
4.8110003 1.7521912 0.077779472 0
4.8160005 1.746264 0.077409685 0
4.8210001 1.7403184 0.077039957 0
4.8270001 1.7347573 0.0765962 0
4.8320003 1.7287742 0.076226413 0
4.8380003 1.7231715 0.075782686 0
4.8430004 1.7171504 0.075412899 0
4.8480005 1.7111114 0.075043112 0
4.8540001 1.7054472 0.074599385 0
4.8590002 1.6993703 0.074229598 0
4.8650002 1.6936648 0.073785871 0
4.8700004 1.6875499 0.073416084 0
4.8760004 1.681803 0.072972357 0
4.8810005 1.6756502 0.07260254 0
4.8870001 1.6698617 0.072158843 0
4.8920002 1.663671 0.071789056 0
4.8980002 1.6578411 0.071345329 0
4.9030004 1.6516126 0.070975512 0
4.9090004 1.6457412 0.070531785 0
4.9150004 1.6398482 0.070088029 0
4.9200001 1.6335618 0.069718301 0
4.9260001 1.6276274 0.069274575 0
4.9310002 1.6213032 0.068904757 0
4.9370003 1.6153272 0.068461001 0
4.9430003 1.6093296 0.068017274 0
4.9480004 1.6029477 0.067647487 0
4.9540005 1.5969086 0.06720373 0
4.9600005 1.5908477 0.066760004 0
4.9660001 1.5847652 0.066316307 0
4.9710002 1.5783058 0.065946519 0
4.9770002 1.5721819 0.065502763 0
4.9830003 1.5660363 0.065059036 0
4.9890003 1.5598692 0.064615309 0
4.9940004 1.5533322 0.064245492 0
5.0000005 1.5471234 0.063801765 0
5.0060005 1.5408932 0.063358009 0
5.0120001 1.5346409 0.062914342 0
5.0180001 1.5283674 0.062470585 0
5.0230002 1.521733 0.062100798 0
5.0290003 1.5154179 0.061657071 0
5.0350003 1.5090811 0.061213315 0
5.0410004 1.5027226 0.060769588 0
5.0470004 1.4963427 0.060325831 0
5.0530005 1.489941 0.059882104 0
5.0590005 1.4835175 0.059438378 0
5.0650005 1.4770726 0.058994621 0
5.0710001 1.4706059 0.058550894 0
5.0770001 1.4641175 0.058107167 0
5.0830002 1.4576076 0.057663441 0
5.0890002 1.451076 0.057219684 0
5.0950003 1.4445227 0.056775957 0
5.1010003 1.437948 0.056332201 0
5.1070004 1.4313514 0.055888474 0
5.1130004 1.4247333 0.055444717 0
5.1190004 1.4180934 0.055000991 0
5.1250005 1.4114319 0.054557234 0
5.1320004 1.4050555 0.054039568 0
5.1380005 1.3983489 0.053595841 0
4.3640003 2.2349446 0.10368758 0
4.369 2.2306621 0.1033088 0
4.3730001 2.22579 0.10300574 0
4.3770003 2.2209036 0.10270271 0
4.382 2.2165709 0.10232392 0
4.3860002 2.2116537 0.10202086 0
4.3900003 2.206722 0.1017178 0
4.395 2.2023387 0.10133904 0
4.3990002 2.1973763 0.10103598 0
4.4030004 2.1923997 0.10073295 0
4.4080005 2.1879661 0.10035414 0
4.4120002 2.1829586 0.10005113 0
4.4170003 2.1784906 0.099672318 0
4.4210005 2.1734526 0.099369258 0
4.4260001 2.1689503 0.0989905 0
4.4300003 2.1638815 0.09868744 0
4.4350004 2.1593451 0.098308623 0
4.4390001 2.1542454 0.098005593 0
4.4430003 2.149132 0.097702533 0
4.4480004 2.1445448 0.097323716 0
4.4520001 2.1394 0.097020715 0
4.4570003 2.134779 0.096641898 0
4.4620004 2.1301396 0.096263111 0
4.4660001 2.124948 0.095960081 0
4.4710002 2.1202745 0.095581263 0
4.4750004 2.1150525 0.095278233 0
4.4800005 2.1103444 0.094899416 0
4.4840002 2.1050918 0.094596416 0
4.4890003 2.1003497 0.094217598 0
4.4930005 2.0950663 0.093914539 0
4.4980001 2.0902896 0.093535781 0
4.5030003 2.0854952 0.093156964 0
4.5070004 2.0801651 0.092853904 0
4.5120001 2.075336 0.092475146 0
4.5170002 2.0704892 0.092096329 0
4.5210004 2.0651124 0.091793269 0
4.5260005 2.0602312 0.091414452 0
4.5310001 2.0553319 0.091035694 0
4.5350003 2.0499079 0.090732634 0
4.5400004 2.0449746 0.090353817 0
4.5450001 2.0400229 0.089975059 0
4.5490003 2.0345521 0.089671999 0
4.5540004 2.0295665 0.089293182 0
4.5590005 2.0245628 0.088914394 0
4.5640001 2.0195405 0.088535607 0
4.5680003 2.0140069 0.088232547 0
4.5730004 2.0089507 0.08785373 0
4.5780001 2.0038764 0.087474972 0
4.5830002 1.9987843 0.087096155 0
4.5880003 1.993674 0.086717367 0
4.5920005 1.9880607 0.086414307 0
4.5970001 1.9829161 0.08603552 0
4.6020002 1.9777539 0.085656732 0
4.6070004 1.9725733 0.085277915 0
4.6120005 1.9673746 0.084899098 0
4.6170001 1.962158 0.08452034 0
4.6220002 1.9569232 0.084141523 0
4.6260004 1.9511981 0.083838463 0
4.6310005 1.9459293 0.083459675 0
4.6360002 1.9406421 0.083080888 0
4.6410003 1.9353373 0.08270207 0
4.6460004 1.9300141 0.082323283 0
4.6510005 1.9246732 0.081944466 0
4.6560001 1.9193139 0.081565708 0
4.6610003 1.9139369 0.081186891 0
4.6660004 1.9085417 0.080808073 0
4.6710005 1.9031285 0.080429256 0
4.6760001 1.8976971 0.080050498 0
4.6810002 1.8922478 0.079671711 0
4.6860003 1.8867806 0.079292893 0
4.6910005 1.8812952 0.078914076 0
4.6960001 1.8757915 0.078535289 0
4.7010002 1.8702703 0.078156501 0
4.7060003 1.8647307 0.077777684 0
4.7120004 1.8596152 0.077323139 0
4.7170005 1.854038 0.076944321 0
4.7220001 1.8484422 0.076565534 0
4.7270002 1.8428289 0.076186717 0
4.7320004 1.8371975 0.075807929 0
4.7370005 1.8315481 0.075429112 0
4.7420001 1.8258803 0.075050354 0
4.7480001 1.8206239 0.074595779 0
4.7530003 1.8149185 0.074216992 0
4.7580004 1.809195 0.073838174 0
4.7630005 1.8034536 0.073459357 0
4.7680001 1.797694 0.073080599 0
4.7740002 1.7923367 0.072626024 0
4.7790003 1.7865393 0.072247207 0
4.7840004 1.7807238 0.07186842 0
4.7890005 1.7748904 0.071489602 0
4.7950001 1.7694517 0.071035087 0
4.8000002 1.7635803 0.07065627 0
4.8050003 1.757691 0.070277452 0
4.8110003 1.7521912 0.069822907 0
4.8160005 1.746264 0.06944409 0
4.8210001 1.7403184 0.069065303 0
4.8270001 1.7347573 0.068610728 0
4.8320003 1.7287742 0.06823194 0
4.8380003 1.7231715 0.067777365 0
4.8430004 1.7171504 0.067398548 0
4.8480005 1.7111114 0.067019761 0
4.8540001 1.7054472 0.066565245 0
4.8590002 1.6993703 0.066186428 0
4.8650002 1.6936648 0.065731883 0
4.8700004 1.6875499 0.065353066 0
4.8760004 1.681803 0.064898491 0
4.8810005 1.6756502 0.064519703 0
4.8870001 1.6698617 0.064065158 0
4.8920002 1.663671 0.063686341 0
4.8980002 1.6578411 0.063231796 0
4.9030004 1.6516126 0.062852979 0
4.9090004 1.6457412 0.062398434 0
4.9150004 1.6398482 0.061943829 0
4.9200001 1.6335618 0.061565071 0
4.9260001 1.6276274 0.061110526 0
4.9310002 1.6213032 0.060731709 0
4.9370003 1.6153272 0.060277164 0
4.9430003 1.6093296 0.059822559 0
4.9480004 1.6029477 0.059443772 0
4.9540005 1.5969086 0.058989197 0
4.9600005 1.5908477 0.058534652 0
4.9660001 1.5847652 0.058080107 0
4.9710002 1.5783058 0.05770129 0
4.9770002 1.5721819 0.057246745 0
4.9830003 1.5660363 0.0567922 0
4.9890003 1.5598692 0.056337625 0
4.9940004 1.5533322 0.055958807 0
5.0000005 1.5471234 0.055504262 0
5.0060005 1.5408932 0.055049688 0
5.0120001 1.5346409 0.054595172 0
5.0180001 1.5283674 0.054140627 0
5.0230002 1.521733 0.05376181 0
5.0290003 1.5154179 0.053307205 0
5.0350003 1.5090811 0.05285266 0
5.0410004 1.5027226 0.052398086 0
5.0470004 1.4963427 0.051943541 0
5.0530005 1.489941 0.051488996 0
5.0590005 1.4835175 0.051034421 0
5.0650005 1.4770726 0.050579846 0
5.0710001 1.4706059 0.050125301 0
4.3640003 2.2349446 0.096537292 0
4.369 2.2306621 0.096149474 0
4.3730001 2.22579 0.095839202 0
4.3770003 2.2209036 0.09552896 0
4.382 2.2165709 0.095141172 0
4.3860002 2.2116537 0.0948309 0
4.3900003 2.206722 0.094520628 0
4.395 2.2023387 0.094132811 0
4.3990002 2.1973763 0.093822569 0
4.4030004 2.1923997 0.093512297 0
4.4080005 2.1879661 0.093124479 0
4.4120002 2.1829586 0.092814237 0
4.4170003 2.1784906 0.092426419 0
4.4210005 2.1734526 0.092116147 0
4.4260001 2.1689503 0.091728359 0
4.4300003 2.1638815 0.091418087 0
4.4350004 2.1593451 0.09103024 0
4.4390001 2.1542454 0.090720028 0
4.4430003 2.149132 0.090409756 0
4.4480004 2.1445448 0.090021938 0
4.4520001 2.1394 0.089711696 0
4.4570003 2.134779 0.089323878 0
4.4620004 2.1301396 0.088936031 0
4.4660001 2.124948 0.088625818 0
4.4710002 2.1202745 0.088237971 0
4.4750004 2.1150525 0.087927729 0
4.4800005 2.1103444 0.087539881 0
4.4840002 2.1050918 0.087229669 0
4.4890003 2.1003497 0.086841822 0
4.4930005 2.0950663 0.08653155 0
4.4980001 2.0902896 0.086143762 0
4.5030003 2.0854952 0.085755944 0
4.5070004 2.0801651 0.085445672 0
4.5120001 2.075336 0.085057884 0
4.5170002 2.0704892 0.084670037 0
4.5210004 2.0651124 0.084359765 0
4.5260005 2.0602312 0.083971947 0
4.5310001 2.0553319 0.08358416 0
4.5350003 2.0499079 0.083273888 0
4.5400004 2.0449746 0.08288604 0
4.5450001 2.0400229 0.082498282 0
4.5490003 2.0345521 0.08218798 0
4.5540004 2.0295665 0.081800193 0
4.5590005 2.0245628 0.081412345 0
4.5640001 2.0195405 0.081024557 0
4.5680003 2.0140069 0.080714285 0
4.5730004 2.0089507 0.080326468 0
4.5780001 2.0038764 0.07993868 0
4.5830002 1.9987843 0.079550833 0
4.5880003 1.993674 0.079163015 0
4.5920005 1.9880607 0.078852743 0
4.5970001 1.9829161 0.078464925 0
4.6020002 1.9777539 0.078077137 0
4.6070004 1.9725733 0.07768929 0
4.6120005 1.9673746 0.077301472 0
4.6170001 1.962158 0.076913685 0
4.6220002 1.9569232 0.076525837 0
4.6260004 1.9511981 0.076215565 0
4.6310005 1.9459293 0.075827748 0
4.6360002 1.9406421 0.07543996 0
4.6410003 1.9353373 0.075052142 0
4.6460004 1.9300141 0.074664295 0
4.6510005 1.9246732 0.074276477 0
4.6560001 1.9193139 0.073888689 0
4.6610003 1.9139369 0.073500872 0
4.6660004 1.9085417 0.073113024 0
4.6710005 1.9031285 0.072725207 0
4.6760001 1.8976971 0.072337419 0
4.6810002 1.8922478 0.071949571 0
4.6860003 1.8867806 0.071561784 0
4.6910005 1.8812952 0.071173936 0
4.6960001 1.8757915 0.070786148 0
4.7010002 1.8702703 0.070398301 0
4.7060003 1.8647307 0.070010483 0
4.7120004 1.8596152 0.06954509 0
4.7170005 1.854038 0.069157273 0
4.7220001 1.8484422 0.068769485 0
4.7270002 1.8428289 0.068381667 0
4.7320004 1.8371975 0.06799382 0
4.7370005 1.8315481 0.067606002 0
4.7420001 1.8258803 0.067218214 0
4.7480001 1.8206239 0.066752821 0
4.7530003 1.8149185 0.066365004 0
4.7580004 1.809195 0.065977156 0
4.7630005 1.8034536 0.065589339 0
4.7680001 1.797694 0.065201551 0
4.7740002 1.7923367 0.064736158 0
4.7790003 1.7865393 0.06434834 0
4.7840004 1.7807238 0.063960522 0
4.7890005 1.7748904 0.063572675 0
4.7950001 1.7694517 0.063107342 0
4.8000002 1.7635803 0.062719524 0
4.8050003 1.757691 0.062331676 0
4.8110003 1.7521912 0.061866313 0
4.8160005 1.746264 0.061478466 0
4.8210001 1.7403184 0.061090678 0
4.8270001 1.7347573 0.060625285 0
4.8320003 1.7287742 0.060237467 0
4.8380003 1.7231715 0.059772074 0
4.8430004 1.7171504 0.059384257 0
4.8480005 1.7111114 0.058996409 0
4.8540001 1.7054472 0.058531076 0
4.8590002 1.6993703 0.058143258 0
4.8650002 1.6936648 0.057677865 0
4.8700004 1.6875499 0.057290047 0
4.8760004 1.681803 0.056824625 0
4.8810005 1.6756502 0.056436837 0
4.8870001 1.6698617 0.055971473 0
4.8920002 1.663671 0.055583626 0
4.8980002 1.6578411 0.055118263 0
4.9030004 1.6516126 0.054730415 0
4.9090004 1.6457412 0.054265052 0
4.9150004 1.6398482 0.053799659 0
4.9200001 1.6335618 0.053411871 0
4.9260001 1.6276274 0.052946478 0
4.9310002 1.6213032 0.052558661 0
4.9370003 1.6153272 0.052093267 0
4.9430003 1.6093296 0.051627874 0
4.9480004 1.6029477 0.051240057 0
4.9540005 1.5969086 0.050774664 0
4.9600005 1.5908477 0.050309271 0
4.3640003 2.2349446 0.08938697 0
4.369 2.2306621 0.088990182 0
4.3730001 2.22579 0.088672698 0
4.3770003 2.2209036 0.088355213 0
4.382 2.2165709 0.087958395 0
4.3860002 2.2116537 0.087640882 0
4.3900003 2.206722 0.087323427 0
4.395 2.2023387 0.086926609 0
4.3990002 2.1973763 0.086609125 0
4.4030004 2.1923997 0.086291641 0
4.4080005 2.1879661 0.085894793 0
4.4120002 2.1829586 0.085577369 0
4.4170003 2.1784906 0.085180491 0
4.4210005 2.1734526 0.084863037 0
4.4260001 2.1689503 0.084466219 0
4.4300003 2.1638815 0.084148735 0
4.4350004 2.1593451 0.083751887 0
4.4390001 2.1542454 0.083434433 0
4.4430003 2.149132 0.083116949 0
4.4480004 2.1445448 0.082720101 0
4.4520001 2.1394 0.082402676 0
4.4570003 2.134779 0.082005799 0
4.4620004 2.1301396 0.081608981 0
4.4660001 2.124948 0.081291527 0
4.4710002 2.1202745 0.080894679 0
4.4750004 2.1150525 0.080577195 0
4.4800005 2.1103444 0.080180347 0
4.4840002 2.1050918 0.079862893 0
4.4890003 2.1003497 0.079466045 0
4.4930005 2.0950663 0.079148591 0
4.4980001 2.0902896 0.078751773 0
4.5030003 2.0854952 0.078354895 0
4.5070004 2.0801651 0.078037441 0
4.5120001 2.075336 0.077640623 0
4.5170002 2.0704892 0.077243745 0
4.5210004 2.0651124 0.076926291 0
4.5260005 2.0602312 0.076529443 0
4.5310001 2.0553319 0.076132625 0
4.5350003 2.0499079 0.075815141 0
4.5400004 2.0449746 0.075418293 0
4.5450001 2.0400229 0.075021476 0
4.5490003 2.0345521 0.074704021 0
4.5540004 2.0295665 0.074307144 0
4.5590005 2.0245628 0.073910296 0
4.5640001 2.0195405 0.073513508 0
4.5680003 2.0140069 0.073195994 0
4.5730004 2.0089507 0.072799176 0
4.5780001 2.0038764 0.072402358 0
4.5830002 1.9987843 0.07200551 0
4.5880003 1.993674 0.071608663 0
4.5920005 1.9880607 0.071291178 0
4.5970001 1.9829161 0.070894361 0
4.6020002 1.9777539 0.070497543 0
4.6070004 1.9725733 0.070100665 0
4.6120005 1.9673746 0.069703817 0
4.6170001 1.962158 0.069306999 0
4.6220002 1.9569232 0.068910182 0
4.6260004 1.9511981 0.068592697 0
4.6310005 1.9459293 0.06819585 0
4.6360002 1.9406421 0.067799032 0
4.6410003 1.9353373 0.067402184 0
4.6460004 1.9300141 0.067005366 0
4.6510005 1.9246732 0.066608489 0
4.6560001 1.9193139 0.066211671 0
4.6610003 1.9139369 0.065814823 0
4.6660004 1.9085417 0.065418005 0
4.6710005 1.9031285 0.065021157 0
4.6760001 1.8976971 0.064624339 0
4.6810002 1.8922478 0.064227462 0
4.6860003 1.8867806 0.063830644 0
4.6910005 1.8812952 0.063433796 0
4.6960001 1.8757915 0.063036978 0
4.7010002 1.8702703 0.062640131 0
4.7060003 1.8647307 0.062243313 0
4.7120004 1.8596152 0.061767071 0
4.7170005 1.854038 0.061370254 0
4.7220001 1.8484422 0.060973436 0
4.7270002 1.8428289 0.060576588 0
4.7320004 1.8371975 0.06017971 0
4.7370005 1.8315481 0.059782892 0
4.7420001 1.8258803 0.059386075 0
4.7480001 1.8206239 0.058909863 0
4.7530003 1.8149185 0.058513016 0
4.7580004 1.809195 0.058116168 0
4.7630005 1.8034536 0.05771932 0
4.7680001 1.797694 0.057322502 0
4.7740002 1.7923367 0.056846291 0
4.7790003 1.7865393 0.056449443 0
4.7840004 1.7807238 0.056052625 0
4.7890005 1.7748904 0.055655777 0
4.7950001 1.7694517 0.055179596 0
4.8000002 1.7635803 0.054782748 0
4.8050003 1.757691 0.0543859 0
4.8110003 1.7521912 0.053909689 0
4.8160005 1.746264 0.053512841 0
4.8210001 1.7403184 0.053116024 0
4.8270001 1.7347573 0.052639842 0
4.8320003 1.7287742 0.052242965 0
4.8380003 1.7231715 0.051766783 0
4.8430004 1.7171504 0.051369905 0
4.8480005 1.7111114 0.050973088 0
4.8540001 1.7054472 0.050496906 0
4.8590002 1.6993703 0.050100058 0
4.3640003 2.2349446 0.082236707 0
4.369 2.2306621 0.081830829 0
4.3730001 2.22579 0.081506133 0
4.3770003 2.2209036 0.081181467 0
4.382 2.2165709 0.080775619 0
4.3860002 2.2116537 0.080450922 0
4.3900003 2.206722 0.080126226 0
4.395 2.2023387 0.079720378 0
4.3990002 2.1973763 0.079395711 0
4.4030004 2.1923997 0.079071015 0
4.4080005 2.1879661 0.078665137 0
4.4120002 2.1829586 0.078340471 0
4.4170003 2.1784906 0.077934623 0
4.4210005 2.1734526 0.077609897 0
4.4260001 2.1689503 0.077204108 0
4.4300003 2.1638815 0.076879382 0
4.4350004 2.1593451 0.076473534 0
4.4390001 2.1542454 0.076148868 0
4.4430003 2.149132 0.075824142 0
4.4480004 2.1445448 0.075418293 0
4.4520001 2.1394 0.075093657 0
4.4570003 2.134779 0.074687779 0
4.4620004 2.1301396 0.074281901 0
4.4660001 2.124948 0.073957235 0
4.4710002 2.1202745 0.073551357 0
4.4750004 2.1150525 0.07322666 0
4.4800005 2.1103444 0.072820812 0
4.4840002 2.1050918 0.072496146 0
4.4890003 2.1003497 0.072090298 0
4.4930005 2.0950663 0.071765602 0
4.4980001 2.0902896 0.071359754 0
4.5030003 2.0854952 0.070953876 0
4.5070004 2.0801651 0.070629179 0
4.5120001 2.075336 0.070223361 0
4.5170002 2.0704892 0.069817513 0
4.5210004 2.0651124 0.069492787 0
4.5260005 2.0602312 0.069086939 0
4.5310001 2.0553319 0.068681091 0
4.5350003 2.0499079 0.068356395 0
4.5400004 2.0449746 0.067950517 0
4.5450001 2.0400229 0.067544699 0
4.5490003 2.0345521 0.067220002 0
4.5540004 2.0295665 0.066814154 0
4.5590005 2.0245628 0.066408277 0
4.5640001 2.0195405 0.066002429 0
4.5680003 2.0140069 0.065677732 0
4.5730004 2.0089507 0.065271854 0
4.5780001 2.0038764 0.064866066 0
4.5830002 1.9987843 0.064460188 0
4.5880003 1.993674 0.06405431 0
4.5920005 1.9880607 0.063729614 0
4.5970001 1.9829161 0.063323766 0
4.6020002 1.9777539 0.062917918 0
4.6070004 1.9725733 0.06251204 0
4.6120005 1.9673746 0.062106162 0
4.6170001 1.962158 0.061700374 0
4.6220002 1.9569232 0.061294496 0
4.6260004 1.9511981 0.0609698 0
4.6310005 1.9459293 0.060563922 0
4.6360002 1.9406421 0.060158104 0
4.6410003 1.9353373 0.059752256 0
4.6460004 1.9300141 0.059346378 0
4.6510005 1.9246732 0.0589405 0
4.6560001 1.9193139 0.058534682 0
4.6610003 1.9139369 0.058128804 0
4.6660004 1.9085417 0.057722926 0
4.6710005 1.9031285 0.057317078 0
4.6760001 1.8976971 0.05691126 0
4.6810002 1.8922478 0.056505382 0
4.6860003 1.8867806 0.056099504 0
4.6910005 1.8812952 0.055693656 0
4.6960001 1.8757915 0.055287808 0
