# .PCD v0.7 - Point Cloud Data file format
VERSION 0.7
FIELDS x y z intensity
SIZE 4 4 4 4
TYPE F F F F
COUNT 1 1 1 1
WIDTH 1415
HEIGHT 1
VIEWPOINT 0 0 0 1 0 0 0
POINTS 1415
DATA ascii
2.8050003 0.52229881 0.92891729 0
2.8070002 0.51842964 0.92935371 0
2.8080003 0.51432055 0.92957211 0
2.8100002 0.51043874 0.93000853 0
2.8120003 0.50654978 0.93044508 0
2.8140001 0.50265348 0.9308815 0
2.8150003 0.49852461 0.93109989 0
2.8180003 0.49483943 0.93175471 0
2.8200002 0.49092156 0.93219113 0
2.8240001 0.48743659 0.93306422 0
2.8280003 0.4839372 0.93393719 0
2.8340001 0.4808563 0.93524683 0
2.8420002 0.47818309 0.93699288 0
2.7360003 0.78831184 0.90964353 0
2.7300003 0.78196603 0.90834475 0
2.7260003 0.77634901 0.90747905 0
2.7230003 0.77109814 0.9068296 0
2.7210002 0.76620793 0.90639675 0
2.7190001 0.761325 0.90596378 0
2.7190001 0.75714195 0.90596378 0
2.7180002 0.75261444 0.90574729 0
2.7180002 0.74843323 0.90574729 0
2.7190001 0.74459291 0.90596378 0
2.7190001 0.74040985 0.90596378 0
2.7200003 0.73656416 0.90618026 0
2.7210002 0.73271483 0.90639675 0
2.7230003 0.72919565 0.9068296 0
2.7240002 0.72533727 0.90704608 0
2.7250001 0.7214753 0.90726244 0
2.7270002 0.71793807 0.90769541 0
2.7280002 0.71406704 0.9079119 0
2.7300003 0.71051717 0.90834475 0
2.7310002 0.7066372 0.90856123 0
2.7330003 0.70307469 0.9089942 0
2.7340002 0.69918561 0.90921068 0
2.7350001 0.69529301 0.90942705 0
2.7370002 0.6917125 0.90986001 0
2.7380002 0.68781084 0.91007638 0
2.7400002 0.68421769 0.91050935 0
2.7410002 0.68030697 0.91072583 0
2.7430003 0.67670119 0.9111588 0
2.7440002 0.67278147 0.91137516 0
2.7450001 0.66885817 0.91159165 0
2.7470002 0.66523439 0.91202462 0
2.7480001 0.66130203 0.91224098 0
2.7500002 0.65766561 0.91267395 0
2.7510002 0.65372425 0.91289032 0
2.7530003 0.6500752 0.91332328 0
2.7540002 0.64612484 0.91353977 0
2.7560003 0.64246309 0.91397274 0
2.7570002 0.63850373 0.9141891 0
2.7590003 0.6348294 0.91462207 0
2.7600002 0.63086098 0.91483855 0
2.7620003 0.62717408 0.9152714 0
2.7630002 0.62319666 0.91548789 0
2.7640002 0.61921561 0.91570437 0
2.7660003 0.61551064 0.91613722 0
2.7670002 0.61152053 0.9163537 0
2.7690003 0.60780293 0.91678667 0
2.7700002 0.60380387 0.91700304 0
2.7720003 0.60007364 0.917436 0
2.7730002 0.59606552 0.91765249 0
2.7750001 0.59232259 0.91808534 0
2.7770002 0.5885725 0.9185183 0
2.7780001 0.58455002 0.91873479 0
2.7800002 0.58078724 0.91916764 0
2.7810001 0.5767557 0.91938412 0
2.7830002 0.5729804 0.91981709 0
2.7840002 0.56893986 0.92003345 0
2.7860003 0.56515187 0.92046642 0
2.7870002 0.56110233 0.92068279 0
2.7890003 0.5573017 0.92111576 0
2.7910001 0.55349386 0.92154872 0
2.7920003 0.54942989 0.92176521 0
2.7940001 0.54560935 0.92219806 0
2.7950003 0.54153645 0.92241454 0
2.7970002 0.53770328 0.92284739 0
2.7980001 0.53362125 0.92306387 0
2.8000002 0.52977556 0.92349672 0
2.8020003 0.52592266 0.92392969 0
2.8030002 0.52182621 0.92414618 0
2.8050003 0.51796067 0.92457914 0
2.8060002 0.51385516 0.92479551 0
2.8080003 0.50997698 0.92522848 0
2.8100002 0.50609159 0.92566133 0
2.8110001 0.50197166 0.92587781 0
2.8130002 0.49807364 0.92631066 0
2.8150003 0.4941684 0.92674363 0
2.8180003 0.49047786 0.92739308 0
2.8210001 0.48677635 0.92804229 0
2.8250003 0.48328245 0.92890823 0
2.8290002 0.479774 0.92977405 0
2.8360002 0.47689509 0.9312892 0
2.8450003 0.47441667 0.93323731 0
2.7360003 0.78831184 0.90542984 0
2.7300003 0.78196603 0.9041419 0
2.7260003 0.77634901 0.90328336 0
2.7230003 0.77109814 0.90263939 0
2.7210002 0.76620793 0.90221 0
2.7190001 0.761325 0.90178072 0
2.7190001 0.75714195 0.90178072 0
2.7180002 0.75261444 0.90156609 0
2.7180002 0.74843323 0.90156609 0
2.7190001 0.74459291 0.90178072 0
2.7190001 0.74040985 0.90178072 0
2.7200003 0.73656416 0.90199542 0
2.7210002 0.73271483 0.90221 0
2.7230003 0.72919565 0.90263939 0
2.7240002 0.72533727 0.90285397 0
2.7250001 0.7214753 0.90306866 0
2.7270002 0.71793807 0.90349799 0
2.7280002 0.71406704 0.90371263 0
2.7300003 0.71051717 0.9041419 0
2.7310002 0.7066372 0.9043566 0
2.7320001 0.70275354 0.90457118 0
2.7340002 0.69918561 0.90500057 0
2.7350001 0.69529301 0.90521514 0
2.7370002 0.6917125 0.90564454 0
2.7380002 0.68781084 0.90585911 0
2.7390003 0.6839056 0.90607381 0
2.7410002 0.68030697 0.90650308 0
2.7420001 0.67639267 0.90671778 0
2.7440002 0.67278147 0.90714705 0
2.7450001 0.66885817 0.90736163 0
2.7470002 0.66523439 0.90779102 0
2.7480001 0.66130203 0.90800571 0
2.7490003 0.65736616 0.90822041 0
2.7510002 0.65372425 0.90864968 0
2.7520001 0.64977932 0.90886426 0
2.7540002 0.64612484 0.90929353 0
2.7550001 0.64217085 0.90950823 0
2.7570002 0.63850373 0.9099375 0
2.7580001 0.63454074 0.9101522 0
2.7600002 0.63086098 0.91058159 0
2.7610002 0.62688905 0.91079617 0
2.7630002 0.62319666 0.91122544 0
2.7640002 0.61921561 0.91144013 0
2.7650001 0.61523098 0.91165471 0
2.7670002 0.61152053 0.9120841 0
2.7680001 0.60752696 0.91229868 0
2.7700002 0.60380387 0.91272807 0
2.7710001 0.59980118 0.91294277 0
2.7730002 0.59606552 0.91337204 0
2.7740002 0.59205389 0.91358662 0
2.7760003 0.58830553 0.91401601 0
2.7770002 0.58428484 0.91423059 0
2.7790003 0.58052391 0.91465998 0
2.7800002 0.57649422 0.91487455 0
2.7820003 0.57272065 0.91530395 0
2.7830002 0.5686819 0.91551852 0
2.7850003 0.56489581 0.91594791 0
2.7860003 0.560848 0.91616249 0
2.7880001 0.55704916 0.91659176 0
2.7890003 0.5529924 0.91680646 0
2.7910001 0.54918092 0.91723573 0
2.7920003 0.54511523 0.91745043 0
2.7940001 0.54129112 0.9178797 0
2.7950003 0.53721637 0.9180944 0
2.7970002 0.53337955 0.91852367 0
2.7990003 0.52953565 0.91895294 0
2.8000002 0.52544647 0.91916764 0
2.8020003 0.52158993 0.91959691 0
2.8030002 0.51749164 0.91981161 0
2.8050003 0.51362252 0.920241 0
2.8070002 0.50974607 0.92067027 0
2.8080003 0.50563347 0.92088485 0
2.8100002 0.50174439 0.92131412 0
2.8110001 0.49762267 0.92152882 0
2.8130002 0.49372107 0.92195809 0
2.8160002 0.4900341 0.92260218 0
2.8190002 0.48633629 0.92324603 0
2.8220003 0.48262763 0.92388999 0
2.8270001 0.47934109 0.92496324 0
2.8320003 0.47603655 0.9260366 0
2.8390002 0.47313958 0.92753911 0
2.8540003 0.47190589 0.93075895 0
2.7360003 0.78831184 0.90121615 0
2.7300003 0.78196603 0.89993906 0
2.7260003 0.77634901 0.89908767 0
2.7230003 0.77109814 0.89844906 0
2.7210002 0.76620793 0.89802343 0
2.7190001 0.761325 0.89759767 0
2.7190001 0.75714195 0.89759767 0
2.7180002 0.75261444 0.89738488 0
2.7180002 0.74843323 0.89738488 0
2.7190001 0.74459291 0.89759767 0
2.7190001 0.74040985 0.89759767 0
2.7200003 0.73656416 0.89781058 0
2.7210002 0.73271483 0.89802343 0
2.7230003 0.72919565 0.89844906 0
2.7240002 0.72533727 0.89866197 0
2.7250001 0.7214753 0.89887476 0
2.7270002 0.71793807 0.89930052 0
2.7280002 0.71406704 0.89951336 0
2.7300003 0.71051717 0.89993906 0
2.7310002 0.7066372 0.90015191 0
2.7320001 0.70275354 0.90036476 0
2.7340002 0.69918561 0.90079045 0
2.7350001 0.69529301 0.90100324 0
2.7370002 0.6917125 0.901429 0
2.7380002 0.68781084 0.90164185 0
2.7390003 0.6839056 0.90185469 0
2.7410002 0.68030697 0.90228039 0
2.7420001 0.67639267 0.90249324 0
2.7440002 0.67278147 0.90291893 0
2.7450001 0.66885817 0.90313172 0
2.7460003 0.66493136 0.90334469 0
2.7480001 0.66130203 0.90377033 0
2.7490003 0.65736616 0.90398324 0
2.7510002 0.65372425 0.90440881 0
2.7520001 0.64977932 0.90462172 0
2.7540002 0.64612484 0.90504742 0
2.7550001 0.64217085 0.90526032 0
2.7560003 0.63821334 0.90547311 0
2.7580001 0.63454074 0.90589881 0
2.7590003 0.63057423 0.90611172 0
2.7610002 0.62688905 0.90653741 0
2.7620003 0.62291348 0.90675032 0
2.7640002 0.61921561 0.9071759 0
2.7650001 0.61523098 0.90738881 0
2.7670002 0.61152053 0.9078145 0
2.7680001 0.60752696 0.90802729 0
2.7700002 0.60380387 0.90845299 0
2.7710001 0.59980118 0.9086659 0
2.7720003 0.59579498 0.9088788 0
2.7740002 0.59205389 0.90930438 0
2.7750001 0.58803856 0.90951729 0
2.7770002 0.58428484 0.90994298 0
2.7780001 0.58026052 0.91015577 0
2.7800002 0.57649422 0.91058159 0
2.7810001 0.57246089 0.91079438 0
2.7830002 0.5686819 0.91122007 0
2.7840002 0.56463957 0.91143286 0
2.7860003 0.560848 0.91185856 0
2.7870002 0.55679667 0.91207147 0
2.7890003 0.5529924 0.91249716 0
2.7900002 0.54893202 0.91271007 0
2.7920003 0.54511523 0.91313577 0
2.7930002 0.54104578 0.91334856 0
2.7950003 0.53721637 0.91377425 0
2.7960002 0.53313792 0.91398716 0
2.7980001 0.52929574 0.91441274 0
2.7990003 0.52520835 0.91462564 0
2.8010001 0.5213536 0.91505134 0
2.8020003 0.51725715 0.91526425 0
2.8040001 0.51338977 0.91568983 0
2.8050003 0.50928432 0.91590285 0
2.8070002 0.50540429 0.91632843 0
2.8090003 0.50151718 0.91675413 0
2.8100002 0.49739718 0.91696703 0
2.8120003 0.49349737 0.91739273 0
2.8140001 0.48959029 0.91781831 0
2.8170002 0.48589611 0.91845691 0
2.8210001 0.48240936 0.9193083 0
2.8250003 0.47890824 0.92015982 0
2.8300002 0.47560722 0.921224 0
2.8360002 0.47250104 0.92250109 0
2.8460002 0.47021741 0.92462957 0
2.7360003 0.78831184 0.89700246 0
2.7300003 0.78196603 0.89573622 0
2.7260003 0.77634901 0.89489204 0
2.7230003 0.77109814 0.89425886 0
2.7210002 0.76620793 0.89383674 0
2.7190001 0.761325 0.89341462 0
2.7190001 0.75714195 0.89341462 0
2.7180002 0.75261444 0.89320362 0
2.7180002 0.74843323 0.89320362 0
2.7190001 0.74459291 0.89341462 0
2.7190001 0.74040985 0.89341462 0
2.7200003 0.73656416 0.89362574 0
2.7210002 0.73271483 0.89383674 0
2.7230003 0.72919565 0.89425886 0
2.7240002 0.72533727 0.89446992 0
2.7250001 0.7214753 0.89468092 0
2.7270002 0.71793807 0.89510298 0
2.7280002 0.71406704 0.8953141 0
2.7300003 0.71051717 0.89573622 0
2.7310002 0.7066372 0.89594722 0
2.7320001 0.70275354 0.89615822 0
2.7340002 0.69918561 0.89658034 0
2.7350001 0.69529301 0.8967914 0
2.7370002 0.6917125 0.89721346 0
2.7380002 0.68781084 0.89742458 0
2.7390003 0.6839056 0.89763558 0
2.7410002 0.68030697 0.8980577 0
2.7420001 0.67639267 0.8982687 0
2.7440002 0.67278147 0.89869082 0
2.7450001 0.66885817 0.89890182 0
2.7460003 0.66493136 0.89911294 0
2.7480001 0.66130203 0.89953494 0
2.7490003 0.65736616 0.89974606 0
2.7510002 0.65372425 0.90016818 0
2.7520001 0.64977932 0.90037918 0
2.7540002 0.64612484 0.90080124 0
2.7550001 0.64217085 0.9010123 0
2.7560003 0.63821334 0.90122336 0
2.7580001 0.63454074 0.90164542 0
2.7590003 0.63057423 0.90185654 0
2.7610002 0.62688905 0.90227854 0
2.7620003 0.62291348 0.90248966 0
2.7640002 0.61921561 0.90291172 0
2.7650001 0.61523098 0.90312272 0
2.7670002 0.61152053 0.9035449 0
2.7680001 0.60752696 0.9037559 0
2.7690003 0.60352975 0.90396702 0
2.7710001 0.59980118 0.90438902 0
2.7720003 0.59579498 0.90460014 0
2.7740002 0.59205389 0.90502214 0
2.7750001 0.58803856 0.90523314 0
2.7770002 0.58428484 0.90565526 0
2.7780001 0.58026052 0.90586638 0
2.7800002 0.57649422 0.9062885 0
2.7810001 0.57246089 0.90649951 0
2.7830002 0.5686819 0.90692163 0
2.7840002 0.56463957 0.90713263 0
2.7850003 0.56059366 0.90734363 0
2.7870002 0.55679667 0.90776575 0
2.7880001 0.55274165 0.90797675 0
2.7900002 0.54893202 0.90839887 0
2.7910001 0.54486805 0.90860999 0
2.7930002 0.54104578 0.90903211 0
2.7940001 0.53697276 0.90924311 0
2.7960002 0.53313792 0.90966523 0
2.7970002 0.52905583 0.90987623 0
2.7990003 0.52520835 0.91029835 0
2.8000002 0.52111733 0.91050935 0
2.8020003 0.51725715 0.91093147 0
2.8040001 0.51338977 0.91135359 0
2.8050003 0.50928432 0.91156459 0
2.8070002 0.50540429 0.91198671 0
2.8080003 0.50128984 0.91219771 0
2.8100002 0.49739718 0.91261983 0
2.8120003 0.49349737 0.91304195 0
2.8140001 0.48959029 0.91346407 0
2.8160002 0.48567611 0.91388607 0
2.8200002 0.48219109 0.91473031 0
2.8230002 0.47847527 0.91536343 0
2.8280003 0.47517794 0.91641867 0
2.8340001 0.47207534 0.91768491 0
2.8420002 0.46937329 0.91937327 0
2.5560002 0.7473582 0.85512519 0
2.5570002 0.74383527 0.85533446 0
2.5580001 0.74030882 0.85554373 0
2.5600002 0.73714137 0.85596222 0
2.5610001 0.73360592 0.85617143 0
2.5620003 0.7300669 0.8563807 0
2.5630002 0.72652417 0.85658991 0
2.7300003 0.78196603 0.89153337 0
2.7260003 0.77634901 0.89069641 0
2.7230003 0.77109814 0.89006865 0
2.7210002 0.76620793 0.88965011 0
2.7190001 0.761325 0.88923162 0
2.7190001 0.75714195 0.88923162 0
2.7180002 0.75261444 0.88902235 0
2.7180002 0.74843323 0.88902235 0
2.7190001 0.74459291 0.88923162 0
2.7190001 0.74040985 0.88923162 0
2.7200003 0.73656416 0.88944089 0
2.7210002 0.73271483 0.88965011 0
2.7230003 0.72919565 0.89006865 0
2.7240002 0.72533727 0.89027786 0
2.7250001 0.7214753 0.89048707 0
2.7270002 0.71793807 0.89090556 0
2.7280002 0.71406704 0.89111483 0
2.7300003 0.71051717 0.89153337 0
2.7310002 0.7066372 0.89174253 0
2.7320001 0.70275354 0.89195174 0
2.7340002 0.69918561 0.89237028 0
2.7350001 0.69529301 0.89257956 0
2.7370002 0.6917125 0.89299798 0
2.7380002 0.68781084 0.89320719 0
2.7390003 0.6839056 0.89341652 0
2.7410002 0.68030697 0.89383495 0
2.7420001 0.67639267 0.89404416 0
2.7440002 0.67278147 0.8944627 0
2.7450001 0.66885817 0.89467192 0
2.7460003 0.66493136 0.89488119 0
2.7480001 0.66130203 0.89529967 0
2.7490003 0.65736616 0.89550894 0
2.7510002 0.65372425 0.89592737 0
2.7520001 0.64977932 0.89613664 0
2.7540002 0.64612484 0.89655513 0
2.7550001 0.64217085 0.89676428 0
2.7560003 0.63821334 0.89697361 0
2.7580001 0.63454074 0.89739203 0
2.7590003 0.63057423 0.89760131 0
2.7610002 0.62688905 0.89801979 0
2.7620003 0.62291348 0.89822912 0
2.7640002 0.61921561 0.89864749 0
2.7650001 0.61523098 0.89885676 0
2.7670002 0.61152053 0.8992753 0
2.7680001 0.60752696 0.89948446 0
2.7690003 0.60352975 0.89969373 0
2.7710001 0.59980118 0.90011221 0
2.7720003 0.59579498 0.90032148 0
2.7740002 0.59205389 0.90073991 0
2.7750001 0.58803856 0.90094912 0
2.7770002 0.58428484 0.90136766 0
2.7780001 0.58026052 0.90157688 0
2.7800002 0.57649422 0.90199542 0
2.7810001 0.57246089 0.90220463 0
2.7830002 0.5686819 0.90262312 0
2.7840002 0.56463957 0.90283239 0
2.7850003 0.56059366 0.9030416 0
2.7870002 0.55679667 0.90346003 0
2.7880001 0.55274165 0.9036693 0
2.7900002 0.54893202 0.90408778 0
2.7910001 0.54486805 0.90429711 0
2.7930002 0.54104578 0.90471554 0
2.7940001 0.53697276 0.90492475 0
2.7960002 0.53313792 0.90534329 0
2.7970002 0.52905583 0.90555251 0
2.7990003 0.52520835 0.90597105 0
2.8000002 0.52111733 0.90618026 0
2.8020003 0.51725715 0.90659869 0
2.8030002 0.51315713 0.9068079 0
2.8050003 0.50928432 0.90722644 0
2.8060002 0.50517523 0.90743566 0
2.8080003 0.50128984 0.9078542 0
2.8090003 0.49717176 0.90806341 0
2.8110001 0.49327368 0.90848184 0
2.8130002 0.4893685 0.90890038 0
2.8160002 0.48567611 0.90952814 0
2.8190002 0.48197287 0.91015577 0
2.8230002 0.47847527 0.91099286 0
2.8270001 0.47496325 0.91182971 0
2.8330002 0.47186255 0.91308522 0
2.8400002 0.46895117 0.91454995 0
2.8520002 0.46706074 0.91706073 0
2.5560002 0.7473582 0.85123622 0
2.5570002 0.74383527 0.85144365 0
2.5580001 0.74030882 0.85165107 0
2.5600002 0.73714137 0.85206598 0
2.5610001 0.73360592 0.8522734 0
2.5620003 0.7300669 0.85248089 0
2.5630002 0.72652417 0.85268831 0
2.5650003 0.72333324 0.85310316 0
2.5660002 0.71978152 0.85331059 0
2.5670002 0.71622616 0.85351801 0
2.5690002 0.71301728 0.85393292 0
2.5700002 0.70945293 0.85414034 0
2.5710001 0.70588493 0.85434777 0
2.5720003 0.70231342 0.85455525 0
2.5740001 0.699081 0.8549701 0
2.5750003 0.69550049 0.85517752 0
2.5760002 0.69191629 0.85538501 0
2.5780003 0.68866587 0.85579991 0
2.5790002 0.68507266 0.85600734 0
2.5800002 0.68147588 0.85621476 0
2.5820003 0.6782074 0.85662961 0
2.5830002 0.67460155 0.85683703 0
2.7270002 0.71793807 0.88670814 0
2.7280002 0.71406704 0.88691556 0
2.7300003 0.71051717 0.88733041 0
2.7310002 0.7066372 0.88753784 0
2.7320001 0.70275354 0.88774526 0
2.7340002 0.69918561 0.88816017 0
2.7350001 0.69529301 0.88836759 0
2.7370002 0.6917125 0.8887825 0
2.7380002 0.68781084 0.88898993 0
2.7390003 0.6839056 0.88919735 0
2.7410002 0.68030697 0.8896122 0
2.7420001 0.67639267 0.88981962 0
2.7440002 0.67278147 0.89023453 0
2.7450001 0.66885817 0.89044201 0
2.7460003 0.66493136 0.89064944 0
2.7480001 0.66130203 0.89106429 0
2.7490003 0.65736616 0.89127171 0
2.7510002 0.65372425 0.89168668 0
2.7520001 0.64977932 0.8918941 0
2.7540002 0.64612484 0.89230895 0
2.7550001 0.64217085 0.89251637 0
2.7560003 0.63821334 0.89272386 0
2.7580001 0.63454074 0.89313871 0
2.7590003 0.63057423 0.89334619 0
2.7610002 0.62688905 0.89376104 0
2.7620003 0.62291348 0.89396846 0
2.7640002 0.61921561 0.89438331 0
2.7650001 0.61523098 0.89459074 0
2.7670002 0.61152053 0.89500564 0
2.7680001 0.60752696 0.89521307 0
2.7690003 0.60352975 0.89542055 0
2.7710001 0.59980118 0.8958354 0
2.7720003 0.59579498 0.89604282 0
2.7740002 0.59205389 0.89645767 0
2.7750001 0.58803856 0.8966651 0
2.7770002 0.58428484 0.89708 0
2.7780001 0.58026052 0.89728743 0
2.7800002 0.57649422 0.89770234 0
2.7810001 0.57246089 0.89790976 0
2.7830002 0.5686819 0.89832461 0
2.7840002 0.56463957 0.89853203 0
2.7850003 0.56059366 0.89873958 0
2.7870002 0.55679667 0.89915437 0
2.7880001 0.55274165 0.89936179 0
2.7900002 0.54893202 0.8997767 0
2.7910001 0.54486805 0.89998412 0
2.7930002 0.54104578 0.90039897 0
2.7940001 0.53697276 0.90060639 0
2.7960002 0.53313792 0.90102136 0
2.7970002 0.52905583 0.90122879 0
2.7990003 0.52520835 0.90164363 0
2.8000002 0.52111733 0.90185106 0
2.8020003 0.51725715 0.90226597 0
2.8030002 0.51315713 0.90247339 0
2.8050003 0.50928432 0.9028883 0
2.8060002 0.50517523 0.90309572 0
2.8080003 0.50128984 0.90351057 0
2.8090003 0.49717176 0.90371799 0
2.8110001 0.49327368 0.90413296 0
2.8130002 0.4893685 0.90454781 0
2.8160002 0.48567611 0.90517008 0
2.8190002 0.48197287 0.90579247 0
2.8230002 0.47847527 0.90662217 0
2.8270001 0.47496325 0.90745187 0
2.8330002 0.47186255 0.90869653 0
2.8390002 0.46874011 0.9099412 0
2.8500001 0.46664232 0.91222298 0
2.5560002 0.7473582 0.84734726 0
2.5570002 0.74383527 0.84755284 0
2.5580001 0.74030882 0.84775841 0
2.5600002 0.73714137 0.84816974 0
2.5610001 0.73360592 0.84837538 0
2.5620003 0.7300669 0.84858108 0
2.5630002 0.72652417 0.84878665 0
2.5650003 0.72333324 0.84919798 0
2.5660002 0.71978152 0.84940356 0
2.5670002 0.71622616 0.8496092 0
2.5690002 0.71301728 0.85002047 0
2.5700002 0.70945293 0.85022604 0
2.5710001 0.70588493 0.85043168 0
2.5720003 0.70231342 0.85063738 0
2.5740001 0.699081 0.85104859 0
2.5750003 0.69550049 0.85125428 0
2.5760002 0.69191629 0.85145986 0
2.5780003 0.68866587 0.85187119 0
2.5790002 0.68507266 0.85207683 0
2.5800002 0.68147588 0.8522824 0
2.5820003 0.6782074 0.85269368 0
2.5830002 0.67460155 0.85289931 0
2.5840001 0.67099208 0.85310495 0
2.5850003 0.66737914 0.85331064 0
2.5870001 0.66408712 0.85372186 0
2.5880003 0.66046512 0.85392749 0
2.5890002 0.65683949 0.85413313 0
2.5910003 0.65352947 0.85454446 0
2.5920002 0.64989477 0.85475004 0
2.5930002 0.64625651 0.85495567 0
2.5950003 0.64292848 0.85536695 0
2.5960002 0.63928115 0.85557258 0
2.5970001 0.63563025 0.85577822 0
2.5990002 0.63228422 0.85618949 0
2.6000001 0.62862426 0.85639513 0
2.6010003 0.62496078 0.85660076 0
2.6030002 0.62159663 0.85701203 0
2.7480001 0.66130203 0.8868289 0
2.7490003 0.65736616 0.8870346 0
2.7510002 0.65372425 0.88744587 0
2.7520001 0.64977932 0.88765144 0
2.7540002 0.64612484 0.88806278 0
2.7550001 0.64217085 0.88826835 0
2.7560003 0.63821334 0.88847405 0
2.7580001 0.63454074 0.88888532 0
2.7590003 0.63057423 0.88909096 0
2.7610002 0.62688905 0.88950217 0
2.7620003 0.62291348 0.88970792 0
2.7640002 0.61921561 0.89011908 0
2.7650001 0.61523098 0.89032477 0
2.7670002 0.61152053 0.89073598 0
2.7680001 0.60752696 0.89094162 0
2.7690003 0.60352975 0.89114726 0
2.7710001 0.59980118 0.89155853 0
2.7720003 0.59579498 0.89176416 0
2.7740002 0.59205389 0.89217544 0
2.7750001 0.58803856 0.89238107 0
2.7770002 0.58428484 0.89279234 0
2.7780001 0.58026052 0.89299798 0
2.7800002 0.57649422 0.89340925 0
2.7810001 0.57246089 0.89361489 0
2.7830002 0.5686819 0.89402616 0
2.7840002 0.56463957 0.8942318 0
2.7850003 0.56059366 0.89443743 0
2.7870002 0.55679667 0.8948487 0
2.7880001 0.55274165 0.89505434 0
2.7900002 0.54893202 0.89546561 0
2.7910001 0.54486805 0.89567125 0
2.7930002 0.54104578 0.89608252 0
2.7940001 0.53697276 0.89628816 0
2.7960002 0.53313792 0.89669943 0
2.7970002 0.52905583 0.896905 0
2.7990003 0.52520835 0.89731634 0
2.8000002 0.52111733 0.89752197 0
2.8020003 0.51725715 0.89793324 0
2.8030002 0.51315713 0.89813888 0
2.8050003 0.50928432 0.89855015 0
2.8060002 0.50517523 0.89875579 0
2.8080003 0.50128984 0.89916706 0
2.8090003 0.49717176 0.89937264 0
2.8110001 0.49327368 0.89978391 0
2.8130002 0.4893685 0.90019518 0
2.8160002 0.48567611 0.90081209 0
2.8190002 0.48197287 0.901429 0
2.8230002 0.47847527 0.90225154 0
2.8270001 0.47496325 0.90307403 0
2.8330002 0.47186255 0.90430784 0
2.8390002 0.46874011 0.90554166 0
2.8490002 0.46643305 0.90759802 0
2.5560002 0.7473582 0.84345824 0
2.5570002 0.74383527 0.84366202 0
2.5580001 0.74030882 0.84386587 0
2.5600002 0.73714137 0.84427357 0
2.5610001 0.73360592 0.84447736 0
2.5620003 0.7300669 0.8446812 0
2.5630002 0.72652417 0.84488499 0
2.5650003 0.72333324 0.84529269 0
2.5660002 0.71978152 0.84549654 0
2.5670002 0.71622616 0.84570032 0
2.5690002 0.71301728 0.84610802 0
2.5700002 0.70945293 0.84631181 0
2.5710001 0.70588493 0.84651566 0
2.5720003 0.70231342 0.8467195 0
2.5740001 0.699081 0.84712714 0
2.5750003 0.69550049 0.84733105 0
2.5760002 0.69191629 0.84753478 0
2.5780003 0.68866587 0.84794247 0
2.5790002 0.68507266 0.84814632 0
2.5800002 0.68147588 0.84835017 0
2.5820003 0.6782074 0.84875786 0
2.5830002 0.67460155 0.84896159 0
2.5840001 0.67099208 0.84916544 0
2.5850003 0.66737914 0.84936929 0
2.5870001 0.66408712 0.84977692 0
2.5880003 0.66046512 0.84998083 0
2.5890002 0.65683949 0.85018456 0
2.5910003 0.65352947 0.85059226 0
2.5920002 0.64989477 0.8507961 0
2.5930002 0.64625651 0.85099995 0
2.5950003 0.64292848 0.85140759 0
2.5960002 0.63928115 0.85161138 0
2.5970001 0.63563025 0.85181522 0
2.5990002 0.63228422 0.85222292 0
2.6000001 0.62862426 0.85242677 0
2.6010003 0.62496078 0.85263062 0
2.6030002 0.62159663 0.85303819 0
2.6040001 0.61792403 0.85324204 0
2.6050003 0.61424792 0.85344589 0
2.6070001 0.61086577 0.85385358 0
2.6080003 0.60718066 0.85405743 0
2.6090002 0.60349184 0.85426122 0
2.6110003 0.6000917 0.85466886 0
2.6120002 0.59639382 0.8548727 0
2.6130002 0.59269243 0.85507655 0
2.6150002 0.58927423 0.85548419 0
2.6160002 0.58556378 0.85568798 0
2.6170001 0.58184969 0.85589182 0
2.6190002 0.57841343 0.85629952 0
2.6200001 0.5746904 0.85650337 0
2.6210003 0.57096374 0.85670722 0
2.6230001 0.56750947 0.85711479 0
2.7690003 0.60352975 0.88687408 0
2.7710001 0.59980118 0.88728172 0
2.7720003 0.59579498 0.88748556 0
2.7740002 0.59205389 0.8878932 0
2.7750001 0.58803856 0.88809705 0
2.7770002 0.58428484 0.88850474 0
2.7780001 0.58026052 0.88870847 0
2.7800002 0.57649422 0.88911617 0
2.7810001 0.57246089 0.88932002 0
2.7830002 0.5686819 0.88972771 0
2.7840002 0.56463957 0.8899315 0
2.7850003 0.56059366 0.89013541 0
2.7870002 0.55679667 0.89054298 0
2.7880001 0.55274165 0.89074683 0
2.7900002 0.54893202 0.89115453 0
2.7910001 0.54486805 0.89135838 0
2.7930002 0.54104578 0.89176601 0
2.7940001 0.53697276 0.8919698 0
2.7960002 0.53313792 0.8923775 0
2.7970002 0.52905583 0.89258134 0
2.7990003 0.52520835 0.89298892 0
2.8000002 0.52111733 0.89319277 0
2.8020003 0.51725715 0.89360046 0
2.8030002 0.51315713 0.89380431 0
2.8050003 0.50928432 0.89421195 0
2.8060002 0.50517523 0.8944158 0
2.8080003 0.50128984 0.89482349 0
2.8090003 0.49717176 0.89502728 0
2.8110001 0.49327368 0.89543492 0
2.8130002 0.4893685 0.89584255 0
2.8160002 0.48567611 0.8964541 0
2.8190002 0.48197287 0.89706558 0
2.8230002 0.47847527 0.89788091 0
2.8270001 0.47496325 0.89869618 0
2.8330002 0.47186255 0.89991921 0
2.8400002 0.46895117 0.90134597 0
2.8500001 0.46664232 0.90338433 0
2.5560002 0.7473582 0.83956921 0
2.5570002 0.74383527 0.83977127 0
2.5580001 0.74030882 0.83997321 0
2.5600002 0.73714137 0.84037733 0
2.5610001 0.73360592 0.84057927 0
2.5620003 0.7300669 0.84078133 0
2.5630002 0.72652417 0.84098339 0
2.5650003 0.72333324 0.84138745 0
2.5660002 0.71978152 0.84158945 0
2.5670002 0.71622616 0.84179151 0
2.5690002 0.71301728 0.84219551 0
2.5700002 0.70945293 0.84239757 0
2.5710001 0.70588493 0.84259963 0
2.5720003 0.70231342 0.84280163 0
2.5740001 0.699081 0.84320569 0
2.5750003 0.69550049 0.84340775 0
2.5760002 0.69191629 0.84360969 0
2.5780003 0.68866587 0.84401381 0
2.5790002 0.68507266 0.84421581 0
2.5800002 0.68147588 0.84441781 0
2.5820003 0.6782074 0.84482193 0
2.5830002 0.67460155 0.84502387 0
2.5840001 0.67099208 0.84522593 0
2.5850003 0.66737914 0.84542799 0
2.5870001 0.66408712 0.84583199 0
2.5880003 0.66046512 0.84603405 0
2.5890002 0.65683949 0.84623611 0
2.5910003 0.65352947 0.84664017 0
2.5920002 0.64989477 0.84684217 0
2.5930002 0.64625651 0.84704417 0
2.5950003 0.64292848 0.84744823 0
2.5960002 0.63928115 0.84765029 0
2.5970001 0.63563025 0.84785223 0
2.5990002 0.63228422 0.84825635 0
2.6000001 0.62862426 0.84845835 0
2.6010003 0.62496078 0.84866041 0
2.6030002 0.62159663 0.84906447 0
2.6040001 0.61792403 0.84926641 0
2.6050003 0.61424792 0.84946847 0
2.6070001 0.61086577 0.84987253 0
2.6080003 0.60718066 0.85007459 0
2.6090002 0.60349184 0.85027659 0
2.6110003 0.6000917 0.85068071 0
2.6120002 0.59639382 0.85088265 0
2.6130002 0.59269243 0.85108471 0
2.6150002 0.58927423 0.85148877 0
2.6160002 0.58556378 0.85169077 0
2.6170001 0.58184969 0.85189283 0
2.6190002 0.57841343 0.85229683 0
2.6200001 0.5746904 0.85249889 0
2.6210003 0.57096374 0.85270095 0
2.6230001 0.56750947 0.85310495 0
2.6240003 0.56377381 0.85330701 0
2.6250002 0.56003451 0.85350907 0
2.6270001 0.55656207 0.85391307 0
2.6280003 0.55281383 0.85411513 0
2.6300001 0.54932886 0.85451913 0
2.6310003 0.54557157 0.85472119 0
2.6320002 0.54181057 0.85492325 0
2.6340003 0.53830761 0.85532725 0
2.6350002 0.53453767 0.85552931 0
2.6360002 0.53076404 0.85573131 0
2.6380002 0.52724302 0.85613537 0
2.6390002 0.52346045 0.85633743 0
2.6410003 0.51992679 0.85674143 0
2.6420002 0.51613516 0.85694349 0
2.6430001 0.51233995 0.85714549 0
2.7910001 0.54486805 0.88704538 0
2.7930002 0.54104578 0.8874495 0
2.7940001 0.53697276 0.88765144 0
2.7960002 0.53313792 0.88805556 0
2.7970002 0.52905583 0.88825762 0
2.7990003 0.52520835 0.88866162 0
2.8000002 0.52111733 0.88886368 0
2.8020003 0.51725715 0.88926774 0
2.8030002 0.51315713 0.88946974 0
2.8050003 0.50928432 0.8898738 0
2.8060002 0.50517523 0.8900758 0
2.8080003 0.50128984 0.89047992 0
2.8090003 0.49717176 0.89068192 0
2.8110001 0.49327368 0.89108598 0
2.8130002 0.4893685 0.89148998 0
2.8160002 0.48567611 0.89209604 0
2.8190002 0.48197287 0.89270216 0
2.8230002 0.47847527 0.89351022 0
2.8270001 0.47496325 0.89431834 0
2.8330002 0.47186255 0.89553052 0
2.8400002 0.46895117 0.8969447 0
2.8500001 0.46664232 0.898965 0
2.5560002 0.7473582 0.83568019 0
2.5570002 0.74383527 0.8358804 0
2.5580001 0.74030882 0.83608061 0
2.5600002 0.73714137 0.83648109 0
2.5610001 0.73360592 0.83668125 0
2.5620003 0.7300669 0.83688152 0
2.5630002 0.72652417 0.83708179 0
2.5650003 0.72333324 0.83748221 0
2.5660002 0.71978152 0.83768237 0
2.5670002 0.71622616 0.83788264 0
2.5690002 0.71301728 0.83828306 0
2.5700002 0.70945293 0.83848333 0
2.5710001 0.70588493 0.83868349 0
2.5720003 0.70231342 0.83888376 0
2.5740001 0.699081 0.83928418 0
2.5750003 0.69550049 0.83948445 0
2.5760002 0.69191629 0.83968461 0
2.5780003 0.68866587 0.84008515 0
2.5790002 0.68507266 0.8402853 0
2.5800002 0.68147588 0.84048557 0
2.5820003 0.6782074 0.840886 0
2.5830002 0.67460155 0.84108615 0
2.5840001 0.67099208 0.84128642 0
2.5850003 0.66737914 0.84148669 0
2.5870001 0.66408712 0.84188712 0
2.5880003 0.66046512 0.84208733 0
2.5890002 0.65683949 0.84228754 0
2.5910003 0.65352947 0.84268796 0
2.5920002 0.64989477 0.84288824 0
2.5930002 0.64625651 0.84308839 0
2.5950003 0.64292848 0.84348887 0
2.5960002 0.63928115 0.84368908 0
2.5970001 0.63563025 0.8438893 0
2.5990002 0.63228422 0.84428978 0
2.6000001 0.62862426 0.84448999 0
2.6010003 0.62496078 0.8446902 0
2.6030002 0.62159663 0.84509063 0
2.6040001 0.61792403 0.84529084 0
2.6050003 0.61424792 0.84549111 0
2.6070001 0.61086577 0.84589154 0
2.6080003 0.60718066 0.84609175 0
2.6090002 0.60349184 0.84629202 0
2.6110003 0.6000917 0.84669244 0
2.6120002 0.59639382 0.84689265 0
2.6130002 0.59269243 0.84709287 0
2.6150002 0.58927423 0.84749335 0
2.6160002 0.58556378 0.84769356 0
2.6170001 0.58184969 0.84789377 0
2.6190002 0.57841343 0.8482942 0
2.6200001 0.5746904 0.84849441 0
2.6210003 0.57096374 0.84869468 0
2.6230001 0.56750947 0.84909511 0
2.6240003 0.56377381 0.84929538 0
2.6250002 0.56003451 0.84949553 0
2.6270001 0.55656207 0.84989595 0
2.6280003 0.55281383 0.85009623 0
2.6300001 0.54932886 0.85049665 0
2.6310003 0.54557157 0.85069692 0
2.6320002 0.54181057 0.85089707 0
2.6340003 0.53830761 0.85129762 0
2.6350002 0.53453767 0.85149777 0
2.6360002 0.53076404 0.85169804 0
2.6380002 0.52724302 0.85209846 0
2.6390002 0.52346045 0.85229862 0
2.6410003 0.51992679 0.85269916 0
2.6420002 0.51613516 0.85289931 0
2.6430001 0.51233995 0.85309958 0
2.6450002 0.50878823 0.85350001 0
2.6460001 0.50498402 0.85370022 0
2.6470003 0.50117624 0.85390043 0
2.6490002 0.49760646 0.85430086 0
2.6500001 0.49378961 0.85450113 0
2.6520002 0.49020725 0.85490155 0
2.6530001 0.48638135 0.85510182 0
2.6540003 0.48255187 0.85530198 0
2.6560001 0.47895151 0.8557024 0
2.6570003 0.47511297 0.85590267 0
2.6590002 0.47149992 0.8563031 0
2.6600001 0.46765244 0.85650337 0
2.6610003 0.46380132 0.85670358 0
2.6630001 0.46017021 0.857104 0
2.6640003 0.45631009 0.85730422 0
2.8160002 0.48567611 0.88773811 0
2.8190002 0.48197287 0.88833874 0
2.8230002 0.47847527 0.88913965 0
2.8270001 0.47496325 0.8899405 0
2.8330002 0.47186255 0.89114189 0
2.8400002 0.46895117 0.89254344 0
2.8500001 0.46664232 0.89454567 0
2.5560002 0.7473582 0.83179116 0
2.5570002 0.74383527 0.83198959 0
2.5580001 0.74030882 0.83218801 0
2.5600002 0.73714137 0.83258486 0
2.5610001 0.73360592 0.83278322 0
2.5620003 0.7300669 0.83298171 0
2.5630002 0.72652417 0.83318007 0
2.5650003 0.72333324 0.83357698 0
2.5660002 0.71978152 0.8337754 0
2.5670002 0.71622616 0.83397377 0
2.5690002 0.71301728 0.83437061 0
2.5700002 0.70945293 0.83456904 0
2.5710001 0.70588493 0.83476746 0
2.5720003 0.70231342 0.83496588 0
2.5740001 0.699081 0.83536267 0
2.5750003 0.69550049 0.83556116 0
2.5760002 0.69191629 0.83575952 0
2.5780003 0.68866587 0.83615637 0
2.5790002 0.68507266 0.83635485 0
2.5800002 0.68147588 0.83655322 0
2.5820003 0.6782074 0.83695006 0
2.5830002 0.67460155 0.83714849 0
2.5840001 0.67099208 0.83734691 0
2.5850003 0.66737914 0.83754534 0
2.5870001 0.66408712 0.83794212 0
2.5880003 0.66046512 0.83814061 0
2.5890002 0.65683949 0.83833897 0
2.5910003 0.65352947 0.83873582 0
2.5920002 0.64989477 0.83893424 0
2.5930002 0.64625651 0.83913267 0
2.5950003 0.64292848 0.83952951 0
2.5960002 0.63928115 0.83972794 0
2.5970001 0.63563025 0.83992636 0
2.5990002 0.63228422 0.84032321 0
2.6000001 0.62862426 0.84052157 0
2.6010003 0.62496078 0.84072006 0
2.6030002 0.62159663 0.84111685 0
2.6040001 0.61792403 0.84131527 0
2.6050003 0.61424792 0.84151375 0
2.6070001 0.61086577 0.84191048 0
2.6080003 0.60718066 0.84210896 0
2.6090002 0.60349184 0.84230733 0
2.6110003 0.6000917 0.84270424 0
2.6120002 0.59639382 0.84290266 0
2.6130002 0.59269243 0.84310102 0
2.6150002 0.58927423 0.84349787 0
2.6160002 0.58556378 0.8436963 0
2.6170001 0.58184969 0.84389472 0
2.6190002 0.57841343 0.84429157 0
2.6200001 0.5746904 0.84448993 0
2.6210003 0.57096374 0.84468842 0
2.6230001 0.56750947 0.8450852 0
2.6240003 0.56377381 0.84528369 0
2.6250002 0.56003451 0.84548211 0
2.6270001 0.55656207 0.8458789 0
2.6280003 0.55281383 0.84607732 0
2.6300001 0.54932886 0.84647417 0
2.6310003 0.54557157 0.84667259 0
2.6320002 0.54181057 0.84687102 0
2.6340003 0.53830761 0.84726787 0
2.6350002 0.53453767 0.84746629 0
2.6360002 0.53076404 0.84766471 0
2.6380002 0.52724302 0.84806156 0
2.6390002 0.52346045 0.84825993 0
2.6410003 0.51992679 0.84865677 0
2.6420002 0.51613516 0.8488552 0
2.6430001 0.51233995 0.84905362 0
2.6450002 0.50878823 0.84945047 0
2.6460001 0.50498402 0.84964889 0
2.6470003 0.50117624 0.84984732 0
2.6490002 0.49760646 0.85024416 0
2.6500001 0.49378961 0.85044253 0
2.6520002 0.49020725 0.85083938 0
2.6530001 0.48638135 0.8510378 0
2.6540003 0.48255187 0.85123622 0
2.6560001 0.47895151 0.85163307 0
2.6570003 0.47511297 0.8518315 0
2.6590002 0.47149992 0.85222828 0
2.6600001 0.46765244 0.85242677 0
2.6610003 0.46380132 0.85262519 0
2.6630001 0.46017021 0.85302198 0
2.6640003 0.45631009 0.85322046 0
2.6660001 0.45266637 0.85361725 0
2.6670003 0.44879726 0.85381567 0
2.6680002 0.44492441 0.8540141 0
2.6700003 0.44126275 0.85441095 0
2.6710002 0.43738094 0.85460937 0
2.6730001 0.43370655 0.85500616 0
2.6740003 0.42981577 0.85520458 0
2.6760001 0.42612872 0.85560143 0
2.6770003 0.42222896 0.85579991 0
2.6780002 0.41832548 0.85599828 0
2.6800003 0.41462046 0.85639513 0
2.6810002 0.41070801 0.85659355 0
2.6830001 0.40699035 0.85699034 0
2.6840003 0.4030689 0.85718882 0
2.5560002 0.7473582 0.8279022 0
2.5570002 0.74383527 0.82809877 0
2.5580001 0.74030882 0.82829535 0
2.5600002 0.73714137 0.82868862 0
2.5610001 0.73360592 0.8288852 0
2.5620003 0.7300669 0.82908189 0
2.5630002 0.72652417 0.82927847 0
2.5650003 0.72333324 0.82967174 0
2.5660002 0.71978152 0.82986832 0
2.5670002 0.71622616 0.83006489 0
2.5690002 0.71301728 0.83045816 0
2.5700002 0.70945293 0.83065474 0
2.5710001 0.70588493 0.83085138 0
2.5720003 0.70231342 0.83104801 0
2.5740001 0.699081 0.83144122 0
2.5750003 0.69550049 0.83163786 0
2.5760002 0.69191629 0.83183444 0
2.5780003 0.68866587 0.83222771 0
2.5790002 0.68507266 0.83242428 0
2.5800002 0.68147588 0.83262092 0
2.5820003 0.6782074 0.83301413 0
2.5830002 0.67460155 0.83321077 0
2.5840001 0.67099208 0.8334074 0
2.5850003 0.66737914 0.83360404 0
2.5870001 0.66408712 0.83399725 0
2.5880003 0.66046512 0.83419383 0
2.5890002 0.65683949 0.83439046 0
2.5910003 0.65352947 0.83478373 0
2.5920002 0.64989477 0.83498031 0
2.5930002 0.64625651 0.83517694 0
2.5950003 0.64292848 0.83557016 0
2.5960002 0.63928115 0.83576679 0
2.5970001 0.63563025 0.83596337 0
2.5990002 0.63228422 0.83635664 0
2.6000001 0.62862426 0.83655322 0
2.6010003 0.62496078 0.83674991 0
2.6030002 0.62159663 0.83714306 0
2.6040001 0.61792403 0.83733964 0
2.6050003 0.61424792 0.83753633 0
2.6070001 0.61086577 0.83792949 0
2.6080003 0.60718066 0.83812618 0
2.6090002 0.60349184 0.83832276 0
2.6110003 0.6000917 0.83871603 0
2.6120002 0.59639382 0.83891261 0
2.6130002 0.59269243 0.83910918 0
2.6150002 0.58927423 0.83950245 0
2.6160002 0.58556378 0.83969903 0
2.6170001 0.58184969 0.83989567 0
2.6190002 0.57841343 0.84028894 0
2.6200001 0.5746904 0.84048551 0
2.6210003 0.57096374 0.84068215 0
2.6230001 0.56750947 0.84107536 0
2.6240003 0.56377381 0.841272 0
2.6250002 0.56003451 0.84146857 0
2.6270001 0.55656207 0.84186184 0
2.6280003 0.55281383 0.84205848 0
2.6300001 0.54932886 0.84245169 0
2.6310003 0.54557157 0.84264827 0
2.6320002 0.54181057 0.8428449 0
2.6340003 0.53830761 0.84323817 0
2.6350002 0.53453767 0.84343481 0
2.6360002 0.53076404 0.84363139 0
2.6380002 0.52724302 0.8440246 0
2.6390002 0.52346045 0.84422123 0
2.6410003 0.51992679 0.84461445 0
2.6420002 0.51613516 0.84481108 0
2.6430001 0.51233995 0.84500766 0
2.6450002 0.50878823 0.84540093 0
2.6460001 0.50498402 0.84559751 0
2.6470003 0.50117624 0.84579414 0
2.6490002 0.49760646 0.84618735 0
2.6500001 0.49378961 0.84638393 0
2.6520002 0.49020725 0.8467772 0
2.6530001 0.48638135 0.84697378 0
2.6540003 0.48255187 0.84717047 0
2.6560001 0.47895151 0.84756362 0
2.6570003 0.47511297 0.84776032 0
2.6590002 0.47149992 0.84815347 0
2.6600001 0.46765244 0.84835011 0
2.6610003 0.46380132 0.84854674 0
2.6630001 0.46017021 0.84894001 0
2.6640003 0.45631009 0.84913659 0
2.6660001 0.45266637 0.8495298 0
2.6670003 0.44879726 0.84972644 0
2.6680002 0.44492441 0.84992307 0
2.6700003 0.44126275 0.85031629 0
2.6710002 0.43738094 0.85051292 0
2.6730001 0.43370655 0.85090613 0
2.6740003 0.42981577 0.85110271 0
2.6760001 0.42612872 0.85149598 0
2.6770003 0.42222896 0.85169262 0
2.6780002 0.41832548 0.85188925 0
2.6800003 0.41462046 0.85228246 0
2.6810002 0.41070801 0.85247904 0
2.6830001 0.40699035 0.85287225 0
2.6840003 0.4030689 0.85306895 0
2.6860001 0.39933857 0.8534621 0
2.6870003 0.39540812 0.8536588 0
2.6880002 0.39147401 0.85385537 0
2.6900003 0.38772571 0.85424858 0
2.6910002 0.38378257 0.85444522 0
2.6930003 0.38002163 0.85483849 0
2.6940002 0.37606949 0.85503507 0
2.5560002 0.7473582 0.82401317 0
2.5570002 0.74383527 0.82420796 0
2.5580001 0.74030882 0.82440275 0
2.5600002 0.73714137 0.82479239 0
2.5610001 0.73360592 0.82498717 0
2.5620003 0.7300669 0.82518202 0
2.5630002 0.72652417 0.82537681 0
2.5650003 0.72333324 0.82576644 0
2.5660002 0.71978152 0.82596123 0
2.5670002 0.71622616 0.82615608 0
2.5690002 0.71301728 0.82654572 0
2.5700002 0.70945293 0.8267405 0
2.5710001 0.70588493 0.82693529 0
2.5720003 0.70231342 0.82713014 0
2.5740001 0.699081 0.82751977 0
2.5750003 0.69550049 0.82771456 0
2.5760002 0.69191629 0.82790935 0
2.5780003 0.68866587 0.82829905 0
2.5790002 0.68507266 0.82849383 0
2.5800002 0.68147588 0.82868862 0
2.5820003 0.6782074 0.82907826 0
2.5830002 0.67460155 0.82927305 0
2.5840001 0.67099208 0.82946789 0
2.5850003 0.66737914 0.82966268 0
2.5870001 0.66408712 0.83005226 0
2.5880003 0.66046512 0.83024716 0
2.5890002 0.65683949 0.83044195 0
2.5910003 0.65352947 0.83083153 0
2.5920002 0.64989477 0.83102638 0
2.5930002 0.64625651 0.83122116 0
2.5950003 0.64292848 0.8316108 0
2.5960002 0.63928115 0.83180559 0
2.5970001 0.63563025 0.83200037 0
2.5990002 0.63228422 0.83239007 0
2.6000001 0.62862426 0.83258486 0
2.6010003 0.62496078 0.83277965 0
2.6030002 0.62159663 0.83316928 0
2.6040001 0.61792403 0.83336407 0
2.6050003 0.61424792 0.83355892 0
2.6070001 0.61086577 0.83394849 0
2.6080003 0.60718066 0.8341434 0
2.6090002 0.60349184 0.83433813 0
2.6110003 0.6000917 0.83472776 0
2.6120002 0.59639382 0.83492255 0
2.6130002 0.59269243 0.8351174 0
2.6150002 0.58927423 0.83550704 0
2.6160002 0.58556378 0.83570182 0
2.6170001 0.58184969 0.83589661 0
2.6190002 0.57841343 0.83628625 0
2.6200001 0.5746904 0.83648109 0
2.6210003 0.57096374 0.83667588 0
2.6230001 0.56750947 0.83706546 0
2.6240003 0.56377381 0.83726037 0
2.6250002 0.56003451 0.83745515 0
2.6270001 0.55656207 0.83784473 0
2.6280003 0.55281383 0.83803958 0
2.6300001 0.54932886 0.83842915 0
2.6310003 0.54557157 0.838624 0
2.6320002 0.54181057 0.83881879 0
2.6340003 0.53830761 0.83920848 0
2.6350002 0.53453767 0.83940327 0
2.6360002 0.53076404 0.83959806 0
2.6380002 0.52724302 0.83998764 0
2.6390002 0.52346045 0.84018248 0
2.6410003 0.51992679 0.84057212 0
2.6420002 0.51613516 0.84076691 0
2.6430001 0.51233995 0.84096169 0
2.6450002 0.50878823 0.84135139 0
2.6460001 0.50498402 0.84154618 0
2.6470003 0.50117624 0.84174097 0
2.6490002 0.49760646 0.8421306 0
2.6500001 0.49378961 0.84232539 0
2.6520002 0.49020725 0.84271502 0
2.6530001 0.48638135 0.84290981 0
2.6540003 0.48255187 0.84310472 0
2.6560001 0.47895151 0.8434943 0
2.6570003 0.47511297 0.84368908 0
2.6590002 0.47149992 0.84407866 0
2.6600001 0.46765244 0.84427351 0
2.6610003 0.46380132 0.84446836 0
2.6630001 0.46017021 0.84485793 0
2.6640003 0.45631009 0.84505284 0
2.6660001 0.45266637 0.84544235 0
2.6670003 0.44879726 0.8456372 0
2.6680002 0.44492441 0.84583199 0
2.6700003 0.44126275 0.84622169 0
2.6710002 0.43738094 0.84641647 0
2.6730001 0.43370655 0.84680605 0
2.6740003 0.42981577 0.8470009 0
2.6760001 0.42612872 0.84739047 0
2.6770003 0.42222896 0.84758532 0
2.6780002 0.41832548 0.84778011 0
2.6800003 0.41462046 0.8481698 0
2.6810002 0.41070801 0.84836459 0
2.6830001 0.40699035 0.84875417 0
2.6840003 0.4030689 0.84894896 0
2.6860001 0.39933857 0.84933859 0
2.6870003 0.39540812 0.84953344 0
2.6880002 0.39147401 0.84972823 0
2.6900003 0.38772571 0.85011792 0
2.6910002 0.38378257 0.85031271 0
2.6930003 0.38002163 0.85070229 0
2.6940002 0.37606949 0.85089707 0
2.5560002 0.7473582 0.82012415 0
2.5570002 0.74383527 0.82031715 0
2.5580001 0.74030882 0.82051015 0
2.5600002 0.73714137 0.82089615 0
2.5610001 0.73360592 0.82108915 0
2.5620003 0.7300669 0.82128221 0
2.5630002 0.72652417 0.82147515 0
2.5650003 0.72333324 0.82186121 0
2.5660002 0.71978152 0.82205421 0
2.5670002 0.71622616 0.82224721 0
2.5690002 0.71301728 0.82263327 0
2.5700002 0.70945293 0.82282627 0
2.5710001 0.70588493 0.82301927 0
2.5720003 0.70231342 0.82321227 0
2.5740001 0.699081 0.82359827 0
2.5750003 0.69550049 0.82379127 0
2.5760002 0.69191629 0.82398427 0
2.5780003 0.68866587 0.82437032 0
2.5790002 0.68507266 0.82456332 0
2.5800002 0.68147588 0.82475632 0
2.5820003 0.6782074 0.82514238 0
2.5830002 0.67460155 0.82533538 0
2.5840001 0.67099208 0.82552838 0
2.5850003 0.66737914 0.82572138 0
2.5870001 0.66408712 0.82610738 0
2.5880003 0.66046512 0.82630038 0
2.5890002 0.65683949 0.82649338 0
2.5910003 0.65352947 0.82687944 0
2.5920002 0.64989477 0.82707244 0
2.5930002 0.64625651 0.82726538 0
2.5950003 0.64292848 0.82765144 0
2.5960002 0.63928115 0.82784444 0
2.5970001 0.63563025 0.82803744 0
2.5990002 0.63228422 0.8284235 0
2.6000001 0.62862426 0.8286165 0
2.6010003 0.62496078 0.8288095 0
2.6030002 0.62159663 0.8291955 0
2.6040001 0.61792403 0.8293885 0
2.6050003 0.61424792 0.8295815 0
2.6070001 0.61086577 0.8299675 0
2.6080003 0.60718066 0.8301605 0
2.6090002 0.60349184 0.8303535 0
2.6110003 0.6000917 0.83073962 0
2.6120002 0.59639382 0.83093262 0
2.6130002 0.59269243 0.83112556 0
2.6150002 0.58927423 0.83151162 0
2.6160002 0.58556378 0.83170462 0
2.6170001 0.58184969 0.83189756 0
2.6190002 0.57841343 0.83228362 0
2.6200001 0.5746904 0.83247662 0
2.6210003 0.57096374 0.83266962 0
2.6230001 0.56750947 0.83305562 0
2.6240003 0.56377381 0.83324867 0
2.6250002 0.56003451 0.83344167 0
2.6270001 0.55656207 0.83382761 0
2.6280003 0.55281383 0.83402067 0
2.6300001 0.54932886 0.83440667 0
2.6310003 0.54557157 0.83459973 0
2.6320002 0.54181057 0.83479273 0
2.6340003 0.53830761 0.83517873 0
2.6350002 0.53453767 0.83537173 0
2.6360002 0.53076404 0.83556473 0
2.6380002 0.52724302 0.83595073 0
2.6390002 0.52346045 0.83614373 0
2.6410003 0.51992679 0.83652979 0
2.6420002 0.51613516 0.83672279 0
2.6430001 0.51233995 0.83691579 0
2.6450002 0.50878823 0.83730185 0
2.6460001 0.50498402 0.83749485 0
2.6470003 0.50117624 0.83768785 0
2.6490002 0.49760646 0.83807385 0
2.6500001 0.49378961 0.83826685 0
2.6520002 0.49020725 0.83865285 0
2.6530001 0.48638135 0.83884585 0
2.6540003 0.48255187 0.83903891 0
2.6560001 0.47895151 0.83942485 0
2.6570003 0.47511297 0.83961791 0
2.6590002 0.47149992 0.84000391 0
2.6600001 0.46765244 0.84019685 0
2.6610003 0.46380132 0.84038997 0
2.6630001 0.46017021 0.84077597 0
2.6640003 0.45631009 0.84096897 0
2.6660001 0.45266637 0.84135497 0
2.6670003 0.44879726 0.84154797 0
2.6680002 0.44492441 0.84174097 0
2.6700003 0.44126275 0.84212703 0
2.6710002 0.43738094 0.84231997 0
2.6730001 0.43370655 0.84270597 0
2.6740003 0.42981577 0.84289908 0
2.6760001 0.42612872 0.84328502 0
2.6770003 0.42222896 0.84347808 0
2.6780002 0.41832548 0.84367108 0
2.6800003 0.41462046 0.84405708 0
2.6810002 0.41070801 0.84425008 0
2.6830001 0.40699035 0.84463608 0
2.6840003 0.4030689 0.84482908 0
2.6860001 0.39933857 0.84521508 0
2.6870003 0.39540812 0.84540814 0
2.6880002 0.39147401 0.84560114 0
2.6900003 0.38772571 0.84598714 0
2.6910002 0.38378257 0.84618014 0
2.6930003 0.38002163 0.8465662 0
2.6940002 0.37606949 0.8467592 0
2.5560002 0.7473582 0.81623513 0
2.5570002 0.74383527 0.81642634 0
2.5580001 0.74030882 0.81661749 0
2.5600002 0.73714137 0.81699991 0
2.5610001 0.73360592 0.81719112 0
2.5620003 0.7300669 0.81738234 0
2.5630002 0.72652417 0.81757355 0
2.5650003 0.72333324 0.81795597 0
2.5660002 0.71978152 0.81814718 0
2.5670002 0.71622616 0.81833839 0
2.5690002 0.71301728 0.81872082 0
2.5700002 0.70945293 0.81891197 0
2.5710001 0.70588493 0.81910318 0
2.5720003 0.70231342 0.81929445 0
2.5740001 0.699081 0.81967676 0
2.5750003 0.69550049 0.81986803 0
2.5760002 0.69191629 0.82005918 0
2.5780003 0.68866587 0.8204416 0
2.5790002 0.68507266 0.82063282 0
2.5800002 0.68147588 0.82082403 0
2.5820003 0.6782074 0.82120645 0
2.5830002 0.67460155 0.82139766 0
2.5840001 0.67099208 0.82158881 0
2.5850003 0.66737914 0.82178009 0
2.5870001 0.66408712 0.82216245 0
2.5880003 0.66046512 0.82235366 0
2.5890002 0.65683949 0.82254481 0
2.5910003 0.65352947 0.82292724 0
2.5920002 0.64989477 0.82311845 0
2.5930002 0.64625651 0.82330966 0
2.5950003 0.64292848 0.82369208 0
2.5960002 0.63928115 0.8238833 0
2.5970001 0.63563025 0.82407451 0
2.5990002 0.63228422 0.82445693 0
2.6000001 0.62862426 0.82464808 0
2.6010003 0.62496078 0.82483935 0
2.6030002 0.62159663 0.82522166 0
2.6040001 0.61792403 0.82541287 0
2.6050003 0.61424792 0.82560408 0
2.6070001 0.61086577 0.8259865 0
2.6080003 0.60718066 0.82617772 0
2.6090002 0.60349184 0.82636893 0
2.6110003 0.6000917 0.82675135 0
2.6120002 0.59639382 0.82694256 0
2.6130002 0.59269243 0.82713372 0
2.6150002 0.58927423 0.82751614 0
2.6160002 0.58556378 0.82770735 0
2.6170001 0.58184969 0.8278985 0
2.6190002 0.57841343 0.82828093 0
2.6200001 0.5746904 0.82847214 0
2.6210003 0.57096374 0.82866341 0
2.6230001 0.56750947 0.82904577 0
2.6240003 0.56377381 0.82923698 0
2.6260002 0.56030685 0.82961941 0
2.6270001 0.55656207 0.82981056 0
2.6280003 0.55281383 0.83000183 0
2.6300001 0.54932886 0.83038419 0
2.6310003 0.54557157 0.83057547 0
2.6320002 0.54181057 0.83076662 0
2.6340003 0.53830761 0.83114904 0
2.6350002 0.53453767 0.83134019 0
2.6360002 0.53076404 0.83153141 0
2.6380002 0.52724302 0.83191383 0
2.6390002 0.52346045 0.83210504 0
2.6410003 0.51992679 0.83248746 0
2.6420002 0.51613516 0.83267868 0
2.6430001 0.51233995 0.83286983 0
2.6450002 0.50878823 0.83325231 0
2.6460001 0.50498402 0.83344346 0
2.6470003 0.50117624 0.83363467 0
2.6490002 0.49760646 0.83401704 0
2.6500001 0.49378961 0.83420825 0
2.6520002 0.49020725 0.83459067 0
2.6530001 0.48638135 0.83478189 0
2.6540003 0.48255187 0.8349731 0
2.6560001 0.47895151 0.83535552 0
2.6570003 0.47511297 0.83554673 0
2.6590002 0.47149992 0.8359291 0
2.6600001 0.46765244 0.83612025 0
2.6610003 0.46380132 0.83631152 0
2.6630001 0.46017021 0.83669388 0
2.6640003 0.45631009 0.83688515 0
2.6660001 0.45266637 0.83726752 0
2.6670003 0.44879726 0.83745873 0
2.6680002 0.44492441 0.83764994 0
2.6700003 0.44126275 0.83803236 0
2.6710002 0.43738094 0.83822358 0
2.6730001 0.43370655 0.83860594 0
2.6740003 0.42981577 0.83879721 0
2.6760001 0.42612872 0.83917952 0
2.6770003 0.42222896 0.83937079 0
2.6780002 0.41832548 0.839562 0
2.6800003 0.41462046 0.83994442 0
2.6810002 0.41070801 0.84013557 0
2.6830001 0.40699035 0.840518 0
2.6840003 0.4030689 0.84070921 0
2.6860001 0.39933857 0.84109157 0
2.6870003 0.39540812 0.84128284 0
2.6880002 0.39147401 0.84147406 0
2.6900003 0.38772571 0.84185648 0
2.6910002 0.38378257 0.84204763 0
2.6930003 0.38002163 0.84243006 0
2.6940002 0.37606949 0.84262121 0
2.5560002 0.7473582 0.8123461 0
2.5570002 0.74383527 0.81253552 0
2.5580001 0.74030882 0.81272489 0
2.5600002 0.73714137 0.81310368 0
2.5610001 0.73360592 0.8132931 0
2.5620003 0.7300669 0.81348252 0
2.5630002 0.72652417 0.81367195 0
2.5650003 0.72333324 0.81405079 0
2.5660002 0.71978152 0.8142401 0
2.5670002 0.71622616 0.81442952 0
2.5690002 0.71301728 0.81480831 0
2.5700002 0.70945293 0.81499767 0
2.5710001 0.70588493 0.8151871 0
2.5720003 0.70231342 0.81537652 0
2.5740001 0.699081 0.81575531 0
2.5750003 0.69550049 0.81594473 0
2.5760002 0.69191629 0.8161341 0
2.5780003 0.68866587 0.81651294 0
2.5790002 0.68507266 0.81670237 0
2.5800002 0.68147588 0.81689173 0
2.5820003 0.6782074 0.81727052 0
2.5830002 0.67460155 0.81745994 0
2.5840001 0.67099208 0.8176493 0
2.5850003 0.66737914 0.81783873 0
2.5870001 0.66408712 0.81821752 0
2.5880003 0.66046512 0.81840694 0
2.5890002 0.65683949 0.81859636 0
2.5910003 0.65352947 0.81897515 0
2.5920002 0.64989477 0.81916451 0
2.5930002 0.64625651 0.81935394 0
2.5950003 0.64292848 0.81973273 0
2.5960002 0.63928115 0.81992209 0
2.5970001 0.63563025 0.82011151 0
