# .PCD v0.7 - Point Cloud Data file format
VERSION 0.7
FIELDS x y z intensity
SIZE 4 4 4 4
TYPE F F F F
COUNT 1 1 1 1
WIDTH 1446
HEIGHT 1
VIEWPOINT 0 0 0 1 0 0 0
POINTS 1446
DATA ascii
2.7410002 1.1701419 0.75448537 0
2.7420001 1.1664368 0.7546351 0
2.7440002 1.1632441 0.75493449 0
2.7460003 1.1600442 0.755234 0
2.7480001 1.1568371 0.75553334 0
2.7490003 1.1531123 0.75568306 0
2.7510002 1.1498923 0.75598252 0
2.7530003 1.1466655 0.75628197 0
2.7550001 1.1434312 0.75658137 0
2.7560003 1.1396865 0.75673115 0
2.7580001 1.1364396 0.75703049 0
2.7600002 1.1331855 0.75732994 0
2.7620003 1.1299243 0.75762939 0
2.7640002 1.1266557 0.75792885 0
2.7650001 1.1228857 0.75807858 0
2.7670002 1.1196047 0.75837803 0
2.7690003 1.1163163 0.75867742 0
2.7710001 1.1130207 0.75897682 0
2.7720003 1.109231 0.75912654 0
2.7740002 1.1059227 0.759426 0
2.7760003 1.1026074 0.75972545 0
2.7780001 1.0992848 0.76002485 0
2.7800002 1.0959549 0.7603243 0
2.7810001 1.0921398 0.76047397 0
2.7830002 1.0887975 0.76077342 0
2.7850003 1.0854478 0.76107287 0
2.7870002 1.0820909 0.76137233 0
2.7890003 1.0787268 0.76167178 0
2.7910001 1.0753554 0.76197112 0
2.7920003 1.0715098 0.7621209 0
2.7940001 1.0681257 0.7624203 0
2.7960002 1.0647346 0.76271975 0
2.7980001 1.0613362 0.76301914 0
2.8000002 1.0579306 0.76331866 0
2.8020003 1.0545179 0.76361805 0
2.8030002 1.0506414 0.76376772 0
2.8050003 1.0472161 0.76406717 0
2.8070002 1.0437834 0.76436663 0
2.7580001 1.0130916 0.75703049 0
2.7520001 1.0061541 0.75613225 0
2.7480001 1.0001293 0.75553334 0
2.7450001 0.99456275 0.75508422 0
2.7430003 0.98944902 0.75478482 0
2.7420001 0.98478258 0.7546351 0
2.7410002 0.98011982 0.75448537 0
2.7400002 0.97546053 0.75433564 0
2.7400002 0.97123969 0.75433564 0
2.7410002 0.96745157 0.75448537 0
2.7420001 0.96365988 0.7546351 0
2.7430003 0.95986485 0.75478482 0
2.7450001 0.9564935 0.75508422 0
2.7460003 0.95268935 0.755234 0
2.7490003 0.94972926 0.75568306 0
2.7510002 0.94633627 0.75598252 0
2.7550001 0.94377661 0.75658137 0
2.7580001 0.9407841 0.75703049 0
2.7620003 0.93819755 0.75762939 0
2.7670002 0.93601125 0.75837803 0
2.7720003 0.93380702 0.75912654 0
2.7780001 0.93199593 0.76002485 0
2.7870002 0.93139166 0.76137233 0
2.7980001 0.93157023 0.76301914 0
2.6330001 1.2308455 0.7342881 0
2.6250002 1.2222576 0.73310483 0
2.6200001 1.215403 0.73236525 0
2.6170001 1.2096994 0.73192155 0
2.6150002 1.2045712 0.73162568 0
2.6130002 1.1994501 0.73132986 0
2.6120002 1.1948974 0.73118198 0
2.6120002 1.1909074 0.73118198 0
2.6120002 1.1869174 0.73118198 0
2.6130002 1.1834829 0.73132986 0
2.6130002 1.179491 0.73132986 0
2.6140001 1.1760511 0.7314778 0
2.6150002 1.1726078 0.73162568 0
2.6170001 1.169709 0.73192155 0
2.6190002 1.1668031 0.73221731 0
2.6210003 1.16389 0.73251319 0
2.6230001 1.1609695 0.73280901 0
2.6260002 1.1585832 0.73325276 0
2.6290002 1.1561859 0.73369646 0
2.6320002 1.1537778 0.73414016 0
2.6360002 1.1518947 0.73473185 0
2.6400001 1.1499969 0.73532355 0
2.6450002 1.148617 0.73606306 0
2.6500001 1.1472191 0.73680258 0
2.6560001 1.1463315 0.73769009 0
2.6620002 1.1454226 0.7385776 0
2.6710002 1.1460665 0.73990881 0
2.6850002 1.1492935 0.7419796 0
2.7390003 1.1733221 0.74996686 0
2.7410002 1.1701419 0.75026262 0
2.7420001 1.1664368 0.75041056 0
2.7440002 1.1632441 0.75070637 0
2.7460003 1.1600442 0.75100219 0
2.7480001 1.1568371 0.75129807 0
2.7490003 1.1531123 0.75144595 0
2.7510002 1.1498923 0.75174177 0
2.7530003 1.1466655 0.75203764 0
2.7550001 1.1434312 0.7523334 0
2.7560003 1.1396865 0.75248134 0
2.7580001 1.1364396 0.75277716 0
2.7600002 1.1331855 0.75307298 0
2.7620003 1.1299243 0.75336885 0
2.7640002 1.1266557 0.75366461 0
2.7650001 1.1228857 0.75381255 0
2.7670002 1.1196047 0.75410837 0
2.7690003 1.1163163 0.75440419 0
2.7710001 1.1130207 0.75470001 0
2.7720003 1.109231 0.75484794 0
2.7740002 1.1059227 0.75514376 0
2.7760003 1.1026074 0.75543958 0
2.7780001 1.0992848 0.7557354 0
2.7800002 1.0959549 0.75603122 0
2.7810001 1.0921398 0.75617909 0
2.7830002 1.0887975 0.75647497 0
2.7850003 1.0854478 0.75677085 0
2.7870002 1.0820909 0.75706661 0
2.7890003 1.0787268 0.75736248 0
2.7910001 1.0753554 0.75765824 0
2.7920003 1.0715098 0.75780618 0
2.7940001 1.0681257 0.75810194 0
2.7960002 1.0647346 0.75839782 0
2.7980001 1.0613362 0.75869364 0
2.8000002 1.0579306 0.75898945 0
2.8020003 1.0545179 0.75928533 0
2.8030002 1.0506414 0.75943321 0
2.8050003 1.0472161 0.75972903 0
2.8070002 1.0437834 0.76002485 0
2.7560003 1.0121933 0.75248134 0
2.7500002 1.0052595 0.75159383 0
2.7460003 0.99923837 0.75100219 0
2.7430003 0.99367547 0.7505585 0
2.7410002 0.98856521 0.75026262 0
2.7390003 0.98346233 0.74996686 0
2.7390003 0.97924316 0.74996686 0
2.7380002 0.97458744 0.74981892 0
2.7380002 0.97037017 0.74981892 0
2.7390003 0.96658587 0.74996686 0
2.7390003 0.9623667 0.74996686 0
2.7410002 0.95900619 0.75026262 0
2.7420001 0.95521092 0.75041056 0
2.7440002 0.95183784 0.75070637 0
2.7460003 0.9484576 0.75100219 0
2.7490003 0.94549215 0.75144595 0
2.7520001 0.94251573 0.75188971 0
2.7550001 0.93952858 0.7523334 0
2.7590003 0.93694752 0.7529251 0
2.7640002 0.93476659 0.75366461 0
2.7690003 0.93256778 0.75440419 0
2.7760003 0.93117344 0.75543958 0
2.7840002 0.93016332 0.75662291 0
2.7940001 0.92993957 0.75810194 0
2.6310003 1.2297019 0.72996801 0
2.6220002 1.2205476 0.72865307 0
2.6170001 1.2136984 0.72792244 0
2.6140001 1.2080002 0.72748411 0
2.6120002 1.2028774 0.72719193 0
2.6110003 1.1983248 0.72704589 0
2.6100001 1.1937754 0.72689974 0
2.6100001 1.1897891 0.72689974 0
2.6100001 1.1858026 0.72689974 0
2.6100001 1.1818161 0.72689974 0
2.6110003 1.1783836 0.72704589 0
2.6120002 1.1749474 0.72719193 0
2.6130002 1.1715074 0.72733808 0
2.6150002 1.1686124 0.72763026 0
2.6170001 1.1657099 0.72792244 0
2.6190002 1.1628004 0.72821474 0
2.6210003 1.1598837 0.72850692 0
2.6240003 1.157501 0.72894526 0
2.6270001 1.1551071 0.72938353 0
2.6300001 1.1527026 0.72982192 0
2.6340003 1.1508232 0.73040634 0
2.6380002 1.1489292 0.73099077 0
2.6420002 1.1470207 0.73157519 0
2.6470003 1.1456282 0.73230577 0
2.6530001 1.1447461 0.73318237 0
2.6600001 1.144369 0.73420513 0
2.6690001 1.1450167 0.73552012 0
2.6820002 1.1477242 0.73741955 0
2.7390003 1.1733221 0.74574769 0
2.7410002 1.1701419 0.74603993 0
2.7420001 1.1664368 0.74618602 0
2.7440002 1.1632441 0.74647826 0
2.7460003 1.1600442 0.7467705 0
2.7480001 1.1568371 0.74706268 0
2.7490003 1.1531123 0.74720883 0
2.7510002 1.1498923 0.74750102 0
2.7530003 1.1466655 0.74779326 0
2.7550001 1.1434312 0.74808544 0
2.7560003 1.1396865 0.74823153 0
2.7580001 1.1364396 0.74852377 0
2.7600002 1.1331855 0.74881601 0
2.7620003 1.1299243 0.7491082 0
2.7640002 1.1266557 0.74940044 0
2.7650001 1.1228857 0.74954653 0
2.7670002 1.1196047 0.74983871 0
2.7690003 1.1163163 0.75013101 0
2.7710001 1.1130207 0.75042319 0
2.7720003 1.109231 0.75056934 0
2.7740002 1.1059227 0.75086153 0
2.7760003 1.1026074 0.75115371 0
2.7780001 1.0992848 0.75144589 0
2.7800002 1.0959549 0.75173819 0
2.7810001 1.0921398 0.75188428 0
2.7830002 1.0887975 0.75217652 0
2.7850003 1.0854478 0.75246871 0
2.7870002 1.0820909 0.75276089 0
2.7890003 1.0787268 0.75305319 0
2.7910001 1.0753554 0.75334537 0
2.7920003 1.0715098 0.75349146 0
2.7940001 1.0681257 0.7537837 0
2.7960002 1.0647346 0.75407588 0
2.7980001 1.0613362 0.75436813 0
2.8000002 1.0579306 0.75466037 0
2.8020003 1.0545179 0.75495255 0
2.8030002 1.0506414 0.75509864 0
2.8050003 1.0472161 0.75539088 0
2.8070002 1.0437834 0.75568306 0
2.7540002 1.011295 0.74793935 0
2.7480001 1.0043647 0.74706268 0
2.7440002 0.99834728 0.74647826 0
2.7410002 0.99278796 0.74603993 0
2.7390003 0.98768139 0.74574769 0
2.7370002 0.98258197 0.7454555 0
2.7360003 0.97792816 0.74530941 0
2.7360003 0.97371447 0.74530941 0
2.7360003 0.96950078 0.74530941 0
2.7360003 0.96528709 0.74530941 0
2.7370002 0.96150446 0.7454555 0
2.7380002 0.95771825 0.74560159 0
2.7400002 0.95435596 0.74589384 0
2.7410002 0.95056075 0.74603993 0
2.7440002 0.94760972 0.74647826 0
2.7460003 0.94422585 0.7467705 0
2.7490003 0.94125497 0.74720883 0
2.7530003 0.93869174 0.74779326 0
2.7570002 0.93611407 0.74837768 0
2.7610002 0.93352199 0.74896204 0
2.7670002 0.93174165 0.74983871 0
2.7730002 0.92993957 0.75071537 0
2.7810001 0.92893487 0.75188428 0
2.7910001 0.92871666 0.75334537 0
2.6280003 1.2279865 0.72551084 0
2.6200001 1.2194076 0.72435635 0
2.6150002 1.2125621 0.72363484 0
2.6120002 1.2068675 0.72320193 0
2.6100001 1.2017483 0.72291327 0
2.6090002 1.197199 0.72276902 0
2.6080003 1.1926535 0.72262472 0
2.6080003 1.1886706 0.72262472 0
2.6080003 1.1846879 0.72262472 0
2.6080003 1.1807052 0.72262472 0
2.6090002 1.177276 0.72276902 0
2.6100001 1.1738433 0.72291327 0
2.6110003 1.1704071 0.72305763 0
2.6120002 1.1669673 0.72320193 0
2.6140001 1.1640702 0.72349048 0
2.6170001 1.1617109 0.72392344 0
2.6190002 1.1587977 0.72421205 0
2.6220002 1.1564186 0.72464496 0
2.6240003 1.1534892 0.72493362 0
2.6280003 1.1516277 0.72551084 0
2.6310003 1.1492161 0.72594368 0
2.6350002 1.1473274 0.72652096 0
2.6400001 1.1459564 0.72724247 0
2.6450002 1.1445675 0.72796392 0
2.6510003 1.143689 0.72882986 0
2.6580002 1.1433158 0.72983992 0
2.6670003 1.1439669 0.73113871 0
2.6800003 1.1466781 0.7330147 0
2.7390003 1.1733221 0.74152863 0
2.7410002 1.1701419 0.74181724 0
2.7420001 1.1664368 0.74196148 0
2.7440002 1.1632441 0.74225008 0
2.7460003 1.1600442 0.74253881 0
2.7480001 1.1568371 0.7428273 0
2.7490003 1.1531123 0.74297166 0
2.7510002 1.1498923 0.74326026 0
2.7530003 1.1466655 0.74354887 0
2.7550001 1.1434312 0.74383748 0
2.7560003 1.1396865 0.74398178 0
2.7580001 1.1364396 0.74427038 0
2.7600002 1.1331855 0.74455905 0
2.7620003 1.1299243 0.74484766 0
2.7640002 1.1266557 0.74513626 0
2.7650001 1.1228857 0.7452805 0
2.7670002 1.1196047 0.74556911 0
2.7690003 1.1163163 0.74585778 0
2.7710001 1.1130207 0.74614632 0
2.7720003 1.109231 0.74629068 0
2.7740002 1.1059227 0.74657929 0
2.7760003 1.1026074 0.7468679 0
2.7780001 1.0992848 0.7471565 0
2.7800002 1.0959549 0.74744511 0
2.7810001 1.0921398 0.74758941 0
2.7830002 1.0887975 0.74787802 0
2.7850003 1.0854478 0.74816668 0
2.7870002 1.0820909 0.74845523 0
2.7890003 1.0787268 0.74874383 0
2.7910001 1.0753554 0.74903244 0
2.7920003 1.0715098 0.74917674 0
2.7940001 1.0681257 0.74946535 0
2.7960002 1.0647346 0.74975395 0
2.7980001 1.0613362 0.75004256 0
2.8000002 1.0579306 0.75033116 0
2.8020003 1.0545179 0.75061983 0
2.8030002 1.0506414 0.75076413 0
2.8050003 1.0472161 0.75105274 0
2.8070002 1.0437834 0.75134134 0
2.7520001 1.0103966 0.74340457 0
2.7460003 1.0034701 0.74253881 0
2.7410002 0.99701059 0.74181724 0
2.7380002 0.99145663 0.74138427 0
2.7360003 0.98635554 0.74109572 0
2.7350001 0.98170161 0.74095142 0
2.7340002 0.9770515 0.74080706 0
2.7340002 0.97284138 0.74080706 0
2.7330003 0.96819663 0.74066281 0
2.7340002 0.96442127 0.74080706 0
2.7350001 0.96064222 0.74095142 0
2.7360003 0.95685971 0.74109572 0
2.7370002 0.95307344 0.74124002 0
2.7390003 0.94970936 0.74152863 0
2.7410002 0.946338 0.74181724 0
2.7440002 0.94338161 0.74225008 0
2.7470002 0.94041431 0.74268305 0
2.7500002 0.93743622 0.74311596 0
2.7540002 0.93486404 0.74369317 0
2.7590003 0.93269229 0.74441469 0
2.7640002 0.93050241 0.74513626 0
2.7700002 0.92870587 0.74600208 0
2.7780001 0.92770654 0.7471565 0
2.7880001 0.92749357 0.74859953 0
2.6260002 1.2268429 0.7212069 0
2.6180003 1.2182676 0.72006691 0
2.6130002 1.2114257 0.71935439 0
2.6100001 1.2057346 0.71892691 0
2.6080003 1.2006191 0.71864188 0
2.6070001 1.1960734 0.71849936 0
2.6060002 1.1915315 0.71835685 0
2.6060002 1.1875523 0.71835685 0
2.6050003 1.1830157 0.71821439 0
2.6060002 1.1795938 0.71835685 0
2.6070001 1.1761684 0.71849936 0
2.5980003 1.1672199 0.71721685 0
2.5990002 1.1638051 0.71735942 0
2.6010003 1.1609354 0.71764439 0
2.6120002 1.1629772 0.71921194 0
2.6140001 1.1600766 0.71949691 0
2.6160002 1.157169 0.71978188 0
2.6190002 1.1547951 0.72020936 0
2.6220002 1.1524105 0.7206369 0
2.6250002 1.1500151 0.72106445 0
2.6290002 1.1481445 0.72163439 0
2.6330001 1.1462595 0.72220439 0
2.6380002 1.1448922 0.72291696 0
2.6430001 1.1435069 0.72362942 0
2.6490002 1.142632 0.72448444 0
2.6560001 1.1422622 0.72548193 0
2.6650002 1.142917 0.72676444 0
2.6780002 1.1456318 0.72861695 0
2.7390003 1.1733221 0.73730952 0
2.7410002 1.1701419 0.73759449 0
2.7420001 1.1664368 0.737737 0
2.7440002 1.1632441 0.73802197 0
2.7460003 1.1600442 0.738307 0
2.7480001 1.1568371 0.73859203 0
2.7490003 1.1531123 0.73873448 0
2.7510002 1.1498923 0.73901951 0
2.7530003 1.1466655 0.73930454 0
2.7550001 1.1434312 0.73958951 0
2.7560003 1.1396865 0.73973203 0
2.7580001 1.1364396 0.740017 0
2.7600002 1.1331855 0.74030203 0
2.7620003 1.1299243 0.74058706 0
2.7640002 1.1266557 0.74087203 0
2.7650001 1.1228857 0.74101448 0
2.7670002 1.1196047 0.74129951 0
2.7690003 1.1163163 0.74158454 0
2.7710001 1.1130207 0.74186957 0
2.7720003 1.109231 0.74201202 0
2.7740002 1.1059227 0.74229705 0
2.7760003 1.1026074 0.74258202 0
2.7780001 1.0992848 0.74286699 0
2.7800002 1.0959549 0.74315202 0
2.7810001 1.0921398 0.74329448 0
2.7830002 1.0887975 0.74357951 0
2.7850003 1.0854478 0.74386454 0
2.7870002 1.0820909 0.74414957 0
2.7890003 1.0787268 0.7444346 0
2.7910001 1.0753554 0.74471951 0
2.7920003 1.0715098 0.74486208 0
2.7940001 1.0681257 0.74514705 0
2.7960002 1.0647346 0.74543202 0
2.7980001 1.0613362 0.74571705 0
2.8000002 1.0579306 0.74600208 0
2.8020003 1.0545179 0.74628705 0
2.8030002 1.0506414 0.74642956 0
2.8050003 1.0472161 0.74671459 0
2.8070002 1.0437834 0.7469995 0
2.7510002 1.0099475 0.73901951 0
2.7440002 1.0025754 0.73802197 0
2.7390003 0.9961195 0.73730952 0
2.7360003 0.99056923 0.73688203 0
2.7340002 0.98547161 0.73659694 0
2.7330003 0.98082149 0.73645449 0
2.7320001 0.97617483 0.73631197 0
2.7310002 0.97153187 0.73616946 0
2.7310002 0.96732712 0.73616946 0
2.7320001 0.96355534 0.73631197 0
2.7320001 0.95934892 0.73631197 0
2.7330003 0.95557177 0.73645449 0
2.7350001 0.95221841 0.73673952 0
2.7370002 0.94885796 0.73702455 0
2.7390003 0.9454903 0.73730952 0
2.7410002 0.94211531 0.73759449 0
2.7440002 0.93915349 0.73802197 0
2.7480001 0.93659925 0.73859203 0
2.7520001 0.93403065 0.73916197 0
2.7560003 0.93144768 0.73973203 0
2.7610002 0.92926317 0.74044454 0
2.7670002 0.927472 0.74129951 0
2.7750001 0.92647809 0.74243951 0
2.7840002 0.92586297 0.74372202 0
2.6230001 1.2251275 0.71676952 0
2.6150002 1.2165576 0.715644 0
2.6110003 1.2102894 0.71508121 0
2.6080003 1.204602 0.71465909 0
2.6060002 1.1994898 0.7143777 0
2.6040001 1.1943851 0.71409631 0
2.6040001 1.1904094 0.71409631 0
2.5920002 1.1797237 0.71240795 0
2.5900002 1.1746551 0.71212649 0
2.5900002 1.1707047 0.71212649 0
2.5900002 1.1667544 0.71212649 0
2.5900002 1.162804 0.71212649 0
2.5920002 1.1599541 0.71240795 0
2.5930002 1.1565484 0.71254861 0
2.5950003 1.1536858 0.71283001 0
2.5980003 1.1513608 0.71325213 0
2.6010003 1.1490247 0.71367419 0
2.6050003 1.1472192 0.71423697 0
2.6100001 1.1459384 0.71494043 0
2.6230001 1.14894 0.71676952 0
2.6270001 1.147073 0.7173323 0
2.6310003 1.1451917 0.71789515 0
2.6360002 1.1438279 0.7185986 0
2.6410003 1.1424463 0.71930212 0
2.6470003 1.1415751 0.7201463 0
2.6530001 1.1406821 0.72099042 0
2.6620002 1.1413423 0.72225672 0
2.6760001 1.1445855 0.72422647 0
2.7390003 1.1733221 0.7330904 0
2.7410002 1.1701419 0.73337179 0
2.7420001 1.1664368 0.73351246 0
2.7440002 1.1632441 0.73379385 0
2.7460003 1.1600442 0.73407531 0
2.7480001 1.1568371 0.73435664 0
2.7490003 1.1531123 0.73449737 0
2.7510002 1.1498923 0.73477876 0
2.7530003 1.1466655 0.73506016 0
2.7550001 1.1434312 0.73534155 0
2.7560003 1.1396865 0.73548228 0
2.7580001 1.1364396 0.73576361 0
2.7600002 1.1331855 0.73604506 0
2.7620003 1.1299243 0.73632646 0
2.7640002 1.1266557 0.73660779 0
2.7650001 1.1228857 0.73674852 0
2.7670002 1.1196047 0.73702991 0
2.7690003 1.1163163 0.7373113 0
2.7710001 1.1130207 0.7375927 0
2.7720003 1.109231 0.73773342 0
2.7740002 1.1059227 0.73801482 0
2.7760003 1.1026074 0.73829621 0
2.7780001 1.0992848 0.7385776 0
2.7800002 1.0959549 0.738859 0
2.7810001 1.0921398 0.73899966 0
2.7830002 1.0887975 0.73928106 0
2.7850003 1.0854478 0.73956251 0
2.7870002 1.0820909 0.73984385 0
2.7890003 1.0787268 0.74012524 0
2.7910001 1.0753554 0.74040663 0
2.7920003 1.0715098 0.74054736 0
2.7940001 1.0681257 0.74082875 0
2.7960002 1.0647346 0.74111015 0
2.7980001 1.0613362 0.74139154 0
2.8000002 1.0579306 0.74167293 0
2.8020003 1.0545179 0.74195433 0
2.8030002 1.0506414 0.74209499 0
2.8050003 1.0472161 0.74237645 0
2.8070002 1.0437834 0.74265778 0
2.8090003 1.0403435 0.74293917 0
2.7490003 1.0090493 0.73449737 0
2.7420001 1.0016806 0.73351246 0
2.7370002 0.99522841 0.73280901 0
2.7340002 0.98968172 0.73238689 0
2.7320001 0.98458779 0.73210549 0
2.7300003 0.97950101 0.73182416 0
2.7290001 0.97485983 0.73168337 0
2.7290001 0.97065866 0.73168337 0
2.7290001 0.96645772 0.73168337 0
2.7290001 0.96225667 0.73168337 0
2.7300003 0.9584868 0.73182416 0
2.7310002 0.95471311 0.73196483 0
2.7330003 0.95136344 0.73224622 0
2.7340002 0.94758087 0.73238689 0
2.7360003 0.94421858 0.73266834 0
2.7390003 0.94127119 0.7330904 0
2.7420001 0.93831283 0.73351246 0
2.7450001 0.93534374 0.73393458 0
2.7490003 0.93278068 0.73449737 0
2.7540002 0.93061787 0.73520082 0
2.7580001 0.92802393 0.73576361 0
2.7650001 0.92664951 0.73674852 0
2.7720003 0.92524976 0.73773342 0
2.7810001 0.92464 0.73899966 0
2.6210003 1.2239839 0.71248186 0
2.6130002 1.2154175 0.71137071 0
2.6080003 1.2085848 0.71067631 0
2.6050003 1.2029028 0.71025962 0
2.6040001 1.1983607 0.71012068 0
2.5890002 1.1859432 0.70803732 0
2.5860002 1.1803118 0.70762062 0
2.5840001 1.1752502 0.70734286 0
2.5830002 1.1707534 0.70720392 0
2.5820003 1.1662601 0.70706505 0
2.5820003 1.1623242 0.70706505 0
2.5830002 1.1589403 0.70720392 0
2.5840001 1.1555526 0.70734286 0
2.5850003 1.1521616 0.70748174 0
2.5880003 1.1498599 0.70789838 0
2.5910003 1.1475475 0.70831513 0
2.5930002 1.1446812 0.70859289 0
2.5980003 1.1434312 0.70928735 0
2.6020002 1.1416239 0.70984292 0
2.6070001 1.1403394 0.71053731 0
2.6130002 1.1395729 0.71137071 0
2.6290002 1.1441239 0.71359301 0
2.6330001 1.1422316 0.71414864 0
2.6380002 1.1408553 0.71484309 0
2.6440003 1.1399895 0.71567643 0
2.6510003 1.1396288 0.7166487 0
2.6600001 1.1402924 0.71789873 0
2.6730001 1.1430162 0.71970427 0
2.7390003 1.1733221 0.72887129 0
2.7410002 1.1701419 0.7291491 0
2.7420001 1.1664368 0.72928798 0
2.7440002 1.1632441 0.72956574 0
2.7460003 1.1600442 0.72984356 0
2.7480001 1.1568371 0.73012131 0
2.7490003 1.1531123 0.73026025 0
2.7510002 1.1498923 0.73053801 0
2.7530003 1.1466655 0.73081577 0
2.7550001 1.1434312 0.73109359 0
2.7560003 1.1396865 0.73123252 0
2.7580001 1.1364396 0.73151028 0
2.7600002 1.1331855 0.73178804 0
2.7620003 1.1299243 0.73206586 0
2.7640002 1.1266557 0.73234361 0
2.7650001 1.1228857 0.73248249 0
2.7670002 1.1196047 0.73276031 0
2.7690003 1.1163163 0.73303807 0
2.7710001 1.1130207 0.73331583 0
2.7720003 1.109231 0.73345476 0
2.7740002 1.1059227 0.73373258 0
2.7760003 1.1026074 0.73401034 0
2.7780001 1.0992848 0.7342881 0
2.7800002 1.0959549 0.73456591 0
2.7810001 1.0921398 0.73470479 0
2.7830002 1.0887975 0.73498261 0
2.7850003 1.0854478 0.73526037 0
2.7870002 1.0820909 0.73553813 0
2.7890003 1.0787268 0.735816 0
2.7910001 1.0753554 0.73609376 0
2.7920003 1.0715098 0.73623264 0
2.7940001 1.0681257 0.7365104 0
2.7960002 1.0647346 0.73678815 0
2.7980001 1.0613362 0.73706597 0
2.8000002 1.0579306 0.73734379 0
2.8020003 1.0545179 0.73762155 0
2.8030002 1.0506414 0.73776042 0
2.8050003 1.0472161 0.73803824 0
2.8070002 1.0437834 0.73831606 0
2.8090003 1.0403435 0.73859382 0
2.7470002 1.0081509 0.72998244 0
2.7400002 1.0007861 0.72901022 0
2.7350001 0.99433732 0.72831571 0
2.7320001 0.98879421 0.72789901 0
2.7300003 0.98370397 0.72762126 0
2.7280002 0.97862077 0.72734344 0
2.7270002 0.97398329 0.72720456 0
2.7270002 0.96978581 0.72720456 0
2.7260003 0.96515357 0.72706568 0
2.7270002 0.96139085 0.72720456 0
2.7280002 0.95762444 0.72734344 0
2.7290001 0.95385444 0.72748232 0
2.7300003 0.95008093 0.72762126 0
2.7320001 0.94672942 0.72789901 0
2.7340002 0.94337082 0.72817683 0
2.7360003 0.94000489 0.72845459 0
2.7390003 0.93705207 0.72887129 0
2.7430003 0.93450689 0.72942686 0
2.7460003 0.93153059 0.72984356 0
2.7510002 0.92937326 0.73053801 0
2.7560003 0.92719787 0.73123252 0
2.7620003 0.92541575 0.73206586 0
2.7690003 0.92402136 0.73303807 0
2.7780001 0.92341697 0.7342881 0
2.6110003 1.2142776 0.70710474 0
2.6060002 1.2074482 0.70641929 0
2.5910003 1.1949732 0.70436299 0
2.5860002 1.1881981 0.70367748 0
2.5810001 1.1814409 0.70299202 0
2.5790002 1.1763849 0.7027179 0
2.5770001 1.1713359 0.70244366 0
2.5750003 1.1662945 0.70216954 0
2.5750003 1.1623713 0.70216954 0
2.5740001 1.1578941 0.70203245 0
2.5750003 1.1545246 0.70216954 0
2.5760002 1.1511515 0.70230663 0
2.5780003 1.1483232 0.70258081 0
2.5800002 1.1454875 0.70285499 0
2.5830002 1.1431894 0.70326626 0
2.5860002 1.1408806 0.70367748 0
2.5900002 1.139102 0.70422584 0
2.5950003 1.1378484 0.70491129 0
2.6000001 1.1365767 0.70559675 0
2.6060002 1.1358227 0.70641929 0
2.6120002 1.135047 0.70724183 0
2.6200001 1.135314 0.7083385 0
2.6360002 1.1397947 0.71053195 0
2.6420002 1.1389323 0.71135449 0
2.6490002 1.1385752 0.71231413 0
2.6580002 1.1392428 0.71354795 0
2.6710002 1.14197 0.71533012 0
2.7390003 1.1733221 0.72465217 0
2.7410002 1.1701419 0.72492635 0
2.7420001 1.1664368 0.72506344 0
2.7440002 1.1632441 0.72533762 0
2.7460003 1.1600442 0.72561181 0
2.7480001 1.1568371 0.72588599 0
2.7490003 1.1531123 0.72602308 0
2.7510002 1.1498923 0.72629726 0
2.7530003 1.1466655 0.72657144 0
2.7550001 1.1434312 0.72684562 0
2.7560003 1.1396865 0.72698271 0
2.7580001 1.1364396 0.72725689 0
2.7600002 1.1331855 0.72753108 0
2.7620003 1.1299243 0.72780526 0
2.7640002 1.1266557 0.72807944 0
2.7650001 1.1228857 0.72821653 0
2.7670002 1.1196047 0.72849071 0
2.7690003 1.1163163 0.72876489 0
2.7710001 1.1130207 0.72903901 0
2.7720003 1.109231 0.72917616 0
2.7740002 1.1059227 0.72945035 0
2.7760003 1.1026074 0.72972453 0
2.7780001 1.0992848 0.72999865 0
2.7800002 1.0959549 0.73027283 0
2.7810001 1.0921398 0.73040998 0
2.7830002 1.0887975 0.73068416 0
2.7850003 1.0854478 0.73095828 0
2.7870002 1.0820909 0.73123246 0
2.7890003 1.0787268 0.73150665 0
2.7910001 1.0753554 0.73178083 0
2.7920003 1.0715098 0.73191798 0
2.7940001 1.0681257 0.73219204 0
2.7960002 1.0647346 0.73246628 0
2.7980001 1.0613362 0.7327404 0
2.8000002 1.0579306 0.73301464 0
2.8020003 1.0545179 0.73328882 0
2.8030002 1.0506414 0.73342586 0
2.8050003 1.0472161 0.7337001 0
2.8070002 1.0437834 0.73397422 0
2.8090003 1.0403435 0.73424846 0
2.7450001 1.0072527 0.72547472 0
2.7370002 0.99944401 0.72437799 0
2.7330003 0.99344635 0.72382963 0
2.7300003 0.98790681 0.72341835 0
2.7270002 0.98237813 0.72300708 0
2.7260003 0.97774065 0.72286999 0
2.7250001 0.97310662 0.7227329 0
2.7240002 0.96847618 0.72259581 0
2.7240002 0.96428418 0.72259581 0
2.7250001 0.96052492 0.7227329 0
2.7250001 0.95633101 0.7227329 0
2.7260003 0.95256668 0.72286999 0
2.7280002 0.9492259 0.72314417 0
2.7290001 0.94545227 0.72328126 0
2.7320001 0.94252294 0.72369254 0
2.7340002 0.93916065 0.72396672 0
2.7370002 0.93621153 0.72437799 0
2.7400002 0.93325138 0.72478926 0
2.7440002 0.93069726 0.72533762 0
2.7480001 0.9281286 0.72588599 0
2.7530003 0.92595863 0.72657144 0
2.7590003 0.92418188 0.72739398 0
2.7660003 0.92279291 0.72835362 0
2.7750001 0.922194 0.72958738 0
2.6080003 1.2125674 0.70271063 0
2.5900002 1.1983571 0.70027554 0
2.5820003 1.1898757 0.69919324 0
2.5780003 1.1836814 0.69865215 0
2.5730002 1.1769387 0.69797564 0
2.5710001 1.1718971 0.69770503 0
2.5690002 1.1668627 0.69743454 0
2.5670002 1.1618354 0.69716394 0
2.5670002 1.1579266 0.69716394 0
2.5670002 1.1540177 0.69716394 0
2.5680003 1.1506609 0.69729924 0
2.5690002 1.1473004 0.69743454 0
2.5700002 1.1439363 0.69756979 0
2.5730002 1.1416615 0.69797564 0
2.5760002 1.1393762 0.69838154 0
2.5780003 1.1365371 0.69865215 0
2.5830002 1.135314 0.69932854 0
2.5870001 1.1335336 0.69986963 0
2.5920002 1.1322764 0.70054609 0
2.5980003 1.1315368 0.70135784 0
2.6040001 1.1307756 0.70216954 0
2.6120002 1.131057 0.70325184 0
2.6210003 1.1318399 0.70446938 0
2.6400001 1.1378753 0.70703977 0
2.6470003 1.137522 0.70798683 0
2.6560001 1.1381929 0.70920432 0
2.7390003 1.1733221 0.72043312 0
2.7410002 1.1701419 0.72070366 0
2.7420001 1.1664368 0.7208389 0
2.7440002 1.1632441 0.72110951 0
2.7460003 1.1600442 0.72138011 0
2.7480001 1.1568371 0.7216506 0
2.7490003 1.1531123 0.7217859 0
2.7510002 1.1498923 0.72205651 0
2.7530003 1.1466655 0.72232705 0
2.7550001 1.1434312 0.7225976 0
2.7560003 1.1396865 0.7227329 0
2.7580001 1.1364396 0.72300351 0
2.7600002 1.1331855 0.72327411 0
2.7620003 1.1299243 0.72354466 0
2.7640002 1.1266557 0.7238152 0
2.7650001 1.1228857 0.72395051 0
2.7670002 1.1196047 0.72422111 0
2.7690003 1.1163163 0.72449166 0
2.7710001 1.1130207 0.7247622 0
2.7720003 1.109231 0.7248975 0
2.7740002 1.1059227 0.72516805 0
2.7760003 1.1026074 0.72543865 0
2.7780001 1.0992848 0.7257092 0
2.7800002 1.0959549 0.7259798 0
2.7810001 1.0921398 0.72611505 0
2.7830002 1.0887975 0.72638559 0
2.7850003 1.0854478 0.7266562 0
2.7870002 1.0820909 0.7269268 0
2.7890003 1.0787268 0.72719741 0
2.7910001 1.0753554 0.72746789 0
2.7920003 1.0715098 0.7276032 0
2.7940001 1.0681257 0.7278738 0
2.7960002 1.0647346 0.72814435 0
2.7980001 1.0613362 0.72841489 0
2.8000002 1.0579306 0.7286855 0
2.8020003 1.0545179 0.7289561 0
2.8030002 1.0506414 0.72909135 0
2.8050003 1.0472161 0.72936189 0
2.8070002 1.0437834 0.7296325 0
2.8090003 1.0403435 0.7299031 0
2.7430003 1.0063543 0.72097421 0
2.7350001 0.99854922 0.71989191 0
2.7300003 0.99210966 0.71921551 0
2.7270002 0.9865756 0.7188096 0
2.7250001 0.98149419 0.71853906 0
2.7240002 0.97686028 0.71840382 0
2.7220001 0.97179163 0.71813321 0
2.7220001 0.96760309 0.71813321 0
2.7220001 0.96341467 0.71813321 0
2.7220001 0.95922625 0.71813321 0
2.7230003 0.95546889 0.71826851 0
2.7140002 0.94741499 0.71705091 0
2.7150002 0.94366843 0.71718621 0
2.7170002 0.94034398 0.71745682 0
2.7190001 0.93701237 0.71772736 0
2.7320001 0.93831646 0.71948606 0
2.7340002 0.93495059 0.7197566 0
2.7380002 0.93241441 0.72029781 0
2.7410002 0.92944711 0.72070366 0
2.7460003 0.92729884 0.72138011 0
2.7500002 0.92471939 0.72192121 0
2.7560003 0.92294806 0.7227329 0
2.7630002 0.92156458 0.7236799 0
2.7720003 0.9209711 0.7248975 0
2.5820003 1.1938115 0.69525731 0
2.5740001 1.1853443 0.69418943 0
2.5700002 1.1791645 0.69365549 0
2.5650003 1.1724364 0.69298816 0
2.5630002 1.1674092 0.69272119 0
2.5610001 1.1623892 0.69245422 0
2.5600002 1.1579337 0.6923207 0
2.5600002 1.1540375 0.6923207 0
2.5590003 1.1495876 0.69218725 0
2.5600002 1.1462451 0.6923207 0
2.5610001 1.1428989 0.69245422 0
2.5630002 1.1400976 0.69272119 0
2.5650003 1.1372892 0.69298816 0
2.5680003 1.1350182 0.69338858 0
2.5710001 1.1327363 0.69378901 0
2.5750003 1.1309849 0.69432294 0
2.5800002 1.1297582 0.6949904 0
2.5850003 1.1285137 0.69565779 0
2.5910003 1.1277868 0.6964587 0
2.5970001 1.1270381 0.69725955 0
2.6050003 1.1273322 0.69832742 0
2.6130002 1.1275973 0.6993953 0
2.6240003 1.1294192 0.7008636 0
2.6440003 1.1359417 0.70353317 0
2.6530001 1.1366181 0.7047345 0
2.7390003 1.1733221 0.71621394 0
2.7410002 1.1701419 0.71648097 0
2.7420001 1.1664368 0.71661437 0
2.7440002 1.1632441 0.71688139 0
2.7460003 1.1600442 0.71714836 0
2.7480001 1.1568371 0.71741527 0
2.7490003 1.1531123 0.71754885 0
2.7510002 1.1498923 0.71781576 0
2.7530003 1.1466655 0.71808273 0
2.7550001 1.1434312 0.7183497 0
2.7560003 1.1396865 0.71848315 0
2.7580001 1.1364396 0.71875012 0
2.7600002 1.1331855 0.71901709 0
2.7620003 1.1299243 0.71928406 0
2.7640002 1.1266557 0.71955097 0
2.7650001 1.1228857 0.71968448 0
2.7670002 1.1196047 0.71995145 0
2.7690003 1.1163163 0.72021842 0
2.7710001 1.1130207 0.72048539 0
2.7720003 1.109231 0.72061884 0
2.7740002 1.1059227 0.72088587 0
2.7760003 1.1026074 0.72115278 0
2.7780001 1.0992848 0.72141975 0
2.7800002 1.0959549 0.72168672 0
2.7810001 1.0921398 0.72182018 0
2.7830002 1.0887975 0.72208714 0
2.7850003 1.0854478 0.72235417 0
2.7870002 1.0820909 0.72262108 0
2.7890003 1.0787268 0.72288805 0
2.7910001 1.0753554 0.72315502 0
2.7920003 1.0715098 0.72328854 0
2.7940001 1.0681257 0.72355545 0
2.7960002 1.0647346 0.72382247 0
2.7980001 1.0613362 0.72408938 0
2.8000002 1.0579306 0.72435635 0
2.8020003 1.0545179 0.72462332 0
2.8030002 1.0506414 0.72475684 0
2.8050003 1.0472161 0.72502375 0
2.8070002 1.0437834 0.72529078 0
2.8090003 1.0403435 0.72555768 0
2.7410002 1.005456 0.71648097 0
2.7330003 0.99765456 0.71541309 0
2.7280002 0.99121857 0.71474564 0
2.7250001 0.98568809 0.71434522 0
2.7230003 0.98061049 0.71407825 0
2.7210002 0.97553992 0.71381128 0
2.7200003 0.97091496 0.71367782 0
2.7100003 0.96236491 0.71234298 0
2.7070003 0.95689404 0.71194255 0
2.7060001 0.95229959 0.71180904 0
2.7060001 0.94813997 0.71180904 0
2.7060001 0.9439804 0.71180904 0
2.7070003 0.94024837 0.71194255 0
2.7080002 0.93651271 0.71207607 0
2.7100003 0.93319732 0.71234298 0
2.7140002 0.93071884 0.71287692 0
2.7170002 0.92780572 0.71327734 0
2.7220001 0.92571861 0.71394479 0
2.7270002 0.92361373 0.71461219 0
2.7430003 0.92605418 0.71674788 0
2.7480001 0.92389321 0.71741527 0
2.7540002 0.92212552 0.71821618 0
2.7600002 0.92033613 0.71901709 0
2.7690003 0.91974813 0.72021842 0
2.5740001 1.1892658 0.69026798 0
2.5670002 1.1813796 0.68934625 0
2.5620003 1.1746479 0.68868786 0
2.5580001 1.1684968 0.68816113 0
2.5560002 1.1634823 0.6878978 0
2.5540001 1.1584748 0.68763441 0
2.5520003 1.1534748 0.68737108 0
2.5520003 1.149593 0.68737108 0
2.5520003 1.1457112 0.68737108 0
2.5530002 1.1423813 0.68750274 0
2.5540001 1.1390479 0.68763441 0
2.5550003 1.1357108 0.68776613 0
2.5580001 1.1334633 0.68816113 0
2.5610001 1.1312048 0.68855619 0
2.5640001 1.1289357 0.68895119 0
2.5680003 1.127197 0.68947792 0
2.5720003 1.1254436 0.69000465 0
2.5770001 1.1242133 0.69066298 0
2.5830002 1.1235008 0.6914531 0
2.5890002 1.1227667 0.69224316 0
2.5970001 1.1230751 0.69329655 0
2.6060002 1.123885 0.69448173 0
2.6160002 1.125191 0.69579846 0
2.6280003 1.1275144 0.69737864 0
2.6510003 1.1355684 0.70040721 0
2.7390003 1.1733221 0.71199489 0
2.7410002 1.1701419 0.71225822 0
2.7420001 1.1664368 0.71238989 0
2.7440002 1.1632441 0.71265328 0
2.7460003 1.1600442 0.71291661 0
2.7480001 1.1568371 0.71317995 0
2.7490003 1.1531123 0.71331167 0
2.7510002 1.1498923 0.71357501 0
2.7530003 1.1466655 0.71383834 0
2.7550001 1.1434312 0.71410167 0
2.7560003 1.1396865 0.7142334 0
2.7580001 1.1364396 0.71449673 0
2.7600002 1.1331855 0.71476007 0
2.7620003 1.1299243 0.71502346 0
2.7640002 1.1266557 0.71528679 0
2.7650001 1.1228857 0.71541846 0
2.7670002 1.1196047 0.71568179 0
2.7690003 1.1163163 0.71594524 0
2.7710001 1.1130207 0.71620858 0
2.7720003 1.109231 0.71634024 0
2.7740002 1.1059227 0.71660358 0
2.7760003 1.1026074 0.71686697 0
2.7780001 1.0992848 0.7171303 0
2.7800002 1.0959549 0.71739364 0
2.7810001 1.0921398 0.71752536 0
2.7830002 1.0887975 0.7177887 0
2.7850003 1.0854478 0.71805203 0
2.7870002 1.0820909 0.71831536 0
2.7890003 1.0787268 0.71857882 0
2.7910001 1.0753554 0.71884209 0
2.7920003 1.0715098 0.71897376 0
2.7940001 1.0681257 0.71923715 0
2.7960002 1.0647346 0.71950054 0
2.7980001 1.0613362 0.71976388 0
2.8000002 1.0579306 0.72002721 0
2.8020003 1.0545179 0.72029054 0
2.8030002 1.0506414 0.72042227 0
2.8050003 1.0472161 0.7206856 0
2.8070002 1.0437834 0.72094893 0
2.8090003 1.0403435 0.72121233 0
2.7390003 1.0045578 0.71199489 0
2.7310002 0.99675989 0.71094143 0
2.7260003 0.99032748 0.71028304 0
2.7230003 0.9848007 0.70988798 0
2.7210002 0.97972655 0.70962465 0
2.7090001 0.97025824 0.70804453 0
2.7040002 0.96390164 0.70738614 0
2.7020001 0.95887268 0.7071228 0
2.7000003 0.95385092 0.70685941 0
2.6980002 0.94883633 0.70659608 0
2.6980002 0.94469118 0.70659608 0
2.6980002 0.94054598 0.70659608 0
2.6990001 0.93682826 0.70672774 0
2.7000003 0.93310714 0.70685941 0
2.7020001 0.92980617 0.7071228 0
2.7050002 0.92692 0.7075178 0
2.7080002 0.92402315 0.7079128 0
2.7130003 0.92195237 0.70857126 0
2.7180002 0.91986352 0.70922959 0
2.7250001 0.91858637 0.71015137 0
2.7330003 0.91769713 0.71120483 0
2.7510002 0.9208917 0.71357501 0
2.7570002 0.91910774 0.71436507 0
2.7660003 0.91852522 0.71555018 0
2.5660002 1.1847203 0.6853075 0
2.5590003 1.1768485 0.68439841 0
2.5540001 1.1701311 0.68374902 0
2.5500002 1.1639946 0.68322951 0
2.5480001 1.1589943 0.68296981 0
2.5460002 1.1540015 0.68271005 0
2.5450003 1.1495732 0.68258017 0
2.5450003 1.145704 0.68258017 0
2.5440001 1.141281 0.68245029 0
2.5450003 1.1379657 0.68258017 0
2.5470002 1.1351967 0.68283987 0
2.5480001 1.1318723 0.68296981 0
2.5510001 1.1296374 0.68335938 0
2.5530002 1.126847 0.68361914 0
2.5560002 1.1245922 0.68400878 0
2.5610001 1.1234088 0.68465811 0
2.5650003 1.1216683 0.68517768 0
2.5700002 1.1204506 0.68582702 0
2.5760002 1.1197507 0.68660629 0
2.5820003 1.1190293 0.6873855 0
2.5900002 1.1193502 0.68842447 0
2.5980003 1.1196425 0.6894635 0
2.6080003 1.1209629 0.69076228 0
2.6200001 1.1233006 0.6923207 0
2.7390003 1.1733221 0.70777577 0
2.7410002 1.1701419 0.70803547 0
2.7420001 1.1664368 0.70816535 0
2.7440002 1.1632441 0.7084251 0
2.7460003 1.1600442 0.70868492 0
2.7480001 1.1568371 0.70894456 0
2.7490003 1.1531123 0.7090745 0
2.7510002 1.1498923 0.70933425 0
2.7530003 1.1466655 0.70959401 0
2.7550001 1.1434312 0.70985371 0
2.7560003 1.1396865 0.70998365 0
2.7580001 1.1364396 0.71024334 0
2.7600002 1.1331855 0.7105031 0
2.7620003 1.1299243 0.71076286 0
2.7640002 1.1266557 0.71102262 0
2.7650001 1.1228857 0.71115243 0
2.7670002 1.1196047 0.71141219 0
2.7690003 1.1163163 0.71167195 0
2.7710001 1.1130207 0.71193171 0
2.7720003 1.109231 0.71206164 0
2.7740002 1.1059227 0.71232134 0
2.7760003 1.1026074 0.7125811 0
2.7780001 1.0992848 0.7128408 0
2.7800002 1.0959549 0.71310061 0
2.7810001 1.0921398 0.71323049 0
2.7830002 1.0887975 0.71349025 0
2.7850003 1.0854478 0.71375 0
2.7870002 1.0820909 0.71400976 0
2.7890003 1.0787268 0.71426946 0
2.7910001 1.0753554 0.71452922 0
2.7920003 1.0715098 0.71465909 0
2.7940001 1.0681257 0.71491885 0
2.7960002 1.0647346 0.71517861 0
2.7980001 1.0613362 0.71543837 0
2.8000002 1.0579306 0.71569806 0
2.8020003 1.0545179 0.71595788 0
2.8030002 1.0506414 0.7160877 0
2.8050003 1.0472161 0.71634746 0
2.8070002 1.0437834 0.71660721 0
2.8090003 1.0403435 0.71686697 0
2.7370002 1.0036595 0.70751601 0
2.7290001 0.99586511 0.70647699 0
2.7240002 0.98943639 0.70582759 0
2.7210002 0.98391318 0.70543802 0
2.7060001 0.97309744 0.7034899 0
2.7010002 0.96673727 0.70284057 0
2.6970003 0.96083343 0.70232105 0
2.6940002 0.95538056 0.70193142 0
2.6920002 0.95037311 0.70167166 0
2.6900003 0.945373 0.70141196 0
2.6900003 0.94124234 0.70141196 0
2.6900003 0.93711156 0.70141196 0
2.6900003 0.9329809 0.70141196 0
2.6920002 0.92970145 0.70167166 0
2.6930003 0.92599112 0.70180154 0
2.6960001 0.92312115 0.70219111 0
2.7000003 0.92066085 0.70271063 0
2.7040002 0.91818601 0.70323014 0
2.7090001 0.91611344 0.70387948 0
2.7150002 0.91443765 0.70465875 0
2.7230003 0.91356647 0.70569777 0
2.7320001 0.91307753 0.70686662 0
2.7550001 0.91828883 0.70985371 0
2.7630002 0.91730213 0.71089274 0
2.5580001 1.1801747 0.68037593 0
2.5510001 1.1723173 0.67947942 0
2.5470002 1.1661789 0.67896712 0
2.5430002 1.160055 0.67845488 0
2.5410001 1.1550674 0.6781987 0
2.5390003 1.1500872 0.67794257 0
2.5380001 1.1456715 0.67781448 0
2.5370002 1.1412594 0.67768645 0
2.5370002 1.1374046 0.67768645 0
2.5380001 1.1341019 0.67781448 0
2.5390003 1.1307956 0.67794257 0
2.5410001 1.1280338 0.6781987 0
2.5430002 1.125265 0.67845488 0
2.5460002 1.1230336 0.67883909 0
2.5490003 1.1207916 0.6792233 0
2.5530002 1.1190797 0.67973554 0
2.5570002 1.1173534 0.68024778 0
2.5620003 1.1161504 0.68088818 0
2.5680003 1.1154649 0.6816566 0
2.5740001 1.1147578 0.68242502 0
2.5820003 1.1150934 0.68344963 0
2.5910003 1.1159303 0.68460226 0
2.6010003 1.1172633 0.68588293 0
2.6120002 1.119087 0.68729168 0
2.7390003 1.1733221 0.70355666 0
2.7410002 1.1701419 0.70381278 0
2.7420001 1.1664368 0.70394087 0
2.7440002 1.1632441 0.70419699 0
2.7460003 1.1600442 0.70445311 0
2.7480001 1.1568371 0.70470929 0
2.7490003 1.1531123 0.70483738 0
2.7510002 1.1498923 0.7050935 0
2.7530003 1.1466655 0.70534968 0
2.7550001 1.1434312 0.70560575 0
2.7560003 1.1396865 0.7057339 0
2.7580001 1.1364396 0.70598996 0
2.7600002 1.1331855 0.70624614 0
2.7620003 1.1299243 0.70650226 0
2.7640002 1.1266557 0.70675838 0
2.7650001 1.1228857 0.70688641 0
2.7670002 1.1196047 0.70714259 0
2.7690003 1.1163163 0.70739877 0
2.7710001 1.1130207 0.70765489 0
2.7720003 1.109231 0.70778298 0
2.7740002 1.1059227 0.7080391 0
2.7760003 1.1026074 0.70829523 0
2.7780001 1.0992848 0.70855141 0
2.7800002 1.0959549 0.70880753 0
2.7810001 1.0921398 0.70893562 0
2.7830002 1.0887975 0.70919174 0
2.7850003 1.0854478 0.70944792 0
2.7870002 1.0820909 0.70970404 0
2.7890003 1.0787268 0.70996022 0
2.7910001 1.0753554 0.71021628 0
2.7920003 1.0715098 0.71034437 0
2.7940001 1.0681257 0.7106005 0
2.7960002 1.0647346 0.71085668 0
2.7980001 1.0613362 0.71111274 0
2.8000002 1.0579306 0.71136892 0
2.8020003 1.0545179 0.7116251 0
2.8030002 1.0506414 0.71175313 0
2.8050003 1.0472161 0.71200931 0
2.8070002 1.0437834 0.71226543 0
2.8090003 1.0403435 0.71252155 0
2.7270002 0.99497044 0.70201981 0
2.7220001 0.9885453 0.70137942 0
2.7060001 0.97725701 0.69933033 0
2.6990001 0.97000396 0.69843382 0
2.6940002 0.96365643 0.69779348 0
2.6900003 0.95776522 0.69728124 0
2.6870003 0.95232493 0.69689703 0
2.6850002 0.94733006 0.69664085 0
2.6830001 0.94234252 0.69638467 0
2.6820002 0.93779337 0.69625664 0
2.6820002 0.93367714 0.69625664 0
2.6820002 0.92956084 0.69625664 0
2.6840003 0.92629594 0.69651282 0
2.6850002 0.92259997 0.69664085 0
2.6880002 0.91974449 0.69702506 0
2.6910002 0.91687828 0.69740927 0
2.6950002 0.91441959 0.69792151 0
2.7000003 0.91236335 0.69856191 0
2.7050002 0.91028893 0.69920224 0
2.7130003 0.90943581 0.70022678 0
2.7220001 0.90896493 0.70137942 0
2.7340002 0.90969014 0.70291626 0
2.5580001 1.1840672 0.67648327 0
2.5500002 1.175629 0.67547315 0
2.5430002 1.1677861 0.67458928 0
2.5390003 1.1616623 0.67408419 0
2.5350001 1.1555526 0.6735791 0
2.5330002 1.1505797 0.67332661 0
2.5310001 1.1456137 0.67307407 0
2.5300002 1.1412125 0.67294782 0
2.5300002 1.1373703 0.67294782 0
2.5300002 1.1335282 0.67294782 0
2.5310001 1.1302381 0.67307407 0
2.5320003 1.1269444 0.67320037 0
2.5330002 1.1236471 0.67332661 0
2.5360003 1.1214392 0.67370546 0
2.5390003 1.1192204 0.67408419 0
2.5420003 1.116991 0.67446303 0
2.5460002 1.1152917 0.67496812 0
2.5500002 1.1135781 0.67547315 0
2.5550003 1.1123877 0.67610455 0
2.5610001 1.1117147 0.67686212 0
2.5670002 1.1110203 0.6776197 0
2.5750003 1.1113685 0.67862988 0
2.5830002 1.1116877 0.67963994 0
2.5930002 1.1130351 0.6809026 0
2.6050003 1.1154 0.68241781 0
2.7390003 1.1733221 0.69933754 0
2.7410002 1.1701419 0.69959009 0
2.7420001 1.1664368 0.69971633 0
2.7440002 1.1632441 0.69996881 0
2.7460003 1.1600442 0.70022142 0
2.7480001 1.1568371 0.7004739 0
2.7490003 1.1531123 0.70060021 0
2.7510002 1.1498923 0.70085275 0
2.7530003 1.1466655 0.70110524 0
2.7550001 1.1434312 0.70135784 0
2.7560003 1.1396865 0.70148408 0
2.7580001 1.1364396 0.70173657 0
2.7600002 1.1331855 0.70198917 0
2.7620003 1.1299243 0.70224166 0
2.7640002 1.1266557 0.7024942 0
2.7650001 1.1228857 0.70262045 0
2.7670002 1.1196047 0.70287299 0
2.7690003 1.1163163 0.70312554 0
2.7710001 1.1130207 0.70337808 0
2.7720003 1.109231 0.70350432 0
2.7740002 1.1059227 0.70375687 0
2.7760003 1.1026074 0.70400941 0
2.7780001 1.0992848 0.7042619 0
2.7800002 1.0959549 0.7045145 0
2.7810001 1.0921398 0.70464075 0
2.7830002 1.0887975 0.70489323 0
2.7850003 1.0854478 0.70514584 0
2.7870002 1.0820909 0.70539832 0
2.7890003 1.0787268 0.70565087 0
2.7910001 1.0753554 0.70590341 0
2.7920003 1.0715098 0.70602965 0
2.7940001 1.0681257 0.7062822 0
2.7960002 1.0647346 0.70653474 0
2.7980001 1.0613362 0.70678723 0
2.8000002 1.0579306 0.70703977 0
2.8020003 1.0545179 0.70729232 0
2.8030002 1.0506414 0.70741856 0
2.8050003 1.0472161 0.70767117 0
2.8070002 1.0437834 0.70792365 0
2.8090003 1.0403435 0.7081762 0
2.7250001 0.99407589 0.69756979 0
2.7070003 0.98186231 0.695297 0
2.6990001 0.9741509 0.69428688 0
2.6920002 0.96691048 0.69340301 0
2.6870003 0.96057546 0.69277167 0
2.6830001 0.95469677 0.69226658 0
2.6790001 0.94883269 0.69176149 0
2.6770003 0.94385237 0.69150901 0
2.6750002 0.93887925 0.69125646 0
2.6750002 0.93477565 0.69125646 0
2.6740003 0.93024266 0.69113022 0
2.6740003 0.92614084 0.69113022 0
2.6760001 0.92289025 0.69138277 0
2.6770003 0.91920877 0.69150901 0
2.6790001 0.91594565 0.69176149 0
2.6820002 0.91309559 0.69214034 0
2.6860001 0.91065323 0.69264543 0
2.6910002 0.90861315 0.69327676 0
2.6960001 0.90655506 0.6939081 0
2.7040002 0.90571809 0.69491822 0
2.7110002 0.904441 0.69580209 0
2.5500002 1.1795073 0.67159498 0
2.5420003 1.1710836 0.67059928 0
2.5360003 1.1638215 0.6698525 0
2.5310001 1.1571454 0.66923016 0
2.5280001 1.1516132 0.66885674 0
2.5260003 1.1466527 0.66860783 0
2.5240002 1.1416994 0.66835892 0
2.5230002 1.1373107 0.66823447 0
2.5230002 1.1334814 0.66823447 0
2.5220003 1.1290981 0.66811001 0
2.5240002 1.1263744 0.66835892 0
2.5250001 1.1230931 0.66848338 0
2.5260003 1.1198086 0.66860783 0
2.5290003 1.1176132 0.66898125 0
2.5320003 1.1154072 0.66935468 0
2.5350001 1.1131903 0.66972804 0
2.5390003 1.1115038 0.67022586 0
2.5430002 1.1098027 0.67072368 0
2.5480001 1.1086248 0.67134607 0
2.5540001 1.1079646 0.6720928 0
2.5600002 1.1072829 0.67283958 0
2.5670002 1.1071115 0.67371082 0
2.5760002 1.1079755 0.67483103 0
2.5860002 1.1093355 0.67607564 0
2.5970001 1.1111861 0.6774447 0
2.7390003 1.1733221 0.69511843 0
2.7410002 1.1701419 0.69536734 0
2.7420001 1.1664368 0.69549179 0
2.7440002 1.1632441 0.6957407 0
2.7460003 1.1600442 0.69598967 0
2.7480001 1.1568371 0.69623864 0
2.7490003 1.1531123 0.69636309 0
2.7510002 1.1498923 0.696612 0
2.7530003 1.1466655 0.69686091 0
2.7550001 1.1434312 0.69710982 0
2.7560003 1.1396865 0.69723427 0
2.7580001 1.1364396 0.69748318 0
2.7600002 1.1331855 0.69773215 0
2.7620003 1.1299243 0.69798112 0
2.7640002 1.1266557 0.69823003 0
2.7650001 1.1228857 0.69835448 0
2.7670002 1.1196047 0.69860339 0
2.7690003 1.1163163 0.6988523 0
2.7710001 1.1130207 0.69910121 0
2.7720003 1.109231 0.69922572 0
2.7740002 1.1059227 0.69947457 0
2.7760003 1.1026074 0.6997236 0
2.7780001 1.0992848 0.69997245 0
2.7800002 1.0959549 0.70022142 0
2.7810001 1.0921398 0.70034587 0
2.7830002 1.0887975 0.70059478 0
2.7850003 1.0854478 0.70084369 0
2.7870002 1.0820909 0.7010926 0
2.7890003 1.0787268 0.70134163 0
2.7910001 1.0753554 0.70159048 0
2.7920003 1.0715098 0.70171499 0
2.7940001 1.0681257 0.7019639 0
2.7960002 1.0647346 0.70221281 0
2.7980001 1.0613362 0.70246172 0
2.8000002 1.0579306 0.70271063 0
2.8020003 1.0545179 0.70295954 0
2.8030002 1.0506414 0.70308405 0
2.8050003 1.0472161 0.70333296 0
2.8070002 1.0437834 0.70358193 0
2.8090003 1.0403435 0.70383084 0
2.7010002 0.97918904 0.69038886 0
2.6920002 0.97104478 0.68926871 0
2.6850002 0.96381688 0.68839741 0
2.6800003 0.95749462 0.68777514 0
2.6760001 0.95162857 0.68727726 0
2.6720002 0.94577706 0.68677938 0
2.6700003 0.94080943 0.68653053 0
2.6680002 0.93584883 0.68628156 0
2.6670003 0.93132681 0.68615711 0
2.6670003 0.92723751 0.68615711 0
2.6660001 0.92272073 0.68603265 0
2.6680002 0.91948479 0.68628156 0
2.6690001 0.91581762 0.68640602 0
2.6710002 0.91256899 0.68665493 0
2.6740003 0.90973341 0.68702835 0
2.6770003 0.90688699 0.68740177 0
2.6820002 0.90486306 0.68802404 0
2.6870003 0.90282124 0.68864638 0
2.6940002 0.90158743 0.68951762 0
2.7020001 0.90073955 0.69051325 0
2.7120001 0.90068185 0.69175792 0
2.5420003 1.1749474 0.66673553 0
2.5340002 1.1665379 0.6657542 0
2.5280001 1.1592902 0.66501826 0
2.5240002 1.1531934 0.66452765 0
2.5200002 1.1471109 0.66403699 0
2.5180001 1.1421648 0.66379166 0
2.5160003 1.1372261 0.66354638 0
2.5160003 1.1334093 0.66354638 0
2.5160003 1.1295923 0.66354638 0
2.5150001 1.1252216 0.66342372 0
2.5170002 1.1225106 0.66366905 0
2.5180001 1.119242 0.66379166 0
2.5190003 1.11597 0.66391432 0
2.5220003 1.1137874 0.66428232 0
2.5240002 1.1110492 0.66452765 0
2.5270002 1.1088468 0.66489565 0
2.5320003 1.1077157 0.66550893 0
2.5360003 1.1060275 0.66599953 0
2.5410001 1.1048621 0.66661286 0
2.5460002 1.1036788 0.66722614 0
2.5520003 1.1030115 0.66796207 0
2.5600002 1.1033865 0.66894341 0
2.5680003 1.1037331 0.66992462 0
2.5780003 1.1051074 0.67115128 0
2.5900002 1.1074994 0.67262316 0
2.7390003 1.1733221 0.69089937 0
2.7410002 1.1701419 0.69114465 0
2.7420001 1.1664368 0.69126725 0
2.7440002 1.1632441 0.69151258 0
2.7460003 1.1600442 0.69175792 0
2.7480001 1.1568371 0.69200325 0
2.7490003 1.1531123 0.69212592 0
2.7510002 1.1498923 0.69237125 0
2.7530003 1.1466655 0.69261658 0
2.7550001 1.1434312 0.69286186 0
2.7560003 1.1396865 0.69298452 0
2.7580001 1.1364396 0.69322985 0
2.7600002 1.1331855 0.69347513 0
2.7620003 1.1299243 0.69372046 0
2.7640002 1.1266557 0.69396579 0
2.7650001 1.1228857 0.69408846 0
2.7670002 1.1196047 0.69433379 0
2.7690003 1.1163163 0.69457912 0
2.7710001 1.1130207 0.6948244 0
2.7720003 1.109231 0.69494712 0
2.7740002 1.1059227 0.6951924 0
2.7760003 1.1026074 0.69543767 0
2.7780001 1.0992848 0.695683 0
2.7800002 1.0959549 0.69592834 0
2.7810001 1.0921398 0.696051 0
2.7830002 1.0887975 0.69629633 0
2.7850003 1.0854478 0.69654167 0
2.7870002 1.0820909 0.69678694 0
2.7890003 1.0787268 0.69703227 0
2.7910001 1.0753554 0.69727755 0
2.7920003 1.0715098 0.69740021 0
2.7940001 1.0681257 0.69764555 0
2.7960002 1.0647346 0.69789088 0
2.7980001 1.0613362 0.69813621 0
2.8000002 1.0579306 0.69838154 0
2.8020003 1.0545179 0.69862688 0
2.8030002 1.0506414 0.69874948 0
2.8050003 1.0472161 0.69899482 0
2.8070002 1.0437834 0.69924015 0
2.8090003 1.0403435 0.69948542 0
2.6850002 0.96793866 0.68427575 0
2.6790001 0.96116531 0.68353975 0
2.6730001 0.95441365 0.68280381 0
2.6690001 0.9485603 0.6823132 0
2.6650002 0.94272137 0.68182254 0
2.6630001 0.93776631 0.68157721 0
2.6610003 0.93281847 0.68133193 0
2.6590002 0.92787784 0.6810866 0
2.6590002 0.92380309 0.6810866 0
2.6590002 0.91972822 0.6810866 0
2.6600001 0.9160791 0.68120921 0
2.6610003 0.91242641 0.68133193 0
2.6630001 0.90919214 0.68157721 0
2.6660001 0.90637106 0.6819452 0
2.6690001 0.90353906 0.6823132 0
2.6730001 0.90111291 0.68280381 0
2.6780002 0.89908725 0.68341708 0
2.6850002 0.89786971 0.68427575 0
2.6920002 0.89662683 0.68513435 0
2.7020001 0.89658719 0.68636096 0
2.5340002 1.1703871 0.66190493 0
2.5260003 1.1619924 0.66093808 0
2.5210001 1.1553254 0.66033375 0
2.5160003 1.1486766 0.65972954 0
2.5130002 1.1431714 0.65936697 0
2.5110002 1.138238 0.65912521 0
2.5090003 1.1333117 0.65888357 0
2.5090003 1.1295077 0.65888357 0
2.5080001 1.1251477 0.65876269 0
2.5080001 1.1213453 0.65876269 0
2.5090003 1.1180949 0.65888357 0
2.5110002 1.115391 0.65912521 0
2.5120001 1.1121314 0.65924609 0
2.5150001 1.1099615 0.65960866 0
2.5170002 1.1072359 0.65985036 0
2.5200002 1.1050462 0.66021293 0
2.5240002 1.1033865 0.66069633 0
2.5290003 1.102252 0.66130066 0
2.5330002 1.1005619 0.66178405 0
2.5390003 1.0999287 0.6625092 0
2.5450003 1.0992739 0.66323435 0
2.5530002 1.0996617 0.66420114 0
2.5610001 1.1000206 0.66516799 0
2.5710001 1.1014078 0.66637653 0
2.5820003 1.1032857 0.66770601 0
2.7390003 1.1733221 0.6866802 0
2.7410002 1.1701419 0.68692195 0
2.7420001 1.1664368 0.68704277 0
2.7440002 1.1632441 0.68728447 0
2.7460003 1.1600442 0.68752623 0
2.7480001 1.1568371 0.68776792 0
2.7490003 1.1531123 0.68788874 0
2.7510002 1.1498923 0.6881305 0
2.7530003 1.1466655 0.68837219 0
2.7550001 1.1434312 0.68861389 0
2.7560003 1.1396865 0.68873477 0
2.7580001 1.1364396 0.68897647 0
2.7600002 1.1331855 0.68921816 0
2.7620003 1.1299243 0.68945992 0
2.7640002 1.1266557 0.68970156 0
2.7650001 1.1228857 0.68982244 0
2.7670002 1.1196047 0.69006419 0
2.7690003 1.1163163 0.69030583 0
2.7710001 1.1130207 0.69054759 0
2.7720003 1.109231 0.69066846 0
2.7740002 1.1059227 0.6909101 0
