# .PCD v0.7 - Point Cloud Data file format
VERSION 0.7
FIELDS x y z intensity
SIZE 4 4 4 4
TYPE F F F F
COUNT 1 1 1 1
WIDTH 1396
HEIGHT 1
VIEWPOINT 0 0 0 1 0 0 0
POINTS 1396
DATA ascii
4.1280003 -0.42257744 0.82764959 0
4.1360002 -0.43012455 0.82855874 0
4.1430001 -0.43759593 0.82935429 0
4.151 -0.44519898 0.83026338 0
4.1589999 -0.45283091 0.83117247 0
4.1670003 -0.46049169 0.83208156 0
4.1740003 -0.46806946 0.83287704 0
4.1820002 -0.47578618 0.83378619 0
4.1900001 -0.48353174 0.83469534 0
4.198 -0.49130613 0.83560443 0
4.2060003 -0.49910942 0.83651352 0
4.145 -0.073021047 0.82282627 0
4.138 -0.079713181 0.82204342 0
4.132 -0.086390868 0.82137239 0
4.1280003 -0.093072176 0.82092506 0
4.125 -0.099753484 0.82058954 0
4.1160002 -0.10632657 0.81958294 0
4.1059999 -0.11284913 0.81846464 0
4.099 -0.11939515 0.81768179 0
4.0940003 -0.12595922 0.81712258 0
4.0910001 -0.13255213 0.81678712 0
4.0890002 -0.13915949 0.81656337 0
4.0880003 -0.14578667 0.81645155 0
4.0870004 -0.15241025 0.81633979 0
4.0880003 -0.15909156 0.81645155 0
4.0900002 -0.16580893 0.81667525 0
4.092 -0.17253354 0.81689894 0
4.0960002 -0.1793375 0.81734627 0
4.1020002 -0.18623166 0.81801724 0
4.1080003 -0.19314747 0.81868827 0
4.1160002 -0.20016788 0.81958294 0
4.1230001 -0.20717388 0.82036591 0
3.9710002 -0.21347637 0.80336678 0
3.9650002 -0.21962556 0.80269575 0
3.9590003 -0.22575311 0.80202472 0
3.9530003 -0.23185898 0.80135369 0
3.9470003 -0.23794323 0.80068272 0
3.9460003 -0.24428543 0.80057085 0
3.9530003 -0.25108579 0.80135369 0
3.9600003 -0.25791138 0.80213654 0
3.9670002 -0.26476225 0.80291939 0
3.9740002 -0.27163836 0.80370224 0
3.9810002 -0.27853972 0.80448508 0
3.9880002 -0.28546634 0.80526799 0
3.9950004 -0.29241824 0.80605084 0
4.0020003 -0.29939538 0.80683374 0
4.0100002 -0.30646992 0.80772841 0
4.0170002 -0.31349933 0.80851126 0
4.0240002 -0.32055405 0.8092941 0
4.0310001 -0.32763401 0.81007695 0
4.039 -0.33481857 0.81097162 0
4.046 -0.34195083 0.81175447 0
4.053 -0.34910834 0.81253731 0
4.0610003 -0.3563759 0.81343198 0
4.0680003 -0.36358571 0.81421489 0
4.0750003 -0.37082079 0.81499767 0
4.0830002 -0.37817129 0.8158924 0
4.0900002 -0.38545868 0.81667525 0
4.098 -0.39286509 0.81756997 0
4.105 -0.40020481 0.81835282 0
4.1129999 -0.40766713 0.81924748 0
4.1200004 -0.41505918 0.82003033 0
4.1280003 -0.42257744 0.82092506 0
4.1360002 -0.43012455 0.82181972 0
4.1430001 -0.43759593 0.82260257 0
4.151 -0.44519898 0.8234973 0
4.1589999 -0.45283091 0.82439196 0
4.1670003 -0.46049169 0.82528663 0
4.1740003 -0.46806946 0.82606947 0
4.1820002 -0.47578618 0.82696414 0
4.1900001 -0.48353174 0.82785887 0
4.198 -0.49130613 0.82875359 0
4.2060003 -0.49910942 0.82964826 0
4.1540003 -0.066314489 0.81706131 0
4.145 -0.073021047 0.81607097 0
4.138 -0.079713181 0.81530076 0
4.1330004 -0.086401701 0.81475061 0
4.1290002 -0.093084805 0.81431043 0
4.1259999 -0.099767916 0.81398034 0
4.1160002 -0.10632657 0.81288004 0
4.1059999 -0.11284913 0.81177974 0
4.099 -0.11939515 0.81100953 0
4.0940003 -0.12595922 0.81045938 0
4.0910001 -0.13255213 0.81012928 0
4.0890002 -0.13915949 0.80990916 0
4.0880003 -0.14578667 0.80979919 0
4.0870004 -0.15241025 0.8096891 0
4.0880003 -0.15909156 0.80979919 0
4.0900002 -0.16580893 0.8100192 0
4.092 -0.17253354 0.81023926 0
4.0960002 -0.1793375 0.81067944 0
4.1020002 -0.18623166 0.81133962 0
4.1080003 -0.19314747 0.8119998 0
4.1160002 -0.20016788 0.81288004 0
4.1230001 -0.20717388 0.81365025 0
3.9710002 -0.21347637 0.79692537 0
3.9650002 -0.21962556 0.79626513 0
3.9590003 -0.22575311 0.79560494 0
3.9530003 -0.23185898 0.79494476 0
3.9470003 -0.23794323 0.79428458 0
3.9460003 -0.24428543 0.79417455 0
3.9530003 -0.25108579 0.79494476 0
3.9600003 -0.25791138 0.79571497 0
3.9670002 -0.26476225 0.79648519 0
3.9740002 -0.27163836 0.79725546 0
3.9810002 -0.27853972 0.79802573 0
3.9880002 -0.28546634 0.79879588 0
3.9950004 -0.29241824 0.79956615 0
4.0020003 -0.29939538 0.80033636 0
4.0100002 -0.30646992 0.8012166 0
4.0170002 -0.31349933 0.80198681 0
4.0240002 -0.32055405 0.80275708 0
4.0310001 -0.32763401 0.8035273 0
4.039 -0.33481857 0.80440754 0
4.046 -0.34195083 0.80517781 0
4.053 -0.34910834 0.80594802 0
4.0610003 -0.3563759 0.80682826 0
4.0680003 -0.36358571 0.80759847 0
4.0750003 -0.37082079 0.80836874 0
4.0830002 -0.37817129 0.80924898 0
4.0900002 -0.38545868 0.8100192 0
4.098 -0.39286509 0.8108995 0
4.105 -0.40020481 0.81166971 0
4.1129999 -0.40766713 0.81254995 0
4.1200004 -0.41505918 0.81332016 0
4.1280003 -0.42257744 0.8142004 0
4.1360002 -0.43012455 0.81508064 0
4.1430001 -0.43759593 0.81585091 0
4.151 -0.44519898 0.81673115 0
4.1589999 -0.45283091 0.81761146 0
4.1670003 -0.46049169 0.8184917 0
4.1740003 -0.46806946 0.81926191 0
4.1820002 -0.47578618 0.82014215 0
4.1900001 -0.48353174 0.82102245 0
4.198 -0.49130613 0.82190269 0
4.2060003 -0.49910942 0.82278299 0
4.152 -0.066303663 0.81007332 0
4.1440001 -0.073013835 0.8092075 0
4.138 -0.079713181 0.80855811 0
4.1340003 -0.086412519 0.8081252 0
4.1300001 -0.093097433 0.80769229 0
4.1280003 -0.099796772 0.80747581 0
4.1160002 -0.10632657 0.80617708 0
4.1059999 -0.11284913 0.80509484 0
4.099 -0.11939515 0.8043372 0
4.0940003 -0.12595922 0.80379605 0
4.0910001 -0.13255213 0.80347139 0
4.0890002 -0.13915949 0.80325496 0
4.0880003 -0.14578667 0.80314672 0
4.0870004 -0.15241025 0.80303848 0
4.0880003 -0.15909156 0.80314672 0
4.0900002 -0.16580893 0.80336314 0
4.092 -0.17253354 0.80357957 0
4.0960002 -0.1793375 0.80401254 0
4.1020002 -0.18623166 0.80466187 0
4.1080003 -0.19314747 0.80531126 0
4.1160002 -0.20016788 0.80617708 0
4.1230001 -0.20717388 0.80693471 0
3.9710002 -0.21347637 0.79048395 0
3.9650002 -0.21962556 0.78983462 0
3.9590003 -0.22575311 0.78918523 0
3.9530003 -0.23185898 0.78853583 0
3.9470003 -0.23794323 0.7878865 0
3.9460003 -0.24428543 0.78777826 0
3.9530003 -0.25108579 0.78853583 0
3.9600003 -0.25791138 0.78929341 0
3.9670002 -0.26476225 0.79005104 0
3.9740002 -0.27163836 0.79080868 0
3.9810002 -0.27853972 0.79156625 0
3.9880002 -0.28546634 0.79232383 0
3.9950004 -0.29241824 0.79308146 0
4.0020003 -0.29939538 0.79383904 0
4.0100002 -0.30646992 0.79470491 0
4.0170002 -0.31349933 0.79546249 0
4.0240002 -0.32055405 0.79622006 0
4.0310001 -0.32763401 0.7969777 0
4.039 -0.33481857 0.79784352 0
4.046 -0.34195083 0.79860109 0
4.053 -0.34910834 0.79935873 0
4.0610003 -0.3563759 0.80022454 0
4.0680003 -0.36358571 0.80098212 0
4.0750003 -0.37082079 0.80173975 0
4.0830002 -0.37817129 0.80260557 0
4.0900002 -0.38545868 0.80336314 0
4.098 -0.39286509 0.80422896 0
4.105 -0.40020481 0.8049866 0
4.1129999 -0.40766713 0.80585241 0
4.1200004 -0.41505918 0.80660999 0
4.1280003 -0.42257744 0.80747581 0
4.1360002 -0.43012455 0.80834162 0
4.1430001 -0.43759593 0.80909932 0
4.151 -0.44519898 0.80996513 0
4.1589999 -0.45283091 0.81083095 0
4.1670003 -0.46049169 0.81169677 0
4.1740003 -0.46806946 0.81245434 0
4.1820002 -0.47578618 0.81332016 0
4.1900001 -0.48353174 0.81418598 0
4.198 -0.49130613 0.81505179 0
4.2060003 -0.49910942 0.81591767 0
4.2140002 -0.50694156 0.81678349 0
4.1620002 -0.059571855 0.80436969 0
4.152 -0.066303663 0.80330545 0
4.1440001 -0.073013835 0.80245399 0
4.1389999 -0.079722196 0.8019219 0
4.1350002 -0.086423337 0.80149621 0
4.132 -0.093122683 0.80117691 0
4.1300001 -0.099825636 0.80096412 0
4.1160002 -0.10632657 0.79947412 0
4.1059999 -0.11284913 0.79840988 0
4.099 -0.11939515 0.79766494 0
4.0940003 -0.12595922 0.79713285 0
4.0910001 -0.13255213 0.79681355 0
4.0890002 -0.13915949 0.7966007 0
4.0880003 -0.14578667 0.79649425 0
4.0870004 -0.15241025 0.79638785 0
4.0880003 -0.15909156 0.79649425 0
4.0900002 -0.16580893 0.79670709 0
4.092 -0.17253354 0.79691994 0
4.0960002 -0.1793375 0.79734564 0
4.1020002 -0.18623166 0.79798424 0
4.1080003 -0.19314747 0.79862273 0
4.1160002 -0.20016788 0.79947412 0
4.1230001 -0.20717388 0.80021912 0
3.9710002 -0.21347637 0.7840426 0
3.9650002 -0.21962556 0.78340399 0
3.9590003 -0.22575311 0.78276551 0
3.9530003 -0.23185898 0.7821269 0
3.9470003 -0.23794323 0.78148842 0
3.9460003 -0.24428543 0.78138196 0
3.9530003 -0.25108579 0.7821269 0
3.9600003 -0.25791138 0.7828719 0
3.9670002 -0.26476225 0.78361684 0
3.9740002 -0.27163836 0.78436184 0
3.9810002 -0.27853972 0.78510678 0
3.9880002 -0.28546634 0.78585178 0
3.9950004 -0.29241824 0.78659678 0
4.0020003 -0.29939538 0.78734171 0
4.0100002 -0.30646992 0.78819311 0
4.0170002 -0.31349933 0.78893805 0
4.0240002 -0.32055405 0.7896831 0
4.0310001 -0.32763401 0.79042804 0
4.039 -0.33481857 0.79127944 0
4.046 -0.34195083 0.79202443 0
4.053 -0.34910834 0.79276937 0
4.0599999 -0.35629109 0.79351437 0
4.0680003 -0.36358571 0.79436576 0
4.0750003 -0.37082079 0.7951107 0
4.0830002 -0.37817129 0.7959621 0
4.0900002 -0.38545868 0.79670709 0
4.098 -0.39286509 0.79755849 0
4.105 -0.40020481 0.79830348 0
4.1129999 -0.40766713 0.79915488 0
4.1200004 -0.41505918 0.79989982 0
4.1280003 -0.42257744 0.80075121 0
4.1360002 -0.43012455 0.8016026 0
4.1430001 -0.43759593 0.80234766 0
4.151 -0.44519898 0.80319899 0
4.1589999 -0.45283091 0.80405039 0
4.1670003 -0.46049169 0.80490184 0
4.1740003 -0.46806946 0.80564678 0
4.1820002 -0.47578618 0.80649817 0
4.1900001 -0.48353174 0.80734956 0
4.198 -0.49130613 0.80820096 0
4.2060003 -0.49910942 0.80905235 0
4.2140002 -0.50694156 0.80990374 0
4.1600003 -0.059564639 0.79737449 0
4.151 -0.066298254 0.79643297 0
4.145 -0.073021047 0.79580522 0
4.1400003 -0.079731211 0.79528213 0
4.1360002 -0.086434163 0.79486358 0
4.1340003 -0.093147933 0.79465437 0
4.132 -0.099854499 0.79444516 0
4.1160002 -0.10632657 0.79277122 0
4.1059999 -0.11284913 0.79172492 0
4.099 -0.11939515 0.79099262 0
4.0940003 -0.12595922 0.79046953 0
4.0910001 -0.13255213 0.79015565 0
4.0890002 -0.13915949 0.78994644 0
4.0880003 -0.14578667 0.78984177 0
4.0870004 -0.15241025 0.78973722 0
4.0880003 -0.15909156 0.78984177 0
4.0900002 -0.16580893 0.79005104 0
4.092 -0.17253354 0.79026031 0
4.0960002 -0.1793375 0.79067874 0
4.1020002 -0.18623166 0.7913065 0
4.1080003 -0.19314747 0.79193425 0
4.1160002 -0.20016788 0.79277122 0
4.1230001 -0.20717388 0.79350352 0
3.9710002 -0.21347637 0.77760118 0
3.9650002 -0.21962556 0.77697343 0
3.9590003 -0.22575311 0.77634573 0
3.9530003 -0.23185898 0.77571797 0
3.9470003 -0.23794323 0.77509028 0
3.9460003 -0.24428543 0.77498567 0
3.9530003 -0.25108579 0.77571797 0
3.9600003 -0.25791138 0.77645034 0
3.9670002 -0.26476225 0.7771827 0
3.9740002 -0.27163836 0.777915 0
3.9810002 -0.27853972 0.77864736 0
3.9880002 -0.28546634 0.77937973 0
3.9950004 -0.29241824 0.78011203 0
4.0020003 -0.29939538 0.78084445 0
4.0100002 -0.30646992 0.78168136 0
4.0170002 -0.31349933 0.78241372 0
4.0240002 -0.32055405 0.78314602 0
4.0310001 -0.32763401 0.78387845 0
4.039 -0.33481857 0.78471541 0
4.046 -0.34195083 0.78544772 0
4.053 -0.34910834 0.78618008 0
4.0599999 -0.35629109 0.78691244 0
4.0680003 -0.36358571 0.78774941 0
4.0750003 -0.37082079 0.78848171 0
4.0830002 -0.37817129 0.78931868 0
4.0900002 -0.38545868 0.79005104 0
4.098 -0.39286509 0.79088801 0
4.105 -0.40020481 0.79162037 0
4.1129999 -0.40766713 0.79245734 0
4.1200004 -0.41505918 0.79318964 0
4.1280003 -0.42257744 0.79402661 0
4.1360002 -0.43012455 0.79486358 0
4.1430001 -0.43759593 0.79559594 0
4.151 -0.44519898 0.79643297 0
4.1589999 -0.45283091 0.79726988 0
4.1670003 -0.46049169 0.79810685 0
4.1740003 -0.46806946 0.79883921 0
4.1820002 -0.47578618 0.79967618 0
4.1900001 -0.48353174 0.80051315 0
4.198 -0.49130613 0.80135012 0
4.2060003 -0.49910942 0.80218709 0
4.2140002 -0.50694156 0.80302405 0
4.1589999 -0.059561029 0.79048932 0
4.151 -0.066298254 0.78966683 0
4.145 -0.073021047 0.78904998 0
4.1410003 -0.079740234 0.78863871 0
4.138 -0.086455807 0.7883302 0
4.1360002 -0.093173191 0.78812456 0
4.1340003 -0.099883363 0.78791893 0
4.1160002 -0.10632657 0.78606826 0
4.1059999 -0.11284913 0.78504002 0
4.099 -0.11939515 0.78432035 0
4.0940003 -0.12595922 0.78380626 0
4.0910001 -0.13255213 0.78349781 0
4.0890002 -0.13915949 0.78329217 0
4.0880003 -0.14578667 0.78318942 0
4.0870004 -0.15241025 0.78308654 0
4.0880003 -0.15909156 0.78318942 0
4.0900002 -0.16580893 0.78339499 0
4.092 -0.17253354 0.78360069 0
4.0960002 -0.1793375 0.7840119 0
4.1020002 -0.18623166 0.78462881 0
4.1080003 -0.19314747 0.78524572 0
4.1160002 -0.20016788 0.78606826 0
4.1230001 -0.20717388 0.78678799 0
3.9710002 -0.21347637 0.77115977 0
3.9650002 -0.21962556 0.77054286 0
3.9590003 -0.22575311 0.76992595 0
3.9530003 -0.23185898 0.76930904 0
3.9470003 -0.23794323 0.76869214 0
3.9460003 -0.24428543 0.76858938 0
3.9530003 -0.25108579 0.76930904 0
3.9600003 -0.25791138 0.77002883 0
3.9670002 -0.26476225 0.7707485 0
3.9740002 -0.27163836 0.77146816 0
3.9810002 -0.27853972 0.77218795 0
3.9880002 -0.28546634 0.77290761 0
3.9950004 -0.29241824 0.7736274 0
4.0020003 -0.29939538 0.77434707 0
4.0100002 -0.30646992 0.77516961 0
4.0170002 -0.31349933 0.77588934 0
4.0240002 -0.32055405 0.77660906 0
4.0310001 -0.32763401 0.77732879 0
4.039 -0.33481857 0.77815133 0
4.046 -0.34195083 0.77887106 0
4.053 -0.34910834 0.77959073 0
4.0599999 -0.35629109 0.78031051 0
4.0680003 -0.36358571 0.78113306 0
4.0750003 -0.37082079 0.78185272 0
4.0830002 -0.37817129 0.78267527 0
4.0900002 -0.38545868 0.78339499 0
4.098 -0.39286509 0.78421754 0
4.105 -0.40020481 0.78493726 0
4.1129999 -0.40766713 0.78575981 0
4.1200004 -0.41505918 0.78647947 0
4.1280003 -0.42257744 0.78730202 0
4.1360002 -0.43012455 0.78812456 0
4.1430001 -0.43759593 0.78884435 0
4.151 -0.44519898 0.78966683 0
4.1589999 -0.45283091 0.79048932 0
4.1670003 -0.46049169 0.79131192 0
4.1740003 -0.46806946 0.79203165 0
4.1820002 -0.47578618 0.79285419 0
4.1900001 -0.48353174 0.79367673 0
4.198 -0.49130613 0.79449928 0
4.2060003 -0.49910942 0.79532182 0
4.2140002 -0.50694156 0.79614431 0
4.1680002 -0.052796751 0.78461802 0
4.158 -0.059557423 0.78360784 0
4.151 -0.066298254 0.78290075 0
4.1460004 -0.073028266 0.78239572 0
4.1420002 -0.079749256 0.7819916 0
4.1400003 -0.086477458 0.78178966 0
4.138 -0.093198448 0.7815876 0
4.1370001 -0.099926651 0.78148663 0
4.1160002 -0.10632657 0.7793653 0
4.1059999 -0.11284913 0.77835512 0
4.099 -0.11939515 0.77764809 0
4.0940003 -0.12595922 0.777143 0
4.0910001 -0.13255213 0.77683997 0
4.0890002 -0.13915949 0.77663791 0
4.0880003 -0.14578667 0.77653694 0
4.0870004 -0.15241025 0.77643591 0
4.0880003 -0.15909156 0.77653694 0
4.0900002 -0.16580893 0.77673894 0
4.092 -0.17253354 0.77694094 0
4.0960002 -0.1793375 0.77734506 0
4.1020002 -0.18623166 0.77795112 0
4.1080003 -0.19314747 0.77855718 0
4.1160002 -0.20016788 0.7793653 0
4.1230001 -0.20717388 0.78007245 0
3.9710002 -0.21347637 0.76471841 0
3.9650002 -0.21962556 0.76411223 0
3.9590003 -0.22575311 0.76350623 0
3.9530003 -0.23185898 0.76290011 0
3.9470003 -0.23794323 0.76229405 0
3.9460003 -0.24428543 0.76219308 0
3.9530003 -0.25108579 0.76290011 0
3.9600003 -0.25791138 0.76360726 0
3.9670002 -0.26476225 0.76431429 0
3.9740002 -0.27163836 0.76502144 0
3.9810002 -0.27853972 0.76572847 0
3.9880002 -0.28546634 0.76643562 0
3.9950004 -0.29241824 0.76714265 0
4.0020003 -0.29939538 0.7678498 0
4.0100002 -0.30646992 0.76865786 0
4.0170002 -0.31349933 0.76936495 0
4.0240002 -0.32055405 0.77007204 0
4.0310001 -0.32763401 0.77077913 0
4.039 -0.33481857 0.77158725 0
4.046 -0.34195083 0.7722944 0
4.053 -0.34910834 0.77300143 0
4.0599999 -0.35629109 0.77370858 0
4.0680003 -0.36358571 0.7745167 0
4.0750003 -0.37082079 0.77522373 0
4.0830002 -0.37817129 0.77603185 0
4.0900002 -0.38545868 0.77673894 0
4.098 -0.39286509 0.77754706 0
4.105 -0.40020481 0.77825415 0
4.1129999 -0.40766713 0.77906227 0
4.1200004 -0.41505918 0.7797693 0
4.1280003 -0.42257744 0.78057742 0
4.1360002 -0.43012455 0.78138554 0
4.1430001 -0.43759593 0.78209269 0
4.151 -0.44519898 0.78290075 0
4.1589999 -0.45283091 0.78370881 0
4.1670003 -0.46049169 0.78451693 0
4.1740003 -0.46806946 0.78522408 0
4.1820002 -0.47578618 0.7860322 0
4.1900001 -0.48353174 0.78684026 0
4.198 -0.49130613 0.78764838 0
4.2060003 -0.49910942 0.7884565 0
4.2140002 -0.50694156 0.78926456 0
4.1660004 -0.052793141 0.77762282 0
4.158 -0.059557423 0.77682912 0
4.152 -0.066303663 0.77623385 0
4.1470003 -0.073035479 0.77573782 0
4.1440001 -0.079767287 0.77544022 0
4.1410003 -0.086488277 0.77514255 0
4.1400003 -0.093223706 0.77504337 0
4.1389999 -0.099955514 0.77494419 0
4.1160002 -0.10632657 0.77266234 0
4.1059999 -0.11284913 0.77167022 0
4.099 -0.11939515 0.77097577 0
4.0940003 -0.12595922 0.77047974 0
4.0910001 -0.13255213 0.77018213 0
4.0890002 -0.13915949 0.76998365 0
4.0880003 -0.14578667 0.76988447 0
4.0870004 -0.15241025 0.76978528 0
4.0880003 -0.15909156 0.76988447 0
4.0900002 -0.16580893 0.77008283 0
4.092 -0.17253354 0.77028131 0
4.0960002 -0.1793375 0.77067816 0
4.1020002 -0.18623166 0.77127337 0
4.1080003 -0.19314747 0.77186865 0
4.1160002 -0.20016788 0.77266234 0
4.1230001 -0.20717388 0.7733568 0
3.9710002 -0.21347637 0.75827694 0
3.9650002 -0.21962556 0.75768173 0
3.9590003 -0.22575311 0.75708646 0
3.9530003 -0.23185898 0.75649118 0
3.9470003 -0.23794323 0.75589597 0
3.9460003 -0.24428543 0.75579673 0
3.9530003 -0.25108579 0.75649118 0
3.9600003 -0.25791138 0.7571857 0
3.9670002 -0.26476225 0.75788015 0
3.9740002 -0.27163836 0.7585746 0
3.9810002 -0.27853972 0.75926906 0
3.9880002 -0.28546634 0.75996351 0
3.9950004 -0.29241824 0.76065803 0
4.0020003 -0.29939538 0.76135248 0
4.0100002 -0.30646992 0.76214612 0
4.0170002 -0.31349933 0.76284063 0
4.0240002 -0.32055405 0.76353502 0
4.0310001 -0.32763401 0.76422954 0
4.039 -0.33481857 0.76502323 0
4.046 -0.34195083 0.76571769 0
4.053 -0.34910834 0.76641214 0
4.0599999 -0.35629109 0.76710659 0
4.0680003 -0.36358571 0.76790029 0
4.0750003 -0.37082079 0.76859474 0
4.0830002 -0.37817129 0.76938844 0
4.0900002 -0.38545868 0.77008283 0
4.098 -0.39286509 0.77087659 0
4.105 -0.40020481 0.77157104 0
4.1129999 -0.40766713 0.77236468 0
4.1200004 -0.41505918 0.77305919 0
4.1280003 -0.42257744 0.77385283 0
4.1360002 -0.43012455 0.77464652 0
4.1430001 -0.43759593 0.77534103 0
4.151 -0.44519898 0.77613467 0
4.1589999 -0.45283091 0.77692831 0
4.1670003 -0.46049169 0.777722 0
4.1740003 -0.46806946 0.77841651 0
4.1820002 -0.47578618 0.77921015 0
4.1900001 -0.48353174 0.78000385 0
4.198 -0.49130613 0.78079748 0
4.2060003 -0.49910942 0.78159118 0
4.2140002 -0.50694156 0.78238487 0
4.1760001 -0.046 0.77180374 0
4.165 -0.052791338 0.77073228 0
4.158 -0.059557423 0.77005041 0
4.152 -0.066303663 0.76946598 0
4.1480002 -0.073042691 0.76907635 0
4.145 -0.079776309 0.76878417 0
4.1430001 -0.086509928 0.76858938 0
4.1420002 -0.093248948 0.76849192 0
4.1420002 -0.099998802 0.76849192 0
4.1160002 -0.10632657 0.76595938 0
4.1059999 -0.11284913 0.76498532 0
4.099 -0.11939515 0.76430345 0
4.0940003 -0.12595922 0.76381648 0
4.0910001 -0.13255213 0.76352429 0
4.0890002 -0.13915949 0.76332945 0
4.0880003 -0.14578667 0.76323199 0
4.0870004 -0.15241025 0.76313466 0
4.0880003 -0.15909156 0.76323199 0
4.0900002 -0.16580893 0.76342684 0
4.092 -0.17253354 0.76362169 0
4.0960002 -0.1793375 0.76401126 0
4.1020002 -0.18623166 0.76459569 0
4.1080003 -0.19314747 0.76518011 0
4.1160002 -0.20016788 0.76595938 0
4.1230001 -0.20717388 0.76664126 0
3.9710002 -0.21347637 0.75183558 0
3.9650002 -0.21962556 0.7512511 0
3.9590003 -0.22575311 0.75066674 0
3.9530003 -0.23185898 0.75008225 0
3.9470003 -0.23794323 0.74949783 0
3.9460003 -0.24428543 0.74940044 0
3.9530003 -0.25108579 0.75008225 0
3.9600003 -0.25791138 0.75076413 0
3.9670002 -0.26476225 0.75144595 0
3.9740002 -0.27163836 0.75212777 0
3.9810002 -0.27853972 0.75280964 0
3.9880002 -0.28546634 0.75349146 0
3.9950004 -0.29241824 0.75417334 0
4.0020003 -0.29939538 0.75485516 0
4.0100002 -0.30646992 0.75563437 0
4.0170002 -0.31349933 0.75631618 0
4.0240002 -0.32055405 0.75699806 0
4.0310001 -0.32763401 0.75767994 0
4.039 -0.33481857 0.75845915 0
4.046 -0.34195083 0.75914097 0
4.053 -0.34910834 0.75982285 0
4.0599999 -0.35629109 0.76050466 0
4.0680003 -0.36358571 0.76128387 0
4.0750003 -0.37082079 0.76196575 0
4.0830002 -0.37817129 0.76274502 0
4.0900002 -0.38545868 0.76342684 0
4.098 -0.39286509 0.76420611 0
4.105 -0.40020481 0.76488793 0
4.1129999 -0.40766713 0.76566714 0
4.1200004 -0.41505918 0.76634902 0
4.1280003 -0.42257744 0.76712823 0
4.1360002 -0.43012455 0.7679075 0
4.1430001 -0.43759593 0.76858938 0
4.151 -0.44519898 0.76936859 0
4.1589999 -0.45283091 0.7701478 0
4.1670003 -0.46049169 0.77092707 0
4.1740003 -0.46806946 0.77160895 0
4.1820002 -0.47578618 0.7723881 0
4.1900001 -0.48353174 0.77316737 0
4.198 -0.49130613 0.77394664 0
4.2060003 -0.49910942 0.77472591 0
4.2140002 -0.50694156 0.77550519 0
4.1740003 -0.046 0.76480132 0
4.164 -0.052789535 0.76384532 0
4.158 -0.059557423 0.76327169 0
4.1530004 -0.06630908 0.76279372 0
4.1490002 -0.07304991 0.7624113 0
4.1470003 -0.079794347 0.76222014 0
4.145 -0.086531572 0.76202887 0
4.1440001 -0.093274206 0.76193333 0
4.1440001 -0.10002767 0.76193333 0
4.1160002 -0.10632657 0.75925642 0
4.1059999 -0.11284913 0.75830042 0
4.099 -0.11939515 0.75763118 0
4.0940003 -0.12595922 0.75715321 0
4.0910001 -0.13255213 0.7568664 0
4.0890002 -0.13915949 0.75667518 0
4.0880003 -0.14578667 0.75657958 0
4.0870004 -0.15241025 0.75648403 0
4.0880003 -0.15909156 0.75657958 0
4.0900002 -0.16580893 0.75677079 0
4.092 -0.17253354 0.756962 0
4.0960002 -0.1793375 0.75734437 0
4.1020002 -0.18623166 0.757918 0
4.1080003 -0.19314747 0.75849164 0
4.1160002 -0.20016788 0.75925642 0
4.1230001 -0.20717388 0.75992566 0
3.9710002 -0.21347637 0.74539417 0
3.9650002 -0.21962556 0.74482059 0
3.9590003 -0.22575311 0.74424696 0
3.9530003 -0.23185898 0.74367332 0
3.9470003 -0.23794323 0.74309969 0
3.9460003 -0.24428543 0.74300414 0
3.9530003 -0.25108579 0.74367332 0
3.9600003 -0.25791138 0.74434257 0
3.9670002 -0.26476225 0.74501181 0
3.9740002 -0.27163836 0.74568099 0
3.9810002 -0.27853972 0.74635017 0
3.9880002 -0.28546634 0.74701941 0
3.9950004 -0.29241824 0.74768865 0
4.0020003 -0.29939538 0.74835783 0
4.0100002 -0.30646992 0.74912262 0
4.0170002 -0.31349933 0.74979186 0
4.0240002 -0.32055405 0.7504611 0
4.0310001 -0.32763401 0.75113028 0
4.039 -0.33481857 0.75189507 0
4.046 -0.34195083 0.75256431 0
4.053 -0.34910834 0.75323355 0
4.0599999 -0.35629109 0.75390273 0
4.0680003 -0.36358571 0.75466752 0
4.0750003 -0.37082079 0.75533676 0
4.0830002 -0.37817129 0.75610161 0
4.0900002 -0.38545868 0.75677079 0
4.098 -0.39286509 0.75753558 0
4.105 -0.40020481 0.75820482 0
4.1129999 -0.40766713 0.7589696 0
4.1200004 -0.41505918 0.75963891 0
4.1280003 -0.42257744 0.76040363 0
4.1360002 -0.43012455 0.76116848 0
4.1430001 -0.43759593 0.76183772 0
4.151 -0.44519898 0.76260251 0
4.1589999 -0.45283091 0.7633673 0
4.1670003 -0.46049169 0.76413214 0
4.1740003 -0.46806946 0.76480132 0
4.1820002 -0.47578618 0.76556611 0
4.1900001 -0.48353174 0.76633096 0
4.198 -0.49130613 0.7670958 0
4.2060003 -0.49910942 0.76786065 0
4.2140002 -0.50694156 0.76862544 0
4.1719999 -0.046 0.75780618 0
4.164 -0.052789535 0.75705576 0
4.158 -0.059557423 0.75649297 0
4.1540003 -0.066314489 0.75611782 0
4.151 -0.073064342 0.75583637 0
4.1490002 -0.079812385 0.75564879 0
4.1470003 -0.086553216 0.75546122 0
4.1470003 -0.093312085 0.75546122 0
4.1470003 -0.10007095 0.75546122 0
4.1160002 -0.10632657 0.75255346 0
4.1059999 -0.11284913 0.75161552 0
4.099 -0.11939515 0.75095892 0
4.0940003 -0.12595922 0.75048995 0
4.0910001 -0.13255213 0.7502085 0
4.0890002 -0.13915949 0.75002092 0
4.0880003 -0.14578667 0.74992716 0
4.0870004 -0.15241025 0.74983335 0
4.0880003 -0.15909156 0.74992716 0
4.0900002 -0.16580893 0.75011474 0
4.092 -0.17253354 0.75030231 0
4.0960002 -0.1793375 0.75067753 0
4.1020002 -0.18623166 0.75124031 0
4.1080003 -0.19314747 0.7518031 0
4.1160002 -0.20016788 0.75255346 0
4.1230001 -0.20717388 0.75321007 0
3.9710002 -0.21347637 0.73895276 0
3.9650002 -0.21962556 0.73838997 0
3.9590003 -0.22575311 0.73782718 0
3.9530003 -0.23185898 0.73726439 0
3.9470003 -0.23794323 0.73670161 0
3.9460003 -0.24428543 0.73660779 0
3.9530003 -0.25108579 0.73726439 0
3.9600003 -0.25791138 0.737921 0
3.9670002 -0.26476225 0.7385776 0
3.9740002 -0.27163836 0.73923415 0
3.9810002 -0.27853972 0.73989075 0
3.9880002 -0.28546634 0.7405473 0
3.9950004 -0.29241824 0.7412039 0
4.0020003 -0.29939538 0.74186051 0
4.0100002 -0.30646992 0.74261087 0
4.0170002 -0.31349933 0.74326748 0
4.0240002 -0.32055405 0.74392402 0
4.0310001 -0.32763401 0.74458063 0
4.039 -0.33481857 0.74533105 0
4.046 -0.34195083 0.74598765 0
4.053 -0.34910834 0.7466442 0
4.0599999 -0.35629109 0.7473008 0
4.0680003 -0.36358571 0.74805117 0
4.0750003 -0.37082079 0.74870777 0
4.0830002 -0.37817129 0.74945813 0
4.0900002 -0.38545868 0.75011474 0
4.098 -0.39286509 0.7508651 0
4.105 -0.40020481 0.75152171 0
4.1129999 -0.40766713 0.75227207 0
4.1200004 -0.41505918 0.75292873 0
4.1280003 -0.42257744 0.75367904 0
4.1360002 -0.43012455 0.75442946 0
4.1430001 -0.43759593 0.75508606 0
4.151 -0.44519898 0.75583637 0
4.1589999 -0.45283091 0.75658679 0
4.1670003 -0.46049169 0.75733721 0
4.1740003 -0.46806946 0.75799382 0
4.1820002 -0.47578618 0.75874412 0
4.1900001 -0.48353174 0.75949454 0
4.198 -0.49130613 0.76024491 0
4.2060003 -0.49910942 0.76099533 0
4.2140002 -0.50694156 0.76174569 0
4.1810002 -0.039179802 0.75183016 0
4.171 -0.046 0.75091022 0
4.164 -0.052789535 0.75026625 0
4.1589999 -0.059561029 0.74980628 0
4.1550002 -0.066319898 0.74943829 0
4.1530004 -0.073078766 0.74925435 0
4.151 -0.079830423 0.74907035 0
4.1500001 -0.086585686 0.74897838 0
4.1500001 -0.093349963 0.74897838 0
4.1500001 -0.10011425 0.74897838 0
4.1160002 -0.10632657 0.74585056 0
4.1059999 -0.11284913 0.74493062 0
4.099 -0.11939515 0.74428666 0
4.0940003 -0.12595922 0.74382663 0
4.0910001 -0.13255213 0.74355066 0
4.0890002 -0.13915949 0.74336672 0
4.0880003 -0.14578667 0.74327469 0
4.0870004 -0.15241025 0.74318272 0
4.0880003 -0.15909156 0.74327469 0
4.0900002 -0.16580893 0.74345869 0
4.092 -0.17253354 0.74364269 0
4.0960002 -0.1793375 0.74401063 0
4.1010003 -0.18619379 0.7444706 0
4.1080003 -0.19314747 0.74511456 0
4.1160002 -0.20016788 0.74585056 0
4.1230001 -0.20717388 0.74649453 0
3.9710002 -0.21347637 0.7325114 0
3.9650002 -0.21962556 0.7319594 0
3.9590003 -0.22575311 0.73140746 0
3.9530003 -0.23185898 0.73085546 0
3.9470003 -0.23794323 0.73030353 0
3.9460003 -0.24428543 0.7302115 0
3.9530003 -0.25108579 0.73085546 0
3.9600003 -0.25791138 0.73149943 0
3.9670002 -0.26476225 0.7321434 0
3.9740002 -0.27163836 0.73278737 0
3.9810002 -0.27853972 0.73343134 0
3.9880002 -0.28546634 0.73407531 0
3.9950004 -0.29241824 0.73471928 0
4.0020003 -0.29939538 0.73536319 0
4.0100002 -0.30646992 0.73609912 0
4.0170002 -0.31349933 0.73674309 0
4.0240002 -0.32055405 0.73738706 0
4.0310001 -0.32763401 0.73803103 0
4.039 -0.33481857 0.73876697 0
4.046 -0.34195083 0.73941094 0
4.053 -0.34910834 0.74005491 0
4.0599999 -0.35629109 0.74069881 0
4.0680003 -0.36358571 0.74143481 0
4.0750003 -0.37082079 0.74207878 0
4.0830002 -0.37817129 0.74281472 0
4.0900002 -0.38545868 0.74345869 0
4.098 -0.39286509 0.74419463 0
4.105 -0.40020481 0.7448386 0
4.1129999 -0.40766713 0.74557453 0
4.1200004 -0.41505918 0.74621856 0
4.1280003 -0.42257744 0.74695444 0
4.1360002 -0.43012455 0.74769044 0
4.1430001 -0.43759593 0.74833441 0
4.151 -0.44519898 0.74907035 0
4.1589999 -0.45283091 0.74980628 0
4.1670003 -0.46049169 0.75054222 0
4.1740003 -0.46806946 0.75118625 0
4.1820002 -0.47578618 0.75192213 0
4.1900001 -0.48353174 0.75265813 0
4.198 -0.49130613 0.75339401 0
4.2060003 -0.49910942 0.75413001 0
4.2140002 -0.50694156 0.754866 0
4.1790004 -0.039183408 0.7448296 0
4.171 -0.046 0.74410808 0
4.165 -0.052791338 0.74356687 0
4.1600003 -0.059564639 0.74311596 0
4.1570001 -0.066330723 0.74284542 0
4.1540003 -0.073085986 0.74257481 0
4.1530004 -0.079848461 0.74248463 0
4.152 -0.08660733 0.74239445 0
4.152 -0.093375221 0.74239445 0
4.1530004 -0.10015754 0.74248463 0
4.1160002 -0.10632657 0.73914754 0
4.1059999 -0.11284913 0.73824567 0
4.099 -0.11939515 0.73761439 0
4.0940003 -0.12595922 0.73716342 0
4.0910001 -0.13255213 0.73689282 0
4.0890002 -0.13915949 0.73671246 0
4.0880003 -0.14578667 0.73662221 0
4.0870004 -0.15241025 0.73653209 0
4.0880003 -0.15909156 0.73662221 0
4.0900002 -0.16580893 0.73680258 0
4.092 -0.17253354 0.736983 0
4.0960002 -0.1793375 0.73734379 0
4.1010003 -0.18619379 0.73779476 0
4.1080003 -0.19314747 0.73842609 0
4.1160002 -0.20016788 0.73914754 0
4.1230001 -0.20717388 0.73977888 0
3.9710002 -0.21347637 0.72606993 0
3.9650002 -0.21962556 0.72552884 0
3.9590003 -0.22575311 0.72498769 0
3.9530003 -0.23185898 0.72444654 0
3.9470003 -0.23794323 0.72390544 0
3.9460003 -0.24428543 0.7238152 0
3.9530003 -0.25108579 0.72444654 0
3.9600003 -0.25791138 0.72507787 0
3.9670002 -0.26476225 0.7257092 0
3.9740002 -0.27163836 0.72634053 0
3.9810002 -0.27853972 0.72697186 0
3.9880002 -0.28546634 0.7276032 0
3.9950004 -0.29241824 0.72823453 0
4.0020003 -0.29939538 0.72886586 0
4.0100002 -0.30646992 0.72958738 0
4.0170002 -0.31349933 0.73021877 0
4.0240002 -0.32055405 0.73085004 0
4.0310001 -0.32763401 0.73148143 0
4.039 -0.33481857 0.73220289 0
4.046 -0.34195083 0.73283422 0
4.053 -0.34910834 0.73346555 0
4.0599999 -0.35629109 0.73409688 0
4.0680003 -0.36358571 0.73481846 0
4.0750003 -0.37082079 0.73544979 0
4.0830002 -0.37817129 0.73617131 0
4.0900002 -0.38545868 0.73680258 0
4.098 -0.39286509 0.73752415 0
4.105 -0.40020481 0.73815548 0
4.1129999 -0.40766713 0.738877 0
4.1200004 -0.41505918 0.73950839 0
4.1280003 -0.42257744 0.74022985 0
4.1360002 -0.43012455 0.74095142 0
4.1430001 -0.43759593 0.74158275 0
4.151 -0.44519898 0.74230421 0
4.1589999 -0.45283091 0.74302578 0
4.1670003 -0.46049169 0.74374729 0
4.1740003 -0.46806946 0.74437863 0
4.1820002 -0.47578618 0.74510014 0
4.1900001 -0.48353174 0.74582171 0
4.198 -0.49130613 0.74654317 0
4.2060003 -0.49910942 0.74726474 0
4.2140002 -0.50694156 0.74798626 0
4.1890001 -0.03233074 0.73889685 0
4.178 -0.039185211 0.73792458 0
4.171 -0.046 0.73730588 0
4.165 -0.052791338 0.73677552 0
4.1610003 -0.059568245 0.736422 0
4.1589999 -0.066341549 0.73624527 0
4.1560001 -0.073100418 0.73598009 0
4.1550002 -0.079866499 0.7358917 0
4.1550002 -0.086639799 0.7358917 0
4.1550002 -0.0934131 0.7358917 0
4.1570001 -0.10021526 0.73606849 0
4.1160002 -0.10632657 0.73244464 0
4.1059999 -0.11284913 0.73156077 0
4.099 -0.11939515 0.73094207 0
4.0940003 -0.12595922 0.7305001 0
4.0910001 -0.13255213 0.73023498 0
4.0890002 -0.13915949 0.73005819 0
4.0880003 -0.14578667 0.7299698 0
4.0870004 -0.15241025 0.72988141 0
4.0880003 -0.15909156 0.7299698 0
4.0900002 -0.16580893 0.73014653 0
4.092 -0.17253354 0.73032331 0
4.0960002 -0.1793375 0.73067689 0
4.1010003 -0.18619379 0.73111886 0
4.1080003 -0.19314747 0.73173755 0
4.1160002 -0.20016788 0.73244464 0
4.1230001 -0.20717388 0.73306334 0
3.9710002 -0.21347637 0.71962857 0
3.9650002 -0.21962556 0.71909821 0
3.9590003 -0.22575311 0.71856797 0
3.9530003 -0.23185898 0.71803761 0
3.9470003 -0.23794323 0.7175073 0
3.9460003 -0.24428543 0.71741891 0
3.9530003 -0.25108579 0.71803761 0
3.9600003 -0.25791138 0.7186563 0
3.9670002 -0.26476225 0.719275 0
3.9740002 -0.27163836 0.71989369 0
3.9810002 -0.27853972 0.72051245 0
3.9880002 -0.28546634 0.72113109 0
3.9950004 -0.29241824 0.7217499 0
4.0020003 -0.29939538 0.7223686 0
4.0100002 -0.30646992 0.72307563 0
4.0170002 -0.31349933 0.72369432 0
4.0240002 -0.32055405 0.72431302 0
4.0310001 -0.32763401 0.72493178 0
4.039 -0.33481857 0.72563887 0
4.046 -0.34195083 0.72625756 0
4.053 -0.34910834 0.72687626 0
4.0599999 -0.35629109 0.72749496 0
4.0680003 -0.36358571 0.7282021 0
4.0750003 -0.37082079 0.7288208 0
4.0830002 -0.37817129 0.72952789 0
4.0900002 -0.38545868 0.73014653 0
4.098 -0.39286509 0.73085368 0
4.105 -0.40020481 0.73147237 0
4.1129999 -0.40766713 0.73217946 0
4.1200004 -0.41505918 0.73279822 0
4.1280003 -0.42257744 0.73350525 0
4.1360002 -0.43012455 0.73421234 0
4.1430001 -0.43759593 0.73483109 0
4.151 -0.44519898 0.73553813 0
4.1589999 -0.45283091 0.73624527 0
4.1670003 -0.46049169 0.7369523 0
4.1740003 -0.46806946 0.73757106 0
4.1820002 -0.47578618 0.73827815 0
4.1900001 -0.48353174 0.73898524 0
4.198 -0.49130613 0.73969233 0
4.2060003 -0.49910942 0.74039948 0
4.2140002 -0.50694156 0.74110651 0
4.1870003 -0.032337956 0.73188901 0
4.178 -0.039185211 0.73110986 0
4.171 -0.046 0.73050374 0
4.1660004 -0.052793141 0.73007083 0
4.1630001 -0.059575461 0.72981107 0
4.1600003 -0.066346958 0.72955132 0
4.158 -0.073114842 0.7293781 0
4.1570001 -0.079884544 0.72929156 0
4.158 -0.086672261 0.7293781 0
4.158 -0.093450978 0.7293781 0
4.1600003 -0.10025855 0.72955132 0
4.1160002 -0.10632657 0.72574168 0
4.1059999 -0.11284913 0.72487581 0
4.099 -0.11939515 0.72426975 0
4.0940003 -0.12595922 0.7238369 0
4.0910001 -0.13255213 0.72357714 0
4.0890002 -0.13915949 0.72340393 0
4.0880003 -0.14578667 0.72331738 0
4.0870004 -0.15241025 0.72323078 0
4.0880003 -0.15909156 0.72331738 0
4.0900002 -0.16580893 0.72349048 0
4.092 -0.17253354 0.72366369 0
4.0960002 -0.1793375 0.72400999 0
4.1010003 -0.18619379 0.72444296 0
4.1080003 -0.19314747 0.72504902 0
4.1160002 -0.20016788 0.72574168 0
4.1230001 -0.20717388 0.7263478 0
3.9710002 -0.21347637 0.71318716 0
3.9650002 -0.21962556 0.71266764 0
3.9590003 -0.22575311 0.71214819 0
3.9530003 -0.23185898 0.71162868 0
3.9470003 -0.23794323 0.71110916 0
3.9460003 -0.24428543 0.71102262 0
3.9530003 -0.25108579 0.71162868 0
3.9600003 -0.25791138 0.71223474 0
3.9670002 -0.26476225 0.7128408 0
3.9740002 -0.27163836 0.71344692 0
3.9810002 -0.27853972 0.71405298 0
3.9880002 -0.28546634 0.71465909 0
3.9950004 -0.29241824 0.71526515 0
4.0020003 -0.29939538 0.71587121 0
4.0100002 -0.30646992 0.71656388 0
4.0170002 -0.31349933 0.71717 0
4.0240002 -0.32055405 0.71777606 0
4.0310001 -0.32763401 0.71838212 0
4.039 -0.33481857 0.71907485 0
4.046 -0.34195083 0.71968091 0
4.053 -0.34910834 0.72028697 0
4.0599999 -0.35629109 0.72089303 0
4.0680003 -0.36358571 0.72158575 0
4.0750003 -0.37082079 0.72219181 0
4.0830002 -0.37817129 0.72288442 0
4.0900002 -0.38545868 0.72349048 0
4.098 -0.39286509 0.7241832 0
4.105 -0.40020481 0.72478926 0
4.1129999 -0.40766713 0.72548193 0
4.1200004 -0.41505918 0.72608805 0
4.1280003 -0.42257744 0.72678065 0
4.1360002 -0.43012455 0.72747332 0
4.1430001 -0.43759593 0.72807944 0
4.151 -0.44519898 0.72877204 0
4.1589999 -0.45283091 0.72946477 0
4.1670003 -0.46049169 0.73015738 0
4.1740003 -0.46806946 0.73076349 0
4.1820002 -0.47578618 0.73145616 0
4.1900001 -0.48353174 0.73214883 0
4.198 -0.49130613 0.73284149 0
4.2060003 -0.49910942 0.73353416 0
4.2140002 -0.50694156 0.73422682 0
4.1849999 -0.032345172 0.72488844 0
4.177 -0.039187018 0.72421026 0
4.1719999 -0.046 0.72378635 0
4.1680002 -0.052796751 0.7234472 0
4.164 -0.059579067 0.72310811 0
4.1620002 -0.066357777 0.72293854 0
4.1610003 -0.073136494 0.72285378 0
4.1600003 -0.079911597 0.72276902 0
4.1600003 -0.086693913 0.72276902 0
4.1620002 -0.093501478 0.72293854 0
4.164 -0.10031627 0.72310811 0
4.1160002 -0.10632657 0.71903872 0
4.1059999 -0.11284913 0.71819091 0
4.099 -0.11939515 0.71759748 0
4.0940003 -0.12595922 0.71717358 0
4.0910001 -0.13255213 0.71691924 0
4.0890002 -0.13915949 0.71674967 0
4.0880003 -0.14578667 0.71666491 0
4.0870004 -0.15241025 0.71658015 0
4.0880003 -0.15909156 0.71666491 0
4.0900002 -0.16580893 0.71683449 0
4.092 -0.17253354 0.71700406 0
4.0960002 -0.1793375 0.71734315 0
4.1010003 -0.18619379 0.717767 0
4.1080003 -0.19314747 0.71836048 0
4.1160002 -0.20016788 0.71903872 0
4.1230001 -0.20717388 0.71963221 0
3.9710002 -0.21347637 0.70674574 0
3.9650002 -0.21962556 0.70623708 0
3.9590003 -0.22575311 0.70572841 0
3.9530003 -0.23185898 0.70521975 0
3.9470003 -0.23794323 0.70471108 0
3.9460003 -0.24428543 0.70462632 0
3.9530003 -0.25108579 0.70521975 0
3.9600003 -0.25791138 0.70581317 0
3.9670002 -0.26476225 0.70640665 0
3.9740002 -0.27163836 0.70700014 0
3.9810002 -0.27853972 0.70759356 0
3.9880002 -0.28546634 0.70818698 0
3.9950004 -0.29241824 0.70878047 0
4.0020003 -0.29939538 0.70937395 0
4.0100002 -0.30646992 0.71005213 0
4.0170002 -0.31349933 0.71064562 0
4.0240002 -0.32055405 0.71123904 0
4.0310001 -0.32763401 0.71183252 0
4.039 -0.33481857 0.7125107 0
4.046 -0.34195083 0.71310419 0
4.053 -0.34910834 0.71369767 0
4.0599999 -0.35629109 0.7142911 0
4.0680003 -0.36358571 0.71496934 0
4.0750003 -0.37082079 0.71556282 0
4.0830002 -0.37817129 0.716241 0
4.0900002 -0.38545868 0.71683449 0
4.098 -0.39286509 0.71751273 0
4.105 -0.40020481 0.71810615 0
4.1129999 -0.40766713 0.71878439 0
4.1200004 -0.41505918 0.71937788 0
4.1280003 -0.42257744 0.72005606 0
4.1360002 -0.43012455 0.72073436 0
4.1430001 -0.43759593 0.72132778 0
4.151 -0.44519898 0.72200596 0
4.1589999 -0.45283091 0.7226842 0
4.1670003 -0.46049169 0.72336245 0
4.1740003 -0.46806946 0.72395587 0
4.1820002 -0.47578618 0.72463411 0
4.1900001 -0.48353174 0.72531235 0
4.198 -0.49130613 0.72599065 0
4.2060003 -0.49910942 0.72666883 0
4.2140002 -0.50694156 0.72734708 0
4.1950002 -0.025463644 0.71889079 0
4.1849999 -0.032345172 0.71806109 0
4.178 -0.039185211 0.71748024 0
4.1730003 -0.046 0.71706533 0
4.1690001 -0.052798554 0.71673346 0
4.1660004 -0.059586283 0.71648455 0
4.164 -0.066368602 0.71631861 0
4.1630001 -0.073150918 0.71623564 0
4.1630001 -0.07993865 0.71623564 0
4.1630001 -0.086726382 0.71623564 0
4.165 -0.093539365 0.71640158 0
4.1680002 -0.100374 0.71665049 0
4.1160002 -0.10632657 0.71233577 0
4.1059999 -0.11284913 0.71150601 0
4.099 -0.11939515 0.71092522 0
4.0940003 -0.12595922 0.71051037 0
4.0910001 -0.13255213 0.7102614 0
4.0890002 -0.13915949 0.71009541 0
4.0880003 -0.14578667 0.71001244 0
4.0870004 -0.15241025 0.70992953 0
4.0880003 -0.15909156 0.71001244 0
4.0900002 -0.16580893 0.71017838 0
4.092 -0.17253354 0.71034437 0
4.0960002 -0.1793375 0.71067631 0
4.1010003 -0.18619379 0.71109116 0
4.1080003 -0.19314747 0.71167195 0
4.1160002 -0.20016788 0.71233577 0
4.1230001 -0.20717388 0.71291661 0
3.9710002 -0.21347637 0.70030439 0
3.9650002 -0.21962556 0.69980651 0
3.9590003 -0.22575311 0.69930863 0
3.9530003 -0.23185898 0.69881082 0
3.9470003 -0.23794323 0.698313 0
3.9460003 -0.24428543 0.69823003 0
3.9530003 -0.25108579 0.69881082 0
3.9600003 -0.25791138 0.69939166 0
3.9670002 -0.26476225 0.69997245 0
3.9740002 -0.27163836 0.7005533 0
3.9810002 -0.27853972 0.70113409 0
3.9880002 -0.28546634 0.70171499 0
3.9950004 -0.29241824 0.70229578 0
4.0020003 -0.29939538 0.70287663 0
4.0100002 -0.30646992 0.70354044 0
4.0170002 -0.31349933 0.70412123 0
4.0240002 -0.32055405 0.70470208 0
4.0310001 -0.32763401 0.70528293 0
4.039 -0.33481857 0.70594668 0
4.046 -0.34195083 0.70652747 0
4.053 -0.34910834 0.70710838 0
4.0599999 -0.35629109 0.70768917 0
4.0680003 -0.36358571 0.70835298 0
4.0750003 -0.37082079 0.70893383 0
4.0830002 -0.37817129 0.70959759 0
4.0900002 -0.38545868 0.71017838 0
4.098 -0.39286509 0.71084225 0
4.105 -0.40020481 0.71142304 0
4.1129999 -0.40766713 0.71208686 0
4.1200004 -0.41505918 0.7126677 0
4.1280003 -0.42257744 0.71333146 0
4.1360002 -0.43012455 0.71399528 0
4.1430001 -0.43759593 0.71457613 0
4.151 -0.44519898 0.71523988 0
4.1589999 -0.45283091 0.7159037 0
4.1670003 -0.46049169 0.71656752 0
4.1740003 -0.46806946 0.7171483 0
4.1820002 -0.47578618 0.71781212 0
4.1900001 -0.48353174 0.71847594 0
4.198 -0.49130613 0.71913975 0
4.2060003 -0.49910942 0.71980357 0
4.2140002 -0.50694156 0.72046733 0
4.1930003 -0.025474466 0.71188307 0
4.184 -0.032348778 0.71115249 0
4.178 -0.039185211 0.71066546 0
4.1740003 -0.046 0.71034074 0
4.1700001 -0.052800357 0.71001607 0
4.1680002 -0.059593499 0.70985377 0
4.1660004 -0.066379428 0.70969141 0
4.165 -0.07316535 0.70961022 0
4.1660004 -0.079965711 0.70969141 0
4.1670003 -0.08676967 0.70977259 0
4.1680002 -0.093577251 0.70985377 0
4.1719999 -0.10043171 0.71017838 0
4.1160002 -0.10632657 0.70563281 0
4.1059999 -0.11284913 0.70482111 0
4.099 -0.11939515 0.7042529 0
4.0940003 -0.12595922 0.70384705 0
4.0910001 -0.13255213 0.70360357 0
4.0890002 -0.13915949 0.7034412 0
4.0880003 -0.14578667 0.70336002 0
4.0870004 -0.15241025 0.7032789 0
4.0880003 -0.15909156 0.70336002 0
4.0900002 -0.16580893 0.70352232 0
4.092 -0.17253354 0.70368469 0
4.0960002 -0.1793375 0.70400941 0
4.1010003 -0.18619379 0.70441526 0
4.1080003 -0.19314747 0.70498347 0
4.1160002 -0.20016788 0.70563281 0
4.1230001 -0.20717388 0.70620108 0
3.9710002 -0.21347637 0.69386297 0
3.9650002 -0.21962556 0.69337595 0
3.9590003 -0.22575311 0.69288898 0
3.9530003 -0.23185898 0.69240189 0
3.9470003 -0.23794323 0.69191486 0
3.9460003 -0.24428543 0.69183373 0
3.9530003 -0.25108579 0.69240189 0
3.9600003 -0.25791138 0.6929701 0
3.9670002 -0.26476225 0.69353831 0
3.9740002 -0.27163836 0.69410646 0
3.9810002 -0.27853972 0.69467473 0
3.9880002 -0.28546634 0.69524288 0
3.9950004 -0.29241824 0.69581109 0
4.0020003 -0.29939538 0.6963793 0
4.0100002 -0.30646992 0.69702864 0
4.0170002 -0.31349933 0.69759685 0
4.0240002 -0.32055405 0.69816506 0
4.0310001 -0.32763401 0.69873327 0
4.0380001 -0.33473918 0.69930148 0
4.046 -0.34195083 0.69995081 0
4.053 -0.34910834 0.70051903 0
4.0599999 -0.35629109 0.70108724 0
4.0680003 -0.36358571 0.70173657 0
4.0750003 -0.37082079 0.70230484 0
4.0830002 -0.37817129 0.70295417 0
4.0900002 -0.38545868 0.70352232 0
4.098 -0.39286509 0.70417178 0
4.105 -0.40020481 0.70473993 0
4.1129999 -0.40766713 0.70538932 0
4.1200004 -0.41505918 0.70595753 0
4.1280003 -0.42257744 0.70660686 0
4.1360002 -0.43012455 0.7072562 0
4.1430001 -0.43759593 0.70782447 0
4.151 -0.44519898 0.7084738 0
4.1589999 -0.45283091 0.70912313 0
4.1670003 -0.46049169 0.70977259 0
4.1740003 -0.46806946 0.71034074 0
4.1820002 -0.47578618 0.71099013 0
4.1900001 -0.48353174 0.71163952 0
4.198 -0.49130613 0.71228886 0
4.2060003 -0.49910942 0.71293825 0
4.2140002 -0.50694156 0.71358764 0
4.2030001 -0.018560469 0.70583487 0
4.1920004 -0.025479876 0.70496178 0
4.184 -0.032348778 0.70432687 0
4.1790004 -0.039183408 0.70393002 0
4.1750002 -0.046 0.70361257 0
4.1719999 -0.052803963 0.70337445 0
4.1700001 -0.059600715 0.70321572 0
4.1680002 -0.066390246 0.70305699 0
4.1680002 -0.073186994 0.70305699 0
4.1680002 -0.079983741 0.70305699 0
4.1700001 -0.08680214 0.70321572 0
4.1719999 -0.093627751 0.70337445 0
4.1760001 -0.10048944 0.70369196 0
4.1160002 -0.10632657 0.69892985 0
4.1059999 -0.11284913 0.69813621 0
4.099 -0.11939515 0.69758064 0
4.0940003 -0.12595922 0.69718379 0
4.0910001 -0.13255213 0.69694567 0
4.0890002 -0.13915949 0.69678694 0
4.0880003 -0.14578667 0.69670761 0
4.0870004 -0.15241025 0.69662821 0
4.0880003 -0.15909156 0.69670761 0
4.0900002 -0.16580893 0.69686627 0
4.092 -0.17253354 0.69702506 0
4.0960002 -0.1793375 0.69734251 0
4.1010003 -0.18619379 0.69773936 0
4.1080003 -0.19314747 0.69829494 0
4.1160002 -0.20016788 0.69892985 0
4.1230001 -0.20717388 0.69948542 0
3.9710002 -0.21347637 0.68742156 0
3.9650002 -0.21962556 0.68694532 0
3.9590003 -0.22575311 0.6864692 0
3.9530003 -0.23185898 0.68599296 0
3.9470003 -0.23794323 0.68551672 0
3.9460003 -0.24428543 0.68543744 0
3.9530003 -0.25108579 0.68599296 0
3.9600003 -0.25791138 0.68654859 0
3.9670002 -0.26476225 0.68710411 0
3.9740002 -0.27163836 0.68765968 0
3.9810002 -0.27853972 0.68821526 0
3.9880002 -0.28546634 0.68877083 0
3.9950004 -0.29241824 0.68932641 0
4.0020003 -0.29939538 0.68988198 0
4.0100002 -0.30646992 0.69051695 0
4.0170002 -0.31349933 0.69107246 0
4.0240002 -0.32055405 0.6916281 0
4.0310001 -0.32763401 0.69218361 0
4.0380001 -0.33473918 0.69273919 0
4.046 -0.34195083 0.69337416 0
4.053 -0.34910834 0.69392973 0
4.0599999 -0.35629109 0.69448531 0
4.0680003 -0.36358571 0.69512022 0
4.0750003 -0.37082079 0.69567585 0
4.0830002 -0.37817129 0.69631076 0
4.0900002 -0.38545868 0.69686627 0
4.098 -0.39286509 0.69750124 0
4.105 -0.40020481 0.69805682 0
4.1129999 -0.40766713 0.69869179 0
4.1200004 -0.41505918 0.69924736 0
4.1280003 -0.42257744 0.69988227 0
4.1360002 -0.43012455 0.70051718 0
4.1430001 -0.43759593 0.70107281 0
4.151 -0.44519898 0.70170772 0
4.1589999 -0.45283091 0.70234263 0
4.1670003 -0.46049169 0.70297766 0
4.1740003 -0.46806946 0.70353317 0
4.1820002 -0.47578618 0.70416814 0
4.1900001 -0.48353174 0.70480311 0
4.198 -0.49130613 0.70543802 0
4.2060003 -0.49910942 0.70607293 0
4.2140002 -0.50694156 0.70670789 0
4.2000003 -0.018582115 0.69874227 0
4.191 -0.02548529 0.69804418 0
4.1849999 -0.032345172 0.69757879 0
4.1800003 -0.039181605 0.697191 0
4.1760001 -0.046 0.69688076 0
4.1740003 -0.052807573 0.69672561 0
4.1719999 -0.05960793 0.69657052 0
4.171 -0.066406481 0.69649291 0
4.171 -0.073208645 0.69649291 0
4.1719999 -0.080019824 0.69657052 0
4.1730003 -0.08683461 0.69664806 0
4.1760001 -0.093678258 0.69688076 0
4.1810002 -0.10056159 0.69726861 0
4.1160002 -0.10632657 0.69222689 0
4.1059999 -0.11284913 0.69145131 0
4.099 -0.11939515 0.69090831 0
4.0940003 -0.12595922 0.69052052 0
4.0910001 -0.13255213 0.69028783 0
4.0890002 -0.13915949 0.69013268 0
4.0880003 -0.14578667 0.69005513 0
4.0870004 -0.15241025 0.68997759 0
4.0880003 -0.15909156 0.69005513 0
4.0900002 -0.16580893 0.69021022 0
4.092 -0.17253354 0.69036543 0
4.0960002 -0.1793375 0.69067562 0
4.1010003 -0.18619379 0.69106346 0
4.1080003 -0.19314747 0.6916064 0
4.1160002 -0.20016788 0.69222689 0
4.1230001 -0.20717388 0.69276989 0
3.9710002 -0.21347637 0.68098021 0
3.9650002 -0.21962556 0.68051481 0
3.9590003 -0.22575311 0.68004942 0
3.9530003 -0.23185898 0.67958403 0
3.9470003 -0.23794323 0.67911863 0
3.9460003 -0.24428543 0.67904109 0
3.9530003 -0.25108579 0.67958403 0
3.9600003 -0.25791138 0.68012697 0
3.9670002 -0.26476225 0.6806699 0
3.9740002 -0.27163836 0.6812129 0
3.9810002 -0.27853972 0.68175578 0
3.9880002 -0.28546634 0.68229878 0
3.9950004 -0.29241824 0.68284172 0
4.0020003 -0.29939538 0.68338466 0
4.0100002 -0.30646992 0.68400514 0
4.0170002 -0.31349933 0.68454814 0
4.0240002 -0.32055405 0.68509102 0
4.0310001 -0.32763401 0.68563402 0
4.0380001 -0.33473918 0.68617696 0
4.046 -0.34195083 0.68679744 0
4.053 -0.34910834 0.68734038 0
4.0599999 -0.35629109 0.68788338 0
4.0680003 -0.36358571 0.68850386 0
4.0750003 -0.37082079 0.6890468 0
4.0830002 -0.37817129 0.68966734 0
4.0900002 -0.38545868 0.69021022 0
4.098 -0.39286509 0.69083077 0
4.105 -0.40020481 0.69137371 0
4.1129999 -0.40766713 0.69199419 0
4.1200004 -0.41505918 0.69253719 0
4.1280003 -0.42257744 0.69315767 0
4.1360002 -0.43012455 0.69377822 0
4.1430001 -0.43759593 0.69432116 0
4.151 -0.44519898 0.69494164 0
4.1589999 -0.45283091 0.69556212 0
4.1670003 -0.46049169 0.69618267 0
4.1740003 -0.46806946 0.69672561 0
4.1820002 -0.47578618 0.69734609 0
4.1900001 -0.48353174 0.69796664 0
4.198 -0.49130613 0.69858718 0
4.2060003 -0.49910942 0.69920766 0
4.2140002 -0.50694156 0.69982815 0
4.2270002 0.0023222193 0.69393337 0
4.217 -0.0046891868 0.69317573 0
4.2160001 -0.011583336 0.69309998 0
4.1990004 -0.018589329 0.69181204 0
4.191 -0.02548529 0.69120598 0
4.1849999 -0.032345172 0.69075143 0
4.1810002 -0.039179802 0.6904484 0
4.178 -0.046 0.69022107 0
4.1750002 -0.052809376 0.6899938 0
4.1740003 -0.059615143 0.68991804 0
4.1730003 -0.066417307 0.68984228 0
4.1740003 -0.073230289 0.68991804 0
4.1750002 -0.080046877 0.6899938 0
4.177 -0.086877897 0.69014531 0
4.1800003 -0.093728766 0.69037259 0
4.1860003 -0.10063374 0.69082713 0
4.1160002 -0.10632657 0.68552399 0
4.1059999 -0.11284913 0.68476641 0
4.099 -0.11939515 0.68423605 0
4.0940003 -0.12595922 0.68385726 0
4.0910001 -0.13255213 0.68362999 0
4.0890002 -0.13915949 0.68347847 0
4.0880003 -0.14578667 0.68340266 0
4.0870004 -0.15241025 0.68332696 0
4.0880003 -0.15909156 0.68340266 0
4.0900002 -0.16580893 0.68355417 0
4.092 -0.17253354 0.68370575 0
4.0960002 -0.1793375 0.68400878 0
4.1010003 -0.18619379 0.68438756 0
4.1080003 -0.19314747 0.68491793 0
4.1160002 -0.20016788 0.68552399 0
4.1230001 -0.20717388 0.68605429 0
3.9710002 -0.21347637 0.67453879 0
3.9650002 -0.21962556 0.67408419 0
3.9590003 -0.22575311 0.67362964 0
3.9530003 -0.23185898 0.6731751 0
3.9470003 -0.23794323 0.67272055 0
3.9460003 -0.24428543 0.67264479 0
3.9530003 -0.25108579 0.6731751 0
3.9600003 -0.25791138 0.67370546 0
3.9670002 -0.26476225 0.67423576 0
3.9740002 -0.27163836 0.67476606 0
3.9810002 -0.27853972 0.67529643 0
