# .PCD v0.7 - Point Cloud Data file format
VERSION 0.7
FIELDS x y z intensity
SIZE 4 4 4 4
TYPE F F F F
COUNT 1 1 1 1
WIDTH 1425
HEIGHT 1
VIEWPOINT 0 0 0 1 0 0 0
POINTS 1425
DATA ascii
5.0660005 -2.2848074 1.2204072 0
5.0600004 -2.2903345 1.2193574 0
5.0630002 -2.3001904 1.2198822 0
5.1300001 -2.2131312 1.2230732 0
5.1360002 -2.2244232 1.2241123 0
5.1300001 -2.2301953 1.2230732 0
5.1230001 -2.2354822 1.2218611 0
5.1170001 -2.2412093 1.2208221 0
5.1100001 -2.2464476 1.2196099 0
5.1040001 -2.2521296 1.2185708 0
5.0980005 -2.2577901 1.217532 0
5.0910001 -2.2629559 1.2163198 0
5.0850005 -2.2685716 1.2152809 0
5.0790005 -2.2741649 1.2142419 0
5.0730004 -2.279737 1.2132028 0
5.0660005 -2.2848074 1.2119907 0
5.0600004 -2.2903345 1.2109517 0
5.0630002 -2.3001904 1.2114712 0
5.1300001 -2.2131312 1.2145412 0
5.1360002 -2.2244232 1.2155694 0
5.1300001 -2.2301953 1.2145412 0
5.1230001 -2.2354822 1.2133417 0
5.1170001 -2.2412093 1.2123135 0
5.1100001 -2.2464476 1.211114 0
5.1040001 -2.2521296 1.2100857 0
5.0980005 -2.2577901 1.2090577 0
5.0910001 -2.2629559 1.2078581 0
5.0850005 -2.2685716 1.20683 0
5.0790005 -2.2741649 1.2058018 0
5.0730004 -2.279737 1.2047737 0
5.0660005 -2.2848074 1.2035741 0
5.0600004 -2.2903345 1.202546 0
5.0630002 -2.3001904 1.20306 0
5.1300001 -2.2131312 1.2060091 0
5.1360002 -2.2244232 1.2070266 0
5.1300001 -2.2301953 1.2060091 0
5.1230001 -2.2354822 1.2048223 0
5.1170001 -2.2412093 1.203805 0
5.1100001 -2.2464476 1.202618 0
5.1040001 -2.2521296 1.2016007 0
5.0980005 -2.2577901 1.2005833 0
5.0910001 -2.2629559 1.1993965 0
5.0850005 -2.2685716 1.1983792 0
5.0790005 -2.2741649 1.1973618 0
5.0730004 -2.279737 1.1963444 0
5.0660005 -2.2848074 1.1951575 0
5.0600004 -2.2903345 1.1941402 0
5.0630002 -2.3001904 1.1946489 0
5.1300001 -2.2131312 1.1974772 0
5.1360002 -2.2244232 1.1984837 0
5.1300001 -2.2301953 1.1974772 0
5.1230001 -2.2354822 1.1963029 0
5.1170001 -2.2412093 1.1952964 0
5.1100001 -2.2464476 1.1941221 0
5.1040001 -2.2521296 1.1931156 0
5.0980005 -2.2577901 1.1921091 0
5.0910001 -2.2629559 1.1909348 0
5.0850005 -2.2685716 1.1899283 0
5.0790005 -2.2741649 1.1889218 0
5.0730004 -2.279737 1.1879152 0
5.0660005 -2.2848074 1.186741 0
5.0600004 -2.2903345 1.1857345 0
5.0630002 -2.3001904 1.1862377 0
5.1300001 -2.2131312 1.1889452 0
5.1360002 -2.2244232 1.1899409 0
5.1300001 -2.2301953 1.1889452 0
5.1230001 -2.2354822 1.1877835 0
5.1170001 -2.2412093 1.1867878 0
5.1100001 -2.2464476 1.1856261 0
5.1040001 -2.2521296 1.1846305 0
5.0980005 -2.2577901 1.1836348 0
5.0910001 -2.2629559 1.1824731 0
5.0850005 -2.2685716 1.1814775 0
5.0790005 -2.2741649 1.1804818 0
5.0730004 -2.279737 1.179486 0
5.0660005 -2.2848074 1.1783245 0
5.0600004 -2.2903345 1.1773287 0
5.0630002 -2.3001904 1.1778265 0
5.1300001 -2.2131312 1.1804131 0
5.1360002 -2.2244232 1.181398 0
5.1300001 -2.2301953 1.1804131 0
5.1230001 -2.2354822 1.1792641 0
5.1170001 -2.2412093 1.1782793 0
5.1100001 -2.2464476 1.1771302 0
5.1040001 -2.2521296 1.1761453 0
5.0980005 -2.2577901 1.1751605 0
5.0910001 -2.2629559 1.1740115 0
5.0850005 -2.2685716 1.1730267 0
5.0790005 -2.2741649 1.1720418 0
5.0730004 -2.279737 1.1710569 0
5.0660005 -2.2848074 1.1699078 0
5.0600004 -2.2903345 1.1689229 0
5.0630002 -2.3001904 1.1694154 0
5.1300001 -2.2131312 1.1718812 0
5.1360002 -2.2244232 1.1728551 0
5.1300001 -2.2301953 1.1718812 0
5.1230001 -2.2354822 1.1707448 0
5.1170001 -2.2412093 1.1697707 0
5.1100001 -2.2464476 1.1686343 0
5.1040001 -2.2521296 1.1676602 0
5.0980005 -2.2577901 1.1666863 0
5.0910001 -2.2629559 1.1655498 0
5.0850005 -2.2685716 1.1645758 0
5.0790005 -2.2741649 1.1636018 0
5.0730004 -2.279737 1.1626277 0
5.0660005 -2.2848074 1.1614913 0
5.0600004 -2.2903345 1.1605172 0
5.0630002 -2.3001904 1.1610042 0
5.1300001 -2.2131312 1.1633492 0
5.1360002 -2.2244232 1.1643124 0
5.1300001 -2.2301953 1.1633492 0
5.1230001 -2.2354822 1.1622254 0
5.1170001 -2.2412093 1.1612622 0
5.1100001 -2.2464476 1.1601384 0
5.1040001 -2.2521296 1.1591752 0
5.0980005 -2.2577901 1.1582119 0
5.0910001 -2.2629559 1.157088 0
5.0850005 -2.2685716 1.1561249 0
5.0790005 -2.2741649 1.1551617 0
5.0730004 -2.279737 1.1541985 0
5.0660005 -2.2848074 1.1530747 0
5.0600004 -2.2903345 1.1521114 0
5.0630002 -2.3001904 1.152593 0
5.1300001 -2.2131312 1.1548171 0
5.1360002 -2.2244232 1.1557696 0
5.1300001 -2.2301953 1.1548171 0
5.1230001 -2.2354822 1.153706 0
5.1170001 -2.2412093 1.1527536 0
5.1100001 -2.2464476 1.1516424 0
5.1040001 -2.2521296 1.15069 0
5.0980005 -2.2577901 1.1497377 0
5.0910001 -2.2629559 1.1486264 0
5.0850005 -2.2685716 1.1476741 0
5.0790005 -2.2741649 1.1467217 0
5.0730004 -2.279737 1.1457692 0
5.0660005 -2.2848074 1.1446581 0
5.0600004 -2.2903345 1.1437057 0
5.0630002 -2.3001904 1.1441818 0
5.1300001 -2.2131312 1.1462852 0
5.1360002 -2.2244232 1.1472267 0
5.1300001 -2.2301953 1.1462852 0
5.1230001 -2.2354822 1.1451865 0
5.1170001 -2.2412093 1.144245 0
5.1100001 -2.2464476 1.1431465 0
5.1040001 -2.2521296 1.1422049 0
5.0980005 -2.2577901 1.1412634 0
5.0910001 -2.2629559 1.1401647 0
5.0850005 -2.2685716 1.1392232 0
5.0790005 -2.2741649 1.1382817 0
5.0730004 -2.279737 1.1373401 0
5.0660005 -2.2848074 1.1362416 0
5.0600004 -2.2903345 1.1352999 0
5.0630002 -2.3001904 1.1357707 0
5.1300001 -2.2131312 1.1377531 0
5.1360002 -2.2244232 1.1386839 0
5.1300001 -2.2301953 1.1377531 0
5.1230001 -2.2354822 1.1366673 0
5.1170001 -2.2412093 1.1357365 0
5.1100001 -2.2464476 1.1346506 0
5.1040001 -2.2521296 1.1337198 0
5.0980005 -2.2577901 1.1327891 0
5.0910001 -2.2629559 1.1317031 0
5.0850005 -2.2685716 1.1307725 0
5.0790005 -2.2741649 1.1298417 0
5.0730004 -2.279737 1.1289109 0
5.0660005 -2.2848074 1.127825 0
5.0600004 -2.2903345 1.1268942 0
5.0630002 -2.3001904 1.1273595 0
5.1300001 -2.2131312 1.1292211 0
5.1360002 -2.2244232 1.130141 0
5.1300001 -2.2301953 1.1292211 0
5.1230001 -2.2354822 1.1281478 0
5.1170001 -2.2412093 1.1272279 0
5.1100001 -2.2464476 1.1261547 0
5.1040001 -2.2521296 1.1252346 0
5.0980005 -2.2577901 1.1243148 0
5.0910001 -2.2629559 1.1232414 0
5.0850005 -2.2685716 1.1223216 0
5.0790005 -2.2741649 1.1214017 0
5.0730004 -2.279737 1.1204816 0
5.0660005 -2.2848074 1.1194085 0
5.0600004 -2.2903345 1.1184884 0
5.0630002 -2.3001904 1.1189485 0
5.1300001 -2.2131312 1.120689 0
5.1360002 -2.2244232 1.1215982 0
5.1300001 -2.2301953 1.120689 0
5.1230001 -2.2354822 1.1196284 0
5.1170001 -2.2412093 1.1187193 0
5.1100001 -2.2464476 1.1176587 0
5.1040001 -2.2521296 1.1167495 0
5.0980005 -2.2577901 1.1158406 0
5.0910001 -2.2629559 1.1147798 0
5.0850005 -2.2685716 1.1138707 0
5.0790005 -2.2741649 1.1129616 0
5.0730004 -2.279737 1.1120526 0
5.0660005 -2.2848074 1.1109918 0
5.0600004 -2.2903345 1.1100827 0
5.0630002 -2.3001904 1.1105373 0
5.1300001 -2.2131312 1.1121571 0
5.1360002 -2.2244232 1.1130553 0
5.1300001 -2.2301953 1.1121571 0
5.1230001 -2.2354822 1.111109 0
5.1170001 -2.2412093 1.1102108 0
5.1100001 -2.2464476 1.1091627 0
5.1040001 -2.2521296 1.1082644 0
5.0980005 -2.2577901 1.1073662 0
5.0910001 -2.2629559 1.1063181 0
5.0850005 -2.2685716 1.1054199 0
5.0790005 -2.2741649 1.1045216 0
5.0730004 -2.279737 1.1036233 0
5.0660005 -2.2848074 1.1025753 0
5.0600004 -2.2903345 1.1016769 0
5.0630002 -2.3001904 1.1021261 0
5.1300001 -2.2131312 1.1036251 0
5.1360002 -2.2244232 1.1045125 0
5.1300001 -2.2301953 1.1036251 0
5.1230001 -2.2354822 1.1025897 0
5.1170001 -2.2412093 1.1017022 0
5.1100001 -2.2464476 1.1006668 0
5.1040001 -2.2521296 1.0997794 0
5.0980005 -2.2577901 1.0988919 0
5.0910001 -2.2629559 1.0978564 0
5.0850005 -2.2685716 1.0969691 0
5.0790005 -2.2741649 1.0960816 0
5.0730004 -2.279737 1.0951941 0
5.0660005 -2.2848074 1.0941588 0
5.0600004 -2.2903345 1.0932713 0
5.0630002 -2.3001904 1.093715 0
5.1300001 -2.2131312 1.095093 0
5.1360002 -2.2244232 1.0959697 0
5.1300001 -2.2301953 1.095093 0
5.1230001 -2.2354822 1.0940703 0
5.1170001 -2.2412093 1.0931937 0
5.1100001 -2.2464476 1.0921708 0
5.1040001 -2.2521296 1.0912942 0
5.0980005 -2.2577901 1.0904176 0
5.0910001 -2.2629559 1.0893948 0
5.0850005 -2.2685716 1.0885183 0
5.0790005 -2.2741649 1.0876416 0
5.0730004 -2.279737 1.0867649 0
5.0660005 -2.2848074 1.0857421 0
5.0600004 -2.2903345 1.0848655 0
5.0630002 -2.3001904 1.0853038 0
5.1300001 -2.2131312 1.086561 0
5.1360002 -2.2244232 1.0874269 0
5.1300001 -2.2301953 1.086561 0
5.1230001 -2.2354822 1.0855509 0
5.1170001 -2.2412093 1.0846851 0
5.1100001 -2.2464476 1.0836749 0
5.1040001 -2.2521296 1.0828091 0
5.0980005 -2.2577901 1.0819433 0
5.0910001 -2.2629559 1.0809331 0
5.0850005 -2.2685716 1.0800674 0
5.0790005 -2.2741649 1.0792016 0
5.0730004 -2.279737 1.0783356 0
5.0660005 -2.2848074 1.0773256 0
5.0600004 -2.2903345 1.0764598 0
5.0630002 -2.3001904 1.0768926 0
5.1300001 -2.2131312 1.078029 0
5.1360002 -2.2244232 1.078884 0
5.1300001 -2.2301953 1.078029 0
5.1230001 -2.2354822 1.0770315 0
5.1170001 -2.2412093 1.0761765 0
5.1100001 -2.2464476 1.075179 0
5.1040001 -2.2521296 1.074324 0
5.0980005 -2.2577901 1.073469 0
5.0910001 -2.2629559 1.0724715 0
5.0850005 -2.2685716 1.0716165 0
5.0790005 -2.2741649 1.0707614 0
5.0730004 -2.279737 1.0699065 0
5.0660005 -2.2848074 1.0689089 0
5.0600004 -2.2903345 1.068054 0
5.0630002 -2.3001904 1.0684814 0
5.1300001 -2.2131312 1.069497 0
5.1360002 -2.2244232 1.0703412 0
5.1300001 -2.2301953 1.069497 0
5.1230001 -2.2354822 1.0685121 0
5.1170001 -2.2412093 1.067668 0
5.1100001 -2.2464476 1.0666831 0
5.1040001 -2.2521296 1.0658388 0
5.0980005 -2.2577901 1.0649947 0
5.0910001 -2.2629559 1.0640098 0
5.0850005 -2.2685716 1.0631657 0
5.0790005 -2.2741649 1.0623215 0
5.0730004 -2.279737 1.0614773 0
5.0660005 -2.2848074 1.0604924 0
5.0600004 -2.2903345 1.0596483 0
5.0630002 -2.3001904 1.0600703 0
5.1300001 -2.2131312 1.0609649 0
5.1360002 -2.2244232 1.0617983 0
5.1300001 -2.2301953 1.0609649 0
5.1230001 -2.2354822 1.0599927 0
5.1170001 -2.2412093 1.0591594 0
5.1100001 -2.2464476 1.0581871 0
5.1040001 -2.2521296 1.0573537 0
5.0980005 -2.2577901 1.0565205 0
5.0910001 -2.2629559 1.0555482 0
5.0850005 -2.2685716 1.0547148 0
5.0790005 -2.2741649 1.0538814 0
5.0730004 -2.279737 1.0530481 0
5.0660005 -2.2848074 1.0520759 0
5.0600004 -2.2903345 1.0512425 0
5.0630002 -2.3001904 1.0516591 0
5.1300001 -2.2131312 1.052433 0
5.1360002 -2.2244232 1.0532556 0
5.1300001 -2.2301953 1.052433 0
5.1230001 -2.2354822 1.0514734 0
5.1170001 -2.2412093 1.0506508 0
5.1100001 -2.2464476 1.0496912 0
5.1040001 -2.2521296 1.0488687 0
5.0980005 -2.2577901 1.0480461 0
5.0910001 -2.2629559 1.0470865 0
5.0850005 -2.2685716 1.0462641 0
5.0790005 -2.2741649 1.0454415 0
5.0730004 -2.279737 1.0446188 0
5.0660005 -2.2848074 1.0436593 0
5.0600004 -2.2903345 1.0428368 0
5.0630002 -2.3001904 1.0432479 0
5.1300001 -2.2131312 1.043901 0
5.1360002 -2.2244232 1.0447127 0
5.1300001 -2.2301953 1.043901 0
5.1230001 -2.2354822 1.042954 0
5.1170001 -2.2412093 1.0421423 0
5.1100001 -2.2464476 1.0411953 0
5.1040001 -2.2521296 1.0403835 0
5.0980005 -2.2577901 1.0395719 0
5.0910001 -2.2629559 1.0386249 0
5.0850005 -2.2685716 1.0378132 0
5.0790005 -2.2741649 1.0370014 0
5.0730004 -2.279737 1.0361898 0
5.0660005 -2.2848074 1.0352427 0
5.0600004 -2.2903345 1.034431 0
5.0630002 -2.3001904 1.0348369 0
5.1300001 -2.2131312 1.0353689 0
5.1360002 -2.2244232 1.0361698 0
5.1300001 -2.2301953 1.0353689 0
5.1230001 -2.2354822 1.0344346 0
5.1170001 -2.2412093 1.0336337 0
5.1100001 -2.2464476 1.0326993 0
5.1040001 -2.2521296 1.0318984 0
5.0980005 -2.2577901 1.0310977 0
5.0910001 -2.2629559 1.0301632 0
5.0850005 -2.2685716 1.0293623 0
5.0790005 -2.2741649 1.0285615 0
5.0730004 -2.279737 1.0277605 0
5.0660005 -2.2848074 1.0268261 0
5.0600004 -2.2903345 1.0260253 0
5.0630002 -2.3001904 1.0264257 0
5.1300001 -2.2131312 1.026837 0
5.1360002 -2.2244232 1.027627 0
5.1300001 -2.2301953 1.026837 0
5.1230001 -2.2354822 1.0259151 0
5.1170001 -2.2412093 1.0251251 0
5.1100001 -2.2464476 1.0242034 0
5.1040001 -2.2521296 1.0234133 0
5.0980005 -2.2577901 1.0226233 0
5.0910001 -2.2629559 1.0217015 0
5.0850005 -2.2685716 1.0209115 0
5.0790005 -2.2741649 1.0201213 0
5.0730004 -2.279737 1.0193313 0
5.0660005 -2.2848074 1.0184096 0
5.0600004 -2.2903345 1.0176195 0
5.0630002 -2.3001904 1.0180146 0
5.1300001 -2.2131312 1.0183049 0
5.1360002 -2.2244232 1.0190842 0
5.1300001 -2.2301953 1.0183049 0
5.1230001 -2.2354822 1.0173959 0
5.1170001 -2.2412093 1.0166166 0
5.1100001 -2.2464476 1.0157074 0
5.1040001 -2.2521296 1.0149282 0
5.0980005 -2.2577901 1.0141491 0
5.0910001 -2.2629559 1.0132399 0
5.0850005 -2.2685716 1.0124606 0
5.0790005 -2.2741649 1.0116814 0
5.0730004 -2.279737 1.0109022 0
5.0660005 -2.2848074 1.009993 0
5.0600004 -2.2903345 1.0092138 0
5.0630002 -2.3001904 1.0096034 0
5.1300001 -2.2131312 1.0097729 0
5.1360002 -2.2244232 1.0105413 0
5.1300001 -2.2301953 1.0097729 0
5.1230001 -2.2354822 1.0088764 0
5.1170001 -2.2412093 1.008108 0
5.1100001 -2.2464476 1.0072114 0
5.1040001 -2.2521296 1.0064431 0
5.0980005 -2.2577901 1.0056747 0
5.0910001 -2.2629559 1.0047781 0
5.0850005 -2.2685716 1.0040098 0
5.0790005 -2.2741649 1.0032413 0
5.0730004 -2.279737 1.0024729 0
5.0660005 -2.2848074 1.0015764 0
5.0600004 -2.2903345 1.000808 0
5.0630002 -2.3001904 1.0011922 0
5.1300001 -2.2131312 1.0012408 0
5.1360002 -2.2244232 1.0019985 0
5.1300001 -2.2301953 1.0012408 0
5.1230001 -2.2354822 1.000357 0
5.1170001 -2.2412093 0.99959946 0
5.1100001 -2.2464476 0.99871564 0
5.1040001 -2.2521296 0.99795794 0
5.0980005 -2.2577901 0.99720037 0
5.0910001 -2.2629559 0.99631643 0
5.0850005 -2.2685716 0.99555898 0
5.0790005 -2.2741649 0.9948014 0
5.0730004 -2.279737 0.99404371 0
5.0660005 -2.2848074 0.99315989 0
5.0600004 -2.2903345 0.9924022 0
5.0630002 -2.3001904 0.99278104 0
5.1300001 -2.2131312 0.99270892 0
5.1360002 -2.2244232 0.99345565 0
5.1300001 -2.2301953 0.99270892 0
5.1230001 -2.2354822 0.99183762 0
5.1170001 -2.2412093 0.99109089 0
5.1100001 -2.2464476 0.99021959 0
5.1040001 -2.2521296 0.98947287 0
5.0980005 -2.2577901 0.98872614 0
5.0910001 -2.2629559 0.98785484 0
5.0850005 -2.2685716 0.98710811 0
5.0790005 -2.2741649 0.98636127 0
5.0730004 -2.279737 0.98561454 0
5.0660005 -2.2848074 0.98474336 0
5.0600004 -2.2903345 0.98399651 0
5.0630002 -2.3001904 0.98436987 0
5.1300001 -2.2131312 0.98417687 0
5.1360002 -2.2244232 0.98491287 0
5.1300001 -2.2301953 0.98417687 0
5.1230001 -2.2354822 0.98331821 0
5.1170001 -2.2412093 0.98258233 0
5.1100001 -2.2464476 0.98172367 0
5.1040001 -2.2521296 0.98098779 0
5.0980005 -2.2577901 0.98025179 0
5.0910001 -2.2629559 0.97939312 0
5.0850005 -2.2685716 0.97865725 0
5.0790005 -2.2741649 0.97792137 0
5.0730004 -2.279737 0.97718537 0
5.0660005 -2.2848074 0.9763267 0
5.0600004 -2.2903345 0.97559083 0
5.0630002 -2.3001904 0.9759587 0
5.1300001 -2.2131312 0.97564483 0
5.1360002 -2.2244232 0.97636998 0
5.1300001 -2.2301953 0.97564483 0
5.1230001 -2.2354822 0.97479892 0
5.1170001 -2.2412093 0.97407377 0
5.1100001 -2.2464476 0.97322774 0
5.1040001 -2.2521296 0.97250259 0
5.0980005 -2.2577901 0.97177756 0
5.0910001 -2.2629559 0.97093153 0
5.0850005 -2.2685716 0.97020638 0
5.0790005 -2.2741649 0.96948123 0
5.0730004 -2.279737 0.9687562 0
5.0660005 -2.2848074 0.96791017 0
5.0600004 -2.2903345 0.96718502 0
5.0630002 -2.3001904 0.96754766 0
5.1300001 -2.2131312 0.96711278 0
5.1360002 -2.2244232 0.96782708 0
5.1300001 -2.2301953 0.96711278 0
5.1230001 -2.2354822 0.96627951 0
5.1170001 -2.2412093 0.9655652 0
5.1100001 -2.2464476 0.96473181 0
5.1040001 -2.2521296 0.96401751 0
5.0980005 -2.2577901 0.96330321 0
5.0910001 -2.2629559 0.96246982 0
5.0850005 -2.2685716 0.96175551 0
5.0790005 -2.2741649 0.96104121 0
5.0730004 -2.279737 0.96032691 0
5.0660005 -2.2848074 0.95949364 0
5.0600004 -2.2903345 0.95877934 0
5.0630002 -2.3001904 0.95913637 0
5.1300001 -2.2131312 0.95858085 0
5.1360002 -2.2244232 0.95928431 0
5.1300001 -2.2301953 0.95858085 0
5.1230001 -2.2354822 0.9577601 0
5.1170001 -2.2412093 0.95705664 0
5.1100001 -2.2464476 0.95623589 0
5.1040001 -2.2521296 0.95553243 0
5.0980005 -2.2577901 0.95482898 0
5.0910001 -2.2629559 0.95400822 0
5.0850005 -2.2685716 0.95330477 0
5.0790005 -2.2741649 0.95260119 0
5.0730004 -2.279737 0.95189774 0
5.0660005 -2.2848074 0.9510771 0
5.0600004 -2.2903345 0.95037353 0
5.0630002 -2.3001904 0.9507252 0
5.1300001 -2.2131312 0.9500488 0
5.1360002 -2.2244232 0.95074153 0
5.1300001 -2.2301953 0.9500488 0
5.1230001 -2.2354822 0.94924068 0
5.1170001 -2.2412093 0.94854808 0
5.1100001 -2.2464476 0.94773996 0
5.1040001 -2.2521296 0.94704723 0
5.0980005 -2.2577901 0.94635463 0
5.0910001 -2.2629559 0.94554651 0
5.0850005 -2.2685716 0.9448539 0
5.0790005 -2.2741649 0.94416118 0
5.0730004 -2.279737 0.94346857 0
5.0660005 -2.2848074 0.94266045 0
5.0600004 -2.2903345 0.94196784 0
5.0630002 -2.3001904 0.94231415 0
5.1300001 -2.2131312 0.94151676 0
5.1360002 -2.2244232 0.94219863 0
5.1300001 -2.2301953 0.94151676 0
5.1230001 -2.2354822 0.94072139 0
5.1170001 -2.2412093 0.94003952 0
5.1100001 -2.2464476 0.93924403 0
5.1040001 -2.2521296 0.93856215 0
5.0980005 -2.2577901 0.9378804 0
5.0910001 -2.2629559 0.93708479 0
5.0850005 -2.2685716 0.93640304 0
5.0790005 -2.2741649 0.93572128 0
5.0730004 -2.279737 0.9350394 0
5.0660005 -2.2848074 0.93424392 0
5.0600004 -2.2903345 0.93356204 0
5.0630002 -2.3001904 0.93390298 0
5.1300001 -2.2131312 0.93298483 0
5.1360002 -2.2244232 0.93365586 0
5.1300001 -2.2301953 0.93298483 0
5.1230001 -2.2354822 0.93220186 0
5.1170001 -2.2412093 0.93153095 0
5.1100001 -2.2464476 0.93074811 0
5.1040001 -2.2521296 0.93007708 0
5.0980005 -2.2577901 0.92940605 0
5.0910001 -2.2629559 0.9286232 0
5.0850005 -2.2685716 0.92795217 0
5.0790005 -2.2741649 0.92728114 0
5.0730004 -2.279737 0.92661011 0
5.0660005 -2.2848074 0.92582726 0
5.0600004 -2.2903345 0.92515624 0
5.0630002 -2.3001904 0.92549181 0
5.1300001 -2.2131312 0.92445278 0
5.1360002 -2.2244232 0.92511296 0
5.1300001 -2.2301953 0.92445278 0
5.1230001 -2.2354822 0.92368257 0
5.1170001 -2.2412093 0.92302239 0
5.1100001 -2.2464476 0.92225218 0
5.1040001 -2.2521296 0.921592 0
5.0980005 -2.2577901 0.92093182 0
5.0910001 -2.2629559 0.92016149 0
5.0850005 -2.2685716 0.91950142 0
5.0790005 -2.2741649 0.91884124 0
5.0730004 -2.279737 0.91818094 0
5.0660005 -2.2848074 0.91741073 0
5.0600004 -2.2903345 0.91675055 0
5.0630002 -2.3001904 0.91708064 0
5.1300001 -2.2131312 0.91592073 0
5.1360002 -2.2244232 0.91657019 0
5.1300001 -2.2301953 0.91592073 0
5.1230001 -2.2354822 0.91516316 0
5.1170001 -2.2412093 0.91451383 0
5.1100001 -2.2464476 0.91375625 0
5.1040001 -2.2521296 0.9131068 0
5.0980005 -2.2577901 0.91245747 0
5.0910001 -2.2629559 0.91169989 0
5.0850005 -2.2685716 0.91105056 0
5.0790005 -2.2741649 0.91040111 0
5.0730004 -2.279737 0.90975177 0
5.0660005 -2.2848074 0.9089942 0
5.0600004 -2.2903345 0.90834475 0
5.0630002 -2.3001904 0.90866947 0
5.1300001 -2.2131312 0.90738881 0
5.1360002 -2.2244232 0.90802729 0
5.1300001 -2.2301953 0.90738881 0
5.1230001 -2.2354822 0.90664375 0
5.1170001 -2.2412093 0.90600526 0
5.1100001 -2.2464476 0.90526032 0
5.1040001 -2.2521296 0.90462172 0
5.0980005 -2.2577901 0.90398324 0
5.0910001 -2.2629559 0.90323818 0
5.0850005 -2.2685716 0.90259969 0
5.0790005 -2.2741649 0.90196115 0
5.0730004 -2.279737 0.9013226 0
5.0660005 -2.2848074 0.90057755 0
5.0600004 -2.2903345 0.89993906 0
5.0630002 -2.3001904 0.9002583 0
5.1300001 -2.2131312 0.89885676 0
5.1360002 -2.2244232 0.89948446 0
5.1300001 -2.2301953 0.89885676 0
5.1230001 -2.2354822 0.89812434 0
5.1170001 -2.2412093 0.8974967 0
5.1100001 -2.2464476 0.89676428 0
5.1040001 -2.2521296 0.89613664 0
5.0980005 -2.2577901 0.89550894 0
5.0910001 -2.2629559 0.89477652 0
5.0850005 -2.2685716 0.89414883 0
5.0790005 -2.2741649 0.89352107 0
5.0730004 -2.279737 0.89289343 0
5.0660005 -2.2848074 0.89216101 0
5.0600004 -2.2903345 0.89153337 0
5.0630002 -2.3001904 0.89184713 0
5.1300001 -2.2131312 0.89032477 0
5.1360002 -2.2244232 0.89094162 0
5.1300001 -2.2301953 0.89032477 0
5.1230001 -2.2354822 0.88960505 0
5.1170001 -2.2412093 0.88898808 0
5.1100001 -2.2464476 0.88826835 0
5.1040001 -2.2521296 0.88765144 0
5.0980005 -2.2577901 0.8870346 0
5.0910001 -2.2629559 0.88631487 0
5.0850005 -2.2685716 0.88569796 0
5.0790005 -2.2741649 0.88508111 0
5.0730004 -2.279737 0.8844642 0
5.0660005 -2.2848074 0.88374448 0
5.0600004 -2.2903345 0.88312757 0
5.0630002 -2.3001904 0.88343602 0
5.1300001 -2.2131312 0.88179272 0
5.1360002 -2.2244232 0.88239884 0
5.1300001 -2.2301953 0.88179272 0
5.1230001 -2.2354822 0.88108563 0
5.1170001 -2.2412093 0.88047957 0
5.1100001 -2.2464476 0.87977242 0
5.1040001 -2.2521296 0.87916636 0
5.0980005 -2.2577901 0.8785603 0
5.0910001 -2.2629559 0.87785316 0
5.0850005 -2.2685716 0.87724715 0
5.0790005 -2.2741649 0.87664104 0
5.0730004 -2.279737 0.87603498 0
5.0660005 -2.2848074 0.87532794 0
5.0600004 -2.2903345 0.87472183 0
5.0630002 -2.3001904 0.8750248 0
5.1300001 -2.2131312 0.87326074 0
5.1360002 -2.2244232 0.87385595 0
5.1300001 -2.2301953 0.87326074 0
5.1230001 -2.2354822 0.87256622 0
5.1170001 -2.2412093 0.87197101 0
5.1100001 -2.2464476 0.8712765 0
5.1040001 -2.2521296 0.87068129 0
5.0980005 -2.2577901 0.87008601 0
5.0910001 -2.2629559 0.86939156 0
5.0850005 -2.2685716 0.86879635 0
5.0790005 -2.2741649 0.86820108 0
5.0730004 -2.279737 0.86760581 0
5.0660005 -2.2848074 0.86691129 0
5.0600004 -2.2903345 0.86631608 0
5.0630002 -2.3001904 0.86661363 0
5.1300001 -2.2131312 0.86472869 0
5.1360002 -2.2244232 0.86531317 0
5.1300001 -2.2301953 0.86472869 0
5.1230001 -2.2354822 0.86404687 0
5.1170001 -2.2412093 0.86346245 0
5.1100001 -2.2464476 0.86278057 0
5.1040001 -2.2521296 0.86219615 0
5.0980005 -2.2577901 0.86161172 0
5.0910001 -2.2629559 0.86092985 0
5.0850005 -2.2685716 0.86034548 0
5.0790005 -2.2741649 0.859761 0
5.0730004 -2.279737 0.85917658 0
5.0660005 -2.2848074 0.85849476 0
5.0600004 -2.2903345 0.85791034 0
5.0630002 -2.3001904 0.85820252 0
5.1300001 -2.2131312 0.85619664 0
5.1360002 -2.2244232 0.85677028 0
5.1300001 -2.2301953 0.85619664 0
5.1230001 -2.2354822 0.85552746 0
5.1170001 -2.2412093 0.85495389 0
5.1100001 -2.2464476 0.85428464 0
5.1040001 -2.2521296 0.85371101 0
5.0980005 -2.2577901 0.85313749 0
5.0910001 -2.2629559 0.85246825 0
5.0850005 -2.2685716 0.85189462 0
5.0790005 -2.2741649 0.85132098 0
5.0730004 -2.279737 0.85074741 0
5.0660005 -2.2848074 0.85007823 0
5.0600004 -2.2903345 0.84950459 0
5.0630002 -2.3001904 0.84979141 0
5.1300001 -2.2131312 0.84766471 0
5.1360002 -2.2244232 0.8482275 0
5.1300001 -2.2301953 0.84766471 0
5.1230001 -2.2354822 0.84700811 0
5.1170001 -2.2412093 0.84644532 0
5.1100001 -2.2464476 0.84578872 0
5.1040001 -2.2521296 0.84522593 0
5.0980005 -2.2577901 0.84466314 0
5.0910001 -2.2629559 0.84400654 0
5.0850005 -2.2685716 0.84344381 0
5.0790005 -2.2741649 0.84288096 0
5.0730004 -2.279737 0.84231818 0
5.0660005 -2.2848074 0.84166163 0
5.0600004 -2.2903345 0.84109885 0
5.0630002 -2.3001904 0.84138024 0
5.1300001 -2.2131312 0.83913267 0
5.1360002 -2.2244232 0.83968461 0
5.1300001 -2.2301953 0.83913267 0
5.1230001 -2.2354822 0.8384887 0
5.1170001 -2.2412093 0.83793676 0
5.1100001 -2.2464476 0.83729279 0
5.1040001 -2.2521296 0.83674085 0
5.0980005 -2.2577901 0.83618891 0
5.0910001 -2.2629559 0.83554488 0
5.0850005 -2.2685716 0.834993 0
5.0790005 -2.2741649 0.83444095 0
5.0730004 -2.279737 0.83388901 0
5.0660005 -2.2848074 0.83324504 0
5.0600004 -2.2903345 0.8326931 0
5.0630002 -2.3001904 0.83296907 0
5.1300001 -2.2131312 0.83060062 0
5.1360002 -2.2244232 0.83114183 0
5.1300001 -2.2301953 0.83060062 0
5.1230001 -2.2354822 0.82996929 0
5.1170001 -2.2412093 0.8294282 0
5.1100001 -2.2464476 0.82879686 0
5.1040001 -2.2521296 0.82825565 0
5.0980005 -2.2577901 0.82771456 0
5.0910001 -2.2629559 0.82708323 0
5.0850005 -2.2685716 0.82654214 0
5.0790005 -2.2741649 0.82600093 0
5.0730004 -2.279737 0.82545984 0
5.0660005 -2.2848074 0.82482851 0
5.0600004 -2.2903345 0.8242873 0
5.0630002 -2.3001904 0.8245579 0
5.1300001 -2.2131312 0.82206863 0
5.1360002 -2.2244232 0.82259893 0
5.1300001 -2.2301953 0.82206863 0
5.1230001 -2.2354822 0.82144994 0
5.1170001 -2.2412093 0.82091963 0
5.1100001 -2.2464476 0.82030094 0
5.1040001 -2.2521296 0.81977057 0
5.0980005 -2.2577901 0.81924033 0
5.0910001 -2.2629559 0.81862152 0
5.0850005 -2.2685716 0.81809127 0
5.0790005 -2.2741649 0.81756091 0
5.0730004 -2.279737 0.81703067 0
5.0660005 -2.2848074 0.81641191 0
5.0600004 -2.2903345 0.81588161 0
5.0630002 -2.3001904 0.81614673 0
5.1300001 -2.2131312 0.81353664 0
5.1360002 -2.2244232 0.81405616 0
5.1300001 -2.2301953 0.81353664 0
5.1230001 -2.2354822 0.81293058 0
5.1170001 -2.2412093 0.81241107 0
5.1100001 -2.2464476 0.81180495 0
5.1040001 -2.2521296 0.81128544 0
5.0980005 -2.2577901 0.81076598 0
5.0910001 -2.2629559 0.81015992 0
5.0850005 -2.2685716 0.80964041 0
5.0790005 -2.2741649 0.80912089 0
5.0730004 -2.279737 0.80860144 0
5.0660005 -2.2848074 0.80799532 0
5.0600004 -2.2903345 0.80747586 0
5.0630002 -2.3001904 0.80773556 0
5.1300001 -2.2131312 0.8050046 0
5.1360002 -2.2244232 0.80551326 0
5.1300001 -2.2301953 0.8050046 0
5.1230001 -2.2354822 0.80441117 0
5.1170001 -2.2412093 0.80390251 0
5.1100001 -2.2464476 0.80330902 0
5.1040001 -2.2521296 0.80280036 0
5.0980005 -2.2577901 0.80229169 0
5.0910001 -2.2629559 0.80169821 0
5.0850005 -2.2685716 0.8011896 0
5.0790005 -2.2741649 0.80068088 0
5.0730004 -2.279737 0.80017221 0
5.0660005 -2.2848074 0.79957879 0
5.0600004 -2.2903345 0.79907012 0
5.0630002 -2.3001904 0.79932439 0
5.1300001 -2.2131312 0.79647255 0
5.1360002 -2.2244232 0.79697049 0
5.1300001 -2.2301953 0.79647255 0
5.1230001 -2.2354822 0.79589176 0
5.1170001 -2.2412093 0.79539394 0
5.1100001 -2.2464476 0.7948131 0
5.1040001 -2.2521296 0.79431522 0
5.0980005 -2.2577901 0.7938174 0
5.0910001 -2.2629559 0.79323655 0
5.0850005 -2.2685716 0.7927388 0
5.0790005 -2.2741649 0.79224086 0
5.0730004 -2.279737 0.79174304 0
5.0660005 -2.2848074 0.79116225 0
5.0600004 -2.2903345 0.79066432 0
5.0630002 -2.3001904 0.79091322 0
5.1300001 -2.2131312 0.78794062 0
5.1360002 -2.2244232 0.78842759 0
5.1300001 -2.2301953 0.78794062 0
5.1230001 -2.2354822 0.78737235 0
5.1170001 -2.2412093 0.78688538 0
5.1100001 -2.2464476 0.78631711 0
5.1040001 -2.2521296 0.78583014 0
5.0980005 -2.2577901 0.78534317 0
5.0910001 -2.2629559 0.7847749 0
5.0850005 -2.2685716 0.78428793 0
5.0790005 -2.2741649 0.78380084 0
5.0730004 -2.279737 0.78331387 0
5.0660005 -2.2848074 0.7827456 0
5.0600004 -2.2903345 0.78225863 0
5.0630002 -2.3001904 0.78250211 0
5.1300001 -2.2131312 0.77940857 0
5.1360002 -2.2244232 0.77988482 0
5.1300001 -2.2301953 0.77940857 0
5.1230001 -2.2354822 0.778853 0
5.1170001 -2.2412093 0.77837682 0
5.1100001 -2.2464476 0.77782118 0
5.1040001 -2.2521296 0.777345 0
5.0980005 -2.2577901 0.77686882 0
5.0910001 -2.2629559 0.77631319 0
5.0850005 -2.2685716 0.77583706 0
5.0790005 -2.2741649 0.77536082 0
5.0730004 -2.279737 0.77488464 0
5.0660005 -2.2848074 0.77432907 0
5.0600004 -2.2903345 0.77385283 0
5.0630002 -2.3001904 0.77409095 0
5.1300001 -2.2131312 0.77087653 0
5.1360002 -2.2244232 0.77134192 0
5.1300001 -2.2301953 0.77087653 0
5.1230001 -2.2354822 0.77033365 0
5.1170001 -2.2412093 0.76986825 0
5.1100001 -2.2464476 0.76932526 0
5.1040001 -2.2521296 0.76885986 0
5.0980005 -2.2577901 0.76839459 0
5.0910001 -2.2629559 0.76785159 0
5.0850005 -2.2685716 0.7673862 0
5.0790005 -2.2741649 0.7669208 0
5.0730004 -2.279737 0.76645541 0
5.0660005 -2.2848074 0.76591253 0
5.0600004 -2.2903345 0.76544714 0
5.0630002 -2.3001904 0.76567978 0
5.1300001 -2.2131312 0.76234454 0
5.1360002 -2.2244232 0.76279914 0
5.1300001 -2.2301953 0.76234454 0
5.1230001 -2.2354822 0.76181424 0
5.1170001 -2.2412093 0.76135969 0
5.1100001 -2.2464476 0.76082933 0
5.1040001 -2.2521296 0.76037478 0
5.0980005 -2.2577901 0.75992024 0
5.0910001 -2.2629559 0.75938988 0
5.0850005 -2.2685716 0.75893539 0
5.0790005 -2.2741649 0.75848079 0
5.0730004 -2.279737 0.75802624 0
5.0660005 -2.2848074 0.75749594 0
5.0600004 -2.2903345 0.75704134 0
5.0630002 -2.3001904 0.75726867 0
5.1300001 -2.2131312 0.75381255 0
5.1360002 -2.2244232 0.75425625 0
5.1300001 -2.2301953 0.75381255 0
5.1230001 -2.2354822 0.75329483 0
5.1170001 -2.2412093 0.75285113 0
5.1100001 -2.2464476 0.7523334 0
5.1040001 -2.2521296 0.75188971 0
5.0980005 -2.2577901 0.75144595 0
5.0910001 -2.2629559 0.75092822 0
5.0850005 -2.2685716 0.75048459 0
5.0790005 -2.2741649 0.75004077 0
5.0730004 -2.279737 0.74959707 0
5.0660005 -2.2848074 0.74907935 0
5.0600004 -2.2903345 0.74863565 0
5.0630002 -2.3001904 0.7488575 0
5.1300001 -2.2131312 0.7452805 0
5.1360002 -2.2244232 0.74571347 0
5.1300001 -2.2301953 0.7452805 0
5.1230001 -2.2354822 0.74477541 0
5.1170001 -2.2412093 0.74434257 0
5.1100001 -2.2464476 0.74383748 0
5.1040001 -2.2521296 0.74340457 0
5.0980005 -2.2577901 0.74297166 0
5.0910001 -2.2629559 0.74246657 0
5.0850005 -2.2685716 0.74203372 0
5.0790005 -2.2741649 0.74160075 0
5.0730004 -2.279737 0.74116784 0
5.0660005 -2.2848074 0.74066281 0
5.0600004 -2.2903345 0.74022985 0
5.0630002 -2.3001904 0.74044633 0
5.1300001 -2.2131312 0.73674852 0
5.1360002 -2.2244232 0.73717058 0
5.1300001 -2.2301953 0.73674852 0
5.1230001 -2.2354822 0.73625606 0
5.1170001 -2.2412093 0.735834 0
5.1100001 -2.2464476 0.73534155 0
5.1040001 -2.2521296 0.73491943 0
5.0980005 -2.2577901 0.73449737 0
5.0910001 -2.2629559 0.73400491 0
5.0850005 -2.2685716 0.73358285 0
5.0790005 -2.2741649 0.73316073 0
5.0730004 -2.279737 0.73273861 0
5.0660005 -2.2848074 0.73224622 0
5.0600004 -2.2903345 0.73182416 0
5.0630002 -2.3001904 0.73203516 0
5.1300001 -2.2131312 0.72821653 0
5.1360002 -2.2244232 0.7286278 0
5.1300001 -2.2301953 0.72821653 0
5.1230001 -2.2354822 0.72773671 0
5.1170001 -2.2412093 0.72732544 0
5.1100001 -2.2464476 0.72684562 0
5.1040001 -2.2521296 0.72643435 0
5.0980005 -2.2577901 0.72602308 0
5.0910001 -2.2629559 0.72554326 0
5.0850005 -2.2685716 0.72513199 0
5.0790005 -2.2741649 0.72472072 0
5.0730004 -2.279737 0.72430944 0
5.0660005 -2.2848074 0.72382963 0
5.0600004 -2.2903345 0.72341835 0
5.0630002 -2.3001904 0.72362399 0
5.1300001 -2.2131312 0.71968448 0
5.1360002 -2.2244232 0.72008491 0
5.1300001 -2.2301953 0.71968448 0
5.1230001 -2.2354822 0.7192173 0
5.1170001 -2.2412093 0.71881688 0
5.1100001 -2.2464476 0.7183497 0
5.1040001 -2.2521296 0.71794921 0
5.0980005 -2.2577901 0.71754885 0
5.0910001 -2.2629559 0.71708155 0
5.0850005 -2.2685716 0.71668112 0
5.0790005 -2.2741649 0.7162807 0
5.0730004 -2.279737 0.71588027 0
5.0660005 -2.2848074 0.71541309 0
5.0600004 -2.2903345 0.71501267 0
5.0630002 -2.3001904 0.71521282 0
5.1300001 -2.2131312 0.71115243 0
5.1360002 -2.2244232 0.71154213 0
5.1300001 -2.2301953 0.71115243 0
5.1230001 -2.2354822 0.71069789 0
5.1170001 -2.2412093 0.71030831 0
5.1100001 -2.2464476 0.70985371 0
5.1040001 -2.2521296 0.70946407 0
5.0980005 -2.2577901 0.7090745 0
5.0910001 -2.2629559 0.70861995 0
5.0850005 -2.2685716 0.70823032 0
5.0790005 -2.2741649 0.70784068 0
5.0730004 -2.279737 0.70745111 0
5.0660005 -2.2848074 0.7069965 0
5.0600004 -2.2903345 0.70660686 0
5.0630002 -2.3001904 0.70680171 0
5.1300001 -2.2131312 0.70262045 0
5.1360002 -2.2244232 0.70299923 0
5.1300001 -2.2301953 0.70262045 0
5.1230001 -2.2354822 0.70217854 0
5.1170001 -2.2412093 0.70179975 0
5.1100001 -2.2464476 0.70135784 0
5.1040001 -2.2521296 0.70097899 0
5.0980005 -2.2577901 0.70060021 0
5.0910001 -2.2629559 0.70015824 0
5.0850005 -2.2685716 0.69977951 0
5.0790005 -2.2741649 0.69940066 0
5.0730004 -2.279737 0.69902188 0
5.0660005 -2.2848074 0.69857991 0
5.0600004 -2.2903345 0.69820112 0
5.0630002 -2.3001904 0.69839048 0
5.1300001 -2.2131312 0.69408846 0
5.1360002 -2.2244232 0.69445646 0
5.1300001 -2.2301953 0.69408846 0
5.1230001 -2.2354822 0.69365913 0
5.1170001 -2.2412093 0.69329119 0
5.1100001 -2.2464476 0.69286186 0
5.1040001 -2.2521296 0.69249392 0
5.0980005 -2.2577901 0.69212592 0
5.0910001 -2.2629559 0.69169658 0
5.0850005 -2.2685716 0.69132864 0
5.0790005 -2.2741649 0.69096065 0
5.0730004 -2.279737 0.69059271 0
5.0660005 -2.2848074 0.69016337 0
5.0600004 -2.2903345 0.68979537 0
5.0630002 -2.3001904 0.68997937 0
5.1300001 -2.2131312 0.68555641 0
5.1360002 -2.2244232 0.68591356 0
5.1300001 -2.2301953 0.68555641 0
5.1230001 -2.2354822 0.68513978 0
5.1170001 -2.2412093 0.68478262 0
5.1100001 -2.2464476 0.68436593 0
5.1040001 -2.2521296 0.68400872 0
5.0980005 -2.2577901 0.68365163 0
5.0910001 -2.2629559 0.68323493 0
5.0850005 -2.2685716 0.68287778 0
5.0790005 -2.2741649 0.68252063 0
5.0730004 -2.279737 0.68216348 0
5.0660005 -2.2848074 0.68174684 0
5.0600004 -2.2903345 0.68138969 0
5.0630002 -2.3001904 0.68156821 0
5.1300001 -2.2131312 0.67702442 0
5.1360002 -2.2244232 0.67737079 0
5.1300001 -2.2301953 0.67702442 0
5.1230001 -2.2354822 0.67662036 0
5.1170001 -2.2412093 0.67627406 0
5.1100001 -2.2464476 0.67586994 0
5.1040001 -2.2521296 0.67552364 0
5.0980005 -2.2577901 0.67517734 0
5.0910001 -2.2629559 0.67477328 0
5.0850005 -2.2685716 0.67442691 0
5.0790005 -2.2741649 0.67408061 0
5.0730004 -2.279737 0.67373431 0
5.0660005 -2.2848074 0.67333025 0
5.0600004 -2.2903345 0.67298388 0
5.0630002 -2.3001904 0.6731571 0
5.1300001 -2.2131312 0.66849244 0
5.1360002 -2.2244232 0.66882789 0
5.1300001 -2.2301953 0.66849244 0
5.1230001 -2.2354822 0.66810095 0
5.1170001 -2.2412093 0.6677655 0
5.1100001 -2.2464476 0.66737401 0
5.1040001 -2.2521296 0.66703856 0
5.0980005 -2.2577901 0.66670305 0
5.0910001 -2.2629559 0.66631162 0
5.0850005 -2.2685716 0.66597611 0
5.0790005 -2.2741649 0.66564059 0
5.0730004 -2.279737 0.66530508 0
5.0660005 -2.2848074 0.66491365 0
5.0600004 -2.2903345 0.66457814 0
5.0630002 -2.3001904 0.66474593 0
5.1300001 -2.2131312 0.65996039 0
5.1360002 -2.2244232 0.66028512 0
5.1300001 -2.2301953 0.65996039 0
5.1230001 -2.2354822 0.6595816 0
5.1170001 -2.2412093 0.65925694 0
5.1100001 -2.2464476 0.65887809 0
5.1040001 -2.2521296 0.65855342 0
5.0980005 -2.2577901 0.65822875 0
5.0910001 -2.2629559 0.65784991 0
5.0850005 -2.2685716 0.6575253 0
5.0790005 -2.2741649 0.65720057 0
5.0730004 -2.279737 0.65687585 0
5.0660005 -2.2848074 0.65649712 0
5.0600004 -2.2903345 0.65617239 0
5.0630002 -2.3001904 0.65633476 0
5.1300001 -2.2131312 0.65142834 0
5.1360002 -2.2244232 0.65174222 0
5.1300001 -2.2301953 0.65142834 0
5.1230001 -2.2354822 0.65106219 0
5.1170001 -2.2412093 0.65074837 0
5.1100001 -2.2464476 0.65038216 0
5.1040001 -2.2521296 0.65006828 0
5.0980005 -2.2577901 0.64975446 0
5.0910001 -2.2629559 0.64938825 0
5.0850005 -2.2685716 0.64907444 0
5.0790005 -2.2741649 0.64876056 0
5.0730004 -2.279737 0.64844668 0
5.0660005 -2.2848074 0.64808053 0
5.0600004 -2.2903345 0.64776671 0
5.0630002 -2.3001904 0.64792359 0
5.1300001 -2.2131312 0.64289635 0
5.1360002 -2.2244232 0.64319944 0
5.1300001 -2.2301953 0.64289635 0
5.1230001 -2.2354822 0.64254284 0
5.1170001 -2.2412093 0.64223981 0
5.1100001 -2.2464476 0.64188623 0
5.1040001 -2.2521296 0.6415832 0
5.0980005 -2.2577901 0.64128017 0
5.0910001 -2.2629559 0.6409266 0
5.0850005 -2.2685716 0.64062357 0
5.0790005 -2.2741649 0.64032054 0
5.0730004 -2.279737 0.64001751 0
5.0660005 -2.2848074 0.63966393 0
5.0600004 -2.2903345 0.6393609 0
5.0630002 -2.3001904 0.63951242 0
5.1300001 -2.2131312 0.63436437 0
5.1360002 -2.2244232 0.63465655 0
5.1300001 -2.2301953 0.63436437 0
5.1230001 -2.2354822 0.63402343 0
5.1170001 -2.2412093 0.63373125 0
5.1100001 -2.2464476 0.63339031 0
5.1040001 -2.2521296 0.63309807 0
5.0980005 -2.2577901 0.63280588 0
5.0910001 -2.2629559 0.63246495 0
5.0850005 -2.2685716 0.63217276 0
5.0790005 -2.2741649 0.63188052 0
5.0730004 -2.279737 0.63158828 0
5.0660005 -2.2848074 0.6312474 0
5.0600004 -2.2903345 0.63095516 0
5.0630002 -2.3001904 0.63110125 0
5.1300001 -2.2131312 0.62583232 0
5.1360002 -2.2244232 0.62611377 0
5.1300001 -2.2301953 0.62583232 0
5.1230001 -2.2354822 0.62550408 0
5.1170001 -2.2412093 0.62522268 0
5.1100001 -2.2464476 0.62489438 0
5.1040001 -2.2521296 0.62461299 0
5.0980005 -2.2577901 0.62433159 0
5.0910001 -2.2629559 0.62400329 0
5.0850005 -2.2685716 0.6237219 0
5.0790005 -2.2741649 0.6234405 0
5.0730004 -2.279737 0.62315911 0
5.0660005 -2.2848074 0.62283081 0
5.0600004 -2.2903345 0.62254941 0
5.0630002 -2.3001904 0.62269008 0
5.1300001 -2.2131312 0.61730033 0
5.1360002 -2.2244232 0.61757088 0
5.1300001 -2.2301953 0.61730033 0
5.1230001 -2.2354822 0.61698467 0
5.1170001 -2.2412093 0.61671412 0
5.1100001 -2.2464476 0.61639845 0
5.1040001 -2.2521296 0.61612785 0
5.0980005 -2.2577901 0.6158573 0
5.0910001 -2.2629559 0.61554164 0
5.0850005 -2.2685716 0.61527109 0
5.0790005 -2.2741649 0.61500049 0
5.0730004 -2.279737 0.61472994 0
5.0660005 -2.2848074 0.61441422 0
5.0600004 -2.2903345 0.61414367 0
5.0630002 -2.3001904 0.61427897 0
5.1300001 -2.2131312 0.60876834 0
5.1360002 -2.2244232 0.6090281 0
5.1300001 -2.2301953 0.60876834 0
5.1230001 -2.2354822 0.60846531 0
5.1170001 -2.2412093 0.60820556 0
5.1100001 -2.2464476 0.60790247 0
5.1040001 -2.2521296 0.60764271 0
5.0980005 -2.2577901 0.60738301 0
5.0910001 -2.2629559 0.60707998 0
5.0850005 -2.2685716 0.60682023 0
5.0790005 -2.2741649 0.60656047 0
5.0730004 -2.279737 0.60630071 0
5.0660005 -2.2848074 0.60599768 0
5.0600004 -2.2903345 0.60573792 0
5.0630002 -2.3001904 0.6058678 0
5.1300001 -2.2131312 0.6002363 0
5.1360002 -2.2244232 0.60048521 0
5.1300001 -2.2301953 0.6002363 0
5.1230001 -2.2354822 0.5999459 0
5.1170001 -2.2412093 0.59969699 0
5.1100001 -2.2464476 0.59940654 0
5.1040001 -2.2521296 0.59915763 0
5.0980005 -2.2577901 0.59890872 0
5.0910001 -2.2629559 0.59861827 0
5.0850005 -2.2685716 0.59836936 0
5.0790005 -2.2741649 0.59812045 0
5.0730004 -2.279737 0.59787154 0
5.0660005 -2.2848074 0.59758115 0
5.0600004 -2.2903345 0.59733218 0
5.0630002 -2.3001904 0.59745663 0
5.1300001 -2.2131312 0.59170425 0
5.1360002 -2.2244232 0.59194243 0
5.1300001 -2.2301953 0.59170425 0
5.1230001 -2.2354822 0.59142649 0
5.1170001 -2.2412093 0.59118843 0
5.1100001 -2.2464476 0.59091061 0
5.1040001 -2.2521296 0.59067249 0
5.0980005 -2.2577901 0.59043443 0
5.0910001 -2.2629559 0.59015661 0
5.0850005 -2.2685716 0.58991855 0
5.0790005 -2.2741649 0.58968043 0
5.0730004 -2.279737 0.58944231 0
5.0660005 -2.2848074 0.58916456 0
5.0600004 -2.2903345 0.58892643 0
5.0630002 -2.3001904 0.58904546 0
5.1300001 -2.2131312 0.58317226 0
5.1360002 -2.2244232 0.58339953 0
5.1300001 -2.2301953 0.58317226 0
5.1230001 -2.2354822 0.58290708 0
5.1170001 -2.2412093 0.58267987 0
5.1100001 -2.2464476 0.58241469 0
5.1040001 -2.2521296 0.58218741 0
5.0980005 -2.2577901 0.58196014 0
5.0910001 -2.2629559 0.58169496 0
5.0850005 -2.2685716 0.58146769 0
5.0790005 -2.2741649 0.58124042 0
5.0730004 -2.279737 0.58101314 0
5.0660005 -2.2848074 0.58074796 0
5.0600004 -2.2903345 0.58052069 0
5.0630002 -2.3001904 0.58063436 0
5.1300001 -2.2131312 0.57464027 0
5.1360002 -2.2244232 0.57485676 0
5.1300001 -2.2301953 0.57464027 0
5.1230001 -2.2354822 0.57438773 0
5.1170001 -2.2412093 0.5741713 0
5.1100001 -2.2464476 0.5739187 0
5.1040001 -2.2521296 0.57370228 0
5.0980005 -2.2577901 0.57348585 0
5.0910001 -2.2629559 0.57323331 0
5.0850005 -2.2685716 0.57301688 0
5.0790005 -2.2741649 0.5728004 0
5.0730004 -2.279737 0.57258391 0
5.0660005 -2.2848074 0.57233143 0
5.0600004 -2.2903345 0.57211494 0
5.0630002 -2.3001904 0.57222319 0
5.1300001 -2.2131312 0.56610823 0
5.1360002 -2.2244232 0.56631386 0
5.1300001 -2.2301953 0.56610823 0
5.1230001 -2.2354822 0.56586838 0
5.1170001 -2.2412093 0.56566274 0
5.1100001 -2.2464476 0.56542277 0
5.1040001 -2.2521296 0.56521714 0
5.0980005 -2.2577901 0.56501156 0
5.0910001 -2.2629559 0.56477165 0
5.0850005 -2.2685716 0.56456602 0
5.0790005 -2.2741649 0.56436038 0
5.0730004 -2.279737 0.56415474 0
5.0660005 -2.2848074 0.56391484 0
5.0600004 -2.2903345 0.5637092 0
5.0630002 -2.3001904 0.56381202 0
5.1300001 -2.2131312 0.55757624 0
5.1360002 -2.2244232 0.55777109 0
5.1300001 -2.2301953 0.55757624 0
5.1230001 -2.2354822 0.55734897 0
5.1170001 -2.2412093 0.55715418 0
5.1100001 -2.2464476 0.55692685 0
5.1040001 -2.2521296 0.55673206 0
5.0980005 -2.2577901 0.55653727 0
5.0910001 -2.2629559 0.55630994 0
5.0850005 -2.2685716 0.55611515 0
5.0790005 -2.2741649 0.55592036 0
5.0730004 -2.279737 0.55572557 0
5.0660005 -2.2848074 0.55549824 0
5.0600004 -2.2903345 0.55530345 0
5.0630002 -2.3001904 0.55540085 0
5.1300001 -2.2131312 0.54904425 0
5.1360002 -2.2244232 0.54922819 0
5.1300001 -2.2301953 0.54904425 0
5.1230001 -2.2354822 0.54882956 0
5.1170001 -2.2412093 0.54864562 0
5.1100001 -2.2464476 0.54843092 0
5.1040001 -2.2521296 0.54824698 0
5.0980005 -2.2577901 0.54806298 0
5.0910001 -2.2629559 0.54784828 0
5.0850005 -2.2685716 0.54766428 0
5.0790005 -2.2741649 0.54748034 0
5.0730004 -2.279737 0.54729635 0
5.0660005 -2.2848074 0.54708171 0
5.0600004 -2.2903345 0.54689771 0
5.0630002 -2.3001904 0.54698968 0
5.1300001 -2.2131312 0.5405122 0
5.1360002 -2.2244232 0.54068542 0
5.1300001 -2.2301953 0.5405122 0
5.1230001 -2.2354822 0.5403102 0
5.1170001 -2.2412093 0.54013705 0
5.1100001 -2.2464476 0.53993499 0
5.1040001 -2.2521296 0.53976184 0
5.0980005 -2.2577901 0.53958869 0
5.0910001 -2.2629559 0.53938663 0
5.0850005 -2.2685716 0.53921348 0
5.0790005 -2.2741649 0.53904033 0
5.0730004 -2.279737 0.53886712 0
5.0660005 -2.2848074 0.53866512 0
5.0600004 -2.2903345 0.53849196 0
5.0630002 -2.3001904 0.53857851 0
5.1300001 -2.2131312 0.53198022 0
5.1360002 -2.2244232 0.53214252 0
5.1300001 -2.2301953 0.53198022 0
5.1230001 -2.2354822 0.53179079 0
5.1170001 -2.2412093 0.53162849 0
5.1100001 -2.2464476 0.53143907 0
5.1040001 -2.2521296 0.5312767 0
5.0980005 -2.2577901 0.5311144 0
5.0910001 -2.2629559 0.53092498 0
5.0850005 -2.2685716 0.53076267 0
5.0790005 -2.2741649 0.53060031 0
5.0730004 -2.279737 0.53043795 0
5.0660005 -2.2848074 0.53024852 0
5.0600004 -2.2903345 0.53008622 0
5.0630002 -2.3001904 0.53016734 0
5.1300001 -2.2131312 0.52344817 0
5.1360002 -2.2244232 0.52359974 0
5.1300001 -2.2301953 0.52344817 0
5.1230001 -2.2354822 0.52327144 0
5.1170001 -2.2412093 0.52311993 0
5.1100001 -2.2464476 0.52294314 0
5.1040001 -2.2521296 0.52279162 0
5.0980005 -2.2577901 0.52264011 0
5.0910001 -2.2629559 0.52246332 0
5.0850005 -2.2685716 0.52231181 0
5.0790005 -2.2741649 0.52216029 0
5.0730004 -2.279737 0.52200878 0
5.0660005 -2.2848074 0.52183199 0
5.0600004 -2.2903345 0.52168047 0
5.0630002 -2.3001904 0.52175623 0
5.1300001 -2.2131312 0.51491618 0
5.1360002 -2.2244232 0.51505685 0
5.1300001 -2.2301953 0.51491618 0
5.1230001 -2.2354822 0.51475203 0
5.1170001 -2.2412093 0.51461136 0
5.1100001 -2.2464476 0.51444721 0
5.1040001 -2.2521296 0.51430649 0
5.0980005 -2.2577901 0.51416582 0
5.0910001 -2.2629559 0.51400167 0
5.0850005 -2.2685716 0.51386094 0
5.0790005 -2.2741649 0.51372027 0
5.0730004 -2.279737 0.51357955 0
5.0660005 -2.2848074 0.5134154 0
5.0600004 -2.2903345 0.51327473 0
5.0630002 -2.3001904 0.51334506 0
5.1300001 -2.2131312 0.50638419 0
5.1360002 -2.2244232 0.50651407 0
5.1300001 -2.2301953 0.50638419 0
5.1230001 -2.2354822 0.50623262 0
5.1170001 -2.2412093 0.5061028 0
5.1100001 -2.2464476 0.50595123 0
5.1040001 -2.2521296 0.50582135 0
5.0980005 -2.2577901 0.50569153 0
5.0910001 -2.2629559 0.50554001 0
5.0850005 -2.2685716 0.50541013 0
5.0790005 -2.2741649 0.50528026 0
5.0730004 -2.279737 0.50515038 0
5.0660005 -2.2848074 0.50499886 0
5.0600004 -2.2903345 0.50486898 0
5.0630002 -2.3001904 0.50493389 0
5.1300001 -2.2131312 0.49785215 0
5.1360002 -2.2244232 0.49797121 0
5.1300001 -2.2301953 0.49785215 0
5.1230001 -2.2354822 0.49771327 0
5.1170001 -2.2412093 0.49759421 0
5.1100001 -2.2464476 0.4974553 0
5.1040001 -2.2521296 0.49733627 0
5.0980005 -2.2577901 0.49721724 0
5.0910001 -2.2629559 0.4970783 0
5.0850005 -2.2685716 0.49695927 0
5.0790005 -2.2741649 0.49684024 0
5.0730004 -2.279737 0.49672118 0
5.0660005 -2.2848074 0.49658227 0
5.0600004 -2.2903345 0.49646324 0
5.0630002 -2.3001904 0.49652275 0
5.1300001 -2.2131312 0.48932013 0
5.1360002 -2.2244232 0.48942837 0
5.1300001 -2.2301953 0.48932013 0
5.1230001 -2.2354822 0.48919386 0
5.1170001 -2.2412093 0.48908564 0
5.1100001 -2.2464476 0.48895937 0
5.1040001 -2.2521296 0.48885116 0
5.0980005 -2.2577901 0.48874292 0
5.0910001 -2.2629559 0.48861665 0
5.0850005 -2.2685716 0.48850843 0
5.0790005 -2.2741649 0.48840022 0
5.0730004 -2.279737 0.48829198 0
5.0660005 -2.2848074 0.48816571 0
5.0600004 -2.2903345 0.48805749 0
5.0630002 -2.3001904 0.48811159 0
5.1300001 -2.2131312 0.48078811 0
5.1360002 -2.2244232 0.48088554 0
5.1300001 -2.2301953 0.48078811 0
5.1230001 -2.2354822 0.48067451 0
5.1170001 -2.2412093 0.48057708 0
5.1100001 -2.2464476 0.48046345 0
5.1040001 -2.2521296 0.48036605 0
5.0980005 -2.2577901 0.48026866 0
5.0910001 -2.2629559 0.48015499 0
5.0850005 -2.2685716 0.4800576 0
5.0790005 -2.2741649 0.4799602 0
5.0730004 -2.279737 0.47986278 0
5.0660005 -2.2848074 0.47974914 0
5.0600004 -2.2903345 0.47965175 0
5.0630002 -2.3001904 0.47970045 0
5.1300001 -2.2131312 0.47225612 0
5.1360002 -2.2244232 0.4723427 0
5.1300001 -2.2301953 0.47225612 0
5.1230001 -2.2354822 0.47215509 0
5.1170001 -2.2412093 0.47206852 0
5.1100001 -2.2464476 0.47196752 0
5.1040001 -2.2521296 0.47188091 0
5.0980005 -2.2577901 0.47179434 0
5.0910001 -2.2629559 0.47169334 0
5.0850005 -2.2685716 0.47160673 0
5.0790005 -2.2741649 0.47152016 0
5.0730004 -2.279737 0.47143358 0
5.0660005 -2.2848074 0.47133258 0
5.0600004 -2.2903345 0.471246 0
5.0630002 -2.3001904 0.47128928 0
5.1300001 -2.2131312 0.46372411 0
5.1360002 -2.2244232 0.46379986 0
5.1300001 -2.2301953 0.46372411 0
5.1230001 -2.2354822 0.46363571 0
5.1170001 -2.2412093 0.46355996 0
5.1100001 -2.2464476 0.46347156 0
5.1040001 -2.2521296 0.4633958 0
5.0980005 -2.2577901 0.46332005 0
5.0910001 -2.2629559 0.46323165 0
5.0850005 -2.2685716 0.4631559 0
5.0790005 -2.2741649 0.46308014 0
5.0730004 -2.279737 0.46300438 0
5.0660005 -2.2848074 0.46291602 0
5.0600004 -2.2903345 0.46284023 0
5.0630002 -2.3001904 0.46287811 0
5.1300001 -2.2131312 0.45519209 0
5.1360002 -2.2244232 0.45525703 0
5.1300001 -2.2301953 0.45519209 0
5.1230001 -2.2354822 0.45511633 0
5.1170001 -2.2412093 0.45505139 0
5.1100001 -2.2464476 0.45497563 0
5.1040001 -2.2521296 0.4549107 0
5.0980005 -2.2577901 0.45484576 0
5.0910001 -2.2629559 0.45477 0
5.0850005 -2.2685716 0.45470506 0
5.0790005 -2.2741649 0.45464012 0
5.0730004 -2.279737 0.45457518 0
5.0660005 -2.2848074 0.45449942 0
5.0600004 -2.2903345 0.45443448 0
5.0630002 -2.3001904 0.45446697 0
5.1300001 -2.2131312 0.44666007 0
5.1360002 -2.2244232 0.44671419 0
5.1300001 -2.2301953 0.44666007 0
5.1230001 -2.2354822 0.44659695 0
5.1170001 -2.2412093 0.44654283 0
5.1100001 -2.2464476 0.44647968 0
5.1040001 -2.2521296 0.44642559 0
5.0980005 -2.2577901 0.44637147 0
5.0910001 -2.2629559 0.44630834 0
5.0850005 -2.2685716 0.44625422 0
5.0790005 -2.2741649 0.4462001 0
5.0730004 -2.279737 0.44614598 0
5.0660005 -2.2848074 0.44608286 0
5.0600004 -2.2903345 0.44602874 0
5.0630002 -2.3001904 0.4460558 0
5.1300001 -2.2131312 0.43812805 0
5.1360002 -2.2244232 0.43817136 0
5.1300001 -2.2301953 0.43812805 0
5.1230001 -2.2354822 0.43807757 0
5.1170001 -2.2412093 0.43803427 0
5.1100001 -2.2464476 0.43798375 0
5.1040001 -2.2521296 0.43794048 0
5.0980005 -2.2577901 0.43789718 0
5.0910001 -2.2629559 0.43784666 0
5.0850005 -2.2685716 0.43780339 0
5.0790005 -2.2741649 0.43776008 0
5.0730004 -2.279737 0.43771678 0
5.0660005 -2.2848074 0.4376663 0
5.0600004 -2.2903345 0.43762299 0
5.0630002 -2.3001904 0.43764466 0
5.1300001 -2.2131312 0.42959607 0
5.1360002 -2.2244232 0.42962852 0
5.1300001 -2.2301953 0.42959607 0
5.1230001 -2.2354822 0.42955816 0
5.1170001 -2.2412093 0.4295257 0
5.1100001 -2.2464476 0.42948782 0
5.1040001 -2.2521296 0.42945534 0
5.0980005 -2.2577901 0.42942289 0
5.0910001 -2.2629559 0.42938501 0
5.0850005 -2.2685716 0.42935255 0
5.0790005 -2.2741649 0.42932007 0
5.0730004 -2.279737 0.42928761 0
5.0660005 -2.2848074 0.42924973 0
5.0600004 -2.2903345 0.42921725 0
5.0630002 -2.3001904 0.42923349 0
5.1300001 -2.2131312 0.42106405 0
5.1360002 -2.2244232 0.42108569 0
5.1300001 -2.2301953 0.42106405 0
5.1230001 -2.2354822 0.42103878 0
5.1170001 -2.2412093 0.42101714 0
5.1100001 -2.2464476 0.4209919 0
5.1040001 -2.2521296 0.42097023 0
5.0980005 -2.2577901 0.42094859 0
5.0910001 -2.2629559 0.42092335 0
5.0850005 -2.2685716 0.42090169 0
5.0790005 -2.2741649 0.42088005 0
5.0730004 -2.279737 0.42085841 0
