# .PCD v0.7 - Point Cloud Data file format
VERSION 0.7
FIELDS x y z intensity
SIZE 4 4 4 4
TYPE F F F F
COUNT 1 1 1 1
WIDTH 1405
HEIGHT 1
VIEWPOINT 0 0 0 1 0 0 0
POINTS 1405
DATA ascii
3.1640003 0.45257261 0.51867169 0
3.1650002 0.44776544 0.51871318 0
3.1660001 0.44295466 0.51875466 0
3.1670003 0.43814033 0.51879621 0
2.6730001 0.33940527 0.4983013 0
2.6660001 0.33413094 0.49801087 0
2.6620002 0.32937971 0.49784493 0
2.6590002 0.32480705 0.49772048 0
2.6560001 0.32024521 0.49759603 0
2.6540003 0.31585476 0.49751306 0
2.6530001 0.31163022 0.49747154 0
2.6520002 0.30740932 0.49743006 0
2.6520002 0.30334714 0.49743006 0
2.6520002 0.29928496 0.49743006 0
2.6520002 0.29522279 0.49743006 0
2.6530001 0.29131034 0.49747154 0
2.6540003 0.28739429 0.49751306 0
2.6550002 0.28347459 0.49755454 0
2.6570003 0.27969563 0.49763751 0
2.6590002 0.27590939 0.49772048 0
2.6610003 0.27211604 0.49780345 0
2.6640003 0.26845428 0.4979279 0
2.6680002 0.26491883 0.49809387 0
2.6730001 0.2615042 0.4983013 0
2.6780002 0.25807154 0.49850875 0
2.6870003 0.25514761 0.49888214 0
2.9800003 0.2890754 0.51103801 0
2.9810002 0.28454965 0.51107949 0
2.9820001 0.2800203 0.51112098 0
2.9830003 0.27548733 0.51116246 0
2.9840002 0.27095073 0.51120394 0
2.9850001 0.26641056 0.51124543 0
2.9850001 0.26174772 0.51124543 0
2.9860003 0.25720212 0.51128691 0
2.9870002 0.25265291 0.5113284 0
2.9880002 0.2481001 0.51136988 0
2.9890003 0.24354371 0.51141137 0
2.9890003 0.23887363 0.51141137 0
2.9900002 0.23431179 0.51145285 0
2.9910002 0.22974634 0.51149434 0
2.9920001 0.22517729 0.51153582 0
2.9930003 0.22060466 0.51157737 0
2.9940002 0.21602839 0.51161885 0
2.9940002 0.21134931 0.51161885 0
2.9950001 0.20676765 0.51166034 0
2.9960003 0.20218237 0.51170182 0
2.9970002 0.19759348 0.51174331 0
2.9980001 0.19300097 0.51178479 0
2.9990003 0.18840489 0.51182628 0
2.9990003 0.18371679 0.51182628 0
3.0000002 0.17911527 0.51186776 0
3.0010002 0.17451014 0.51190925 0
3.0020003 0.16990142 0.51195073 0
3.0030003 0.16528907 0.51199222 0
3.0040002 0.16067313 0.5120337 0
3.0040002 0.155976 0.5120337 0
3.0050001 0.15135466 0.51207519 0
3.0060003 0.14672969 0.51211667 0
3.0070002 0.14210112 0.51215816 0
2.7250001 0.09659104 0.50045866 0
2.7160003 0.091861457 0.50008529 0
2.7110002 0.087395221 0.49987784 0
2.7070003 0.083002955 0.49971187 0
2.7040002 0.078679219 0.49958742 0
2.7010002 0.074366316 0.49946296 0
2.6990001 0.070114747 0.49937999 0
2.6980002 0.065919086 0.49933851 0
2.6970003 0.061727036 0.49929702 0
2.6970003 0.057583686 0.49929702 0
2.6970003 0.053440344 0.49929702 0
2.6970003 0.049296994 0.49929702 0
2.6980002 0.045193333 0.49933851 0
2.6990001 0.041086052 0.49937999 0
2.7000003 0.036975179 0.49942148 0
2.7020001 0.032894958 0.49950445 0
2.7040002 0.028807539 0.49958742 0
2.7070003 0.024743553 0.49971187 0
2.7110002 0.020697612 0.49987784 0
2.7160003 0.0166643 0.50008529 0
2.7230003 0.012663454 0.50037569 0
3.1640003 0.45755833 0.513686 0
3.1640003 0.45257261 0.513686 0
3.1650002 0.44776544 0.51372564 0
3.1660001 0.44295466 0.51376534 0
3.1670003 0.43814033 0.51380503 0
2.6700003 0.3388966 0.49408221 0
2.6640003 0.33379543 0.49384409 0
2.6600001 0.32904777 0.49368536 0
2.6570003 0.32447878 0.4935663 0
2.6550002 0.32008287 0.49348694 0
2.6530001 0.31569418 0.49340758 0
2.6520002 0.31147149 0.49336788 0
2.6510003 0.30725241 0.49332821 0
2.6510003 0.30319202 0.49332821 0
2.6510003 0.29913163 0.49332821 0
2.6510003 0.29507127 0.49332821 0
2.6510003 0.29101089 0.49332821 0
2.6520002 0.28709844 0.49336788 0
2.6540003 0.2833285 0.49344724 0
2.6550002 0.27940699 0.49348694 0
2.6570003 0.27562442 0.4935663 0
2.6600001 0.27197531 0.49368536 0
2.6630001 0.26831537 0.4938044 0
2.6660001 0.26464462 0.49392346 0
2.6710002 0.26123363 0.49412188 0
2.6760001 0.25780457 0.4943203 0
2.6840003 0.25475255 0.49463779 0
2.9810002 0.28454965 0.50642383 0
2.9820001 0.2800203 0.50646353 0
2.9830003 0.27548733 0.50650322 0
2.9840002 0.27095073 0.50654292 0
2.9850001 0.26641056 0.50658262 0
2.9850001 0.26174772 0.50658262 0
2.9860003 0.25720212 0.50662225 0
2.9870002 0.25265291 0.50666195 0
2.9880002 0.2481001 0.50670165 0
2.9890003 0.24354371 0.50674134 0
2.9890003 0.23887363 0.50674134 0
2.9900002 0.23431179 0.50678098 0
2.9910002 0.22974634 0.50682068 0
2.9920001 0.22517729 0.50686038 0
2.9930003 0.22060466 0.50690007 0
2.9940002 0.21602839 0.50693977 0
2.9940002 0.21134931 0.50693977 0
2.9950001 0.20676765 0.50697941 0
2.9960003 0.20218237 0.5070191 0
2.9970002 0.19759348 0.5070588 0
2.9980001 0.19300097 0.5070985 0
2.9990003 0.18840489 0.50713813 0
2.9990003 0.18371679 0.50713813 0
3.0000002 0.17911527 0.50717783 0
3.0010002 0.17451014 0.50721753 0
3.0020003 0.16990142 0.50725722 0
3.0030003 0.16528907 0.50729692 0
3.0040002 0.16067313 0.50733656 0
3.0040002 0.155976 0.50733656 0
3.0050001 0.15135466 0.50737625 0
3.0060003 0.14672969 0.50741595 0
2.7210002 0.096345708 0.49610609 0
2.7140002 0.091742411 0.49582827 0
2.7090001 0.087279767 0.49562985 0
2.7050002 0.082891107 0.49547112 0
2.7020001 0.078570992 0.49535209 0
2.7000003 0.074314013 0.49527273 0
2.6980002 0.070064232 0.49519336 0
2.6970003 0.065870389 0.49515367 0
2.6960001 0.061680127 0.49511397 0
2.6960001 0.057538588 0.49511397 0
2.6950002 0.053353753 0.49507427 0
2.6960001 0.049255501 0.49511397 0
2.6960001 0.045113962 0.49511397 0
2.6970003 0.041010302 0.49515367 0
2.6990001 0.036939096 0.49523303 0
2.7010002 0.032860693 0.49531239 0
2.7030003 0.02877507 0.49539176 0
2.7060001 0.024712887 0.49551082 0
2.7090001 0.020639885 0.49562985 0
2.7140002 0.016610187 0.49582827 0
2.7200003 0.012587696 0.49606639 0
2.7300003 0.0086373538 0.49646324 0
3.1640003 0.45755833 0.50870025 0
3.1640003 0.45257261 0.50870025 0
3.1650002 0.44776544 0.50873816 0
3.1660001 0.44295466 0.50877601 0
3.1670003 0.43814033 0.50881392 0
2.6770003 0.34419078 0.49025273 0
2.6680002 0.33855748 0.48991179 0
2.6630001 0.33362764 0.48972237 0
2.6590002 0.32888183 0.48957086 0
2.6560001 0.32431459 0.48945722 0
2.6540003 0.31992054 0.48938149 0
2.6520002 0.31553367 0.4893057 0
2.6510003 0.31131276 0.48926783 0
2.6500001 0.30709544 0.48922995 0
2.6500001 0.30303687 0.48922995 0
2.6500001 0.2989783 0.48922995 0
2.6500001 0.29491973 0.48922995 0
2.6510003 0.29101089 0.48926783 0
2.6520002 0.28709844 0.4893057 0
2.6530001 0.28318235 0.48934358 0
2.6540003 0.27926269 0.48938149 0
2.6560001 0.27548191 0.48945722 0
2.6590002 0.27183461 0.48957086 0
2.6620002 0.2681765 0.48968452 0
2.6650002 0.26450756 0.48979816 0
2.6690001 0.26096305 0.48994967 0
2.6750002 0.25767112 0.49017695 0
2.6810002 0.25435752 0.49040425 0
2.6920002 0.25167164 0.49082091 0
2.9810002 0.28454965 0.50176823 0
2.9820001 0.2800203 0.50180608 0
2.9830003 0.27548733 0.50184399 0
2.9840002 0.27095073 0.50188184 0
2.9850001 0.26641056 0.50191975 0
2.9850001 0.26174772 0.50191975 0
2.9860003 0.25720212 0.50195765 0
2.9870002 0.25265291 0.5019955 0
2.9880002 0.2481001 0.50203335 0
2.9890003 0.24354371 0.50207126 0
2.9890003 0.23887363 0.50207126 0
2.9900002 0.23431179 0.50210917 0
2.9910002 0.22974634 0.50214702 0
2.9920001 0.22517729 0.50218487 0
2.9930003 0.22060466 0.50222278 0
2.9940002 0.21602839 0.50226068 0
2.9940002 0.21134931 0.50226068 0
2.9950001 0.20676765 0.50229853 0
2.9960003 0.20218237 0.50233644 0
2.9970002 0.19759348 0.50237429 0
2.9980001 0.19300097 0.5024122 0
2.9990003 0.18840489 0.50245005 0
2.9990003 0.18371679 0.50245005 0
3.0000002 0.17911527 0.50248796 0
3.0010002 0.17451014 0.50252581 0
3.0020003 0.16990142 0.50256371 0
3.0030003 0.16528907 0.50260156 0
3.0040002 0.16067313 0.50263947 0
3.0040002 0.155976 0.50263947 0
3.0050001 0.15135466 0.50267732 0
3.0060003 0.14672969 0.50271523 0
2.7300003 0.10110055 0.49226034 0
2.7180002 0.096161738 0.49180579 0
2.7120001 0.091623336 0.49157852 0
2.7070003 0.087164342 0.4913891 0
2.7040002 0.082835197 0.49127549 0
2.7010002 0.078516886 0.49116182 0
2.6990001 0.074261695 0.49108607 0
2.6970003 0.070013732 0.49101031 0
2.6960001 0.065821677 0.49097243 0
2.6950002 0.061633233 0.49093455 0
2.6940002 0.057448398 0.49089667 0
2.6940002 0.053310465 0.49089667 0
2.6940002 0.049172532 0.49089667 0
2.6950002 0.045074273 0.49093455 0
2.6960001 0.040972415 0.49097243 0
2.6970003 0.036866952 0.49101031 0
2.6990001 0.03279214 0.49108607 0
2.7010002 0.028710131 0.49116182 0
2.7040002 0.024651561 0.49127549 0
2.7080002 0.020611029 0.491427 0
2.7120001 0.016556066 0.49157852 0
2.7180002 0.012537181 0.49180579 0
2.7260003 0.0085435547 0.49210882 0
3.1640003 0.45755833 0.50371456 0
3.1640003 0.45257261 0.50371456 0
3.1650002 0.44776544 0.50375062 0
3.1660001 0.44295466 0.50378668 0
3.1670003 0.43814033 0.50382274 0
2.6750002 0.34384805 0.48607329 0
2.6670003 0.33838794 0.48578468 0
2.6620002 0.33345991 0.48560429 0
2.6580002 0.32871589 0.48545998 0
2.6550002 0.32415047 0.48535177 0
2.6530001 0.31975818 0.48527962 0
2.6520002 0.31553367 0.48524353 0
2.6510003 0.31131276 0.48520747 0
2.6500001 0.30709544 0.48517138 0
2.6490002 0.30288175 0.48513532 0
2.6490002 0.298825 0.48513532 0
2.6500001 0.29491973 0.48517138 0
2.6500001 0.29086116 0.48517138 0
2.6510003 0.28695053 0.48520747 0
2.6520002 0.28303626 0.48524353 0
2.6540003 0.27926269 0.48531568 0
2.6560001 0.27548191 0.48538783 0
2.6580002 0.27169392 0.48545998 0
2.6610003 0.26803762 0.48556823 0
2.6650002 0.26450756 0.48571253 0
2.6690001 0.26096305 0.48585683 0
2.6740003 0.25753763 0.48603722 0
2.6800003 0.25422585 0.48625368 0
2.6900003 0.25141191 0.48661444 0
2.9810002 0.28454965 0.4971126 0
2.9820001 0.2800203 0.49714866 0
2.9830003 0.27548733 0.49718475 0
2.9840002 0.27095073 0.49722081 0
2.9850001 0.26641056 0.4972569 0
2.9850001 0.26174772 0.4972569 0
2.9860003 0.25720212 0.497293 0
2.9870002 0.25265291 0.49732906 0
2.9880002 0.2481001 0.49736512 0
2.9890003 0.24354371 0.49740121 0
2.9890003 0.23887363 0.49740121 0
2.9900002 0.23431179 0.4974373 0
2.9910002 0.22974634 0.49747336 0
2.9920001 0.22517729 0.49750942 0
2.9930003 0.22060466 0.49754551 0
2.9940002 0.21602839 0.4975816 0
2.9940002 0.21134931 0.4975816 0
2.9950001 0.20676765 0.49761766 0
2.9960003 0.20218237 0.49765375 0
2.9970002 0.19759348 0.49768981 0
2.9980001 0.19300097 0.49772587 0
2.9990003 0.18840489 0.49776196 0
2.9990003 0.18371679 0.49776196 0
3.0000002 0.17911527 0.49779806 0
3.0010002 0.17451014 0.49783412 0
3.0020003 0.16990142 0.49787021 0
3.0030003 0.16528907 0.49790627 0
3.0040002 0.16067313 0.49794233 0
3.0040002 0.155976 0.49794233 0
3.0050001 0.15135466 0.49797842 0
2.7260003 0.10084802 0.48791319 0
2.7170002 0.096100405 0.4875885 0
2.7110002 0.091563821 0.48737204 0
2.7060001 0.0871066 0.48719165 0
2.7030003 0.082779288 0.48708344 0
2.7000003 0.07846278 0.48697519 0
2.6980002 0.074209392 0.48690304 0
2.6960001 0.069963217 0.48683089 0
2.6950002 0.06577298 0.48679483 0
2.6940002 0.061586339 0.48675874 0
2.6940002 0.057448398 0.48675874 0
2.6940002 0.053310465 0.48675874 0
2.6940002 0.049172532 0.48675874 0
2.6950002 0.045074273 0.48679483 0
2.6960001 0.040972415 0.48683089 0
2.6970003 0.036866952 0.48686695 0
2.6990001 0.03279214 0.4869391 0
2.7010002 0.028710131 0.48701128 0
2.7040002 0.024651561 0.4871195 0
2.7070003 0.020582173 0.48722774 0
2.7110002 0.016529012 0.48737204 0
2.7170002 0.012511935 0.4875885 0
2.7240002 0.0084966533 0.48784101 0
3.1640003 0.45755833 0.49872881 0
3.1640003 0.45257261 0.49872881 0
3.1650002 0.44776544 0.49876308 0
3.1660001 0.44295466 0.49879736 0
3.1670003 0.43814033 0.49883163 0
2.6750002 0.34384805 0.48196962 0
2.6670003 0.33838794 0.48169544 0
2.6620002 0.33345991 0.48152408 0
2.6580002 0.32871589 0.48138699 0
2.6550002 0.32415047 0.48128417 0
2.6530001 0.31975818 0.48121563 0
2.6510003 0.31537315 0.48114711 0
2.6500001 0.31115401 0.48111281 0
2.6490002 0.30693853 0.48107854 0
2.6490002 0.30288175 0.48107854 0
2.6490002 0.298825 0.48107854 0
2.6490002 0.29476821 0.48107854 0
2.6500001 0.29086116 0.48111281 0
2.6510003 0.28695053 0.48114711 0
2.6520002 0.28303626 0.48118135 0
2.6540003 0.27926269 0.4812499 0
2.6560001 0.27548191 0.48131844 0
2.6580002 0.27169392 0.48138699 0
2.6610003 0.26803762 0.48148981 0
2.6640003 0.26437047 0.48159263 0
2.6680002 0.26082778 0.48172972 0
2.6730001 0.25740412 0.48190108 0
2.6800003 0.25422585 0.48214099 0
2.6890001 0.25128201 0.48244944 0
2.9810002 0.28454965 0.49245697 0
2.9820001 0.2800203 0.49249125 0
2.9830003 0.27548733 0.49252552 0
2.9840002 0.27095073 0.49255979 0
2.9850001 0.26641056 0.49259406 0
2.9850001 0.26174772 0.49259406 0
2.9860003 0.25720212 0.49262834 0
2.9870002 0.25265291 0.49266261 0
2.9880002 0.2481001 0.49269688 0
2.9890003 0.24354371 0.49273115 0
2.9890003 0.23887363 0.49273115 0
2.9900002 0.23431179 0.49276543 0
2.9910002 0.22974634 0.4927997 0
2.9920001 0.22517729 0.49283397 0
2.9930003 0.22060466 0.49286824 0
2.9940002 0.21602839 0.49290252 0
2.9940002 0.21134931 0.49290252 0
2.9950001 0.20676765 0.49293679 0
2.9960003 0.20218237 0.49297106 0
2.9970002 0.19759348 0.49300534 0
2.9980001 0.19300097 0.49303961 0
2.9990003 0.18840489 0.49307388 0
2.9990003 0.18371679 0.49307388 0
3.0000002 0.17911527 0.49310815 0
3.0010002 0.17451014 0.49314243 0
3.0020003 0.16990142 0.4931767 0
3.0030003 0.16528907 0.49321097 0
3.0040002 0.16067313 0.49324524 0
3.0040002 0.155976 0.49324524 0
3.0050001 0.15135466 0.49327949 0
2.7250001 0.10078488 0.48368323 0
2.7160003 0.096039087 0.4833748 0
2.7100003 0.091504291 0.48316917 0
2.7060001 0.0871066 0.48303205 0
2.7020001 0.082723349 0.48289496 0
2.7000003 0.07846278 0.48282644 0
2.6970003 0.074157089 0.48272362 0
2.6960001 0.069963217 0.48268935 0
2.6950002 0.06577298 0.48265508 0
2.6940002 0.061586339 0.48262081 0
2.6940002 0.057448398 0.48262081 0
2.6930003 0.053267177 0.48258653 0
2.6940002 0.049172532 0.48262081 0
2.6940002 0.045034591 0.48262081 0
2.6950002 0.040934537 0.48265508 0
2.6970003 0.036866952 0.48272362 0
2.6980002 0.032757875 0.4827579 0
2.7000003 0.028677661 0.48282644 0
2.7030003 0.024620902 0.48292926 0
2.7070003 0.020582173 0.48306635 0
2.7110002 0.016529012 0.48320341 0
2.7160003 0.012486681 0.4833748 0
2.7230003 0.0084732063 0.48361471 0
3.1640003 0.45755833 0.49374309 0
3.1640003 0.45257261 0.49374309 0
3.1650002 0.44776544 0.49377555 0
3.1660001 0.44295466 0.49380803 0
3.1670003 0.43814033 0.49384049 0
2.6750002 0.34384805 0.47786596 0
2.6670003 0.33838794 0.47760621 0
2.6620002 0.33345991 0.47744387 0
2.6580002 0.32871589 0.477314 0
2.6550002 0.32415047 0.4772166 0
2.6530001 0.31975818 0.47715166 0
2.6520002 0.31553367 0.47711918 0
2.6500001 0.31115401 0.47705424 0
2.6500001 0.30709544 0.47705424 0
2.6490002 0.30288175 0.47702178 0
2.6490002 0.298825 0.47702178 0
2.6490002 0.29476821 0.47702178 0
2.6500001 0.29086116 0.47705424 0
2.6510003 0.28695053 0.47708672 0
2.6520002 0.28303626 0.47711918 0
2.6540003 0.27926269 0.47718412 0
2.6560001 0.27548191 0.47724906 0
2.6580002 0.27169392 0.477314 0
2.6610003 0.26803762 0.47741139 0
2.6640003 0.26437047 0.47750881 0
2.6680002 0.26082778 0.47763866 0
2.6730001 0.25740412 0.47780102 0
2.6800003 0.25422585 0.4780283 0
2.6890001 0.25128201 0.47832051 0
2.9810002 0.28454965 0.48780134 0
2.9820001 0.2800203 0.4878338 0
2.9830003 0.27548733 0.48786628 0
2.9840002 0.27095073 0.48789874 0
2.9850001 0.26641056 0.48793119 0
2.9850001 0.26174772 0.48793119 0
2.9860003 0.25720212 0.48796368 0
2.9870002 0.25265291 0.48799616 0
2.9880002 0.2481001 0.48802862 0
2.9890003 0.24354371 0.4880611 0
2.9890003 0.23887363 0.4880611 0
2.9900002 0.23431179 0.48809355 0
2.9910002 0.22974634 0.48812601 0
2.9920001 0.22517729 0.48815849 0
2.9930003 0.22060466 0.48819095 0
2.9940002 0.21602839 0.48822343 0
2.9940002 0.21134931 0.48822343 0
2.9950001 0.20676765 0.48825589 0
2.9960003 0.20218237 0.48828837 0
2.9970002 0.19759348 0.48832083 0
2.9980001 0.19300097 0.48835331 0
2.9990003 0.18840489 0.48838577 0
2.9990003 0.18371679 0.48838577 0
3.0000002 0.17911527 0.48841825 0
3.0010002 0.17451014 0.48845071 0
3.0020003 0.16990142 0.48848319 0
3.0030003 0.16528907 0.48851565 0
3.0040002 0.16067313 0.4885481 0
3.0040002 0.155976 0.4885481 0
3.0050001 0.15135466 0.48858058 0
2.7250001 0.10078488 0.47948939 0
2.7160003 0.096039087 0.47919717 0
2.7100003 0.091504291 0.47900236 0
2.7060001 0.0871066 0.47887248 0
2.7020001 0.082723349 0.4787426 0
2.7000003 0.07846278 0.47867769 0
2.6970003 0.074157089 0.47858027 0
2.6960001 0.069963217 0.47854781 0
2.6950002 0.06577298 0.47851533 0
2.6940002 0.061586339 0.47848287 0
2.6940002 0.057448398 0.47848287 0
2.6930003 0.053267177 0.47845039 0
2.6940002 0.049172532 0.47848287 0
2.6940002 0.045034591 0.47848287 0
2.6950002 0.040934537 0.47851533 0
2.6960001 0.036830869 0.47854781 0
2.6980002 0.032757875 0.47861272 0
2.7000003 0.028677661 0.47867769 0
2.7030003 0.024620902 0.47877508 0
2.7060001 0.020553302 0.47887248 0
2.7110002 0.016529012 0.47903484 0
2.7160003 0.012486681 0.47919717 0
2.7230003 0.0084732063 0.47942445 0
3.1640003 0.45755833 0.48875737 0
3.1640003 0.45257261 0.48875737 0
3.1650002 0.44776544 0.48878801 0
3.1660001 0.44295466 0.48881868 0
3.1670003 0.43814033 0.48884934 0
2.6750002 0.34384805 0.4737623 0
2.6670003 0.33838794 0.47351697 0
2.6620002 0.33345991 0.47336367 0
2.6580002 0.32871589 0.473241 0
2.6550002 0.32415047 0.473149 0
2.6530001 0.31975818 0.47308767 0
2.6520002 0.31553367 0.473057 0
2.6500001 0.31115401 0.47299567 0
2.6500001 0.30709544 0.47299567 0
2.6490002 0.30288175 0.472965 0
2.6490002 0.298825 0.472965 0
2.6490002 0.29476821 0.472965 0
2.6500001 0.29086116 0.47299567 0
2.6510003 0.28695053 0.47302634 0
2.6520002 0.28303626 0.473057 0
2.6540003 0.27926269 0.47311834 0
2.6560001 0.27548191 0.47317967 0
2.6580002 0.27169392 0.473241 0
2.6610003 0.26803762 0.473333 0
2.6640003 0.26437047 0.47342497 0
2.6680002 0.26082778 0.47354764 0
2.6730001 0.25740412 0.47370097 0
2.6800003 0.25422585 0.47391564 0
2.6890001 0.25128201 0.47419161 0
2.9810002 0.28454965 0.48314571 0
2.9820001 0.2800203 0.48317638 0
2.9830003 0.27548733 0.48320705 0
2.9840002 0.27095073 0.48323768 0
2.9850001 0.26641056 0.48326838 0
2.9850001 0.26174772 0.48326838 0
2.9860003 0.25720212 0.48329902 0
2.9870002 0.25265291 0.48332971 0
2.9880002 0.2481001 0.48336035 0
2.9890003 0.24354371 0.48339105 0
2.9890003 0.23887363 0.48339105 0
2.9900002 0.23431179 0.48342168 0
2.9910002 0.22974634 0.48345235 0
2.9920001 0.22517729 0.48348302 0
2.9930003 0.22060466 0.48351368 0
2.9940002 0.21602839 0.48354435 0
2.9940002 0.21134931 0.48354435 0
2.9950001 0.20676765 0.48357502 0
2.9960003 0.20218237 0.48360568 0
2.9970002 0.19759348 0.48363635 0
2.9980001 0.19300097 0.48366702 0
2.9990003 0.18840489 0.48369768 0
2.9990003 0.18371679 0.48369768 0
3.0000002 0.17911527 0.48372835 0
3.0010002 0.17451014 0.48375899 0
3.0020003 0.16990142 0.48378968 0
3.0030003 0.16528907 0.48382032 0
3.0040002 0.16067313 0.48385099 0
3.0040002 0.155976 0.48385099 0
3.0050001 0.15135466 0.48388165 0
2.7250001 0.10078488 0.47529554 0
2.7160003 0.096039087 0.47501957 0
2.7100003 0.091504291 0.47483557 0
2.7060001 0.0871066 0.47471291 0
2.7020001 0.082723349 0.47459024 0
2.7000003 0.07846278 0.47452891 0
2.6970003 0.074157089 0.47443694 0
2.6960001 0.069963217 0.47440624 0
2.6950002 0.06577298 0.47437561 0
2.6940002 0.061586339 0.47434491 0
2.6940002 0.057448398 0.47434491 0
2.6930003 0.053267177 0.47431427 0
2.6940002 0.049172532 0.47434491 0
2.6940002 0.045034591 0.47434491 0
2.6950002 0.040934537 0.47437561 0
2.6960001 0.036830869 0.47440624 0
2.6980002 0.032757875 0.47446758 0
2.7000003 0.028677661 0.47452891 0
2.7030003 0.024620902 0.47462091 0
2.7060001 0.020553302 0.47471291 0
2.7110002 0.016529012 0.47486621 0
2.7160003 0.012486681 0.47501957 0
2.7230003 0.0084732063 0.47523421 0
3.1640003 0.45755833 0.48377162 0
3.1640003 0.45257261 0.48377162 0
3.1650002 0.44776544 0.4838005 0
3.1660001 0.44295466 0.48382935 0
3.1670003 0.43814033 0.48385823 0
2.6750002 0.34384805 0.46965864 0
2.6670003 0.33838794 0.46942776 0
2.6620002 0.33345991 0.46928343 0
2.6580002 0.32871589 0.46916801 0
2.6550002 0.32415047 0.4690814 0
2.6530001 0.31975818 0.4690237 0
2.6520002 0.31553367 0.46899483 0
2.6500001 0.31115401 0.4689371 0
2.6500001 0.30709544 0.4689371 0
2.6490002 0.30288175 0.46890825 0
2.6490002 0.298825 0.46890825 0
2.6490002 0.29476821 0.46890825 0
2.6500001 0.29086116 0.4689371 0
2.6510003 0.28695053 0.46896598 0
2.6520002 0.28303626 0.46899483 0
2.6540003 0.27926269 0.46905255 0
2.6560001 0.27548191 0.46911028 0
2.6580002 0.27169392 0.46916801 0
2.6610003 0.26803762 0.46925458 0
2.6640003 0.26437047 0.46934116 0
2.6680002 0.26082778 0.46945661 0
2.6730001 0.25740412 0.46960092 0
2.6800003 0.25422585 0.46980295 0
2.6890001 0.25128201 0.47006267 0
2.9810002 0.28454965 0.47849008 0
2.9820001 0.2800203 0.47851893 0
2.9830003 0.27548733 0.47854781 0
2.9840002 0.27095073 0.47857666 0
2.9850001 0.26641056 0.47860551 0
2.9850001 0.26174772 0.47860551 0
2.9860003 0.25720212 0.47863439 0
2.9870002 0.25265291 0.47866324 0
2.9880002 0.2481001 0.47869211 0
2.9890003 0.24354371 0.47872096 0
2.9890003 0.23887363 0.47872096 0
2.9900002 0.23431179 0.47874981 0
2.9910002 0.22974634 0.47877869 0
2.9920001 0.22517729 0.47880754 0
2.9930003 0.22060466 0.47883642 0
2.9940002 0.21602839 0.47886527 0
2.9940002 0.21134931 0.47886527 0
2.9950001 0.20676765 0.47889411 0
2.9960003 0.20218237 0.47892299 0
2.9970002 0.19759348 0.47895187 0
2.9980001 0.19300097 0.47898072 0
2.9990003 0.18840489 0.47900957 0
2.9990003 0.18371679 0.47900957 0
3.0000002 0.17911527 0.47903845 0
3.0010002 0.17451014 0.4790673 0
3.0020003 0.16990142 0.47909617 0
3.0030003 0.16528907 0.47912502 0
3.0040002 0.16067313 0.47915387 0
3.0040002 0.155976 0.47915387 0
3.0050001 0.15135466 0.47918272 0
2.7250001 0.10078488 0.47110167 0
2.7160003 0.096039087 0.47084194 0
2.7100003 0.091504291 0.47066876 0
2.7060001 0.0871066 0.47055331 0
2.7020001 0.082723349 0.47043788 0
2.7000003 0.07846278 0.47038016 0
2.6970003 0.074157089 0.47029358 0
2.6960001 0.069963217 0.4702647 0
2.6950002 0.06577298 0.47023585 0
2.6940002 0.061586339 0.47020698 0
2.6940002 0.057448398 0.47020698 0
2.6930003 0.053267177 0.47017813 0
2.6940002 0.049172532 0.47020698 0
2.6940002 0.045034591 0.47020698 0
2.6950002 0.040934537 0.47023585 0
2.6960001 0.036830869 0.4702647 0
2.6980002 0.032757875 0.47032243 0
2.7000003 0.028677661 0.47038016 0
2.7030003 0.024620902 0.47046673 0
2.7060001 0.020553302 0.47055331 0
2.7110002 0.016529012 0.47069764 0
2.7160003 0.012486681 0.47084194 0
2.7230003 0.0084732063 0.47104394 0
3.1640003 0.45755833 0.4787859 0
3.1640003 0.45257261 0.4787859 0
3.1650002 0.44776544 0.47881296 0
3.1660001 0.44295466 0.47884002 0
3.1670003 0.43814033 0.47886708 0
2.6750002 0.34384805 0.46555495 0
2.6670003 0.33838794 0.46533853 0
2.6620002 0.33345991 0.46520323 0
2.6580002 0.32871589 0.46509501 0
2.6550002 0.32415047 0.46501383 0
2.6530001 0.31975818 0.46495971 0
2.6520002 0.31553367 0.46493265 0
2.6500001 0.31115401 0.46487853 0
2.6500001 0.30709544 0.46487853 0
2.6490002 0.30288175 0.4648515 0
2.6490002 0.298825 0.4648515 0
2.6490002 0.29476821 0.4648515 0
2.6500001 0.29086116 0.46487853 0
2.6510003 0.28695053 0.46490559 0
2.6520002 0.28303626 0.46493265 0
2.6540003 0.27926269 0.46498677 0
2.6560001 0.27548191 0.46504089 0
2.6580002 0.27169392 0.46509501 0
2.6610003 0.26803762 0.46517617 0
2.6640003 0.26437047 0.46525735 0
2.6680002 0.26082778 0.46536556 0
2.6730001 0.25740412 0.46550086 0
2.6800003 0.25422585 0.46569026 0
2.6890001 0.25128201 0.46593377 0
2.9810002 0.28454965 0.47383446 0
2.9820001 0.2800203 0.47386152 0
2.9830003 0.27548733 0.47388858 0
2.9840002 0.27095073 0.47391564 0
2.9850001 0.26641056 0.47394267 0
2.9850001 0.26174772 0.47394267 0
2.9860003 0.25720212 0.47396976 0
2.9870002 0.25265291 0.47399679 0
2.9880002 0.2481001 0.47402385 0
2.9890003 0.24354371 0.47405091 0
2.9890003 0.23887363 0.47405091 0
2.9900002 0.23431179 0.47407797 0
2.9910002 0.22974634 0.47410503 0
2.9920001 0.22517729 0.47413206 0
2.9930003 0.22060466 0.47415912 0
2.9940002 0.21602839 0.47418618 0
2.9940002 0.21134931 0.47418618 0
2.9950001 0.20676765 0.47421324 0
2.9960003 0.20218237 0.4742403 0
2.9970002 0.19759348 0.47426736 0
2.9980001 0.19300097 0.47429442 0
2.9990003 0.18840489 0.47432148 0
2.9990003 0.18371679 0.47432148 0
3.0000002 0.17911527 0.47434855 0
3.0010002 0.17451014 0.47437561 0
3.0020003 0.16990142 0.47440267 0
3.0030003 0.16528907 0.4744297 0
3.0040002 0.16067313 0.47445676 0
3.0040002 0.155976 0.47445676 0
3.0050001 0.15135466 0.47448382 0
2.7250001 0.10078488 0.46690783 0
2.7160003 0.096039087 0.46666431 0
2.7100003 0.091504291 0.46650195 0
2.7060001 0.0871066 0.46639374 0
2.7020001 0.082723349 0.4662855 0
2.7000003 0.07846278 0.46623141 0
2.6970003 0.074157089 0.46615022 0
2.6960001 0.069963217 0.46612316 0
2.6950002 0.06577298 0.4660961 0
2.6940002 0.061586339 0.46606904 0
2.6940002 0.057448398 0.46606904 0
2.6930003 0.053267177 0.46604201 0
2.6940002 0.049172532 0.46606904 0
2.6940002 0.045034591 0.46606904 0
2.6950002 0.040934537 0.4660961 0
2.6960001 0.036830869 0.46612316 0
2.6980002 0.032757875 0.46617728 0
2.7000003 0.028677661 0.46623141 0
2.7030003 0.024620902 0.46631256 0
2.7060001 0.020553302 0.46639374 0
2.7110002 0.016529012 0.46652901 0
2.7160003 0.012486681 0.46666431 0
2.7230003 0.0084732063 0.46685371 0
3.1640003 0.45755833 0.47380018 0
3.1640003 0.45257261 0.47380018 0
3.1650002 0.44776544 0.47382542 0
3.1660001 0.44295466 0.47385067 0
3.1670003 0.43814033 0.47387594 0
2.6750002 0.34384805 0.46145129 0
2.6670003 0.33838794 0.46124929 0
2.6620002 0.33345991 0.46112302 0
2.6580002 0.32871589 0.46102199 0
2.6550002 0.32415047 0.46094623 0
2.6530001 0.31975818 0.46089572 0
2.6520002 0.31553367 0.46087047 0
2.6500001 0.31115401 0.46081996 0
2.6500001 0.30709544 0.46081996 0
2.6490002 0.30288175 0.46079472 0
2.6490002 0.298825 0.46079472 0
2.6490002 0.29476821 0.46079472 0
2.6500001 0.29086116 0.46081996 0
2.6510003 0.28695053 0.46084523 0
2.6520002 0.28303626 0.46087047 0
2.6540003 0.27926269 0.46092099 0
2.6560001 0.27548191 0.46097147 0
2.6580002 0.27169392 0.46102199 0
2.6610003 0.26803762 0.46109778 0
2.6640003 0.26437047 0.46117353 0
2.6680002 0.26082778 0.46127453 0
2.6730001 0.25740412 0.46140081 0
2.6800003 0.25422585 0.46157756 0
2.6890001 0.25128201 0.46180487 0
2.9810002 0.28454965 0.46917883 0
2.9820001 0.2800203 0.46920407 0
2.9830003 0.27548733 0.46922934 0
2.9840002 0.27095073 0.46925458 0
2.9850001 0.26641056 0.46927983 0
2.9850001 0.26174772 0.46927983 0
2.9860003 0.25720212 0.4693051 0
2.9870002 0.25265291 0.46933034 0
2.9880002 0.2481001 0.46935558 0
2.9890003 0.24354371 0.46938086 0
2.9890003 0.23887363 0.46938086 0
2.9900002 0.23431179 0.4694061 0
2.9910002 0.22974634 0.46943134 0
2.9920001 0.22517729 0.46945661 0
2.9930003 0.22060466 0.46948186 0
2.9940002 0.21602839 0.4695071 0
2.9940002 0.21134931 0.4695071 0
2.9950001 0.20676765 0.46953237 0
2.9960003 0.20218237 0.46955761 0
2.9970002 0.19759348 0.46958286 0
2.9980001 0.19300097 0.46960813 0
2.9990003 0.18840489 0.46963337 0
2.9990003 0.18371679 0.46963337 0
3.0000002 0.17911527 0.46965864 0
3.0010002 0.17451014 0.46968389 0
3.0020003 0.16990142 0.46970916 0
3.0030003 0.16528907 0.4697344 0
3.0040002 0.16067313 0.46975964 0
3.0040002 0.155976 0.46975964 0
3.0050001 0.15135466 0.46978492 0
2.7250001 0.10078488 0.46271396 0
2.7160003 0.096039087 0.46248668 0
2.7100003 0.091504291 0.46233517 0
2.7060001 0.0871066 0.46223417 0
2.7020001 0.082723349 0.46213314 0
2.7000003 0.07846278 0.46208265 0
2.6970003 0.074157089 0.46200687 0
2.6960001 0.069963217 0.46198162 0
2.6950002 0.06577298 0.46195638 0
2.6940002 0.061586339 0.46193111 0
2.6940002 0.057448398 0.46193111 0
2.6930003 0.053267177 0.46190587 0
2.6940002 0.049172532 0.46193111 0
2.6940002 0.045034591 0.46193111 0
2.6950002 0.040934537 0.46195638 0
2.6960001 0.036830869 0.46198162 0
2.6980002 0.032757875 0.46203214 0
2.7000003 0.028677661 0.46208265 0
2.7030003 0.024620902 0.46215841 0
2.7060001 0.020553302 0.46223417 0
2.7110002 0.016529012 0.46236041 0
2.7160003 0.012486681 0.46248668 0
2.7230003 0.0084732063 0.46266347 0
3.1640003 0.45755833 0.46881446 0
3.1640003 0.45257261 0.46881446 0
3.1650002 0.44776544 0.46883789 0
3.1660001 0.44295466 0.46886134 0
3.1670003 0.43814033 0.4688848 0
2.6750002 0.34384805 0.45734763 0
2.6670003 0.33838794 0.45716006 0
2.6620002 0.33345991 0.45704281 0
2.6580002 0.32871589 0.456949 0
2.6550002 0.32415047 0.45687866 0
2.6530001 0.31975818 0.45683175 0
2.6520002 0.31553367 0.4568083 0
2.6500001 0.31115401 0.45676139 0
2.6500001 0.30709544 0.45676139 0
2.6490002 0.30288175 0.45673797 0
2.6490002 0.298825 0.45673797 0
2.6490002 0.29476821 0.45673797 0
2.6500001 0.29086116 0.45676139 0
2.6510003 0.28695053 0.45678484 0
2.6520002 0.28303626 0.4568083 0
2.6540003 0.27926269 0.45685521 0
2.6560001 0.27548191 0.45690209 0
2.6580002 0.27169392 0.456949 0
2.6610003 0.26803762 0.45701936 0
2.6640003 0.26437047 0.45708969 0
2.6680002 0.26082778 0.45718348 0
2.6730001 0.25740412 0.45730075 0
2.6800003 0.25422585 0.4574649 0
2.6890001 0.25128201 0.45767593 0
2.9810002 0.28454965 0.4645232 0
2.9820001 0.2800203 0.46454665 0
2.9830003 0.27548733 0.46457011 0
2.9840002 0.27095073 0.46459353 0
2.9850001 0.26641056 0.46461698 0
2.9850001 0.26174772 0.46461698 0
2.9860003 0.25720212 0.46464044 0
2.9870002 0.25265291 0.46466389 0
2.9880002 0.2481001 0.46468735 0
2.9890003 0.24354371 0.46471077 0
2.9890003 0.23887363 0.46471077 0
2.9900002 0.23431179 0.46473423 0
2.9910002 0.22974634 0.46475768 0
2.9920001 0.22517729 0.46478114 0
2.9930003 0.22060466 0.46480459 0
2.9940002 0.21602839 0.46482804 0
2.9940002 0.21134931 0.46482804 0
2.9950001 0.20676765 0.4648515 0
2.9960003 0.20218237 0.46487492 0
2.9970002 0.19759348 0.46489838 0
2.9980001 0.19300097 0.46492183 0
2.9990003 0.18840489 0.46494529 0
2.9990003 0.18371679 0.46494529 0
3.0000002 0.17911527 0.46496874 0
3.0010002 0.17451014 0.46499217 0
3.0020003 0.16990142 0.46501565 0
3.0030003 0.16528907 0.46503907 0
3.0040002 0.16067313 0.46506253 0
3.0040002 0.155976 0.46506253 0
3.0050001 0.15135466 0.46508598 0
3.0060003 0.14672969 0.46510944 0
2.7250001 0.10078488 0.45852011 0
2.7160003 0.096039087 0.45830908 0
2.7100003 0.091504291 0.45816839 0
2.7060001 0.0871066 0.45807457 0
2.7020001 0.082723349 0.45798078 0
2.7000003 0.07846278 0.45793387 0
2.6970003 0.074157089 0.45786354 0
2.6960001 0.069963217 0.45784009 0
2.6950002 0.06577298 0.45781663 0
2.6940002 0.061586339 0.45779318 0
2.6940002 0.057448398 0.45779318 0
2.6930003 0.053267177 0.45776972 0
2.6940002 0.049172532 0.45779318 0
2.6940002 0.045034591 0.45779318 0
2.6950002 0.040934537 0.45781663 0
2.6960001 0.036830869 0.45784009 0
2.6980002 0.032757875 0.45788699 0
2.7000003 0.028677661 0.45793387 0
2.7030003 0.024620902 0.45800424 0
2.7060001 0.020553302 0.45807457 0
2.7110002 0.016529012 0.45819181 0
2.7160003 0.012486681 0.45830908 0
2.7230003 0.0084732063 0.45847321 0
3.1640003 0.45257261 0.46382874 0
3.1650002 0.44776544 0.46385038 0
3.1660001 0.44295466 0.46387202 0
2.6750002 0.34384805 0.45324397 0
2.6670003 0.33838794 0.45307082 0
2.6620002 0.33345991 0.45296258 0
2.6580002 0.32871589 0.452876 0
2.6550002 0.32415047 0.45281106 0
2.6530001 0.31975818 0.45276776 0
2.6520002 0.31553367 0.45274612 0
2.6500001 0.31115401 0.45270282 0
2.6500001 0.30709544 0.45270282 0
2.6490002 0.30288175 0.45268118 0
2.6490002 0.298825 0.45268118 0
2.6490002 0.29476821 0.45268118 0
2.6500001 0.29086116 0.45270282 0
2.6510003 0.28695053 0.45272449 0
2.6520002 0.28303626 0.45274612 0
2.6540003 0.27926269 0.45278943 0
2.6560001 0.27548191 0.4528327 0
2.6580002 0.27169392 0.452876 0
2.6610003 0.26803762 0.45294094 0
2.6640003 0.26437047 0.45300588 0
2.6680002 0.26082778 0.45309246 0
2.6730001 0.25740412 0.4532007 0
2.6800003 0.25422585 0.45335221 0
2.6890001 0.25128201 0.453547 0
2.9810002 0.28454965 0.45986757 0
2.9820001 0.2800203 0.4598892 0
2.9830003 0.27548733 0.45991087 0
2.9840002 0.27095073 0.45993251 0
2.9850001 0.26641056 0.45995414 0
2.9850001 0.26174772 0.45995414 0
2.9860003 0.25720212 0.45997578 0
2.9870002 0.25265291 0.45999745 0
2.9880002 0.2481001 0.46001908 0
2.9890003 0.24354371 0.46004072 0
2.9890003 0.23887363 0.46004072 0
2.9900002 0.23431179 0.46006238 0
2.9910002 0.22974634 0.46008402 0
2.9920001 0.22517729 0.46010566 0
2.9930003 0.22060466 0.46012729 0
2.9940002 0.21602839 0.46014896 0
2.9940002 0.21134931 0.46014896 0
2.9950001 0.20676765 0.4601706 0
2.9960003 0.20218237 0.46019226 0
2.9970002 0.19759348 0.4602139 0
2.9980001 0.19300097 0.46023554 0
2.9990003 0.18840489 0.46025717 0
2.9990003 0.18371679 0.46025717 0
3.0000002 0.17911527 0.46027884 0
3.0010002 0.17451014 0.46030048 0
3.0020003 0.16990142 0.46032211 0
3.0030003 0.16528907 0.46034378 0
3.0040002 0.16067313 0.46036541 0
3.0040002 0.155976 0.46036541 0
3.0050001 0.15135466 0.46038705 0
3.0060003 0.14672969 0.46040872 0
2.7250001 0.10078488 0.45432627 0
2.7160003 0.096039087 0.45413145 0
2.7100003 0.091504291 0.45400158 0
2.7060001 0.0871066 0.453915 0
2.7020001 0.082723349 0.45382842 0
2.7000003 0.07846278 0.45378512 0
2.6970003 0.074157089 0.45372018 0
2.6960001 0.069963217 0.45369855 0
2.6950002 0.06577298 0.45367688 0
2.6940002 0.061586339 0.45365524 0
2.6940002 0.057448398 0.45365524 0
2.6930003 0.053267177 0.45363361 0
2.6940002 0.049172532 0.45365524 0
2.6940002 0.045034591 0.45365524 0
2.6950002 0.040934537 0.45367688 0
2.6960001 0.036830869 0.45369855 0
2.6980002 0.032757875 0.45374182 0
2.7000003 0.028677661 0.45378512 0
2.7030003 0.024620902 0.45385006 0
2.7060001 0.020553302 0.453915 0
2.7110002 0.016529012 0.45402324 0
2.7160003 0.012486681 0.45413145 0
2.7230003 0.0084732063 0.45428297 0
2.6750002 0.34384805 0.44914031 0
2.6670003 0.33838794 0.44898158 0
2.6620002 0.33345991 0.44888237 0
2.6580002 0.32871589 0.44880301 0
2.6550002 0.32415047 0.44874346 0
2.6530001 0.31975818 0.4487038 0
2.6520002 0.31553367 0.44868395 0
2.6500001 0.31115401 0.44864428 0
2.6500001 0.30709544 0.44864428 0
2.6490002 0.30288175 0.44862443 0
2.6490002 0.298825 0.44862443 0
2.6490002 0.29476821 0.44862443 0
2.6500001 0.29086116 0.44864428 0
2.6510003 0.28695053 0.4486641 0
2.6520002 0.28303626 0.44868395 0
2.6540003 0.27926269 0.44872364 0
2.6560001 0.27548191 0.44876331 0
2.6580002 0.27169392 0.44880301 0
2.6610003 0.26803762 0.44886252 0
2.6640003 0.26437047 0.44892204 0
2.6680002 0.26082778 0.44900143 0
2.6730001 0.25740412 0.44910061 0
2.6800003 0.25422585 0.44923952 0
2.6890001 0.25128201 0.4494181 0
2.9810002 0.28454965 0.45521194 0
2.9820001 0.2800203 0.45523179 0
2.9830003 0.27548733 0.45525163 0
2.9840002 0.27095073 0.45527145 0
2.9850001 0.26641056 0.4552913 0
2.9850001 0.26174772 0.4552913 0
2.9860003 0.25720212 0.45531115 0
2.9870002 0.25265291 0.45533097 0
2.9880002 0.2481001 0.45535082 0
2.9890003 0.24354371 0.45537066 0
2.9890003 0.23887363 0.45537066 0
2.9900002 0.23431179 0.45539051 0
2.9910002 0.22974634 0.45541036 0
2.9920001 0.22517729 0.45543021 0
2.9930003 0.22060466 0.45545003 0
2.9940002 0.21602839 0.45546988 0
2.9940002 0.21134931 0.45546988 0
2.9950001 0.20676765 0.45548972 0
2.9960003 0.20218237 0.45550957 0
2.9970002 0.19759348 0.45552939 0
2.9980001 0.19300097 0.45554924 0
2.9990003 0.18840489 0.45556909 0
2.9990003 0.18371679 0.45556909 0
3.0000002 0.17911527 0.45558894 0
3.0010002 0.17451014 0.45560879 0
3.0020003 0.16990142 0.4556286 0
3.0030003 0.16528907 0.45564845 0
3.0040002 0.16067313 0.4556683 0
3.0040002 0.155976 0.4556683 0
3.0050001 0.15135466 0.45568815 0
3.0060003 0.14672969 0.45570797 0
2.7250001 0.10078488 0.4501324 0
2.7160003 0.096039087 0.44995382 0
2.7100003 0.091504291 0.44983479 0
2.7060001 0.0871066 0.4497554 0
2.7020001 0.082723349 0.44967604 0
2.7000003 0.07846278 0.44963637 0
2.6970003 0.074157089 0.44957685 0
2.6960001 0.069963217 0.44955701 0
2.6950002 0.06577298 0.44953716 0
2.6940002 0.061586339 0.44951731 0
2.6940002 0.057448398 0.44951731 0
2.6930003 0.053267177 0.44949746 0
2.6940002 0.049172532 0.44951731 0
2.6940002 0.045034591 0.44951731 0
2.6950002 0.040934537 0.44953716 0
2.6960001 0.036830869 0.44955701 0
2.6980002 0.032757875 0.44959667 0
2.7000003 0.028677661 0.44963637 0
2.7030003 0.024620902 0.44969589 0
2.7060001 0.020553302 0.4497554 0
2.7110002 0.016529012 0.44985461 0
2.7160003 0.012486681 0.44995382 0
2.7230003 0.0084732063 0.45009273 0
2.6750002 0.34384805 0.44503665 0
2.6670003 0.33838794 0.44489235 0
2.6620002 0.33345991 0.44480217 0
2.6580002 0.32871589 0.44473001 0
2.6550002 0.32415047 0.44467589 0
2.6530001 0.31975818 0.4446398 0
2.6520002 0.31553367 0.44462177 0
2.6500001 0.31115401 0.44458568 0
2.6500001 0.30709544 0.44458568 0
2.6490002 0.30288175 0.44456765 0
2.6490002 0.298825 0.44456765 0
2.6490002 0.29476821 0.44456765 0
2.6500001 0.29086116 0.44458568 0
2.6510003 0.28695053 0.44460374 0
2.6520002 0.28303626 0.44462177 0
2.6540003 0.27926269 0.44465786 0
2.6560001 0.27548191 0.44469392 0
2.6580002 0.27169392 0.44473001 0
2.6610003 0.26803762 0.4447841 0
2.6640003 0.26437047 0.44483823 0
2.6680002 0.26082778 0.44491038 0
2.6730001 0.25740412 0.44500059 0
2.6800003 0.25422585 0.44512683 0
2.6890001 0.25128201 0.44528919 0
2.9810002 0.28454965 0.45055631 0
2.9820001 0.2800203 0.45057434 0
2.9830003 0.27548733 0.45059237 0
2.9840002 0.27095073 0.45061043 0
2.9850001 0.26641056 0.45062846 0
2.9850001 0.26174772 0.45062846 0
2.9860003 0.25720212 0.45064649 0
2.9870002 0.25265291 0.45066452 0
2.9880002 0.2481001 0.45068258 0
2.9890003 0.24354371 0.45070061 0
2.9890003 0.23887363 0.45070061 0
2.9900002 0.23431179 0.45071864 0
2.9910002 0.22974634 0.45073667 0
2.9920001 0.22517729 0.45075473 0
2.9930003 0.22060466 0.45077276 0
2.9940002 0.21602839 0.45079079 0
2.9940002 0.21134931 0.45079079 0
2.9950001 0.20676765 0.45080882 0
2.9960003 0.20218237 0.45082688 0
2.9970002 0.19759348 0.45084491 0
2.9980001 0.19300097 0.45086294 0
2.9990003 0.18840489 0.450881 0
2.9990003 0.18371679 0.450881 0
3.0000002 0.17911527 0.45089903 0
3.0010002 0.17451014 0.45091707 0
3.0020003 0.16990142 0.4509351 0
3.0030003 0.16528907 0.45095316 0
3.0040002 0.16067313 0.45097119 0
3.0040002 0.155976 0.45097119 0
3.0050001 0.15135466 0.45098922 0
3.0060003 0.14672969 0.45100725 0
3.0070002 0.14210112 0.45102531 0
2.7250001 0.10078488 0.44593856 0
2.7160003 0.096039087 0.44577622 0
2.7100003 0.091504291 0.44566798 0
2.7060001 0.0871066 0.44559583 0
2.7020001 0.082723349 0.44552368 0
2.7000003 0.07846278 0.44548762 0
2.6970003 0.074157089 0.4454335 0
2.6960001 0.069963217 0.44541544 0
2.6950002 0.06577298 0.44539741 0
2.6940002 0.061586339 0.44537938 0
2.6940002 0.057448398 0.44537938 0
2.6930003 0.053267177 0.44536135 0
2.6940002 0.049172532 0.44537938 0
2.6940002 0.045034591 0.44537938 0
2.6950002 0.040934537 0.44539741 0
2.6960001 0.036830869 0.44541544 0
2.6980002 0.032757875 0.44545153 0
2.7000003 0.028677661 0.44548762 0
2.7030003 0.024620902 0.44554171 0
2.7060001 0.020553302 0.44559583 0
2.7110002 0.016529012 0.44568601 0
2.7160003 0.012486681 0.44577622 0
2.7230003 0.0084732063 0.44590247 0
2.6750002 0.34384805 0.44093299 0
2.6670003 0.33838794 0.44080311 0
2.6620002 0.33345991 0.44072193 0
2.6580002 0.32871589 0.44065702 0
2.6550002 0.32415047 0.44060829 0
2.6530001 0.31975818 0.44057584 0
2.6520002 0.31553367 0.4405596 0
2.6500001 0.31115401 0.44052714 0
2.6500001 0.30709544 0.44052714 0
2.6490002 0.30288175 0.4405109 0
2.6490002 0.298825 0.4405109 0
2.6490002 0.29476821 0.4405109 0
2.6500001 0.29086116 0.44052714 0
2.6510003 0.28695053 0.44054335 0
2.6520002 0.28303626 0.4405596 0
2.6540003 0.27926269 0.44059208 0
2.6560001 0.27548191 0.44062454 0
2.6580002 0.27169392 0.44065702 0
2.6610003 0.26803762 0.44070572 0
2.6640003 0.26437047 0.44075441 0
2.6680002 0.26082778 0.44081935 0
2.6730001 0.25740412 0.4409005 0
2.6800003 0.25422585 0.44101417 0
2.6890001 0.25128201 0.44116026 0
2.9810002 0.28454965 0.44590068 0
2.9820001 0.2800203 0.44591692 0
2.9830003 0.27548733 0.44593313 0
2.9840002 0.27095073 0.44594938 0
2.9850001 0.26641056 0.44596562 0
2.9850001 0.26174772 0.44596562 0
2.9860003 0.25720212 0.44598186 0
2.9870002 0.25265291 0.44599807 0
2.9880002 0.2481001 0.44601431 0
2.9890003 0.24354371 0.44603056 0
2.9890003 0.23887363 0.44603056 0
2.9900002 0.23431179 0.44604677 0
2.9910002 0.22974634 0.44606301 0
2.9920001 0.22517729 0.44607925 0
2.9930003 0.22060466 0.4460955 0
2.9940002 0.21602839 0.44611171 0
2.9940002 0.21134931 0.44611171 0
2.9950001 0.20676765 0.44612795 0
2.9960003 0.20218237 0.44614419 0
2.9970002 0.19759348 0.44616044 0
2.9980001 0.19300097 0.44617665 0
2.9990003 0.18840489 0.44619289 0
2.9990003 0.18371679 0.44619289 0
3.0000002 0.17911527 0.44620913 0
3.0010002 0.17451014 0.44622535 0
3.0020003 0.16990142 0.44624159 0
3.0030003 0.16528907 0.44625783 0
3.0040002 0.16067313 0.44627407 0
3.0040002 0.155976 0.44627407 0
3.0050001 0.15135466 0.44629028 0
3.0060003 0.14672969 0.44630653 0
3.0070002 0.14210112 0.44632277 0
3.0080001 0.13746893 0.44633901 0
2.7250001 0.10078488 0.44174469 0
2.7160003 0.096039087 0.44159859 0
2.7100003 0.091504291 0.4415012 0
2.7060001 0.0871066 0.44143623 0
2.7020001 0.082723349 0.44137132 0
2.7000003 0.07846278 0.44133884 0
2.6970003 0.074157089 0.44129014 0
2.6960001 0.069963217 0.4412739 0
2.6950002 0.06577298 0.44125769 0
2.6940002 0.061586339 0.44124144 0
2.6940002 0.057448398 0.44124144 0
2.6930003 0.053267177 0.4412252 0
2.6940002 0.049172532 0.44124144 0
2.6940002 0.045034591 0.44124144 0
2.6950002 0.040934537 0.44125769 0
2.6960001 0.036830869 0.4412739 0
2.6980002 0.032757875 0.44130638 0
2.7000003 0.028677661 0.44133884 0
2.7030003 0.024620902 0.44138753 0
2.7060001 0.020553302 0.44143623 0
2.7110002 0.016529012 0.44151741 0
2.7160003 0.012486681 0.44159859 0
2.7230003 0.0084732063 0.44171223 0
2.6750002 0.34384805 0.43682933 0
2.6670003 0.33838794 0.43671387 0
2.6620002 0.33345991 0.43664172 0
2.6580002 0.32871589 0.436584 0
2.6550002 0.32415047 0.43654072 0
2.6530001 0.31975818 0.43651184 0
2.6520002 0.31553367 0.43649742 0
2.6500001 0.31115401 0.43646857 0
2.6500001 0.30709544 0.43646857 0
2.6490002 0.30288175 0.43645412 0
2.6490002 0.298825 0.43645412 0
2.6490002 0.29476821 0.43645412 0
2.6500001 0.29086116 0.43646857 0
2.6510003 0.28695053 0.436483 0
2.6520002 0.28303626 0.43649742 0
2.6540003 0.27926269 0.4365263 0
2.6560001 0.27548191 0.43655515 0
2.6580002 0.27169392 0.436584 0
2.6610003 0.26803762 0.4366273 0
2.6640003 0.26437047 0.4366706 0
2.6680002 0.26082778 0.4367283 0
2.6730001 0.25740412 0.43680045 0
2.6800003 0.25422585 0.43690148 0
2.6890001 0.25128201 0.43703136 0
2.9810002 0.28454965 0.44124505 0
2.9820001 0.2800203 0.44125947 0
2.9830003 0.27548733 0.4412739 0
2.9840002 0.27095073 0.44128835 0
2.9850001 0.26641056 0.44130278 0
2.9850001 0.26174772 0.44130278 0
2.9860003 0.25720212 0.4413172 0
2.9870002 0.25265291 0.44133162 0
2.9880002 0.2481001 0.44134605 0
2.9890003 0.24354371 0.4413605 0
2.9890003 0.23887363 0.4413605 0
2.9900002 0.23431179 0.44137493 0
2.9910002 0.22974634 0.44138935 0
2.9920001 0.22517729 0.44140378 0
2.9930003 0.22060466 0.4414182 0
2.9940002 0.21602839 0.44143265 0
2.9940002 0.21134931 0.44143265 0
2.9950001 0.20676765 0.44144708 0
2.9960003 0.20218237 0.4414615 0
2.9970002 0.19759348 0.44147593 0
2.9980001 0.19300097 0.44149035 0
2.9990003 0.18840489 0.44150481 0
2.9990003 0.18371679 0.44150481 0
3.0000002 0.17911527 0.44151923 0
3.0010002 0.17451014 0.44153365 0
3.0020003 0.16990142 0.44154808 0
3.0030003 0.16528907 0.44156253 0
3.0040002 0.16067313 0.44157696 0
3.0040002 0.155976 0.44157696 0
3.0050001 0.15135466 0.44159138 0
3.0060003 0.14672969 0.44160581 0
3.0070002 0.14210112 0.44162023 0
3.0080001 0.13746893 0.44163465 0
2.7250001 0.10078488 0.43755084 0
2.7160003 0.096039087 0.43742096 0
2.7100003 0.091504291 0.43733439 0
2.7060001 0.0871066 0.43727666 0
2.7020001 0.082723349 0.43721893 0
2.7000003 0.07846278 0.43719009 0
2.6970003 0.074157089 0.43714678 0
2.6960001 0.069963217 0.43713236 0
2.6950002 0.06577298 0.43711793 0
2.6940002 0.061586339 0.43710351 0
2.6940002 0.057448398 0.43710351 0
2.6930003 0.053267177 0.43708909 0
2.6940002 0.049172532 0.43710351 0
2.6940002 0.045034591 0.43710351 0
2.6950002 0.040934537 0.43711793 0
2.6960001 0.036830869 0.43713236 0
2.6980002 0.032757875 0.43716124 0
2.7000003 0.028677661 0.43719009 0
2.7030003 0.024620902 0.43723339 0
2.7060001 0.020553302 0.43727666 0
2.7110002 0.016529012 0.43734881 0
2.7160003 0.012486681 0.43742096 0
2.7230003 0.0084732063 0.43752199 0
2.6750002 0.34384805 0.43272567 0
2.6670003 0.33838794 0.43262464 0
2.6620002 0.33345991 0.43256152 0
2.6580002 0.32871589 0.432511 0
2.6550002 0.32415047 0.43247312 0
2.6530001 0.31975818 0.43244788 0
2.6520002 0.31553367 0.43243524 0
2.6500001 0.31115401 0.43241 0
2.6500001 0.30709544 0.43241 0
2.6490002 0.30288175 0.43239737 0
2.6490002 0.298825 0.43239737 0
2.6490002 0.29476821 0.43239737 0
2.6500001 0.29086116 0.43241 0
2.6510003 0.28695053 0.43242261 0
2.6520002 0.28303626 0.43243524 0
2.6540003 0.27926269 0.43246049 0
2.6560001 0.27548191 0.43248576 0
2.6580002 0.27169392 0.432511 0
2.6610003 0.26803762 0.43254888 0
2.6640003 0.26437047 0.43258676 0
2.6680002 0.26082778 0.43263727 0
2.6730001 0.25740412 0.4327004 0
2.6800003 0.25422585 0.43278879 0
2.6890001 0.25128201 0.43290243 0
2.9810002 0.28454965 0.43658942 0
2.9820001 0.2800203 0.43660206 0
2.9830003 0.27548733 0.43661466 0
2.9840002 0.27095073 0.4366273 0
2.9850001 0.26641056 0.43663993 0
2.9850001 0.26174772 0.43663993 0
2.9860003 0.25720212 0.43665254 0
2.9870002 0.25265291 0.43666518 0
2.9880002 0.2481001 0.43667781 0
2.9890003 0.24354371 0.43669042 0
2.9890003 0.23887363 0.43669042 0
2.9900002 0.23431179 0.43670306 0
2.9910002 0.22974634 0.43671569 0
2.9920001 0.22517729 0.4367283 0
2.9930003 0.22060466 0.43674093 0
2.9940002 0.21602839 0.43675357 0
2.9940002 0.21134931 0.43675357 0
2.9950001 0.20676765 0.43676621 0
2.9960003 0.20218237 0.43677881 0
2.9970002 0.19759348 0.43679145 0
2.9980001 0.19300097 0.43680406 0
2.9990003 0.18840489 0.43681669 0
2.9990003 0.18371679 0.43681669 0
3.0000002 0.17911527 0.43682933 0
3.0010002 0.17451014 0.43684196 0
3.0020003 0.16990142 0.43685457 0
3.0030003 0.16528907 0.43686721 0
3.0040002 0.16067313 0.43687981 0
3.0040002 0.155976 0.43687981 0
3.0050001 0.15135466 0.43689245 0
3.0060003 0.14672969 0.43690509 0
3.0070002 0.14210112 0.43691772 0
3.0080001 0.13746893 0.43693033 0
2.7250001 0.10078488 0.433357 0
2.7160003 0.096039087 0.43324336 0
2.7100003 0.091504291 0.43316761 0
2.7060001 0.0871066 0.43311709 0
2.7020001 0.082723349 0.43306658 0
2.7000003 0.07846278 0.43304133 0
2.6970003 0.074157089 0.43300346 0
2.6960001 0.069963217 0.43299082 0
2.6950002 0.06577298 0.43297818 0
2.6940002 0.061586339 0.43296558 0
2.6940002 0.057448398 0.43296558 0
2.6930003 0.053267177 0.43295294 0
2.6940002 0.049172532 0.43296558 0
2.6940002 0.045034591 0.43296558 0
2.6950002 0.040934537 0.43297818 0
2.6960001 0.036830869 0.43299082 0
2.6980002 0.032757875 0.43301606 0
2.7000003 0.028677661 0.43304133 0
2.7030003 0.024620902 0.43307921 0
2.7060001 0.020553302 0.43311709 0
2.7110002 0.016529012 0.43318021 0
2.7160003 0.012486681 0.43324336 0
2.7230003 0.0084732063 0.43333173 0
2.6750002 0.34384805 0.42862201 0
2.6670003 0.33838794 0.4285354 0
2.6620002 0.33345991 0.42848131 0
2.6580002 0.32871589 0.42843801 0
2.6550002 0.32415047 0.42840555 0
2.6530001 0.31975818 0.42838389 0
2.6520002 0.31553367 0.42837307 0
2.6500001 0.31115401 0.42835143 0
2.6500001 0.30709544 0.42835143 0
2.6490002 0.30288175 0.42834061 0
2.6490002 0.298825 0.42834061 0
2.6490002 0.29476821 0.42834061 0
2.6500001 0.29086116 0.42835143 0
2.6510003 0.28695053 0.42836225 0
2.6520002 0.28303626 0.42837307 0
2.6540003 0.27926269 0.42839471 0
2.6560001 0.27548191 0.42841637 0
2.6580002 0.27169392 0.42843801 0
2.6610003 0.26803762 0.42847049 0
2.6640003 0.26437047 0.42850295 0
2.6680002 0.26082778 0.42854625 0
2.6730001 0.25740412 0.42860034 0
2.6800003 0.25422585 0.4286761 0
2.6890001 0.25128201 0.42877352 0
2.9820001 0.2800203 0.43194461 0
2.9830003 0.27548733 0.43195543 0
2.9840002 0.27095073 0.43196625 0
