# .PCD v0.7 - Point Cloud Data file format
VERSION 0.7
FIELDS x y z intensity
SIZE 4 4 4 4
TYPE F F F F
COUNT 1 1 1 1
WIDTH 1254
HEIGHT 1
VIEWPOINT 0 0 0 1 0 0 0
POINTS 1254
DATA ascii
2.7120001 -1.3680182 0.71678036 0
2.7230003 -1.3701179 0.71407825 0
2.7130003 -1.3685901 0.71274346 0
2.7240002 -1.370688 0.71001971 0
2.7140002 -1.3691618 0.70870292 0
2.7250001 -1.3712579 0.70595753 0
2.7160003 -1.3703055 0.70478868 0
2.7260003 -1.371828 0.70189172 0
2.7170002 -1.3708774 0.70073909 0
2.7100003 -1.3710415 0.69984257 0
2.7270002 -1.3723979 0.69782233 0
2.7180002 -1.3714491 0.69668591 0
2.7120001 -1.3721886 0.69592834 0
2.7290001 -1.3735379 0.69387376 0
2.7200003 -1.3725928 0.69275367 0
2.7140002 -1.373336 0.69200689 0
2.7450001 -1.378428 0.69163525 0
2.7300003 -1.374108 0.68979537 0
2.7220001 -1.3737364 0.6888141 0
2.7150002 -1.3739095 0.6879555 0
2.7450001 -1.378428 0.68740535 0
2.7310002 -1.3746779 0.68571335 0
2.7230003 -1.3743082 0.6847465 0
2.7170002 -1.3750567 0.68402141 0
2.7480001 -1.3801326 0.6835326 0
2.7320001 -1.3752478 0.68162775 0
2.7250001 -1.3754518 0.68079436 0
2.7180002 -1.3756304 0.67996103 0
2.7340002 -1.3763878 0.67765576 0
2.7260003 -1.3760235 0.67671776 0
2.7200003 -1.3767776 0.6760143 0
2.7670002 -1.3909285 0.67725527 0
2.7380002 -1.378668 0.6739074 0
2.7280002 -1.3771671 0.67275298 0
2.7220001 -1.3779247 0.67206037 0
2.7710001 -1.3889244 0.67344022 0
2.7640002 -1.3892238 0.67264479 0
2.7430003 -1.381518 0.67025834 0
2.7310002 -1.3788825 0.66889465 0
2.7240002 -1.3790721 0.66809916 0
2.7730002 -1.3900572 0.6693871 0
2.7620003 -1.3880875 0.66815692 0
2.7610002 -1.3917781 0.66804504 0
2.7360003 -1.3817418 0.66524923 0
2.7280002 -1.3813664 0.66435444 0
2.7750001 -1.3911899 0.66532671 0
2.7600002 -1.386951 0.66367626 0
2.7580001 -1.3900679 0.6634562 0
2.7480001 -1.3886033 0.66235584 0
2.7330003 -1.3842345 0.66070539 0
2.7760003 -1.3917564 0.66115093 0
2.7630002 -1.3886557 0.65974396 0
2.7560003 -1.3889281 0.65898633 0
2.7550001 -1.392606 0.65887809 0
2.7420001 -1.3893969 0.65747118 0
2.8000002 -1.4010208 0.6594193 0
2.7790003 -1.3934556 0.65718436 0
2.7670002 -1.3909285 0.65590727 0
2.7570002 -1.389498 0.65484297 0
2.7520001 -1.3908905 0.65431088 0
2.7510002 -1.3945595 0.65420443 0
2.7990003 -1.4004562 0.65498555 0
2.7820003 -1.3951548 0.65320694 0
2.7700002 -1.3926331 0.65195149 0
2.7610002 -1.3917781 0.65100992 0
2.7530003 -1.3914624 0.65017295 0
2.7490003 -1.3934124 0.64975446 0
2.8010001 -1.4015852 0.65086377 0
2.7850003 -1.396854 0.64921874 0
2.7740002 -1.3949058 0.64808774 0
2.7650001 -1.394058 0.64716238 0
2.7570002 -1.3937496 0.64633983 0
2.7510002 -1.3945595 0.64572293 0
2.8030002 -1.4027145 0.64673489 0
2.7880001 -1.3985531 0.64521968 0
2.7780001 -1.3971785 0.6442095 0
2.7690003 -1.3963381 0.64330041 0
2.7620003 -1.3966087 0.64259338 0
2.7550001 -1.3968539 0.64188623 0
2.8040001 -1.4032791 0.64249957 0
2.7920003 -1.4008188 0.64130902 0
2.7820003 -1.3994515 0.64031696 0
2.7730002 -1.3986181 0.63942409 0
2.7660003 -1.3988959 0.63872957 0
2.7590003 -1.3991485 0.63803512 0
2.8270001 -1.4118868 0.64040351 0
2.8070002 -1.4049728 0.63845539 0
2.7950003 -1.402518 0.63728654 0
2.7860003 -1.4017242 0.63640988 0
2.7770002 -1.4008981 0.63553321 0
2.7700002 -1.4011831 0.6348514 0
2.7640002 -1.4020164 0.63426697 0
2.8280003 -1.4124497 0.63612127 0
2.8110001 -1.4072312 0.63449603 0
2.7990003 -1.4047836 0.63334882 0
2.7900002 -1.4039971 0.63248837 0
2.7820003 -1.4037482 0.63172358 0
2.7750001 -1.404042 0.6310544 0
2.7690003 -1.4048845 0.63048077 0
2.8300002 -1.4135753 0.63192922 0
2.8140001 -1.4089251 0.63042843 0
2.8030002 -1.4070491 0.62939668 0
2.7940001 -1.4062699 0.6285525 0
2.7860003 -1.4060282 0.62780213 0
2.7790003 -1.4063294 0.62714553 0
2.7730002 -1.407179 0.62658274 0
2.8310003 -1.4141381 0.62763798 0
2.8170002 -1.4106188 0.62635005 0
2.8070002 -1.4093146 0.62543011 0
2.7980001 -1.4085425 0.62460214 0
2.7910001 -1.4088781 0.62395817 0
2.7840002 -1.4091884 0.6233142 0
2.7780001 -1.4100469 0.62276226 0
2.8330002 -1.4152635 0.62343329 0
2.8210001 -1.4128771 0.62235099 0
2.8110001 -1.4115802 0.62144911 0
2.8020003 -1.4108155 0.62063742 0
2.7950003 -1.4111582 0.62000608 0
2.7880001 -1.4114757 0.61937469 0
2.7830002 -1.4129151 0.61892378 0
2.8550003 -1.4232167 0.62098914 0
2.8370001 -1.4175147 0.61939818 0
2.8240001 -1.4145709 0.61824912 0
2.8150003 -1.4138459 0.61745369 0
2.8060002 -1.4130882 0.61665821 0
2.8000002 -1.4140081 0.61612785 0
2.7930002 -1.4143347 0.61550915 0
2.7880001 -1.4157832 0.61506724 0
2.8570001 -1.4243386 0.61673391 0
2.8400002 -1.4192032 0.61526203 0
2.8280003 -1.4168293 0.61422306 0
2.8190002 -1.4161115 0.61344379 0
2.8110001 -1.4159292 0.61275113 0
2.8040001 -1.4162881 0.61214507 0
2.7980001 -1.4171937 0.61162555 0
2.7930002 -1.4186512 0.61119264 0
2.8590002 -1.4254606 0.61247158 0
2.8440001 -1.4214542 0.61119986 0
2.8320003 -1.4190878 0.61018252 0
2.8230002 -1.4183769 0.60941947 0
2.8160002 -1.4187702 0.60882604 0
2.8090003 -1.4191383 0.60823262 0
2.8030002 -1.4200528 0.60772389 0
2.7970002 -1.4209456 0.60721523 0
2.9100003 -1.4450157 0.61226773 0
2.8910003 -1.4389188 0.61069119 0
2.8610003 -1.4265826 0.60820192 0
2.8470001 -1.4231426 0.60704029 0
2.8370001 -1.4219106 0.60621053 0
2.8270001 -1.4206425 0.60538077 0
2.8200002 -1.421043 0.60479999 0
2.8130002 -1.4214182 0.60421908 0
2.8080003 -1.4229118 0.60380423 0
2.8020003 -1.4238137 0.60330641 0
2.9140003 -1.4427104 0.60806483 0
2.9050002 -1.4422288 0.60733432 0
2.8860002 -1.4361229 0.60579205 0
2.8630002 -1.4277045 0.60392511 0
2.8510003 -1.4253938 0.60295105 0
2.8410003 -1.4241691 0.60213935 0
2.8320003 -1.4234747 0.60140878 0
2.8250003 -1.423884 0.60084057 0
2.8180003 -1.4242682 0.60027242 0
2.8130002 -1.4257708 0.59986651 0
2.8070002 -1.4266818 0.59937948 0
2.9200003 -1.4414983 0.60400629 0
2.9090002 -1.4399325 0.6031332 0
2.9010003 -1.4399992 0.60249829 0
2.8850002 -1.4355637 0.60122842 0
2.8670001 -1.4299483 0.59979975 0
2.8540003 -1.4270822 0.598768 0
2.8450003 -1.4264274 0.59805369 0
2.8360002 -1.4257401 0.59733939 0
2.8290002 -1.4261569 0.59678382 0
2.8230002 -1.4271182 0.59630764 0
2.8170002 -1.428058 0.59583139 0
2.8120003 -1.4295498 0.59543455 0
2.9150002 -1.4387294 0.59907287 0
2.9060001 -1.4382658 0.59837478 0
2.8990002 -1.4388845 0.59783185 0
2.8870003 -1.4366821 0.59690106 0
2.8700001 -1.4316313 0.59558249 0
2.8590002 -1.4298961 0.5947293 0
2.8490002 -1.4286858 0.59395367 0
2.8410003 -1.4285722 0.59333313 0
2.8340001 -1.4289978 0.59279019 0
2.8280003 -1.4299682 0.59232479 0
2.8220003 -1.4309171 0.59185946 0
2.8170002 -1.4324178 0.59147161 0
2.9230001 -1.4386085 0.59514236 0
2.9120002 -1.437068 0.59430897 0
2.9030001 -1.436599 0.59362715 0
2.8970003 -1.4377698 0.59317261 0
2.8890002 -1.4378004 0.59256649 0
2.8740003 -1.4338753 0.59143013 0
2.8630002 -1.4321471 0.59059674 0
2.8530002 -1.4309441 0.58983916 0
2.8460002 -1.431404 0.58930886 0
2.8390002 -1.4318388 0.5887785 0
2.8330002 -1.4328182 0.58832395 0
2.8270001 -1.433776 0.58786941 0
2.8230002 -1.4358596 0.58756638 0
2.9190001 -1.4364007 0.59029549 0
2.9090002 -1.4354067 0.58955598 0
2.9020002 -1.4360435 0.58903825 0
2.8950002 -1.4366549 0.58852059 0
2.8900001 -1.4383595 0.5881508 0
2.8770003 -1.4355583 0.58718938 0
2.8670001 -1.4343983 0.5864498 0
2.8580003 -1.4337671 0.5857842 0
2.8510003 -1.4342362 0.58526653 0
2.8430002 -1.4341116 0.58467484 0
2.8380003 -1.4356683 0.58430505 0
2.8320003 -1.4366351 0.58386135 0
2.8280003 -1.4387276 0.58356553 0
2.9340003 -1.4401093 0.58683401 0
2.9170003 -1.4352968 0.58560741 0
2.9080002 -1.434853 0.58495808 0
2.9010003 -1.435488 0.58445299 0
2.8950002 -1.4366549 0.58402008 0
2.8890002 -1.4378004 0.58358717 0
2.8810003 -1.4378022 0.58300996 0
2.8710003 -1.4366497 0.58228844 0
2.8620002 -1.4360254 0.58163905 0
2.8550003 -1.4365017 0.58113396 0
2.8490002 -1.4375209 0.58070105 0
2.8430002 -1.4385183 0.58026814 0
2.8370001 -1.4394941 0.57983524 0
2.8330002 -1.4415956 0.57954663 0
2.9300003 -1.4379088 0.58198178 0
2.9160001 -1.4347447 0.58099687 0
2.9070003 -1.4342992 0.58036375 0
2.9000001 -1.4349322 0.5798713 0
2.8940003 -1.4360976 0.57944924 0
2.8890002 -1.4378004 0.57909751 0
2.8840003 -1.4394852 0.57874572 0
2.8760002 -1.4394635 0.57818294 0
2.8670001 -1.4388484 0.57754982 0
2.8600001 -1.4393336 0.57705736 0
2.8540003 -1.4403619 0.5766353 0
2.8480003 -1.4413683 0.57621318 0
2.8430002 -1.442925 0.57586145 0
2.8380003 -1.4444637 0.57550973 0
2.9290001 -1.4373585 0.5773496 0
2.9160001 -1.4347447 0.57645851 0
2.9070003 -1.4342992 0.57584161 0
2.9000001 -1.4349322 0.57536179 0
2.8940003 -1.4360976 0.57495058 0
2.8890002 -1.4378004 0.57460779 0
2.8840003 -1.4394852 0.57426506 0
2.8800001 -1.4417146 0.57399088 0
2.8720002 -1.4416714 0.57344258 0
2.8650002 -1.4421657 0.57296276 0
2.8590002 -1.4432027 0.57255149 0
2.8530002 -1.4442183 0.57214022 0
2.8480003 -1.4457841 0.57179749 0
2.8440001 -1.4479053 0.57152331 0
2.9290001 -1.4373585 0.57278776 0
2.9160001 -1.4347447 0.57192016 0
2.9070003 -1.4342992 0.57131946 0
2.9000001 -1.4349322 0.57085228 0
2.8940003 -1.4360976 0.57045186 0
2.8890002 -1.4378004 0.57011813 0
2.8840003 -1.4394852 0.5697844 0
2.8800001 -1.4417146 0.56951743 0
2.8760002 -1.4439298 0.56925046 0
2.8700001 -1.4449975 0.56885004 0
2.8640003 -1.4460438 0.56844962 0
2.8580003 -1.4470683 0.56804919 0
2.8530002 -1.4486431 0.56771547 0
2.8490002 -1.4507734 0.5674485 0
2.9320002 -1.439009 0.56842077 0
2.9170003 -1.4352968 0.56744671 0
2.9080002 -1.434853 0.56686223 0
2.9010003 -1.435488 0.56640768 0
2.8950002 -1.4366549 0.5660181 0
2.8900001 -1.4383595 0.56569338 0
2.8850002 -1.4400461 0.56536871 0
2.8810003 -1.4422776 0.56510895 0
2.8770003 -1.4444944 0.5648492 0
2.8730001 -1.4466968 0.56458944 0
2.8690002 -1.4488848 0.56432968 0
2.8630002 -1.4499184 0.56394005 0
2.8590002 -1.4520739 0.56368035 0
2.8550003 -1.454215 0.56342059 0
2.9190001 -1.4364007 0.56303275 0
2.9100003 -1.4359605 0.56246459 0
2.9020002 -1.4360435 0.56195951 0
2.8960001 -1.4372123 0.56158066 0
2.8910003 -1.4389188 0.56126505 0
2.8860002 -1.4406071 0.56094939 0
2.8820002 -1.4428402 0.56069684 0
2.8780003 -1.4450589 0.5604443 0
2.8740003 -1.4472632 0.56019175 0
2.8700001 -1.4494529 0.55993927 0
2.8670001 -1.4521984 0.55974984 0
2.8640003 -1.454933 0.55956042 0
2.8600001 -1.4570831 0.55930787 0
2.9220002 -1.4380565 0.55867296 0
2.9120002 -1.437068 0.55805969 0
2.9040003 -1.4371547 0.55756903 0
2.8980002 -1.4383271 0.55720103 0
2.8920002 -1.4394779 0.55683309 0
2.8870003 -1.4411682 0.55652642 0
2.8830001 -1.4434029 0.55628109 0
2.8790002 -1.4456234 0.55603576 0
2.8750002 -1.4478296 0.55579048 0
2.8720002 -1.4505894 0.55560648 0
2.8690002 -1.4533384 0.55542248 0
2.8660002 -1.4560766 0.55523849 0
2.8630002 -1.4588039 0.55505455 0
2.9270003 -1.4408164 0.55442142 0
2.9150002 -1.4387294 0.55370706 0
2.9070003 -1.4388214 0.55323088 0
2.9000001 -1.4394418 0.55281419 0
2.8940003 -1.4405963 0.55245703 0
2.8890002 -1.4422901 0.55215943 0
2.8850002 -1.4445287 0.55192131 0
2.8810003 -1.4467527 0.55168319 0
2.8770003 -1.4489625 0.55144513 0
2.8730001 -1.4511576 0.55120701 0
2.8700001 -1.4539083 0.55102843 0
2.8670001 -1.4566483 0.55084985 0
2.8650002 -1.4599512 0.55073082 0
2.9190001 -1.4409444 0.5494014 0
2.9100003 -1.4404881 0.54888189 0
2.9030001 -1.4411139 0.54847783 0
2.8970003 -1.4422739 0.54813153 0
2.8910003 -1.4434121 0.54778516 0
2.8870003 -1.4456543 0.54755431 0
2.8830001 -1.4478818 0.54732341 0
2.8790002 -1.4500951 0.5470925 0
2.8750002 -1.452294 0.54686165 0
2.8720002 -1.4550484 0.54668844 0
2.8690002 -1.457792 0.54651529 0
2.8660002 -1.4605248 0.54634213 0
2.9260001 -1.4448208 0.54524899 0
2.9140003 -1.4427104 0.54457802 0
2.9070003 -1.4433436 0.54418659 0
2.9000001 -1.4439514 0.54379511 0
2.8950002 -1.4456561 0.54351556 0
2.8900001 -1.4473425 0.54323596 0
2.8850002 -1.4490111 0.54295635 0
2.8810003 -1.451228 0.54273272 0
2.8780003 -1.4539987 0.54256499 0
2.8740003 -1.4561884 0.54234129 0
2.8710003 -1.4589356 0.5421735 0
2.8690002 -1.4622456 0.54206169 0
2.9210002 -1.4465994 0.54042202 0
2.9110003 -1.445573 0.53988087 0
2.9040003 -1.4461881 0.53950208 0
2.8980002 -1.4473389 0.53917742 0
2.8930001 -1.4490309 0.53890681 0
2.8880002 -1.4507048 0.53863627 0
2.8840003 -1.4529272 0.53841978 0
2.8810003 -1.4557033 0.53825748 0
2.8770003 -1.4578985 0.538041 0
2.8740003 -1.460651 0.53787869 0
2.8710003 -1.4633929 0.53771633 0
2.9180002 -1.4494746 0.53571773 0
2.9090002 -1.448984 0.53524691 0
2.9020002 -1.4495828 0.53488076 0
2.8970003 -1.4512821 0.53461921 0
2.8920002 -1.4529632 0.53435767 0
2.8880002 -1.4551928 0.5341484 0
2.8840003 -1.4574078 0.53393912 0
2.8800001 -1.4596083 0.53372991 0
2.8770003 -1.4623665 0.53357297 0
2.8750002 -1.4656873 0.53346837 0
2.9170003 -1.4534575 0.53112519 0
2.9090002 -1.4535097 0.53072113 0
2.9020002 -1.454096 0.53036761 0
2.8970003 -1.4557862 0.53011507 0
2.8920002 -1.4574583 0.52986252 0
2.8880002 -1.4596806 0.52966052 0
2.8840003 -1.4618886 0.52945846 0
2.8810003 -1.4646537 0.52930695 0
2.8690002 -1.4622456 0.52870089 0
2.9180002 -1.4585586 0.52663374 0
2.9100003 -1.4585984 0.5262441 0
2.9030001 -1.4591737 0.52590317 0
2.8980002 -1.4608567 0.52565968 0
2.8930001 -1.4625214 0.52541614 0
2.8670001 -1.4521984 0.52414989 0
2.9130001 -1.4648197 0.5218572 0
2.8970003 -1.4602903 0.52110684 0
2.8900001 -1.451834 0.51628709 0
2.8940003 -1.4495938 0.51196873 0
2.9050002 -1.4512658 0.5079264 0
2.8710003 -1.4366497 0.50651586 0
2.8850002 -1.4400461 0.5026142 0
2.9050002 -1.4467473 0.49888936 0
2.8940003 -1.4405963 0.49397397 0
2.8890002 -1.4378004 0.47583488 0
2.8940003 -1.4405963 0.47148049 0
2.9030001 -1.4456289 0.46720904 0
2.8750002 -1.4344363 0.46650195 0
2.9090002 -1.448984 0.46283484 0
2.8860002 -1.4406071 0.46229547 0
2.9090002 -1.448984 0.45830908 0
2.9010003 -1.4490219 0.4581359 0
2.8740003 -1.4383379 0.45755148 0
2.9090002 -1.448984 0.45378333 0
2.9020002 -1.4495828 0.45364442 0
2.8920002 -1.4484681 0.453446 0
2.9090002 -1.448984 0.44925755 0
2.9020002 -1.4495828 0.44913131 0
2.8960001 -1.4507192 0.44902307 0
2.8890002 -1.4512694 0.4488968 0
2.9090002 -1.448984 0.4447318 0
2.9020002 -1.4495828 0.44461817 0
2.8960001 -1.4507192 0.44452077 0
2.8910003 -1.4523987 0.44443959 0
2.8870003 -1.4546264 0.44437465 0
2.9090002 -1.448984 0.44020605 0
2.9020002 -1.4495828 0.44010505 0
2.8960001 -1.4507192 0.44001845 0
2.8910003 -1.4523987 0.43994629 0
2.8870003 -1.4546264 0.4398886 0
2.8830001 -1.4568396 0.43983087 0
2.9020002 -1.4495828 0.43559191 0
2.8960001 -1.4507192 0.43551615 0
2.8910003 -1.4523987 0.43545303 0
2.8870003 -1.4546264 0.43540251 0
2.8830001 -1.4568396 0.435352 0
2.9020002 -1.4495828 0.43107879 0
2.8960001 -1.4507192 0.43101385 0
2.8910003 -1.4523987 0.43095973 0
2.8870003 -1.4546264 0.43091643 0
2.7660003 -1.3818246 0.38266096 0
2.7550001 -1.3798621 0.38276017 0
2.7490003 -1.3807009 0.38281429 0
2.7450001 -1.382658 0.38285035 0
2.7410002 -1.3846008 0.38288644 0
2.7370002 -1.386529 0.38292253 0
2.7660003 -1.3818246 0.37839314 0
2.7550001 -1.3798621 0.3785122 0
2.7490003 -1.3807009 0.37857714 0
2.7450001 -1.382658 0.37862045 0
2.7410002 -1.3846008 0.37866372 0
2.7370002 -1.386529 0.37870702 0
2.7660003 -1.3818246 0.37412533 0
2.7550001 -1.3798621 0.37426424 0
2.7490003 -1.3807009 0.37434 0
2.7450001 -1.382658 0.37439051 0
2.7410002 -1.3846008 0.374441 0
2.7370002 -1.386529 0.37449151 0
2.7660003 -1.3818246 0.36985752 0
2.7550001 -1.3798621 0.37001628 0
2.7490003 -1.3807009 0.37010285 0
2.7450001 -1.382658 0.37016058 0
2.7410002 -1.3846008 0.37021831 0
2.7370002 -1.386529 0.370276 0
2.9090002 -1.448984 0.36326823 0
2.9020002 -1.4495828 0.36338186 0
2.7660003 -1.3818246 0.36558971 0
2.7550001 -1.3798621 0.36576831 0
2.7490003 -1.3807009 0.36586571 0
2.7450001 -1.382658 0.36593065 0
2.7410002 -1.3846008 0.36599559 0
2.7370002 -1.386529 0.36606053 0
2.9090002 -1.448984 0.35874248 0
2.9020002 -1.4495828 0.35886872 0
2.8960001 -1.4507192 0.35897696 0
2.7660003 -1.3818246 0.36132193 0
2.7550001 -1.3798621 0.36152035 0
2.7490003 -1.3807009 0.36162856 0
2.7450001 -1.382658 0.36170071 0
2.7410002 -1.3846008 0.36177287 0
2.7370002 -1.386529 0.36184502 0
2.9200003 -1.4505894 0.35399845 0
2.9090002 -1.448984 0.35421669 0
2.9020002 -1.4495828 0.3543556 0
2.8960001 -1.4507192 0.35447466 0
2.7660003 -1.3818246 0.35705411 0
2.7550001 -1.3798621 0.35727236 0
2.7490003 -1.3807009 0.35739142 0
2.7450001 -1.382658 0.35747078 0
2.7410002 -1.3846008 0.35755014 0
2.7370002 -1.386529 0.35762951 0
2.9200003 -1.4505894 0.34945285 0
2.9090002 -1.448984 0.34969094 0
2.9020002 -1.4495828 0.34984249 0
2.8960001 -1.4507192 0.34997237 0
2.7660003 -1.3818246 0.3527863 0
2.7550001 -1.3798621 0.35302439 0
2.7490003 -1.3807009 0.35315427 0
2.7450001 -1.382658 0.35324085 0
2.7410002 -1.3846008 0.35332742 0
2.7370002 -1.386529 0.353414 0
2.9200003 -1.4505894 0.34490725 0
2.9090002 -1.448984 0.34516519 0
2.9020002 -1.4495828 0.34532934 0
2.8960001 -1.4507192 0.34547004 0
2.7660003 -1.3818246 0.34851849 0
2.7550001 -1.3798621 0.34877643 0
2.7490003 -1.3807009 0.34891713 0
2.7450001 -1.382658 0.34901091 0
2.7410002 -1.3846008 0.34910473 0
2.7370002 -1.386529 0.34919852 0
2.7350001 -1.3895936 0.34924543 0
2.9200003 -1.4505894 0.34036165 0
2.9090002 -1.448984 0.34063944 0
2.9020002 -1.4495828 0.34081623 0
2.8960001 -1.4507192 0.34096774 0
2.7660003 -1.3818246 0.34425068 0
2.7550001 -1.3798621 0.34452847 0
2.7490003 -1.3807009 0.34467998 0
2.7450001 -1.382658 0.34478098 0
2.7410002 -1.3846008 0.34488201 0
2.7370002 -1.386529 0.34498301 0
2.7350001 -1.3895936 0.34503353 0
2.9200003 -1.4505894 0.33581606 0
2.9090002 -1.448984 0.33611369 0
2.9020002 -1.4495828 0.33630309 0
2.8960001 -1.4507192 0.33646542 0
2.7660003 -1.3818246 0.33998287 0
2.7550001 -1.3798621 0.34028047 0
2.7490003 -1.3807009 0.34044284 0
2.7450001 -1.382658 0.34055108 0
2.7410002 -1.3846008 0.34065929 0
2.7370002 -1.386529 0.3407675 0
2.7350001 -1.3895936 0.34082162 0
2.9200003 -1.4505894 0.33127046 0
2.9090002 -1.448984 0.33158794 0
2.9020002 -1.4495828 0.33178997 0
2.8960001 -1.4507192 0.33196312 0
2.7660003 -1.3818246 0.33571506 0
2.7550001 -1.3798621 0.33603251 0
2.7490003 -1.3807009 0.33620569 0
2.7450001 -1.382658 0.33632112 0
2.7410002 -1.3846008 0.33643657 0
2.7370002 -1.386529 0.33655202 0
2.7350001 -1.3895936 0.33660975 0
2.9200003 -1.4505894 0.32672486 0
2.9090002 -1.448984 0.32706219 0
2.9020002 -1.4495828 0.32727683 0
2.8960001 -1.4507192 0.32746083 0
2.7660003 -1.3818246 0.33144724 0
2.7550001 -1.3798621 0.33178455 0
2.7490003 -1.3807009 0.33196855 0
2.7450001 -1.382658 0.33209121 0
2.7410002 -1.3846008 0.33221385 0
2.7370002 -1.386529 0.33233652 0
2.7350001 -1.3895936 0.33239785 0
2.9200003 -1.4505894 0.32217926 0
2.9090002 -1.448984 0.32253641 0
2.9020002 -1.4495828 0.32276371 0
2.8960001 -1.4507192 0.32295853 0
2.7660003 -1.3818246 0.32717943 0
2.7550001 -1.3798621 0.32753658 0
2.7490003 -1.3807009 0.32773137 0
2.7450001 -1.382658 0.32786128 0
2.7410002 -1.3846008 0.32799113 0
2.7370002 -1.386529 0.32812101 0
2.7350001 -1.3895936 0.32818598 0
2.9200003 -1.4505894 0.31763369 0
2.9090002 -1.448984 0.31801069 0
2.9020002 -1.4495828 0.3182506 0
2.8960001 -1.4507192 0.31845623 0
2.7660003 -1.3818246 0.32291162 0
2.7550001 -1.3798621 0.32328862 0
2.7490003 -1.3807009 0.32349426 0
2.7450001 -1.382658 0.32363135 0
2.7410002 -1.3846008 0.32376844 0
2.7370002 -1.386529 0.32390553 0
2.7350001 -1.3895936 0.32397407 0
2.9200003 -1.4505894 0.31308806 0
2.9090002 -1.448984 0.31348491 0
2.9020002 -1.4495828 0.31373745 0
2.8960001 -1.4507192 0.31395391 0
2.7660003 -1.3818246 0.31864381 0
2.7550001 -1.3798621 0.31904066 0
2.7490003 -1.3807009 0.31925711 0
2.7450001 -1.382658 0.31940141 0
2.7410002 -1.3846008 0.31954572 0
2.7370002 -1.386529 0.31969002 0
2.7350001 -1.3895936 0.31976217 0
2.9200003 -1.4505894 0.30854249 0
2.9090002 -1.448984 0.30895916 0
2.9020002 -1.4495828 0.30922431 0
2.8960001 -1.4507192 0.30945161 0
2.7660003 -1.3818246 0.314376 0
2.7550001 -1.3798621 0.31479269 0
2.7490003 -1.3807009 0.31501997 0
2.7450001 -1.382658 0.31517148 0
2.7410002 -1.3846008 0.315323 0
2.7370002 -1.386529 0.31547451 0
2.7350001 -1.3895936 0.31555027 0
2.9200003 -1.4505894 0.30399686 0
2.9090002 -1.448984 0.30443341 0
2.9020002 -1.4495828 0.30471119 0
2.8960001 -1.4507192 0.30494928 0
2.7660003 -1.3818246 0.31010818 0
2.7550001 -1.3798621 0.31054473 0
2.7490003 -1.3807009 0.31078279 0
2.7450001 -1.382658 0.31094155 0
2.7410002 -1.3846008 0.31110027 0
2.7370002 -1.386529 0.31125903 0
2.7350001 -1.3895936 0.31133839 0
2.9200003 -1.4505894 0.29945129 0
2.9090002 -1.448984 0.29990765 0
2.9020002 -1.4495828 0.30019808 0
2.8960001 -1.4507192 0.30044699 0
2.7660003 -1.3818246 0.30584037 0
2.7550001 -1.3798621 0.30629674 0
2.7490003 -1.3807009 0.30654567 0
2.7450001 -1.382658 0.30671161 0
2.7410002 -1.3846008 0.30687755 0
2.7370002 -1.386529 0.30704352 0
2.7350001 -1.3895936 0.30712649 0
2.9200003 -1.4505894 0.29490569 0
2.9090002 -1.448984 0.2953819 0
2.9020002 -1.4495828 0.29568493 0
2.8960001 -1.4507192 0.29594469 0
2.7660003 -1.3818246 0.30157256 0
2.7550001 -1.3798621 0.30204877 0
2.7490003 -1.3807009 0.3023085 0
2.7450001 -1.382658 0.30248171 0
2.7410002 -1.3846008 0.30265486 0
2.7370002 -1.386529 0.30282801 0
2.7350001 -1.3895936 0.30291462 0
2.9200003 -1.4505894 0.29036009 0
2.9090002 -1.448984 0.29085615 0
2.9020002 -1.4495828 0.29117182 0
2.8960001 -1.4507192 0.29144239 0
2.7660003 -1.3818246 0.29730475 0
2.7550001 -1.3798621 0.29780081 0
2.7490003 -1.3807009 0.29807138 0
2.7450001 -1.382658 0.29825175 0
2.7410002 -1.3846008 0.29843214 0
2.7370002 -1.386529 0.29861253 0
2.7350001 -1.3895936 0.29870272 0
2.9200003 -1.4505894 0.28581449 0
2.9090002 -1.448984 0.2863304 0
2.9020002 -1.4495828 0.28665867 0
2.8960001 -1.4507192 0.28694007 0
2.7660003 -1.3818246 0.29303694 0
2.7550001 -1.3798621 0.29355285 0
2.7490003 -1.3807009 0.29383421 0
2.7450001 -1.382658 0.29402184 0
2.7410002 -1.3846008 0.29420942 0
2.7370002 -1.386529 0.294397 0
2.7350001 -1.3895936 0.29449081 0
2.9200003 -1.4505894 0.28126889 0
2.9090002 -1.448984 0.28180462 0
2.9020002 -1.4495828 0.28214556 0
2.8960001 -1.4507192 0.28243777 0
2.7660003 -1.3818246 0.28876913 0
2.7550001 -1.3798621 0.28930488 0
2.7490003 -1.3807009 0.28959709 0
2.7450001 -1.382658 0.28979188 0
2.7410002 -1.3846008 0.28998673 0
2.7370002 -1.386529 0.29018152 0
2.7350001 -1.3895936 0.29027891 0
2.9200003 -1.4505894 0.2767233 0
2.9090002 -1.448984 0.2772789 0
2.9020002 -1.4495828 0.27763242 0
2.8960001 -1.4507192 0.27793548 0
2.7660003 -1.3818246 0.28450131 0
2.7550001 -1.3798621 0.28505689 0
2.7490003 -1.3807009 0.28535995 0
2.7450001 -1.382658 0.28556198 0
2.7410002 -1.3846008 0.28576398 0
2.7370002 -1.386529 0.28596601 0
2.7350001 -1.3895936 0.28606704 0
2.9200003 -1.4505894 0.2721777 0
2.9090002 -1.448984 0.27275312 0
2.9020002 -1.4495828 0.27311927 0
2.8960001 -1.4507192 0.27343315 0
2.7660003 -1.3818246 0.2802335 0
2.7550001 -1.3798621 0.28080893 0
2.7490003 -1.3807009 0.28112277 0
2.7450001 -1.382658 0.28133205 0
2.7410002 -1.3846008 0.28154129 0
2.7370002 -1.386529 0.28175053 0
2.7350001 -1.3895936 0.28185514 0
2.9200003 -1.4505894 0.26763213 0
2.9090002 -1.448984 0.26822737 0
2.9020002 -1.4495828 0.26860619 0
2.8960001 -1.4507192 0.26893085 0
2.7660003 -1.3818246 0.27596569 0
2.7550001 -1.3798621 0.27656096 0
2.7490003 -1.3807009 0.27688563 0
2.7450001 -1.382658 0.27710211 0
2.7410002 -1.3846008 0.27731857 0
2.7370002 -1.386529 0.27753502 0
2.7350001 -1.3895936 0.27764326 0
2.9200003 -1.4505894 0.2630865 0
2.9090002 -1.448984 0.26370162 0
2.9020002 -1.4495828 0.26409304 0
2.8960001 -1.4507192 0.26442856 0
2.7660003 -1.3818246 0.27169788 0
2.7550001 -1.3798621 0.272313 0
2.7490003 -1.3807009 0.27264851 0
2.7450001 -1.382658 0.27287218 0
2.7410002 -1.3846008 0.27309585 0
2.7370002 -1.386529 0.27331951 0
2.7350001 -1.3895936 0.27343136 0
2.9200003 -1.4505894 0.25854093 0
2.9090002 -1.448984 0.25917587 0
2.9020002 -1.4495828 0.2595799 0
2.8960001 -1.4507192 0.25992626 0
2.7660003 -1.3818246 0.26743007 0
2.7550001 -1.3798621 0.26806504 0
2.7490003 -1.3807009 0.26841134 0
2.7450001 -1.382658 0.26864225 0
2.7410002 -1.3846008 0.26887316 0
2.7370002 -1.386529 0.269104 0
2.7350001 -1.3895936 0.26921946 0
2.9200003 -1.4505894 0.25399533 0
2.9090002 -1.448984 0.25465012 0
2.9020002 -1.4495828 0.25506678 0
2.8960001 -1.4507192 0.25542393 0
2.7660003 -1.3818246 0.26316226 0
2.7550001 -1.3798621 0.26381707 0
2.7490003 -1.3807009 0.26417422 0
2.7450001 -1.382658 0.26441231 0
2.7410002 -1.3846008 0.2646504 0
2.7370002 -1.386529 0.26488853 0
2.7350001 -1.3895936 0.26500756 0
2.9200003 -1.4505894 0.24944972 0
2.9090002 -1.448984 0.25012434 0
2.9020002 -1.4495828 0.25055367 0
2.8960001 -1.4507192 0.25092164 0
2.7660003 -1.3818246 0.25889444 0
2.7550001 -1.3798621 0.25956911 0
2.7490003 -1.3807009 0.25993705 0
2.7450001 -1.382658 0.26018238 0
2.7410002 -1.3846008 0.26042771 0
2.7370002 -1.386529 0.26067302 0
2.7350001 -1.3895936 0.26079568 0
2.9200003 -1.4505894 0.24490413 0
2.9090002 -1.448984 0.2455986 0
2.9020002 -1.4495828 0.24604054 0
2.8960001 -1.4507192 0.24641934 0
2.7660003 -1.3818246 0.25462663 0
2.7550001 -1.3798621 0.25532112 0
2.7490003 -1.3807009 0.25569993 0
2.7450001 -1.382658 0.25595245 0
2.7410002 -1.3846008 0.25620496 0
2.7370002 -1.386529 0.25645751 0
2.7350001 -1.3895936 0.25658381 0
2.9200003 -1.4505894 0.24035852 0
2.9090002 -1.448984 0.24107283 0
2.9020002 -1.4495828 0.24152739 0
2.8960001 -1.4507192 0.24191703 0
2.7660003 -1.3818246 0.25035882 0
2.7550001 -1.3798621 0.25107318 0
2.7490003 -1.3807009 0.25146276 0
2.7450001 -1.382658 0.25172251 0
2.7410002 -1.3846008 0.25198227 0
2.7370002 -1.386529 0.25224203 0
2.7350001 -1.3895936 0.25237191 0
2.9200003 -1.4505894 0.23581293 0
2.9090002 -1.448984 0.2365471 0
2.9020002 -1.4495828 0.23701426 0
2.8960001 -1.4507192 0.23741472 0
2.7660003 -1.3818246 0.24609102 0
2.7550001 -1.3798621 0.24682519 0
2.7490003 -1.3807009 0.24722561 0
2.7450001 -1.382658 0.2474926 0
2.7410002 -1.3846008 0.24775955 0
2.7370002 -1.386529 0.24802652 0
2.7350001 -1.3895936 0.24816 0
2.9200003 -1.4505894 0.23126733 0
2.9090002 -1.448984 0.23202133 0
2.9020002 -1.4495828 0.23250115 0
2.8960001 -1.4507192 0.23291242 0
2.7660003 -1.3818246 0.24182323 0
2.7550001 -1.3798621 0.24257722 0
2.7490003 -1.3807009 0.24298848 0
2.7450001 -1.382658 0.24326266 0
2.7410002 -1.3846008 0.24353684 0
2.7370002 -1.386529 0.24381101 0
2.7350001 -1.3895936 0.24394812 0
2.9200003 -1.4505894 0.22672173 0
2.9090002 -1.448984 0.22749557 0
2.9020002 -1.4495828 0.22798802 0
2.8960001 -1.4507192 0.22841011 0
2.7660003 -1.3818246 0.2375554 0
2.7550001 -1.3798621 0.23832925 0
2.7490003 -1.3807009 0.23875134 0
2.7450001 -1.382658 0.23903273 0
2.7410002 -1.3846008 0.23931412 0
2.7370002 -1.386529 0.23959552 0
2.7350001 -1.3895936 0.23973621 0
2.9200003 -1.4505894 0.22217613 0
2.9090002 -1.448984 0.22296983 0
2.9020002 -1.4495828 0.22347489 0
2.8960001 -1.4507192 0.2239078 0
2.7660003 -1.3818246 0.2332876 0
2.7550001 -1.3798621 0.2340813 0
2.7490003 -1.3807009 0.23451419 0
2.7450001 -1.382658 0.2348028 0
2.7410002 -1.3846008 0.23509142 0
2.7370002 -1.386529 0.23538002 0
2.7350001 -1.3895936 0.23552433 0
2.9200003 -1.4505894 0.21763055 0
2.9090002 -1.448984 0.21844406 0
2.9020002 -1.4495828 0.21896176 0
2.8960001 -1.4507192 0.2194055 0
2.7660003 -1.3818246 0.22901979 0
2.7550001 -1.3798621 0.22983332 0
2.7490003 -1.3807009 0.23027705 0
2.7450001 -1.382658 0.23057288 0
2.7410002 -1.3846008 0.2308687 0
2.7370002 -1.386529 0.23116452 0
2.7350001 -1.3895936 0.23131244 0
2.9200003 -1.4505894 0.21308494 0
2.9090002 -1.448984 0.21391831 0
2.9020002 -1.4495828 0.21444863 0
2.8960001 -1.4507192 0.21490319 0
2.7660003 -1.3818246 0.22475198 0
2.7550001 -1.3798621 0.22558534 0
2.7490003 -1.3807009 0.22603989 0
2.7450001 -1.382658 0.22634295 0
2.7410002 -1.3846008 0.22664598 0
2.7370002 -1.386529 0.22694902 0
2.7350001 -1.3895936 0.22710055 0
2.9200003 -1.4505894 0.20853935 0
2.9090002 -1.448984 0.20939256 0
2.9020002 -1.4495828 0.2099355 0
2.8960001 -1.4507192 0.21040089 0
2.7660003 -1.3818246 0.22048417 0
2.7550001 -1.3798621 0.22133738 0
2.7490003 -1.3807009 0.22180274 0
2.7450001 -1.382658 0.22211303 0
2.7410002 -1.3846008 0.22242327 0
2.7370002 -1.386529 0.22273353 0
2.7350001 -1.3895936 0.22288866 0
2.9200003 -1.4505894 0.20399374 0
2.9090002 -1.448984 0.2048668 0
2.9020002 -1.4495828 0.20542237 0
2.8960001 -1.4507192 0.20589858 0
2.7660003 -1.3818246 0.21621637 0
2.7550001 -1.3798621 0.21708941 0
2.7490003 -1.3807009 0.2175656 0
2.7450001 -1.382658 0.2178831 0
2.7410002 -1.3846008 0.21820055 0
2.7370002 -1.386529 0.21851802 0
2.7350001 -1.3895936 0.21867676 0
2.9200003 -1.4505894 0.19944815 0
2.9090002 -1.448984 0.20034105 0
2.9020002 -1.4495828 0.20090924 0
2.8960001 -1.4507192 0.20139629 0
2.7660003 -1.3818246 0.21194854 0
2.7550001 -1.3798621 0.21284145 0
2.7490003 -1.3807009 0.21332845 0
2.7450001 -1.382658 0.21365316 0
2.7410002 -1.3846008 0.21397784 0
2.7370002 -1.386529 0.21430251 0
2.7350001 -1.3895936 0.21446486 0
2.9200003 -1.4505894 0.19490255 0
2.9090002 -1.448984 0.19581529 0
2.9020002 -1.4495828 0.19639613 0
2.8960001 -1.4507192 0.19689398 0
2.7660003 -1.3818246 0.20768073 0
2.7550001 -1.3798621 0.20859347 0
2.7490003 -1.3807009 0.20909132 0
2.7450001 -1.382658 0.20942323 0
2.7410002 -1.3846008 0.20975512 0
2.7370002 -1.386529 0.21008702 0
2.7350001 -1.3895936 0.21025297 0
2.9200003 -1.4505894 0.19035695 0
2.9090002 -1.448984 0.19128954 0
2.9020002 -1.4495828 0.191883 0
2.8960001 -1.4507192 0.19239166 0
2.7660003 -1.3818246 0.20341292 0
2.7550001 -1.3798621 0.20434551 0
2.7490003 -1.3807009 0.20485418 0
2.7450001 -1.382658 0.2051933 0
2.7410002 -1.3846008 0.20553242 0
2.7370002 -1.386529 0.20587152 0
2.7350001 -1.3895936 0.20604108 0
2.9200003 -1.4505894 0.18581137 0
2.9090002 -1.448984 0.18676378 0
2.9020002 -1.4495828 0.18736985 0
2.8960001 -1.4507192 0.18788937 0
2.7660003 -1.3818246 0.19914511 0
2.7550001 -1.3798621 0.20009755 0
2.7490003 -1.3807009 0.20061702 0
2.7450001 -1.382658 0.20096338 0
2.7410002 -1.3846008 0.2013097 0
2.7370002 -1.386529 0.20165601 0
2.7350001 -1.3895936 0.2018292 0
2.9200003 -1.4505894 0.18126577 0
2.9090002 -1.448984 0.18223803 0
2.9020002 -1.4495828 0.18285672 0
2.8960001 -1.4507192 0.18338706 0
2.7660003 -1.3818246 0.19487731 0
2.7550001 -1.3798621 0.19584957 0
2.7490003 -1.3807009 0.19637987 0
2.7450001 -1.382658 0.19673344 0
2.7410002 -1.3846008 0.19708697 0
2.7370002 -1.386529 0.19744052 0
2.7350001 -1.3895936 0.19761731 0
2.9200003 -1.4505894 0.17672017 0
2.9090002 -1.448984 0.17771228 0
2.9020002 -1.4495828 0.17834361 0
2.8960001 -1.4507192 0.17888474 0
2.7660003 -1.3818246 0.19060948 0
2.7550001 -1.3798621 0.1916016 0
2.7490003 -1.3807009 0.19214272 0
2.7450001 -1.382658 0.19250351 0
2.7410002 -1.3846008 0.19286427 0
2.7370002 -1.386529 0.19322503 0
2.7350001 -1.3895936 0.19340542 0
2.9200003 -1.4505894 0.17217459 0
2.9090002 -1.448984 0.17318653 0
2.9020002 -1.4495828 0.17383048 0
2.8960001 -1.4507192 0.17438245 0
2.7660003 -1.3818246 0.18634169 0
2.7550001 -1.3798621 0.18735363 0
2.7490003 -1.3807009 0.18790558 0
2.7450001 -1.382658 0.18827358 0
2.7410002 -1.3846008 0.18864155 0
2.7370002 -1.386529 0.18900953 0
2.7350001 -1.3895936 0.18919352 0
2.9200003 -1.4505894 0.16762897 0
2.9090002 -1.448984 0.16866077 0
2.9020002 -1.4495828 0.16931735 0
2.8960001 -1.4507192 0.16988014 0
2.7660003 -1.3818246 0.18207386 0
2.7550001 -1.3798621 0.18310568 0
2.7490003 -1.3807009 0.18366843 0
2.7450001 -1.382658 0.18404365 0
2.7410002 -1.3846008 0.18441884 0
2.7370002 -1.386529 0.18479401 0
2.7350001 -1.3895936 0.18498163 0
2.9200003 -1.4505894 0.16308337 0
2.9090002 -1.448984 0.16413501 0
2.9020002 -1.4495828 0.16480422 0
2.8960001 -1.4507192 0.16537783 0
2.7660003 -1.3818246 0.17780606 0
2.7550001 -1.3798621 0.1788577 0
2.7490003 -1.3807009 0.17943129 0
2.7450001 -1.382658 0.17981371 0
2.7410002 -1.3846008 0.18019612 0
2.7370002 -1.386529 0.18057851 0
2.7350001 -1.3895936 0.18076973 0
2.9200003 -1.4505894 0.15853778 0
2.9090002 -1.448984 0.15960924 0
2.9020002 -1.4495828 0.16029111 0
2.8960001 -1.4507192 0.16087554 0
2.7660003 -1.3818246 0.17353825 0
2.7550001 -1.3798621 0.17460974 0
2.7490003 -1.3807009 0.17519414 0
2.7450001 -1.382658 0.17558378 0
2.7410002 -1.3846008 0.17597342 0
2.7370002 -1.386529 0.17636302 0
2.7350001 -1.3895936 0.17655784 0
2.9200003 -1.4505894 0.15399221 0
2.9090002 -1.448984 0.15508349 0
2.9020002 -1.4495828 0.15577798 0
2.8960001 -1.4507192 0.15637323 0
2.7660003 -1.3818246 0.16927046 0
2.7550001 -1.3798621 0.17036177 0
2.7490003 -1.3807009 0.17095701 0
2.7450001 -1.382658 0.17135385 0
2.7410002 -1.3846008 0.17175069 0
2.7370002 -1.386529 0.17214753 0
2.7350001 -1.3895936 0.17234595 0
2.9200003 -1.4505894 0.14944658 0
2.9090002 -1.448984 0.15055776 0
2.9020002 -1.4495828 0.15126485 0
2.8960001 -1.4507192 0.15187094 0
2.7660003 -1.3818246 0.16500264 0
2.7550001 -1.3798621 0.16611379 0
2.7490003 -1.3807009 0.16671987 0
2.7450001 -1.382658 0.16712391 0
2.7410002 -1.3846008 0.16752797 0
2.7370002 -1.386529 0.16793202 0
2.7350001 -1.3895936 0.16813405 0
2.9200003 -1.4505894 0.14490098 0
2.9090002 -1.448984 0.14603201 0
2.9020002 -1.4495828 0.14675173 0
2.8960001 -1.4507192 0.14736861 0
2.7660003 -1.3818246 0.16073482 0
2.7550001 -1.3798621 0.16186583 0
2.7490003 -1.3807009 0.16248272 0
2.7450001 -1.382658 0.16289398 0
2.7410002 -1.3846008 0.16330524 0
2.7370002 -1.386529 0.16371651 0
2.7350001 -1.3895936 0.16392216 0
2.9200003 -1.4505894 0.14035538 0
2.9090002 -1.448984 0.14150622 0
2.9020002 -1.4495828 0.14223856 0
2.8960001 -1.4507192 0.14286631 0
2.7660003 -1.3818246 0.15646701 0
2.7550001 -1.3798621 0.15761787 0
2.7490003 -1.3807009 0.15824555 0
2.7450001 -1.382658 0.15866408 0
2.7410002 -1.3846008 0.15908255 0
2.7370002 -1.386529 0.15950103 0
2.7350001 -1.3895936 0.15971026 0
2.9200003 -1.4505894 0.13580981 0
2.9090002 -1.448984 0.13698047 0
2.9020002 -1.4495828 0.13772544 0
2.8960001 -1.4507192 0.13836399 0
2.7660003 -1.3818246 0.15219921 0
2.7550001 -1.3798621 0.15336987 0
2.7490003 -1.3807009 0.1540084 0
2.7450001 -1.382658 0.15443414 0
2.7410002 -1.3846008 0.15485983 0
2.7370002 -1.386529 0.15528552 0
2.7350001 -1.3895936 0.15549839 0
2.9200003 -1.4505894 0.13126421 0
2.9090002 -1.448984 0.13245472 0
2.9020002 -1.4495828 0.13321233 0
2.8960001 -1.4507192 0.13386169 0
2.7660003 -1.3818246 0.1479314 0
2.7550001 -1.3798621 0.14912191 0
2.7490003 -1.3807009 0.14977127 0
2.7450001 -1.382658 0.15020421 0
2.7410002 -1.3846008 0.15063712 0
2.7370002 -1.386529 0.15107003 0
2.7350001 -1.3895936 0.15128648 0
2.9200003 -1.4505894 0.12671861 0
2.9090002 -1.448984 0.12792897 0
2.9020002 -1.4495828 0.12869918 0
2.8960001 -1.4507192 0.12935939 0
2.7660003 -1.3818246 0.14366359 0
2.7550001 -1.3798621 0.14487395 0
2.7490003 -1.3807009 0.14553413 0
2.7450001 -1.382658 0.14597428 0
2.7410002 -1.3846008 0.1464144 0
2.7370002 -1.386529 0.14685452 0
2.7350001 -1.3895936 0.14707461 0
2.9200003 -1.4505894 0.12217298 0
2.9090002 -1.448984 0.12340322 0
2.9020002 -1.4495828 0.12418607 0
2.8960001 -1.4507192 0.1248571 0
2.7660003 -1.3818246 0.13939577 0
2.7550001 -1.3798621 0.14062598 0
2.7490003 -1.3807009 0.14129698 0
2.7450001 -1.382658 0.14174435 0
2.7410002 -1.3846008 0.14219171 0
2.7370002 -1.386529 0.14263901 0
2.7350001 -1.3895936 0.14286271 0
2.9200003 -1.4505894 0.11762741 0
2.9090002 -1.448984 0.11887747 0
2.9020002 -1.4495828 0.11967292 0
2.8960001 -1.4507192 0.1203548 0
2.7660003 -1.3818246 0.13512796 0
2.7550001 -1.3798621 0.13637802 0
2.7490003 -1.3807009 0.13705984 0
2.7450001 -1.382658 0.13751441 0
2.7410002 -1.3846008 0.13796899 0
2.7370002 -1.386529 0.13842353 0
2.7350001 -1.3895936 0.13865083 0
2.9200003 -1.4505894 0.11308181 0
2.9090002 -1.448984 0.11435172 0
2.9020002 -1.4495828 0.11515981 0
2.8960001 -1.4507192 0.11585248 0
2.7660003 -1.3818246 0.13086015 0
2.7550001 -1.3798621 0.13213006 0
2.7490003 -1.3807009 0.13282269 0
2.7450001 -1.382658 0.13328448 0
2.7410002 -1.3846008 0.13374627 0
2.7370002 -1.386529 0.13420802 0
2.7350001 -1.3895936 0.13443893 0
2.9200003 -1.4505894 0.10853621 0
2.9090002 -1.448984 0.10982594 0
2.9020002 -1.4495828 0.11064669 0
2.8960001 -1.4507192 0.11135018 0
2.7660003 -1.3818246 0.12659234 0
2.7550001 -1.3798621 0.12788209 0
2.7490003 -1.3807009 0.12858555 0
2.7450001 -1.382658 0.12905455 0
2.7410002 -1.3846008 0.12952355 0
2.7370002 -1.386529 0.12999251 0
2.7350001 -1.3895936 0.13022703 0
2.9200003 -1.4505894 0.10399064 0
2.9090002 -1.448984 0.10530019 0
2.9020002 -1.4495828 0.10613355 0
2.8960001 -1.4507192 0.10684785 0
2.7660003 -1.3818246 0.12232453 0
2.7550001 -1.3798621 0.1236341 0
2.7490003 -1.3807009 0.1243484 0
2.7450001 -1.382658 0.12482461 0
2.7410002 -1.3846008 0.12530082 0
2.7370002 -1.386529 0.12577704 0
2.7350001 -1.3895936 0.12601513 0
2.9200003 -1.4505894 0.099445015 0
2.9090002 -1.448984 0.10077447 0
2.9020002 -1.4495828 0.10162044 0
2.8960001 -1.4507192 0.10234556 0
2.7660003 -1.3818246 0.11805671 0
2.7550001 -1.3798621 0.11938614 0
2.7490003 -1.3807009 0.12011126 0
2.7450001 -1.382658 0.12059468 0
2.7410002 -1.3846008 0.1210781 0
2.7370002 -1.386529 0.12156153 0
2.7350001 -1.3895936 0.12180322 0
2.9200003 -1.4505894 0.094899416 0
2.9090002 -1.448984 0.096248686 0
2.9020002 -1.4495828 0.097107321 0
2.8960001 -1.4507192 0.09784326 0
2.7660003 -1.3818246 0.1137889 0
2.7550001 -1.3798621 0.11513817 0
2.7490003 -1.3807009 0.11587411 0
2.7450001 -1.382658 0.11636475 0
2.7410002 -1.3846008 0.11685538 0
2.7370002 -1.386529 0.11734602 0
2.7350001 -1.3895936 0.11759135 0
2.9200003 -1.4505894 0.090353817 0
2.9090002 -1.448984 0.091722935 0
2.9020002 -1.4495828 0.092594177 0
2.8960001 -1.4507192 0.093340963 0
2.7660003 -1.3818246 0.10952109 0
2.7550001 -1.3798621 0.11089021 0
2.7490003 -1.3807009 0.11163697 0
2.7450001 -1.382658 0.11213481 0
2.7410002 -1.3846008 0.11263266 0
2.7370002 -1.386529 0.11313054 0
2.7350001 -1.3895936 0.11337945 0
2.9200003 -1.4505894 0.085808247 0
2.9090002 -1.448984 0.087197185 0
2.9020002 -1.4495828 0.088081062 0
2.8960001 -1.4507192 0.088838667 0
2.7660003 -1.3818246 0.10525328 0
2.7550001 -1.3798621 0.10664222 0
2.7490003 -1.3807009 0.10739982 0
2.7450001 -1.382658 0.10790488 0
2.7410002 -1.3846008 0.10840994 0
2.7370002 -1.386529 0.10891503 0
2.7350001 -1.3895936 0.10916758 0
2.9200003 -1.4505894 0.081262648 0
2.9090002 -1.448984 0.082671434 0
2.9020002 -1.4495828 0.083567917 0
2.8960001 -1.4507192 0.08433634 0
2.7660003 -1.3818246 0.1009855 0
2.7550001 -1.3798621 0.10239428 0
2.7490003 -1.3807009 0.10316265 0
2.7450001 -1.382658 0.10367498 0
2.7410002 -1.3846008 0.10418725 0
2.7370002 -1.386529 0.10469952 0
2.7350001 -1.3895936 0.10495567 0
2.9200003 -1.4505894 0.076717019 0
2.9090002 -1.448984 0.078145653 0
2.9020002 -1.4495828 0.079054773 0
2.8960001 -1.4507192 0.079834044 0
2.7660003 -1.3818246 0.096717656 0
2.7550001 -1.3798621 0.098146319 0
2.7490003 -1.3807009 0.098925501 0
2.7450001 -1.382658 0.099445045 0
2.7410002 -1.3846008 0.099964529 0
2.7370002 -1.386529 0.10048401 0
2.7350001 -1.3895936 0.1007438 0
2.9160001 -1.4483598 0.072698176 0
2.9090002 -1.448984 0.073619932 0
2.9020002 -1.4495828 0.074541658 0
2.8960001 -1.4507192 0.075331718 0
2.7660003 -1.3818246 0.092449844 0
2.7550001 -1.3798621 0.093898326 0
2.7490003 -1.3807009 0.094688356 0
2.7450001 -1.382658 0.095215112 0
2.7410002 -1.3846008 0.095741808 0
2.7370002 -1.386529 0.096268505 0
2.7350001 -1.3895936 0.096531898 0
2.9140003 -1.4472451 0.068426728 0
2.8840003 -1.4350045 0.072431207 0
2.8830001 -1.4389241 0.072564691 0
2.8830001 -1.4434029 0.072564691 0
2.7660003 -1.3818246 0.088182032 0
2.7550001 -1.3798621 0.089650363 0
2.7490003 -1.3807009 0.090451211 0
2.7450001 -1.382658 0.090985179 0
2.7410002 -1.3846008 0.091519088 0
2.7370002 -1.386529 0.092053026 0
2.7350001 -1.3895936 0.092319995 0
2.9140003 -1.4472451 0.063891947 0
2.8840003 -1.4350045 0.067950517 0
2.8800001 -1.4372412 0.068491697 0
2.8790002 -1.4411519 0.06862697 0
2.7660003 -1.3818246 0.08391425 0
2.7550001 -1.3798621 0.085402399 0
2.7490003 -1.3807009 0.086214095 0
2.7450001 -1.382658 0.086755246 0
2.7410002 -1.3846008 0.087296367 0
2.7370002 -1.386529 0.087837517 0
2.7350001 -1.3895936 0.088108122 0
2.9140003 -1.4472451 0.059357196 0
2.8840003 -1.4350045 0.063469887 0
2.8800001 -1.4372412 0.06401825 0
2.8790002 -1.4411519 0.06415534 0
2.7660003 -1.3818246 0.079646438 0
2.7550001 -1.3798621 0.081154436 0
2.7490003 -1.3807009 0.08197695 0
2.7450001 -1.382658 0.082525313 0
2.7410002 -1.3846008 0.083073676 0
2.7370002 -1.386529 0.083622009 0
2.7350001 -1.3895936 0.08389622 0
2.9140003 -1.4472451 0.054822415 0
2.8840003 -1.4350045 0.058989197 0
2.8800001 -1.4372412 0.059544802 0
2.8790002 -1.4411519 0.059683681 0
2.7660003 -1.3818246 0.075378627 0
2.7550001 -1.3798621 0.076906443 0
2.7490003 -1.3807009 0.077739805 0
2.7450001 -1.382658 0.07829538 0
2.7410002 -1.3846008 0.078850955 0
2.7370002 -1.386529 0.07940653 0
2.7350001 -1.3895936 0.079684317 0
2.9140003 -1.4472451 0.050287634 0
2.8840003 -1.4350045 0.054508567 0
2.8800001 -1.4372412 0.055071354 0
2.8790002 -1.4411519 0.055212051 0
2.7660003 -1.3818246 0.071110785 0
2.7550001 -1.3798621 0.072658479 0
2.7490003 -1.3807009 0.07350266 0
2.7450001 -1.382658 0.074065447 0
2.7410002 -1.3846008 0.074628234 0
2.7370002 -1.386529 0.075191021 0
2.7350001 -1.3895936 0.075472414 0
2.8840003 -1.4350045 0.050027877 0
2.8800001 -1.4372412 0.050597936 0
2.8790002 -1.4411519 0.050740421 0
2.7660003 -1.3818246 0.066842973 0
2.7550001 -1.3798621 0.068410516 0
2.7490003 -1.3807009 0.069265515 0
2.7450001 -1.382658 0.069835514 0
2.7410002 -1.3846008 0.070405513 0
2.7370002 -1.386529 0.070975512 0
2.7350001 -1.3895936 0.071260542 0
2.7660003 -1.3818246 0.062575191 0
2.7550001 -1.3798621 0.064162582 0
2.7490003 -1.3807009 0.065028369 0
2.7450001 -1.382658 0.065605581 0
2.7410002 -1.3846008 0.066182822 0
2.7370002 -1.386529 0.066760033 0
2.7350001 -1.3895936 0.067048639 0
2.7660003 -1.3818246 0.058307379 0
2.7560003 -1.3804286 0.059768468 0
2.7490003 -1.3807009 0.060791224 0
2.7450001 -1.382658 0.061375648 0
2.7410002 -1.3846008 0.061960101 0
2.7370002 -1.386529 0.062544525 0
2.7350001 -1.3895936 0.062836736 0
2.7660003 -1.3818246 0.054039568 0
2.7560003 -1.3804286 0.055518687 0
2.7490003 -1.3807009 0.056554079 0
2.7450001 -1.382658 0.057145745 0
2.7410002 -1.3846008 0.05773738 0
2.7370002 -1.386529 0.058329016 0
2.7350001 -1.3895936 0.058624864 0
2.7560003 -1.3804286 0.051268905 0
2.7490003 -1.3807009 0.052316934 0
2.7450001 -1.382658 0.052915812 0
2.7410002 -1.3846008 0.053514659 0
2.7370002 -1.386529 0.054113537 0
2.7350001 -1.3895936 0.054412961 0
2.7350001 -1.3895936 0.050201088 0
