# .PCD v0.7 - Point Cloud Data file format
VERSION 0.7
FIELDS x y z intensity
SIZE 4 4 4 4
TYPE F F F F
COUNT 1 1 1 1
WIDTH 1393
HEIGHT 1
VIEWPOINT 0 0 0 1 0 0 0
POINTS 1393
DATA ascii
4.1100001 0.0075370297 0.77875924 0
4.1030002 0.00075651333 0.77805209 0
4.0970001 -0.0059879273 0.77744603 0
4.0910001 -0.012710717 0.77683997 0
4.0840001 -0.019419082 0.77613288 0
4.0780001 -0.02609678 0.77552676 0
4.072 -0.032752834 0.7749207 0
4.0650001 -0.039389044 0.77421361 0
4.059 -0.046 0.77360749 0
4.053 -0.052589312 0.77300143 0
4.046 -0.059153371 0.7722944 0
4.04 -0.065697581 0.77168828 0
4.0339999 -0.072220154 0.77108216 0
4.0280004 -0.078721084 0.7704761 0
4.0220003 -0.085200362 0.76987004 0
4.0160003 -0.091657996 0.76926398 0
4.0090003 -0.098079547 0.76855683 0
4.0030003 -0.10449209 0.76795077 0
3.9970002 -0.11088298 0.76734471 0
3.9910002 -0.11725223 0.76673865 0
3.9850004 -0.12359983 0.76613259 0
3.9790003 -0.12992579 0.76552647 0
3.9730003 -0.1362301 0.76492041 0
3.9670002 -0.14251275 0.76431429 0
3.9610002 -0.14877377 0.76370823 0
3.9550002 -0.15501314 0.76310217 0
3.9490004 -0.16123088 0.76249611 0
3.9440002 -0.16746123 0.76199102 0
3.9380002 -0.17363748 0.76138496 0
3.9320002 -0.17979208 0.76077884 0
3.9260004 -0.18592502 0.76017278 0
3.9200003 -0.19203633 0.75956666 0
3.9140003 -0.19812597 0.7589606 0
3.9090002 -0.20423907 0.75845551 0
3.9030004 -0.21028724 0.75784945 0
3.8970003 -0.21631378 0.75724339 0
3.8910003 -0.22231865 0.75663733 0
3.8970003 -0.22892962 0.75724339 0
3.9040003 -0.23561633 0.75795048 0
3.9110003 -0.24232829 0.75865757 0
3.9180002 -0.24906552 0.75936466 0
4.059 -0.26380444 0.77360749 0
4.053 -0.27003658 0.77300143 0
4.0480003 -0.27631024 0.7724964 0
4.0440001 -0.28263077 0.77209234 0
4.0410004 -0.28900364 0.77178931 0
4.039 -0.29543421 0.77158725 0
4.0380001 -0.30192792 0.77148628 0
4.0370002 -0.30841804 0.77138519 0
4.0380001 -0.31505242 0.77148628 0
4.04 -0.3217662 0.77168828 0
4.0430002 -0.32856476 0.77199131 0
4.0469999 -0.33545348 0.77239537 0
4.053 -0.34251902 0.77300143 0
4.0630002 -0.34993806 0.77401161 0
4.0900002 -0.35883448 0.77673894 0
4.0910001 -0.3655771 0.77683997 0
4.0929999 -0.37241173 0.77704197 0
4.0960002 -0.37934375 0.77734506 0
4.1010003 -0.38647062 0.77785009 0
4.1070004 -0.3937093 0.77845621 0
4.1160002 -0.40125641 0.7793653 0
4.1620002 0.062574819 0.77722597 0
4.1560001 0.05562656 0.77663076 0
4.1490002 0.048674677 0.77593625 0
4.1420002 0.041748051 0.77524179 0
4.1360002 0.034868326 0.77464652 0
4.1290002 0.027990405 0.77395201 0
4.1230001 0.021155786 0.7733568 0
4.1160002 0.014326561 0.77266234 0
4.1100001 0.0075370297 0.77206707 0
4.1030002 0.00075651333 0.77137262 0
4.0970001 -0.0059879273 0.77077734 0
4.0910001 -0.012710717 0.77018213 0
4.0840001 -0.019419082 0.76948762 0
4.0780001 -0.02609678 0.76889241 0
4.072 -0.032752834 0.76829708 0
4.0650001 -0.039389044 0.76760268 0
4.059 -0.046 0.76700741 0
4.053 -0.052589312 0.76641214 0
4.046 -0.059153371 0.76571769 0
4.04 -0.065697581 0.76512241 0
4.0339999 -0.072220154 0.7645272 0
4.0280004 -0.078721084 0.76393187 0
4.0220003 -0.085200362 0.76333666 0
4.0160003 -0.091657996 0.76274139 0
4.0090003 -0.098079547 0.76204693 0
4.0030003 -0.10449209 0.76145166 0
3.9970002 -0.11088298 0.76085639 0
3.9910002 -0.11725223 0.76026118 0
3.9850004 -0.12359983 0.75966591 0
3.9790003 -0.12992579 0.75907063 0
3.9730003 -0.1362301 0.75847542 0
3.9670002 -0.14251275 0.75788015 0
3.9610002 -0.14877377 0.75728488 0
3.9550002 -0.15501314 0.75668961 0
3.9490004 -0.16123088 0.75609434 0
3.9440002 -0.16746123 0.75559831 0
3.9380002 -0.17363748 0.75500309 0
3.9320002 -0.17979208 0.75440776 0
3.9260004 -0.18592502 0.75381255 0
3.9200003 -0.19203633 0.75321728 0
3.9140003 -0.19812597 0.75262201 0
3.9090002 -0.20423907 0.75212598 0
3.9030004 -0.21028724 0.75153077 0
3.8970003 -0.21631378 0.75093544 0
3.8910003 -0.22231865 0.75034022 0
3.8970003 -0.22892962 0.75093544 0
3.9040003 -0.23561633 0.75162995 0
3.9110003 -0.24232829 0.7523244 0
3.9180002 -0.24906552 0.75301886 0
4.059 -0.26380444 0.76700741 0
4.053 -0.27003658 0.76641214 0
4.0480003 -0.27631024 0.76591611 0
4.0440001 -0.28263077 0.76551926 0
4.0410004 -0.28900364 0.76522166 0
4.039 -0.29543421 0.76502323 0
4.0380001 -0.30192792 0.76492405 0
4.0370002 -0.30841804 0.76482475 0
4.0380001 -0.31505242 0.76492405 0
4.04 -0.3217662 0.76512241 0
4.0430002 -0.32856476 0.76542008 0
4.0469999 -0.33545348 0.76581693 0
4.053 -0.34251902 0.76641214 0
4.0630002 -0.34993806 0.7674042 0
4.092 -0.35900402 0.77028131 0
4.0929999 -0.36575025 0.7703805 0
4.0950003 -0.37258852 0.77057898 0
4.098 -0.37952414 0.77087659 0
4.1020002 -0.38656259 0.77127337 0
4.1070004 -0.3937093 0.77176946 0
4.1150002 -0.40116081 0.7725631 0
4.1620002 0.062574819 0.77044004 0
4.1560001 0.05562656 0.76985562 0
4.1490002 0.048674677 0.76917374 0
4.1420002 0.041748051 0.76849192 0
4.1360002 0.034868326 0.7679075 0
4.1290002 0.027990405 0.76722562 0
4.1230001 0.021155786 0.76664126 0
4.1160002 0.014326561 0.76595938 0
4.1100001 0.0075370297 0.76537496 0
4.1030002 0.00075651333 0.76469314 0
4.0970001 -0.0059879273 0.76410866 0
4.0910001 -0.012710717 0.76352429 0
4.0840001 -0.019419082 0.76284242 0
4.0780001 -0.02609678 0.76225799 0
4.072 -0.032752834 0.76167357 0
4.0650001 -0.039389044 0.76099169 0
4.059 -0.046 0.76040727 0
4.053 -0.052589312 0.75982285 0
4.046 -0.059153371 0.75914097 0
4.04 -0.065697581 0.7585566 0
4.0339999 -0.072220154 0.75797212 0
4.0280004 -0.078721084 0.7573877 0
4.0220003 -0.085200362 0.75680327 0
4.0160003 -0.091657996 0.75621879 0
4.0090003 -0.098079547 0.75553703 0
4.0030003 -0.10449209 0.75495255 0
3.9970002 -0.11088298 0.75436813 0
3.9910002 -0.11725223 0.7537837 0
3.9850004 -0.12359983 0.75319922 0
3.9790003 -0.12992579 0.75261486 0
3.9730003 -0.1362301 0.75203037 0
3.9670002 -0.14251275 0.75144595 0
3.9610002 -0.14877377 0.75086153 0
3.9550002 -0.15501314 0.75027704 0
3.9490004 -0.16123088 0.74969268 0
3.9440002 -0.16746123 0.74920559 0
3.9380002 -0.17363748 0.74862117 0
3.9320002 -0.17979208 0.74803674 0
3.9260004 -0.18592502 0.74745232 0
3.9200003 -0.19203633 0.7468679 0
3.9140003 -0.19812597 0.74628341 0
3.9090002 -0.20423907 0.74579644 0
3.9030004 -0.21028724 0.74521196 0
3.8970003 -0.21631378 0.74462759 0
3.8910003 -0.22231865 0.74404311 0
3.8970003 -0.22892962 0.74462759 0
3.9040003 -0.23561633 0.74530935 0
3.9110003 -0.24232829 0.74599123 0
3.9180002 -0.24906552 0.74667305 0
4.059 -0.26380444 0.76040727 0
4.053 -0.27003658 0.75982285 0
4.0480003 -0.27631024 0.75933582 0
4.0440001 -0.28263077 0.75894618 0
4.0410004 -0.28900364 0.758654 0
4.039 -0.29543421 0.75845915 0
4.0380001 -0.30192792 0.75836176 0
4.0370002 -0.30841804 0.7582643 0
4.0380001 -0.31505242 0.75836176 0
4.04 -0.3217662 0.7585566 0
4.0430002 -0.32856476 0.75884879 0
4.0469999 -0.33545348 0.75923836 0
4.053 -0.34251902 0.75982285 0
4.0630002 -0.34993806 0.7607969 0
4.0950003 -0.35925835 0.76391387 0
4.0950003 -0.36592343 0.76391387 0
4.0970001 -0.3727653 0.76410866 0
4.099 -0.37961435 0.76430345 0
4.1030002 -0.38665459 0.76469314 0
4.1080003 -0.39380309 0.76518011 0
4.1150002 -0.40116081 0.76586199 0
4.1259999 -0.40893343 0.76693344 0
4.1620002 0.062574819 0.76365411 0
4.1560001 0.05562656 0.76308048 0
4.1490002 0.048674677 0.7624113 0
4.1420002 0.041748051 0.76174212 0
4.1360002 0.034868326 0.76116848 0
4.1290002 0.027990405 0.76049924 0
4.1230001 0.021155786 0.75992566 0
4.1160002 0.014326561 0.75925642 0
4.1100001 0.0075370297 0.75868285 0
4.1030002 0.00075651333 0.75801361 0
4.0970001 -0.0059879273 0.75743997 0
4.0910001 -0.012710717 0.7568664 0
4.0840001 -0.019419082 0.75619721 0
4.0780001 -0.02609678 0.75562358 0
4.072 -0.032752834 0.75504994 0
4.0650001 -0.039389044 0.7543807 0
4.059 -0.046 0.75380713 0
4.053 -0.052589312 0.75323355 0
4.046 -0.059153371 0.75256431 0
4.04 -0.065697581 0.75199068 0
4.0339999 -0.072220154 0.75141704 0
4.0280004 -0.078721084 0.75084352 0
4.0220003 -0.085200362 0.75026989 0
4.0160003 -0.091657996 0.74969625 0
4.0090003 -0.098079547 0.74902701 0
4.0030003 -0.10449209 0.74845344 0
3.9970002 -0.11088298 0.7478798 0
3.9910002 -0.11725223 0.74730623 0
3.9850004 -0.12359983 0.74673259 0
3.9790003 -0.12992579 0.74615896 0
3.9730003 -0.1362301 0.74558532 0
3.9670002 -0.14251275 0.74501181 0
3.9610002 -0.14877377 0.74443817 0
3.9550002 -0.15501314 0.74386454 0
3.9490004 -0.16123088 0.7432909 0
3.9440002 -0.16746123 0.74281287 0
3.9380002 -0.17363748 0.7422393 0
3.9320002 -0.17979208 0.74166572 0
3.9260004 -0.18592502 0.74109209 0
3.9200003 -0.19203633 0.74051845 0
3.9140003 -0.19812597 0.73994482 0
3.9090002 -0.20423907 0.73946685 0
3.9030004 -0.21028724 0.73889327 0
3.8970003 -0.21631378 0.73831964 0
3.8910003 -0.22231865 0.737746 0
3.8970003 -0.22892962 0.73831964 0
3.9040003 -0.23561633 0.73898888 0
3.9110003 -0.24232829 0.73965806 0
3.9180002 -0.24906552 0.74032724 0
4.059 -0.26380444 0.75380713 0
4.053 -0.27003658 0.75323355 0
4.0480003 -0.27631024 0.75275552 0
4.0440001 -0.28263077 0.7523731 0
4.0410004 -0.28900364 0.75208628 0
4.039 -0.29543421 0.75189507 0
4.0380001 -0.30192792 0.75179946 0
4.0370002 -0.30841804 0.75170386 0
4.0380001 -0.31505242 0.75179946 0
4.04 -0.3217662 0.75199068 0
4.0430002 -0.32856476 0.75227749 0
4.0469999 -0.33545348 0.75265992 0
4.053 -0.34251902 0.75323355 0
4.0630002 -0.34993806 0.75418955 0
4.0970001 -0.35942793 0.75743997 0
4.098 -0.36618319 0.75753558 0
4.099 -0.37294206 0.75763118 0
4.1010003 -0.37979475 0.75782239 0
4.1040001 -0.38674659 0.75810921 0
4.1090002 -0.39389691 0.75858724 0
4.1150002 -0.40116081 0.75916082 0
4.1240001 -0.40873861 0.76002121 0
4.1620002 0.062574819 0.75686818 0
4.1560001 0.05562656 0.75630546 0
4.1490002 0.048674677 0.75564879 0
4.1420002 0.041748051 0.75499225 0
4.1360002 0.034868326 0.75442946 0
4.1290002 0.027990405 0.75377285 0
4.1230001 0.021155786 0.75321007 0
4.1160002 0.014326561 0.75255346 0
4.1100001 0.0075370297 0.75199068 0
4.1030002 0.00075651333 0.75133407 0
4.0970001 -0.0059879273 0.75077134 0
4.0910001 -0.012710717 0.7502085 0
4.0840001 -0.019419082 0.74955195 0
4.0780001 -0.02609678 0.74898916 0
4.072 -0.032752834 0.74842638 0
4.0650001 -0.039389044 0.74776983 0
4.059 -0.046 0.74720699 0
4.053 -0.052589312 0.7466442 0
4.046 -0.059153371 0.74598765 0
4.04 -0.065697581 0.74542481 0
4.0339999 -0.072220154 0.74486208 0
4.0280004 -0.078721084 0.74429929 0
4.0220003 -0.085200362 0.74373651 0
4.0160003 -0.091657996 0.74317372 0
4.0090003 -0.098079547 0.74251711 0
4.0030003 -0.10449209 0.74195433 0
3.9970002 -0.11088298 0.74139154 0
3.9910002 -0.11725223 0.74082875 0
3.9850004 -0.12359983 0.74026597 0
3.9790003 -0.12992579 0.73970318 0
3.9730003 -0.1362301 0.73914039 0
3.9670002 -0.14251275 0.7385776 0
3.9610002 -0.14877377 0.73801482 0
3.9550002 -0.15501314 0.73745203 0
3.9490004 -0.16123088 0.73688924 0
3.9440002 -0.16746123 0.73642021 0
3.9380002 -0.17363748 0.73585749 0
3.9320002 -0.17979208 0.73529464 0
3.9260004 -0.18592502 0.73473191 0
3.9200003 -0.19203633 0.73416907 0
3.9140003 -0.19812597 0.73360628 0
3.9090002 -0.20423907 0.73313725 0
3.9030004 -0.21028724 0.73257446 0
3.8970003 -0.21631378 0.73201168 0
3.8910003 -0.22231865 0.73144895 0
3.8970003 -0.22892962 0.73201168 0
3.9040003 -0.23561633 0.73266828 0
3.9110003 -0.24232829 0.73332489 0
3.9180002 -0.24906552 0.73398149 0
4.059 -0.26380444 0.74720699 0
4.053 -0.27003658 0.7466442 0
4.0480003 -0.27631024 0.74617523 0
4.0440001 -0.28263077 0.74580002 0
4.0410004 -0.28900364 0.74551868 0
4.039 -0.29543421 0.74533105 0
4.0380001 -0.30192792 0.74523723 0
4.0370002 -0.30841804 0.74514341 0
4.0380001 -0.31505242 0.74523723 0
4.04 -0.3217662 0.74542481 0
4.0430002 -0.32856476 0.7457062 0
4.0469999 -0.33545348 0.74608141 0
4.053 -0.34251902 0.7466442 0
4.0630002 -0.34993806 0.7475822 0
4.1000004 -0.35968226 0.75105274 0
4.1000004 -0.36635634 0.75105274 0
4.1010003 -0.37311885 0.75114655 0
4.1030002 -0.37997511 0.75133407 0
4.1059999 -0.38693058 0.75161552 0
4.1100001 -0.3939907 0.75199068 0
4.1150002 -0.40116081 0.75245965 0
4.1230001 -0.40864125 0.75321007 0
4.1620002 0.062574819 0.75008225 0
4.1560001 0.05562656 0.74953032 0
4.1490002 0.048674677 0.74888635 0
4.1420002 0.041748051 0.74824238 0
4.1360002 0.034868326 0.74769044 0
4.1290002 0.027990405 0.74704647 0
4.1230001 0.021155786 0.74649453 0
4.1160002 0.014326561 0.74585056 0
4.1100001 0.0075370297 0.74529856 0
4.1030002 0.00075651333 0.7446546 0
4.0970001 -0.0059879273 0.74410266 0
4.0910001 -0.012710717 0.74355066 0
4.0840001 -0.019419082 0.74290675 0
4.0780001 -0.02609678 0.74235475 0
4.072 -0.032752834 0.74180281 0
4.0650001 -0.039389044 0.74115884 0
4.059 -0.046 0.7406069 0
4.053 -0.052589312 0.74005491 0
4.046 -0.059153371 0.73941094 0
4.04 -0.065697581 0.73885894 0
4.0339999 -0.072220154 0.738307 0
4.0280004 -0.078721084 0.73775506 0
4.0220003 -0.085200362 0.73720312 0
4.0160003 -0.091657996 0.73665112 0
4.0090003 -0.098079547 0.73600715 0
4.0030003 -0.10449209 0.73545516 0
3.9970002 -0.11088298 0.73490322 0
3.9910002 -0.11725223 0.73435128 0
3.9850004 -0.12359983 0.73379928 0
3.9790003 -0.12992579 0.73324728 0
3.9730003 -0.1362301 0.73269534 0
3.9670002 -0.14251275 0.7321434 0
3.9610002 -0.14877377 0.73159146 0
3.9550002 -0.15501314 0.73103946 0
3.9490004 -0.16123088 0.73048747 0
3.9440002 -0.16746123 0.73002756 0
3.9380002 -0.17363748 0.72947556 0
3.9320002 -0.17979208 0.72892356 0
3.9260004 -0.18592502 0.72837162 0
3.9200003 -0.19203633 0.72781968 0
3.9140003 -0.19812597 0.72726768 0
3.9090002 -0.20423907 0.72680771 0
3.9030004 -0.21028724 0.72625577 0
3.8970003 -0.21631378 0.72570384 0
3.8910003 -0.22231865 0.72515184 0
3.8970003 -0.22892962 0.72570384 0
3.9040003 -0.23561633 0.7263478 0
3.9110003 -0.24232829 0.72699171 0
3.9180002 -0.24906552 0.72763562 0
4.059 -0.26380444 0.7406069 0
4.053 -0.27003658 0.74005491 0
4.0480003 -0.27631024 0.73959494 0
4.0440001 -0.28263077 0.73922694 0
4.0410004 -0.28900364 0.73895097 0
4.039 -0.29543421 0.73876697 0
4.0380001 -0.30192792 0.738675 0
4.0370002 -0.30841804 0.73858297 0
4.0380001 -0.31505242 0.738675 0
4.04 -0.3217662 0.73885894 0
4.0430002 -0.32856476 0.73913491 0
4.0469999 -0.33545348 0.73950291 0
4.053 -0.34251902 0.74005491 0
4.0640001 -0.35002106 0.74106681 0
4.1030002 -0.35993657 0.7446546 0
4.1030002 -0.36661607 0.7446546 0
4.1030002 -0.37329561 0.7446546 0
4.105 -0.3801555 0.7448386 0
4.1070004 -0.38702258 0.74502259 0
4.1110001 -0.39408448 0.74539053 0
4.1160002 -0.40125641 0.74585056 0
4.1230001 -0.40864125 0.74649453 0
4.1340003 -0.41644812 0.74750644 0
4.1620002 0.062574819 0.74329633 0
4.1560001 0.05562656 0.74275517 0
4.1490002 0.048674677 0.74212384 0
4.1420002 0.041748051 0.74149251 0
4.1360002 0.034868326 0.74095142 0
4.1290002 0.027990405 0.74032009 0
4.1230001 0.021155786 0.73977888 0
4.1160002 0.014326561 0.73914754 0
4.1100001 0.0075370297 0.73860645 0
4.1030002 0.00075651333 0.73797512 0
4.0970001 -0.0059879273 0.73743397 0
4.0910001 -0.012710717 0.73689282 0
4.0840001 -0.019419082 0.73626149 0
4.0780001 -0.02609678 0.73572034 0
4.072 -0.032752834 0.73517919 0
4.0650001 -0.039389044 0.73454785 0
4.059 -0.046 0.73400676 0
4.053 -0.052589312 0.73346555 0
4.046 -0.059153371 0.73283422 0
4.04 -0.065697581 0.73229313 0
4.0339999 -0.072220154 0.73175192 0
4.0280004 -0.078721084 0.73121083 0
4.0220003 -0.085200362 0.73066968 0
4.0160003 -0.091657996 0.73012853 0
4.0090003 -0.098079547 0.72949719 0
4.0030003 -0.10449209 0.7289561 0
3.9970002 -0.11088298 0.72841489 0
3.9910002 -0.11725223 0.7278738 0
3.9850004 -0.12359983 0.72733265 0
3.9790003 -0.12992579 0.7267915 0
3.9730003 -0.1362301 0.72625035 0
3.9670002 -0.14251275 0.7257092 0
3.9610002 -0.14877377 0.72516805 0
3.9550002 -0.15501314 0.7246269 0
3.9490004 -0.16123088 0.72408581 0
3.9440002 -0.16746123 0.72363484 0
3.9380002 -0.17363748 0.72309369 0
3.9320002 -0.17979208 0.72255254 0
3.9260004 -0.18592502 0.72201145 0
3.9200003 -0.19203633 0.72147024 0
3.9140003 -0.19812597 0.72092915 0
3.9090002 -0.20423907 0.72047818 0
3.9030004 -0.21028724 0.71993703 0
3.8970003 -0.21631378 0.71939588 0
3.8910003 -0.22231865 0.71885473 0
3.8970003 -0.22892962 0.71939588 0
3.9040003 -0.23561633 0.72002721 0
3.9110003 -0.24232829 0.72065854 0
3.9180002 -0.24906552 0.72128987 0
4.059 -0.26380444 0.73400676 0
4.053 -0.27003658 0.73346555 0
4.0480003 -0.27631024 0.73301464 0
4.0440001 -0.28263077 0.73265386 0
4.0410004 -0.28900364 0.73238331 0
4.039 -0.29543421 0.73220289 0
4.0380001 -0.30192792 0.73211277 0
4.0380001 -0.30849019 0.73211277 0
4.0380001 -0.31505242 0.73211277 0
4.04 -0.3217662 0.73229313 0
4.0430002 -0.32856476 0.73256367 0
4.0469999 -0.33545348 0.73292446 0
4.053 -0.34251902 0.73346555 0
4.0640001 -0.35002106 0.73445773 0
4.1059999 -0.36019093 0.73824567 0
4.105 -0.36678925 0.73815548 0
4.1059999 -0.37356076 0.73824567 0
4.1070004 -0.38033587 0.73833585 0
4.1090002 -0.38720658 0.73851627 0
4.112 -0.39417827 0.73878682 0
4.1170001 -0.40135202 0.73923779 0
4.1230001 -0.40864125 0.73977888 0
4.132 -0.41624969 0.74059063 0
4.1620002 0.062574819 0.7365104 0
4.1560001 0.05562656 0.73598009 0
4.1490002 0.048674677 0.73536134 0
4.1420002 0.041748051 0.73474264 0
4.1360002 0.034868326 0.73421234 0
4.1290002 0.027990405 0.73359364 0
4.1230001 0.021155786 0.73306334 0
4.1160002 0.014326561 0.73244464 0
4.1100001 0.0075370297 0.73191428 0
4.1030002 0.00075651333 0.73129559 0
4.0970001 -0.0059879273 0.73076534 0
4.0910001 -0.012710717 0.73023498 0
4.0840001 -0.019419082 0.72961628 0
4.0780001 -0.02609678 0.72908592 0
4.072 -0.032752834 0.72855562 0
4.0650001 -0.039389044 0.72793692 0
4.059 -0.046 0.72740662 0
4.053 -0.052589312 0.72687626 0
4.046 -0.059153371 0.72625756 0
4.04 -0.065697581 0.7257272 0
4.0339999 -0.072220154 0.72519696 0
4.0280004 -0.078721084 0.7246666 0
4.0220003 -0.085200362 0.72413629 0
4.0160003 -0.091657996 0.72360599 0
4.0090003 -0.098079547 0.72298729 0
4.0030003 -0.10449209 0.72245693 0
3.9970002 -0.11088298 0.72192663 0
3.9910002 -0.11725223 0.72139633 0
3.9850004 -0.12359983 0.72086596 0
3.9790003 -0.12992579 0.72033572 0
3.9730003 -0.1362301 0.71980536 0
3.9670002 -0.14251275 0.719275 0
3.9610002 -0.14877377 0.7187447 0
3.9550002 -0.15501314 0.71821439 0
3.9490004 -0.16123088 0.71768409 0
3.9440002 -0.16746123 0.71724212 0
3.9380002 -0.17363748 0.71671176 0
3.9320002 -0.17979208 0.71618152 0
3.9260004 -0.18592502 0.71565115 0
3.9200003 -0.19203633 0.71512085 0
3.9140003 -0.19812597 0.71459055 0
3.9090002 -0.20423907 0.71414864 0
3.9030004 -0.21028724 0.71361828 0
3.8970003 -0.21631378 0.71308798 0
3.8910003 -0.22231865 0.71255767 0
3.8970003 -0.22892962 0.71308798 0
3.9040003 -0.23561633 0.71370667 0
3.9110003 -0.24232829 0.71432537 0
3.9180002 -0.24906552 0.71494406 0
4.059 -0.26380444 0.72740662 0
4.053 -0.27003658 0.72687626 0
4.0480003 -0.27631024 0.72643435 0
4.0440001 -0.28263077 0.72608078 0
4.0410004 -0.28900364 0.72581565 0
4.039 -0.29543421 0.72563887 0
4.0380001 -0.30192792 0.72555047 0
4.0380001 -0.30849019 0.72555047 0
4.0380001 -0.31505242 0.72555047 0
4.04 -0.3217662 0.7257272 0
4.0430002 -0.32856476 0.72599244 0
4.0469999 -0.33545348 0.72634596 0
4.053 -0.34251902 0.72687626 0
4.0640001 -0.35002106 0.72784853 0
4.1090002 -0.36044526 0.73182595 0
4.1080003 -0.36704901 0.73173755 0
4.1080003 -0.37373754 0.73173755 0
4.1090002 -0.38051626 0.73182595 0
4.1110001 -0.38739055 0.73200274 0
4.1140003 -0.39436588 0.73226786 0
4.118 -0.40144765 0.73262143 0
4.1230001 -0.40864125 0.73306334 0
4.131 -0.41615048 0.73377043 0
4.1620002 0.062574819 0.72972447 0
4.1560001 0.05562656 0.72920501 0
4.1490002 0.048674677 0.72859889 0
4.1420002 0.041748051 0.72799277 0
4.1360002 0.034868326 0.72747332 0
4.1290002 0.027990405 0.72686726 0
4.1230001 0.021155786 0.7263478 0
4.1160002 0.014326561 0.72574168 0
4.1100001 0.0075370297 0.72522223 0
4.1030002 0.00075651333 0.72461605 0
4.0970001 -0.0059879273 0.7240966 0
4.0910001 -0.012710717 0.72357714 0
4.0840001 -0.019419082 0.72297108 0
4.0780001 -0.02609678 0.72245157 0
4.072 -0.032752834 0.72193205 0
4.0650001 -0.039389044 0.72132599 0
4.059 -0.046 0.72080648 0
4.053 -0.052589312 0.72028697 0
4.046 -0.059153371 0.71968091 0
4.04 -0.065697581 0.71916139 0
4.0339999 -0.072220154 0.71864188 0
4.0280004 -0.078721084 0.71812236 0
4.0220003 -0.085200362 0.71760291 0
4.0160003 -0.091657996 0.71708339 0
4.0090003 -0.098079547 0.71647733 0
4.0030003 -0.10449209 0.71595782 0
3.9970002 -0.11088298 0.71543837 0
3.9910002 -0.11725223 0.71491885 0
3.9850004 -0.12359983 0.71439934 0
3.9790003 -0.12992579 0.71387982 0
3.9730003 -0.1362301 0.71336031 0
3.9670002 -0.14251275 0.7128408 0
3.9610002 -0.14877377 0.71232134 0
3.9550002 -0.15501314 0.71180183 0
3.9490004 -0.16123088 0.71128237 0
3.9440002 -0.16746123 0.7108494 0
3.9380002 -0.17363748 0.71032995 0
3.9320002 -0.17979208 0.7098105 0
3.9260004 -0.18592502 0.70929098 0
3.9200003 -0.19203633 0.70877147 0
3.9140003 -0.19812597 0.70825195 0
3.9090002 -0.20423907 0.70781904 0
3.9030004 -0.21028724 0.70729959 0
3.8970003 -0.21631378 0.70678008 0
3.8910003 -0.22231865 0.70626056 0
3.8970003 -0.22892962 0.70678008 0
3.9040003 -0.23561633 0.70738614 0
3.9110003 -0.24232829 0.7079922 0
3.9180002 -0.24906552 0.70859826 0
4.059 -0.26380444 0.72080648 0
4.053 -0.27003658 0.72028697 0
4.0480003 -0.27631024 0.71985406 0
4.0440001 -0.28263077 0.71950769 0
4.0410004 -0.28900364 0.71924794 0
4.039 -0.29543421 0.71907485 0
4.0380001 -0.30192792 0.71898818 0
4.0380001 -0.30849019 0.71898818 0
4.0380001 -0.31505242 0.71898818 0
4.04 -0.3217662 0.71916139 0
4.0430002 -0.32856476 0.71942115 0
4.0469999 -0.33545348 0.71976745 0
4.053 -0.34251902 0.72028697 0
4.0640001 -0.35002106 0.72123939 0
4.112 -0.36069959 0.72539532 0
4.1110001 -0.36730877 0.72530878 0
4.1110001 -0.3740027 0.72530878 0
4.112 -0.38078681 0.72539532 0
4.1129999 -0.38757452 0.72548193 0
4.1150002 -0.39445966 0.72565508 0
4.119 -0.40154323 0.72600144 0
4.1240001 -0.40873861 0.72643435 0
4.1300001 -0.41605127 0.72695386 0
4.1410003 -0.42389059 0.72790623 0
4.1620002 0.062574819 0.72293854 0
4.1560001 0.05562656 0.72242987 0
4.1490002 0.048674677 0.72183645 0
4.1420002 0.041748051 0.72124302 0
4.1360002 0.034868326 0.72073436 0
4.1290002 0.027990405 0.72014081 0
4.1230001 0.021155786 0.71963221 0
4.1160002 0.014326561 0.71903872 0
4.1100001 0.0075370297 0.71853006 0
4.1030002 0.00075651333 0.71793658 0
4.0970001 -0.0059879273 0.71742797 0
4.0910001 -0.012710717 0.71691924 0
4.0840001 -0.019419082 0.71632582 0
4.0780001 -0.02609678 0.71581709 0
4.072 -0.032752834 0.71530843 0
4.0650001 -0.039389044 0.714715 0
4.059 -0.046 0.71420634 0
4.053 -0.052589312 0.71369767 0
4.046 -0.059153371 0.71310419 0
4.04 -0.065697581 0.71259552 0
4.0339999 -0.072220154 0.71208686 0
4.0280004 -0.078721084 0.71157819 0
4.0220003 -0.085200362 0.71106946 0
4.0160003 -0.091657996 0.7105608 0
4.0090003 -0.098079547 0.70996737 0
4.0030003 -0.10449209 0.70945871 0
3.9970002 -0.11088298 0.70895004 0
3.9910002 -0.11725223 0.70844138 0
3.9850004 -0.12359983 0.70793271 0
3.9790003 -0.12992579 0.70742404 0
3.9730003 -0.1362301 0.70691538 0
3.9670002 -0.14251275 0.70640665 0
3.9610002 -0.14877377 0.70589799 0
3.9550002 -0.15501314 0.70538932 0
3.9490004 -0.16123088 0.70488065 0
3.9440002 -0.16746123 0.70445675 0
3.9380002 -0.17363748 0.70394808 0
3.9320002 -0.17979208 0.70343935 0
3.9260004 -0.18592502 0.70293075 0
3.9200003 -0.19203633 0.70242202 0
3.9140003 -0.19812597 0.70191336 0
3.9090002 -0.20423907 0.70148945 0
3.9030004 -0.21028724 0.70098078 0
3.8970003 -0.21631378 0.70047212 0
3.8910003 -0.22231865 0.69996345 0
3.8970003 -0.22892962 0.70047212 0
3.9040003 -0.23561633 0.70106554 0
3.9110003 -0.24232829 0.70165908 0
3.9180002 -0.24906552 0.70225251 0
4.059 -0.26380444 0.71420634 0
4.053 -0.27003658 0.71369767 0
4.0480003 -0.27631024 0.71327376 0
4.0440001 -0.28263077 0.71293467 0
4.0410004 -0.28900364 0.71268034 0
4.039 -0.29543421 0.7125107 0
4.0380001 -0.30192792 0.71242595 0
4.0380001 -0.30849019 0.71242595 0
4.0380001 -0.31505242 0.71242595 0
4.04 -0.3217662 0.71259552 0
4.0430002 -0.32856476 0.71284986 0
4.0469999 -0.33545348 0.71318895 0
4.053 -0.34251902 0.71369767 0
4.0640001 -0.35002106 0.71463025 0
4.1150002 -0.36095396 0.71895397 0
4.1140003 -0.36756849 0.71886921 0
4.1140003 -0.37426785 0.71886921 0
4.1140003 -0.3809672 0.71886921 0
4.1150002 -0.38775852 0.71895397 0
4.1170001 -0.39464727 0.71912348 0
4.1200004 -0.40163887 0.71937788 0
4.125 -0.40883604 0.71980178 0
4.131 -0.41615048 0.72031045 0
4.1400003 -0.42378962 0.72107345 0
4.1620002 0.062574819 0.71615267 0
4.1560001 0.05562656 0.71565479 0
4.1490002 0.048674677 0.71507394 0
4.1420002 0.041748051 0.71449316 0
4.1360002 0.034868326 0.71399528 0
4.1290002 0.027990405 0.71341443 0
4.1230001 0.021155786 0.71291661 0
4.1160002 0.014326561 0.71233577 0
4.1100001 0.0075370297 0.71183795 0
4.1030002 0.00075651333 0.7112571 0
4.0970001 -0.0059879273 0.71075928 0
4.0910001 -0.012710717 0.7102614 0
4.0840001 -0.019419082 0.70968056 0
4.0780001 -0.02609678 0.70918274 0
4.072 -0.032752834 0.70868486 0
4.0650001 -0.039389044 0.70810401 0
4.059 -0.046 0.7076062 0
4.053 -0.052589312 0.70710838 0
4.046 -0.059153371 0.70652747 0
4.04 -0.065697581 0.70602965 0
4.0339999 -0.072220154 0.70553184 0
4.0280004 -0.078721084 0.70503402 0
4.0220003 -0.085200362 0.70453608 0
4.0160003 -0.091657996 0.70403826 0
4.0090003 -0.098079547 0.70345747 0
4.0030003 -0.10449209 0.70295954 0
3.9970002 -0.11088298 0.70246172 0
3.9910002 -0.11725223 0.7019639 0
3.9850004 -0.12359983 0.70146608 0
3.9790003 -0.12992579 0.70096821 0
3.9730003 -0.1362301 0.70047033 0
3.9670002 -0.14251275 0.69997245 0
3.9610002 -0.14877377 0.69947457 0
3.9550002 -0.15501314 0.69897676 0
3.9490004 -0.16123088 0.69847894 0
3.9440002 -0.16746123 0.69806403 0
3.9380002 -0.17363748 0.69756615 0
3.9320002 -0.17979208 0.69706833 0
3.9260004 -0.18592502 0.69657052 0
3.9200003 -0.19203633 0.6960727 0
3.9140003 -0.19812597 0.69557476 0
3.9090002 -0.20423907 0.69515991 0
3.9030004 -0.21028724 0.69466209 0
3.8970003 -0.21631378 0.69416422 0
3.8910003 -0.22231865 0.69366634 0
3.8970003 -0.22892962 0.69416422 0
3.9040003 -0.23561633 0.69474506 0
3.9110003 -0.24232829 0.69532585 0
3.9180002 -0.24906552 0.6959067 0
4.059 -0.26380444 0.7076062 0
4.053 -0.27003658 0.70710838 0
4.0480003 -0.27631024 0.70669347 0
4.0440001 -0.28263077 0.70636153 0
4.0410004 -0.28900364 0.70611262 0
4.039 -0.29543421 0.70594668 0
4.0380001 -0.30192792 0.70586371 0
4.0380001 -0.30849019 0.70586371 0
4.0380001 -0.31505242 0.70586371 0
4.04 -0.3217662 0.70602965 0
4.0430002 -0.32856476 0.70627856 0
4.0469999 -0.33545348 0.7066105 0
4.053 -0.34251902 0.70710838 0
4.0640001 -0.35002106 0.70802104 0
4.119 -0.36129305 0.71258473 0
4.1170001 -0.36782828 0.71241879 0
4.1160002 -0.3744446 0.71233577 0
4.1160002 -0.38114756 0.71233577 0
4.1170001 -0.38794252 0.71241879 0
4.119 -0.39483485 0.71258473 0
4.1220002 -0.40183005 0.71283364 0
4.1259999 -0.40893343 0.71316552 0
4.131 -0.41615048 0.71358037 0
4.1389999 -0.42368856 0.71424419 0
4.1620002 0.062574819 0.70936668 0
4.1560001 0.05562656 0.70887971 0
4.1490002 0.048674677 0.70831144 0
4.1420002 0.041748051 0.70774329 0
4.1360002 0.034868326 0.7072562 0
4.1290002 0.027990405 0.70668805 0
4.1230001 0.021155786 0.70620108 0
4.1160002 0.014326561 0.70563281 0
4.1100001 0.0075370297 0.70514584 0
4.1030002 0.00075651333 0.70457757 0
4.0970001 -0.0059879273 0.7040906 0
4.0910001 -0.012710717 0.70360357 0
4.0840001 -0.019419082 0.70303535 0
4.0780001 -0.02609678 0.70254833 0
4.072 -0.032752834 0.7020613 0
4.0650001 -0.039389044 0.70149308 0
4.059 -0.046 0.70100605 0
4.053 -0.052589312 0.70051903 0
4.046 -0.059153371 0.69995081 0
4.04 -0.065697581 0.69946378 0
4.0339999 -0.072220154 0.69897676 0
4.0280004 -0.078721084 0.69848979 0
4.0220003 -0.085200362 0.6980027 0
4.0160003 -0.091657996 0.69751567 0
4.0090003 -0.098079547 0.69694752 0
4.0030003 -0.10449209 0.69646049 0
3.9970002 -0.11088298 0.6959734 0
3.9910002 -0.11725223 0.69548643 0
3.9850004 -0.12359983 0.6949994 0
3.9790003 -0.12992579 0.69451237 0
3.9730003 -0.1362301 0.69402528 0
3.9670002 -0.14251275 0.69353831 0
3.9610002 -0.14877377 0.69305128 0
3.9550002 -0.15501314 0.69256425 0
3.9490004 -0.16123088 0.69207722 0
3.9440002 -0.16746123 0.69167137 0
3.9380002 -0.17363748 0.69118428 0
3.9320002 -0.17979208 0.69069731 0
3.9260004 -0.18592502 0.69021028 0
3.9200003 -0.19203633 0.68972325 0
3.9140003 -0.19812597 0.68923616 0
3.9090002 -0.20423907 0.68883038 0
3.9030004 -0.21028724 0.68834329 0
3.8970003 -0.21631378 0.68785632 0
3.8910003 -0.22231865 0.68736923 0
3.8970003 -0.22892962 0.68785632 0
3.9040003 -0.23561633 0.68842447 0
3.9110003 -0.24232829 0.68899274 0
3.9180002 -0.24906552 0.68956089 0
4.059 -0.26380444 0.70100605 0
4.053 -0.27003658 0.70051903 0
4.0480003 -0.27631024 0.70011318 0
4.0440001 -0.28263077 0.69978845 0
4.0410004 -0.28900364 0.69954503 0
4.039 -0.29543421 0.69938266 0
4.0380001 -0.30192792 0.69930148 0
4.0380001 -0.30849019 0.69930148 0
4.0380001 -0.31505242 0.69930148 0
4.04 -0.3217662 0.69946378 0
4.0430002 -0.32856476 0.69970733 0
4.0469999 -0.33545348 0.700032 0
4.053 -0.34251902 0.70051903 0
4.0640001 -0.35002106 0.7014119 0
4.1220002 -0.36154738 0.70611989 0
4.1200004 -0.36808801 0.70595753 0
4.119 -0.37470978 0.70587635 0
4.119 -0.38141814 0.70587635 0
4.1200004 -0.38821852 0.70595753 0
4.1210003 -0.39502245 0.70603871 0
4.1230001 -0.40192565 0.70620108 0
4.1270003 -0.40903085 0.70652568 0
4.132 -0.41624969 0.70693159 0
4.138 -0.42358756 0.70741856 0
4.1490002 -0.43146119 0.70831144 0
4.1620002 0.062574819 0.70258081 0
4.1560001 0.05562656 0.70210457 0
4.1490002 0.048674677 0.70154899 0
4.1420002 0.041748051 0.70099342 0
4.1360002 0.034868326 0.70051718 0
4.1290002 0.027990405 0.69996166 0
4.1230001 0.021155786 0.69948542 0
4.1160002 0.014326561 0.69892985 0
4.1100001 0.0075370297 0.69845366 0
4.1030002 0.00075651333 0.69789809 0
4.0970001 -0.0059879273 0.69742191 0
4.0910001 -0.012710717 0.69694567 0
4.0840001 -0.019419082 0.69639015 0
4.0780001 -0.02609678 0.69591391 0
4.072 -0.032752834 0.69543767 0
4.0650001 -0.039389044 0.69488215 0
4.059 -0.046 0.69440591 0
4.053 -0.052589312 0.69392973 0
4.046 -0.059153371 0.69337416 0
4.04 -0.065697581 0.69289792 0
4.0339999 -0.072220154 0.69242167 0
4.0280004 -0.078721084 0.69194555 0
4.0220003 -0.085200362 0.69146931 0
4.0160003 -0.091657996 0.69099307 0
4.0090003 -0.098079547 0.69043756 0
4.0030003 -0.10449209 0.68996131 0
3.9970002 -0.11088298 0.68948513 0
3.9910002 -0.11725223 0.68900895 0
3.9850004 -0.12359983 0.68853271 0
3.9790003 -0.12992579 0.68805653 0
3.9730003 -0.1362301 0.68758035 0
3.9670002 -0.14251275 0.68710411 0
3.9610002 -0.14877377 0.68662786 0
3.9550002 -0.15501314 0.68615168 0
3.9490004 -0.16123088 0.6856755 0
3.9440002 -0.16746123 0.68527865 0
3.9380002 -0.17363748 0.68480241 0
3.9320002 -0.17979208 0.68432623 0
3.9260004 -0.18592502 0.68385005 0
3.9200003 -0.19203633 0.68337381 0
3.9140003 -0.19812597 0.68289763 0
3.9090002 -0.20423907 0.68250078 0
3.9030004 -0.21028724 0.6820246 0
3.8970003 -0.21631378 0.68154836 0
3.8910003 -0.22231865 0.68107218 0
3.8970003 -0.22892962 0.68154836 0
3.9040003 -0.23561633 0.68210399 0
3.9110003 -0.24232829 0.68265951 0
3.9180002 -0.24906552 0.68321514 0
4.059 -0.26380444 0.69440591 0
4.053 -0.27003658 0.69392973 0
4.0480003 -0.27631024 0.69353288 0
4.0440001 -0.28263077 0.69321543 0
4.0410004 -0.28900364 0.69297731 0
4.039 -0.29543421 0.69281858 0
4.0380001 -0.30192792 0.69273919 0
4.0380001 -0.30849019 0.69273919 0
4.0380001 -0.31505242 0.69273919 0
4.04 -0.3217662 0.69289792 0
4.0430002 -0.32856476 0.69313604 0
4.0469999 -0.33545348 0.69345349 0
4.053 -0.34251902 0.69392973 0
4.0640001 -0.35002106 0.69480276 0
4.1259999 -0.3618865 0.69972354 0
4.1240001 -0.36843434 0.69956481 0
4.1220002 -0.37497494 0.69940609 0
4.1220002 -0.38168871 0.69940609 0
4.1220002 -0.38840249 0.69940609 0
4.1230001 -0.39521006 0.69948542 0
4.125 -0.40211684 0.69964421 0
4.1280003 -0.40912825 0.69988227 0
4.1330004 -0.4163489 0.70027912 0
4.1389999 -0.42368856 0.70075536 0
4.1470003 -0.43125555 0.70139027 0
4.1620002 0.062574819 0.69579482 0
4.1560001 0.05562656 0.69532949 0
4.1490002 0.048674677 0.69478655 0
4.1420002 0.041748051 0.69424355 0
4.1360002 0.034868326 0.69377822 0
4.1290002 0.027990405 0.69323528 0
4.1230001 0.021155786 0.69276989 0
4.1160002 0.014326561 0.69222689 0
4.1100001 0.0075370297 0.69176155 0
4.1030002 0.00075651333 0.69121861 0
4.0970001 -0.0059879273 0.69075322 0
4.0910001 -0.012710717 0.69028783 0
4.0840001 -0.019419082 0.68974489 0
4.0780001 -0.02609678 0.6892795 0
4.072 -0.032752834 0.68881416 0
4.0650001 -0.039389044 0.68827116 0
4.059 -0.046 0.68780577 0
4.053 -0.052589312 0.68734038 0
4.046 -0.059153371 0.68679744 0
4.04 -0.065697581 0.68633211 0
4.0339999 -0.072220154 0.68586671 0
4.0280004 -0.078721084 0.68540132 0
4.0220003 -0.085200362 0.68493593 0
4.0160003 -0.091657996 0.68447053 0
4.0090003 -0.098079547 0.6839276 0
4.0030003 -0.10449209 0.6834622 0
3.9970002 -0.11088298 0.68299687 0
3.9910002 -0.11725223 0.68253148 0
3.9850004 -0.12359983 0.68206608 0
3.9790003 -0.12992579 0.68160069 0
3.9730003 -0.1362301 0.6811353 0
3.9670002 -0.14251275 0.6806699 0
3.9610002 -0.14877377 0.68020451 0
3.9550002 -0.15501314 0.67973912 0
3.9490004 -0.16123088 0.67927378 0
3.9440002 -0.16746123 0.67888594 0
3.9380002 -0.17363748 0.67842054 0
3.9320002 -0.17979208 0.67795515 0
3.9260004 -0.18592502 0.67748982 0
3.9200003 -0.19203633 0.67702448 0
3.9140003 -0.19812597 0.67655903 0
3.9090002 -0.20423907 0.67617124 0
3.9030004 -0.21028724 0.67570585 0
3.8970003 -0.21631378 0.67524046 0
3.8910003 -0.22231865 0.67477506 0
3.8970003 -0.22892962 0.67524046 0
3.9040003 -0.23561633 0.6757834 0
3.9110003 -0.24232829 0.67632639 0
3.9180002 -0.24906552 0.67686927 0
4.059 -0.26380444 0.68780577 0
4.053 -0.27003658 0.68734038 0
4.0480003 -0.27631024 0.68695259 0
4.0440001 -0.28263077 0.68664235 0
4.0410004 -0.28900364 0.68640965 0
4.039 -0.29543421 0.6862545 0
4.0380001 -0.30192792 0.68617696 0
4.0380001 -0.30849019 0.68617696 0
4.0380001 -0.31505242 0.68617696 0
4.04 -0.3217662 0.68633211 0
4.0430002 -0.32856476 0.6865648 0
4.0469999 -0.33545348 0.68687499 0
4.053 -0.34251902 0.68734038 0
4.0640001 -0.35002106 0.68819362 0
4.1300001 -0.36222562 0.69331282 0
4.1270003 -0.3686941 0.69308013 0
4.125 -0.37524009 0.69292498 0
4.1240001 -0.38186911 0.69284743 0
4.1240001 -0.38858649 0.69284743 0
4.125 -0.39539766 0.69292498 0
4.1270003 -0.40230805 0.69308013 0
4.1300001 -0.40932307 0.69331282 0
4.1340003 -0.41644812 0.69362307 0
4.1389999 -0.42368856 0.69401085 0
4.1470003 -0.43125555 0.6946314 0
4.1600003 -0.43937451 0.69563973 0
4.1620002 0.062574819 0.68900895 0
4.1560001 0.05562656 0.68855441 0
4.1490002 0.048674677 0.68802404 0
4.1420002 0.041748051 0.68749368 0
4.1360002 0.034868326 0.68703914 0
4.1290002 0.027990405 0.68650889 0
4.1230001 0.021155786 0.68605429 0
4.1160002 0.014326561 0.68552399 0
4.1100001 0.0075370297 0.68506944 0
4.1030002 0.00075651333 0.68453908 0
4.0970001 -0.0059879273 0.68408453 0
4.0910001 -0.012710717 0.68362999 0
4.0840001 -0.019419082 0.68309963 0
4.0780001 -0.02609678 0.68264508 0
4.072 -0.032752834 0.68219054 0
4.0650001 -0.039389044 0.68166018 0
4.059 -0.046 0.68120563 0
4.053 -0.052589312 0.68075109 0
4.046 -0.059153371 0.68022078 0
4.04 -0.065697581 0.67976618 0
4.0339999 -0.072220154 0.67931163 0
4.0280004 -0.078721084 0.67885709 0
4.0220003 -0.085200362 0.67840254 0
4.0160003 -0.091657996 0.677948 0
4.0090003 -0.098079547 0.67741764 0
4.0030003 -0.10449209 0.67696309 0
3.9970002 -0.11088298 0.67650855 0
3.9910002 -0.11725223 0.676054 0
3.9850004 -0.12359983 0.67559946 0
3.9790003 -0.12992579 0.67514485 0
3.9730003 -0.1362301 0.67469031 0
3.9670002 -0.14251275 0.67423576 0
3.9610002 -0.14877377 0.67378116 0
3.9550002 -0.15501314 0.67332661 0
3.9490004 -0.16123088 0.67287207 0
3.9440002 -0.16746123 0.67249322 0
3.9380002 -0.17363748 0.67203867 0
3.9320002 -0.17979208 0.67158413 0
3.9260004 -0.18592502 0.67112958 0
3.9200003 -0.19203633 0.67067504 0
3.9140003 -0.19812597 0.67022049 0
3.9090002 -0.20423907 0.66984165 0
3.9030004 -0.21028724 0.6693871 0
3.8970003 -0.21631378 0.66893256 0
3.8910003 -0.22231865 0.66847801 0
3.8970003 -0.22892962 0.66893256 0
3.9040003 -0.23561633 0.66946292 0
3.9110003 -0.24232829 0.66999316 0
3.9180002 -0.24906552 0.67052352 0
4.059 -0.26380444 0.68120563 0
4.053 -0.27003658 0.68075109 0
4.0480003 -0.27631024 0.6803723 0
4.0440001 -0.28263077 0.68006927 0
4.0410004 -0.28900364 0.679842 0
4.039 -0.29543421 0.67969048 0
4.0380001 -0.30192792 0.67961466 0
4.0380001 -0.30849019 0.67961466 0
4.0380001 -0.31505242 0.67961466 0
4.04 -0.3217662 0.67976618 0
4.0430002 -0.32856476 0.67999351 0
4.0469999 -0.33545348 0.68029654 0
4.053 -0.34251902 0.68075109 0
4.0640001 -0.35002106 0.68158448 0
4.1340003 -0.36256474 0.68688762 0
4.131 -0.36904043 0.68666041 0
4.1290002 -0.37559363 0.68650889 0
4.1270003 -0.38213965 0.68635738 0
4.1270003 -0.38886246 0.68635738 0
4.1280003 -0.39567903 0.68643308 0
4.1290002 -0.40249926 0.68650889 0
4.132 -0.40951785 0.68673611 0
4.1350002 -0.4165473 0.68696344 0
4.1400003 -0.42378962 0.68734223 0
4.1460004 -0.43115276 0.68779677 0
4.158 -0.43916526 0.68870586 0
4.1730003 -0.44754034 0.68984228 0
4.1620002 0.062574819 0.68222296 0
4.1560001 0.05562656 0.68177927 0
4.1490002 0.048674677 0.68126154 0
4.1420002 0.041748051 0.68074387 0
4.1360002 0.034868326 0.68030012 0
4.1290002 0.027990405 0.67978245 0
4.1230001 0.021155786 0.67933869 0
4.1160002 0.014326561 0.67882103 0
4.1100001 0.0075370297 0.67837727 0
4.1030002 0.00075651333 0.67785954 0
4.0970001 -0.0059879273 0.67741585 0
4.0910001 -0.012710717 0.67697215 0
4.0840001 -0.019419082 0.67645442 0
4.0780001 -0.02609678 0.67601067 0
4.072 -0.032752834 0.67556691 0
4.0650001 -0.039389044 0.6750493 0
4.059 -0.046 0.67460549 0
4.053 -0.052589312 0.67416179 0
4.046 -0.059153371 0.67364407 0
4.04 -0.065697581 0.67320037 0
4.0339999 -0.072220154 0.67275661 0
4.0280004 -0.078721084 0.67231286 0
4.0220003 -0.085200362 0.67186916 0
4.0160003 -0.091657996 0.6714254 0
4.0090003 -0.098079547 0.67090774 0
4.0030003 -0.10449209 0.67046398 0
3.9970002 -0.11088298 0.67002022 0
3.9910002 -0.11725223 0.66957653 0
3.9850004 -0.12359983 0.66913277 0
3.9790003 -0.12992579 0.66868901 0
3.9730003 -0.1362301 0.66824532 0
3.9670002 -0.14251275 0.66780156 0
3.9610002 -0.14877377 0.6673578 0
3.9550002 -0.15501314 0.66691411 0
3.9490004 -0.16123088 0.66647041 0
3.9440002 -0.16746123 0.66610056 0
3.9380002 -0.17363748 0.66565681 0
3.9320002 -0.17979208 0.66521311 0
3.9260004 -0.18592502 0.66476935 0
3.9200003 -0.19203633 0.66432559 0
3.9140003 -0.19812597 0.6638819 0
3.9090002 -0.20423907 0.66351211 0
3.9030004 -0.21028724 0.66306841 0
3.8970003 -0.21631378 0.6626246 0
3.8910003 -0.22231865 0.6621809 0
3.8970003 -0.22892962 0.6626246 0
3.9040003 -0.23561633 0.66314232 0
3.9110003 -0.24232829 0.66366005 0
3.9180002 -0.24906552 0.66417772 0
4.059 -0.26380444 0.67460549 0
4.053 -0.27003658 0.67416179 0
4.0480003 -0.27631024 0.673792 0
4.0440001 -0.28263077 0.67349619 0
4.0410004 -0.28900364 0.67327428 0
4.039 -0.29543421 0.6731264 0
4.0380001 -0.30192792 0.67305243 0
4.0380001 -0.30849019 0.67305243 0
4.0380001 -0.31505242 0.67305243 0
4.04 -0.3217662 0.67320037 0
4.0430002 -0.32856476 0.67342222 0
4.0469999 -0.33545348 0.67371804 0
4.053 -0.34251902 0.67416179 0
4.0640001 -0.35002106 0.67497528 0
4.138 -0.36290386 0.68044806 0
4.1340003 -0.36930016 0.68015224 0
4.132 -0.37585881 0.68000436 0
4.1300001 -0.38241026 0.67985642 0
4.1300001 -0.38913846 0.67985642 0
4.1300001 -0.39586663 0.67985642 0
4.131 -0.40269047 0.67993033 0
4.1330004 -0.40961528 0.68007827 0
4.1360002 -0.41664651 0.68030012 0
4.1410003 -0.42389059 0.6806699 0
4.1480002 -0.43135837 0.68118763 0
4.1600003 -0.43937451 0.68207508 0
4.1680002 -0.44700822 0.68266678 0
4.1730003 -0.45434612 0.68303657 0
4.1620002 0.062574819 0.67543709 0
4.1560001 0.05562656 0.67500412 0
4.1490002 0.048674677 0.67449909 0
4.1420002 0.041748051 0.67399406 0
4.1360002 0.034868326 0.6735611 0
4.1290002 0.027990405 0.67305601 0
4.1230001 0.021155786 0.67262316 0
4.1160002 0.014326561 0.67211807 0
4.1100001 0.0075370297 0.67168516 0
4.1030002 0.00075651333 0.67118007 0
4.0970001 -0.0059879273 0.67074716 0
4.0910001 -0.012710717 0.67031431 0
4.0840001 -0.019419082 0.66980922 0
4.0780001 -0.02609678 0.66937625 0
4.072 -0.032752834 0.66894341 0
4.0650001 -0.039389044 0.66843832 0
4.059 -0.046 0.66800535 0
4.053 -0.052589312 0.6675725 0
4.046 -0.059153371 0.66706741 0
4.04 -0.065697581 0.6666345 0
4.0339999 -0.072220154 0.66620159 0
4.0280004 -0.078721084 0.66576868 0
4.0220003 -0.085200362 0.66533577 0
4.0160003 -0.091657996 0.66490281 0
4.0090003 -0.098079547 0.66439778 0
4.0030003 -0.10449209 0.66396487 0
3.9970002 -0.11088298 0.6635319 0
3.9910002 -0.11725223 0.66309905 0
3.9850004 -0.12359983 0.66266608 0
3.9790003 -0.12992579 0.66223323 0
3.9730003 -0.1362301 0.66180027 0
3.9670002 -0.14251275 0.66136742 0
3.9610002 -0.14877377 0.66093445 0
3.9550002 -0.15501314 0.66050154 0
3.9490004 -0.16123088 0.66006863 0
3.9440002 -0.16746123 0.6597079 0
3.9380002 -0.17363748 0.65927494 0
3.9320002 -0.17979208 0.65884203 0
3.9260004 -0.18592502 0.65840912 0
3.9200003 -0.19203633 0.65797621 0
3.9140003 -0.19812597 0.6575433 0
3.9090002 -0.20423907 0.65718251 0
3.9030004 -0.21028724 0.65674961 0
3.8970003 -0.21631378 0.6563167 0
3.8910003 -0.22231865 0.65588379 0
3.8970003 -0.22892962 0.6563167 0
3.9040003 -0.23561633 0.65682173 0
3.9110003 -0.24232829 0.65732682 0
3.9180002 -0.24906552 0.65783191 0
4.059 -0.26380444 0.66800535 0
4.053 -0.27003658 0.6675725 0
4.0480003 -0.27631024 0.66721171 0
4.0440001 -0.28263077 0.66692311 0
4.0410004 -0.28900364 0.66670668 0
4.039 -0.29543421 0.66656232 0
4.0380001 -0.30192792 0.6664902 0
4.0380001 -0.30849019 0.6664902 0
4.0380001 -0.31505242 0.6664902 0
4.04 -0.3217662 0.6666345 0
4.0430002 -0.32856476 0.66685092 0
4.0469999 -0.33545348 0.66713953 0
4.053 -0.34251902 0.6675725 0
4.0640001 -0.35002106 0.66836619 0
4.1420002 -0.36324298 0.67399406 0
4.138 -0.36964649 0.67370546 0
4.1350002 -0.37612396 0.67348897 0
4.1340003 -0.38277102 0.67341685 0
4.1330004 -0.38941443 0.67334467 0
4.1330004 -0.39614806 0.67334467 0
4.1330004 -0.40288168 0.67334467 0
4.1350002 -0.40981007 0.67348897 0
4.138 -0.41684493 0.67370546 0
4.1430001 -0.42409265 0.67406619 0
4.1500001 -0.43156403 0.67457128 0
4.1660004 -0.44000223 0.6757257 0
4.1630001 -0.4464761 0.67550921 0
4.171 -0.45412967 0.67608643 0
4.1810002 -0.46203214 0.676808 0
4.1620002 0.062574819 0.6686511 0
4.1560001 0.05562656 0.6682291 0
4.1490002 0.048674677 0.66773659 0
4.1420002 0.041748051 0.6672442 0
4.1360002 0.034868326 0.66682208 0
4.1290002 0.027990405 0.66632962 0
4.1230001 0.021155786 0.66590756 0
4.1160002 0.014326561 0.66541511 0
4.1100001 0.0075370297 0.66499305 0
4.1030002 0.00075651333 0.66450059 0
4.0970001 -0.0059879273 0.66407847 0
4.0910001 -0.012710717 0.66365641 0
4.0840001 -0.019419082 0.66316396 0
4.0780001 -0.02609678 0.6627419 0
4.072 -0.032752834 0.66231978 0
4.0650001 -0.039389044 0.66182733 0
4.059 -0.046 0.66140521 0
4.053 -0.052589312 0.6609832 0
4.046 -0.059153371 0.66049075 0
4.04 -0.065697581 0.66006863 0
4.0339999 -0.072220154 0.65964651 0
4.0280004 -0.078721084 0.65922445 0
4.0220003 -0.085200362 0.65880239 0
4.0160003 -0.091657996 0.65838027 0
4.0090003 -0.098079547 0.65788782 0
4.0030003 -0.10449209 0.65746576 0
3.9970002 -0.11088298 0.65704364 0
3.9910002 -0.11725223 0.65662158 0
3.9850004 -0.12359983 0.65619946 0
3.9790003 -0.12992579 0.65577734 0
3.9730003 -0.1362301 0.65535527 0
3.9670002 -0.14251275 0.65493321 0
3.9610002 -0.14877377 0.65451109 0
3.9550002 -0.15501314 0.65408897 0
3.9490004 -0.16123088 0.65366691 0
3.9440002 -0.16746123 0.65331519 0
3.9380002 -0.17363748 0.65289307 0
3.9320002 -0.17979208 0.65247095 0
3.9260004 -0.18592502 0.65204889 0
3.9200003 -0.19203633 0.65162683 0
3.9140003 -0.19812597 0.65120471 0
3.9090002 -0.20423907 0.65085298 0
3.9030004 -0.21028724 0.65043086 0
3.8970003 -0.21631378 0.6500088 0
3.8910003 -0.22231865 0.64958668 0
3.8970003 -0.22892962 0.6500088 0
3.9040003 -0.23561633 0.65050125 0
3.9110003 -0.24232829 0.65099365 0
3.9180002 -0.24906552 0.6514861 0
4.059 -0.26380444 0.66140521 0
4.053 -0.27003658 0.6609832 0
4.0480003 -0.27631024 0.66063142 0
4.0440001 -0.28263077 0.66035002 0
4.0410004 -0.28900364 0.66013896 0
4.039 -0.29543421 0.6599983 0
4.0380001 -0.30192792 0.65992796 0
4.0380001 -0.30849019 0.65992796 0
4.0380001 -0.31505242 0.65992796 0
4.04 -0.3217662 0.66006863 0
4.0430002 -0.32856476 0.66027969 0
4.0469999 -0.33545348 0.66056108 0
4.053 -0.34251902 0.6609832 0
4.0640001 -0.35002106 0.66175699 0
4.1470003 -0.36366686 0.66759592 0
4.1420002 -0.36999279 0.6672442 0
4.1389999 -0.37647751 0.66703308 0
4.1370001 -0.38304156 0.66689241 0
4.1360002 -0.3896904 0.66682208 0
4.1360002 -0.39642942 0.66682208 0
4.1360002 -0.40316844 0.66682208 0
4.138 -0.41010231 0.6669628 0
4.1420002 -0.41724178 0.6672442 0
4.1470003 -0.42449671 0.66759592 0
4.1560001 -0.43218091 0.6682291 0
4.164 -0.43979299 0.66879183 0
4.1630001 -0.4464761 0.6687215 0
4.171 -0.45412967 0.66928428 0
4.1790004 -0.46181208 0.66984707 0
4.1890001 -0.46974704 0.67055058 0
4.1620002 0.062574819 0.66186523 0
4.1560001 0.05562656 0.66145396 0
4.1490002 0.048674677 0.66097414 0
4.1420002 0.041748051 0.66049433 0
4.1360002 0.034868326 0.66008306 0
4.1290002 0.027990405 0.65960324 0
4.1230001 0.021155786 0.65919197 0
4.1160002 0.014326561 0.65871215 0
4.1100001 0.0075370297 0.65830088 0
4.1030002 0.00075651333 0.65782106 0
4.0970001 -0.0059879273 0.65740979 0
4.0910001 -0.012710717 0.65699852 0
4.0840001 -0.019419082 0.6565187 0
4.0780001 -0.02609678 0.65610743 0
4.072 -0.032752834 0.65569621 0
4.0650001 -0.039389044 0.6552164 0
4.059 -0.046 0.65480512 0
4.053 -0.052589312 0.65439385 0
4.046 -0.059153371 0.65391403 0
4.04 -0.065697581 0.65350276 0
4.0339999 -0.072220154 0.65309149 0
4.0280004 -0.078721084 0.65268028 0
4.0220003 -0.085200362 0.65226895 0
4.0160003 -0.091657996 0.65185767 0
4.0090003 -0.098079547 0.65137792 0
4.0030003 -0.10449209 0.65096658 0
3.9970002 -0.11088298 0.65055537 0
3.9910002 -0.11725223 0.6501441 0
3.9850004 -0.12359983 0.64973283 0
3.9790003 -0.12992579 0.64932156 0
3.9730003 -0.1362301 0.64891028 0
3.9670002 -0.14251275 0.64849901 0
3.9610002 -0.14877377 0.64808774 0
3.9550002 -0.15501314 0.64767647 0
3.9490004 -0.16123088 0.6472652 0
3.9440002 -0.16746123 0.64692247 0
3.9380002 -0.17363748 0.6465112 0
3.9320002 -0.17979208 0.64609993 0
3.9260004 -0.18592502 0.64568865 0
3.9200003 -0.19203633 0.64527738 0
3.9140003 -0.19812597 0.64486617 0
3.9090002 -0.20423907 0.64452338 0
3.9030004 -0.21028724 0.64411217 0
3.8970003 -0.21631378 0.64370084 0
3.8910003 -0.22231865 0.64328963 0
3.8970003 -0.22892962 0.64370084 0
3.9040003 -0.23561633 0.64418066 0
3.9110003 -0.24232829 0.64466047 0
3.9180002 -0.24906552 0.64514029 0
4.059 -0.26380444 0.65480512 0
4.053 -0.27003658 0.65439385 0
4.0480003 -0.27631024 0.65405113 0
4.0440001 -0.28263077 0.65377694 0
4.0410004 -0.28900364 0.65357137 0
4.039 -0.29543421 0.65343422 0
4.0380001 -0.30192792 0.65336567 0
4.0380001 -0.30849019 0.65336567 0
4.0380001 -0.31505242 0.65336567 0
4.04 -0.3217662 0.65350276 0
4.0430002 -0.32856476 0.6537084 0
4.0469999 -0.33545348 0.65398258 0
4.053 -0.34251902 0.65439385 0
4.0640001 -0.35002106 0.65514785 0
4.1470003 -0.37042576 0.66083705 0
4.1430001 -0.37683105 0.66056287 0
4.1410003 -0.38340232 0.66042578 0
4.1400003 -0.39005837 0.66035724 0
4.1400003 -0.39680463 0.66035724 0
4.1400003 -0.40355089 0.66035724 0
4.1430001 -0.41058934 0.66056287 0
4.1470003 -0.41773781 0.66083705 0
4.1530004 -0.42510277 0.66124833 0
4.165 -0.43310627 0.66207087 0
4.1589999 -0.43926987 0.6616596 0
4.165 -0.44668895 0.66207087 0
4.171 -0.45412967 0.66248214 0
4.1790004 -0.46181208 0.66303051 0
4.1870003 -0.46952334 0.66357887 0
4.197 -0.47749078 0.66426432 0
4.1620002 0.062574819 0.65507925 0
