# .PCD v0.7 - Point Cloud Data file format
VERSION 0.7
FIELDS x y z intensity
SIZE 4 4 4 4
TYPE F F F F
COUNT 1 1 1 1
WIDTH 1422
HEIGHT 1
VIEWPOINT 0 0 0 1 0 0 0
POINTS 1422
DATA ascii
3.9510002 -1.6793573 0.39118937 0
3.9440002 -1.6825303 0.39121461 0
3.9370003 -1.6856779 0.39123988 0
3.9300003 -1.6888003 0.39126512 0
3.9230003 -1.6918975 0.39129037 0
3.9160004 -1.6949694 0.39131564 0
3.9100003 -1.6984868 0.39133728 0
3.9030004 -1.70151 0.39136255 0
3.8960001 -1.7045078 0.39138779 0
3.8890002 -1.7074804 0.39141303 0
3.6820002 -1.8042693 0.39215982 0
3.6760004 -1.8069643 0.39218146 0
3.6700003 -1.8096374 0.39220312 0
3.6640003 -1.8122891 0.39222476 0
3.6580002 -1.8149189 0.3922464 0
3.6520002 -1.8175272 0.39226803 0
3.6460001 -1.8201139 0.3922897 0
3.6410003 -1.8232273 0.39230773 0
3.6350002 -1.8257725 0.39232937 0
3.6290002 -1.8282959 0.39235103 0
3.6230001 -1.8307978 0.39237267 0
3.6180003 -1.8338337 0.3923907 0
3.6120002 -1.8362942 0.39241236 0
3.6060002 -1.8387328 0.392434 0
3.6020002 -1.8422719 0.39244843 0
3.6050003 -1.8497361 0.39243761 0
3.6090002 -1.8577757 0.39242318 0
3.6120002 -1.8652632 0.39241236 0
3.6160002 -1.8733299 0.39239791 0
3.6200004 -1.881411 0.39238349 0
3.9510002 -1.6793573 0.38478404 0
3.9440002 -1.6825303 0.38482192 0
3.9370003 -1.6856779 0.3848598 0
3.9300003 -1.6888003 0.38489768 0
3.9300003 -1.6951678 0.38489768 0
3.9340003 -1.7034111 0.38487604 0
3.9340003 -1.7097858 0.38487604 0
3.9260004 -1.7123797 0.38491935 0
3.9210002 -1.7163678 0.38494638 0
3.9170003 -1.7208143 0.38496804 0
3.9130003 -1.7252463 0.38498968 0
3.9110003 -1.7306234 0.3850005 0
3.9100003 -1.736475 0.38500592 0
3.6640003 -1.8358395 0.38633713 0
3.6570003 -1.8378761 0.38637501 0
3.6510003 -1.8404392 0.38640746 0
3.6470003 -1.8440883 0.38642913 0
3.6440003 -1.8482786 0.38644534 0
3.6410003 -1.852458 0.38646159 0
3.6390002 -1.8571857 0.3864724 0
3.6380002 -1.8624674 0.38647783 0
3.6380002 -1.8683081 0.38647783 0
3.6390002 -1.8747133 0.3864724 0
3.9440002 -1.6825303 0.37842923 0
3.9370003 -1.6856779 0.37847975 0
3.9300003 -1.6888003 0.37853023 0
3.9300003 -1.6951678 0.37853023 0
3.9340003 -1.7034111 0.37850139 0
3.9340003 -1.7097858 0.37850139 0
3.9260004 -1.7123797 0.37855911 0
3.9210002 -1.7163678 0.37859517 0
3.9170003 -1.7208143 0.37862405 0
3.9130003 -1.7252463 0.3786529 0
3.9110003 -1.7306234 0.37866732 0
3.9100003 -1.736475 0.37867454 0
3.9100003 -1.7428063 0.37867454 0
4.0540004 -1.983788 0.37763554 0
4.0480003 -1.9871862 0.37767884 0
4.0440001 -1.991631 0.37770772 0
4.04 -1.9960611 0.37773657 0
4.0380001 -2.0015516 0.37775099 0
4.0360003 -2.0070353 0.37776542 0
3.6640003 -1.8358395 0.3804495 0
3.6570003 -1.8378761 0.38049999 0
3.6510003 -1.8404392 0.38054329 0
3.6470003 -1.8440883 0.38057214 0
3.6440003 -1.8482786 0.38059381 0
3.6410003 -1.852458 0.38061544 0
3.6390002 -1.8571857 0.38062987 0
3.6380002 -1.8624674 0.38063708 0
3.6380002 -1.8683081 0.38063708 0
3.6390002 -1.8747133 0.38062987 0
3.6430004 -1.8828216 0.38060102 0
3.9440002 -1.6825303 0.37203652 0
3.9370003 -1.6856779 0.37209967 0
3.9300003 -1.6888003 0.37216279 0
3.9300003 -1.6951678 0.37216279 0
3.9340003 -1.7034111 0.37212673 0
3.9340003 -1.7097858 0.37212673 0
3.9260004 -1.7123797 0.37219888 0
3.9210002 -1.7163678 0.37224397 0
3.9170003 -1.7208143 0.37228006 0
3.9130003 -1.7252463 0.37231612 0
3.9110003 -1.7306234 0.37233415 0
3.9100003 -1.736475 0.37234318 0
3.9100003 -1.7428063 0.37234318 0
4.059 -1.9732393 0.37099934 0
4.0630002 -1.9819534 0.37096328 0
4.0540004 -1.983788 0.37104443 0
4.0480003 -1.9871862 0.37109855 0
4.0440001 -1.991631 0.37113464 0
4.04 -1.9960611 0.3711707 0
4.0380001 -2.0015516 0.37118873 0
4.0360003 -2.0070353 0.37120679 0
4.0360003 -2.0135939 0.37120679 0
3.6640003 -1.8358395 0.37456188 0
3.6570003 -1.8378761 0.374625 0
3.6510003 -1.8404392 0.37467912 0
3.6470003 -1.8440883 0.37471518 0
3.6440003 -1.8482786 0.37474224 0
3.6410003 -1.852458 0.3747693 0
3.6390002 -1.8571857 0.37478733 0
3.6380002 -1.8624674 0.37479636 0
3.6380002 -1.8683081 0.37479636 0
3.6390002 -1.8747133 0.37478733 0
3.6430004 -1.8828216 0.37475127 0
3.9370003 -1.6856779 0.36571959 0
3.9300003 -1.6888003 0.36579534 0
3.9300003 -1.6951678 0.36579534 0
3.9340003 -1.7034111 0.36575207 0
3.9340003 -1.7097858 0.36575207 0
3.9260004 -1.7123797 0.36583865 0
3.9210002 -1.7163678 0.36589277 0
3.9170003 -1.7208143 0.36593604 0
3.9130003 -1.7252463 0.36597934 0
3.9110003 -1.7306234 0.36600098 0
3.9100003 -1.736475 0.3660118 0
3.9100003 -1.7428063 0.3660118 0
3.9120002 -1.7501081 0.36599016 0
4.059 -1.9732393 0.36439919 0
4.0630002 -1.9819534 0.36435592 0
4.0540004 -1.983788 0.36445332 0
4.0480003 -1.9871862 0.36451825 0
4.0440001 -1.991631 0.36456156 0
4.04 -1.9960611 0.36460483 0
4.0380001 -2.0015516 0.3646265 0
4.0360003 -2.0070353 0.36464813 0
4.0360003 -2.0135939 0.36464813 0
4.0380001 -2.0212386 0.3646265 0
3.6640003 -1.8358395 0.36867422 0
3.6570003 -1.8378761 0.36874998 0
3.6510003 -1.8404392 0.36881495 0
3.6470003 -1.8440883 0.36885822 0
3.6440003 -1.8482786 0.3688907 0
3.6410003 -1.852458 0.36892316 0
3.6390002 -1.8571857 0.36894479 0
3.6380002 -1.8624674 0.36895561 0
3.6380002 -1.8683081 0.36895561 0
3.6390002 -1.8747133 0.36894479 0
3.6430004 -1.8828216 0.36890152 0
3.9370003 -1.6856779 0.35933954 0
3.9300003 -1.6888003 0.35942793 0
3.9300003 -1.6951678 0.35942793 0
3.9340003 -1.7034111 0.35937741 0
3.9340003 -1.7097858 0.35937741 0
3.9270003 -1.7128522 0.35946578 0
3.9210002 -1.7163678 0.35954157 0
3.9170003 -1.7208143 0.35959205 0
3.9130003 -1.7252463 0.35964257 0
3.9110003 -1.7306234 0.35966781 0
3.9100003 -1.736475 0.35968044 0
3.9100003 -1.7428063 0.35968044 0
3.9120002 -1.7501081 0.3596552 0
4.0630002 -1.9819534 0.35774857 0
4.0540004 -1.983788 0.3578622 0
4.0480003 -1.9871862 0.35793796 0
4.0440001 -1.991631 0.35798848 0
4.04 -1.9960611 0.35803899 0
4.0380001 -2.0015516 0.35806423 0
4.0360003 -2.0070353 0.35808948 0
4.0360003 -2.0135939 0.35808948 0
4.0380001 -2.0212386 0.35806423 0
3.6640003 -1.8358395 0.36278659 0
3.6570003 -1.8378761 0.36287498 0
3.6510003 -1.8404392 0.36295074 0
3.6470003 -1.8440883 0.36300126 0
3.6440003 -1.8482786 0.36303914 0
3.6410003 -1.852458 0.36307701 0
3.6390002 -1.8571857 0.36310226 0
3.6380002 -1.8624674 0.36311489 0
3.6380002 -1.8683081 0.36311489 0
3.6390002 -1.8747133 0.36310226 0
3.6430004 -1.8828216 0.36305177 0
3.9340003 -1.7097858 0.35300276 0
3.9270003 -1.7128522 0.35310376 0
3.9210002 -1.7163678 0.35319033 0
3.9170003 -1.7208143 0.35324806 0
3.9130003 -1.7252463 0.35330579 0
3.9110003 -1.7306234 0.35333467 0
3.9100003 -1.736475 0.35334909 0
3.9100003 -1.7428063 0.35334909 0
3.9120002 -1.7501081 0.35332021 0
4.0630002 -1.9819534 0.35114121 0
4.0540004 -1.983788 0.35127109 0
4.0480003 -1.9871862 0.35135767 0
4.0440001 -1.991631 0.3514154 0
4.04 -1.9960611 0.35147312 0
4.0380001 -2.0015516 0.35150197 0
4.0360003 -2.0070353 0.35153085 0
4.0360003 -2.0135939 0.35153085 0
4.0380001 -2.0212386 0.35150197 0
3.6640003 -1.8358395 0.35689896 0
3.6570003 -1.8378761 0.35699999 0
3.6510003 -1.8404392 0.35708657 0
3.6470003 -1.8440883 0.3571443 0
3.6440003 -1.8482786 0.35718757 0
3.6410003 -1.852458 0.35723087 0
3.6390002 -1.8571857 0.35725975 0
3.6380002 -1.8624674 0.35727417 0
3.6380002 -1.8683081 0.35727417 0
3.6390002 -1.8747133 0.35725975 0
3.6430004 -1.8828216 0.35720202 0
3.9340003 -1.7097858 0.3466281 0
3.9270003 -1.7128522 0.34674174 0
3.9210002 -1.7163678 0.34683913 0
3.9170003 -1.7208143 0.34690407 0
3.9130003 -1.7252463 0.34696901 0
3.9110003 -1.7306234 0.34700149 0
3.9100003 -1.736475 0.34701771 0
3.9100003 -1.7428063 0.34701771 0
3.9120002 -1.7501081 0.34698525 0
4.0630002 -1.9819534 0.34453386 0
4.0540004 -1.983788 0.34467998 0
4.0480003 -1.9871862 0.34477738 0
4.0440001 -1.991631 0.34484231 0
4.04 -1.9960611 0.34490725 0
4.0380001 -2.0015516 0.34493974 0
4.0360003 -2.0070353 0.34497219 0
4.0360003 -2.0135939 0.34497219 0
4.0380001 -2.0212386 0.34493974 0
3.6640003 -1.8358395 0.35101134 0
3.6570003 -1.8378761 0.35112497 0
3.6510003 -1.8404392 0.3512224 0
3.6470003 -1.8440883 0.35128734 0
3.6440003 -1.8482786 0.35133603 0
3.6410003 -1.852458 0.35138473 0
3.6390002 -1.8571857 0.35141721 0
3.6380002 -1.8624674 0.35143343 0
3.6380002 -1.8683081 0.35143343 0
3.6390002 -1.8747133 0.35141721 0
3.6430004 -1.8828216 0.35135227 0
3.9340003 -1.7097858 0.34025344 0
3.9270003 -1.7128522 0.34037971 0
3.9210002 -1.7163678 0.34048793 0
3.9170003 -1.7208143 0.34056008 0
3.9130003 -1.7252463 0.34063223 0
3.9110003 -1.7306234 0.34066832 0
3.9100003 -1.736475 0.34068635 0
3.9100003 -1.7428063 0.34068635 0
3.9120002 -1.7501081 0.34065026 0
4.0630002 -1.9819534 0.33792651 0
4.0540004 -1.983788 0.33808887 0
4.0480003 -1.9871862 0.33819708 0
4.0440001 -1.991631 0.33826923 0
4.04 -1.9960611 0.33834139 0
4.0380001 -2.0015516 0.33837748 0
4.0360003 -2.0070353 0.33841354 0
4.0360003 -2.0135939 0.33841354 0
4.0380001 -2.0212386 0.33837748 0
3.6640003 -1.8358395 0.34512371 0
3.6570003 -1.8378761 0.34524998 0
3.6510003 -1.8404392 0.34535819 0
3.6470003 -1.8440883 0.34543037 0
3.6440003 -1.8482786 0.34548447 0
3.6410003 -1.852458 0.34553859 0
3.6390002 -1.8571857 0.34557468 0
3.6380002 -1.8624674 0.34559271 0
3.6380002 -1.8683081 0.34559271 0
3.6390002 -1.8747133 0.34557468 0
3.6430004 -1.8828216 0.3455025 0
3.9340003 -1.7097858 0.33387879 0
3.9270003 -1.7128522 0.33401766 0
3.9210002 -1.7163678 0.33413672 0
3.9170003 -1.7208143 0.33421609 0
3.9130003 -1.7252463 0.33429545 0
3.9110003 -1.7306234 0.33433515 0
3.9100003 -1.736475 0.334355 0
3.9100003 -1.7428063 0.334355 0
3.9120002 -1.7501081 0.3343153 0
4.0540004 -1.983788 0.33149773 0
4.0480003 -1.9871862 0.33161679 0
4.0440001 -1.991631 0.33169615 0
4.04 -1.9960611 0.33177555 0
4.0380001 -2.0015516 0.33181521 0
4.0360003 -2.0070353 0.33185491 0
4.0360003 -2.0135939 0.33185491 0
4.0380001 -2.0212386 0.33181521 0
3.6640003 -1.8358395 0.33923608 0
3.6570003 -1.8378761 0.33937496 0
3.6510003 -1.8404392 0.33949402 0
3.6470003 -1.8440883 0.33957338 0
3.6440003 -1.8482786 0.33963293 0
3.6410003 -1.852458 0.33969244 0
3.6390002 -1.8571857 0.33973214 0
3.6380002 -1.8624674 0.33975196 0
3.6380002 -1.8683081 0.33975196 0
3.6390002 -1.8747133 0.33973214 0
3.6430004 -1.8828216 0.33965278 0
3.9340003 -1.7097858 0.3275041 0
3.9270003 -1.7128522 0.32765564 0
3.9210002 -1.7163678 0.32778549 0
3.9170003 -1.7208143 0.3278721 0
3.9130003 -1.7252463 0.32795867 0
3.9110003 -1.7306234 0.32800198 0
3.9100003 -1.736475 0.32802361 0
3.9100003 -1.7428063 0.32802361 0
3.9120002 -1.7501081 0.32798034 0
4.0540004 -1.983788 0.32490662 0
4.0480003 -1.9871862 0.3250365 0
4.0440001 -1.991631 0.32512307 0
4.04 -1.9960611 0.32520968 0
4.0380001 -2.0015516 0.32525295 0
4.0360003 -2.0070353 0.32529625 0
4.0360003 -2.0135939 0.32529625 0
4.0380001 -2.0212386 0.32525295 0
3.6640003 -1.8358395 0.33334845 0
3.6570003 -1.8378761 0.33349997 0
3.6510003 -1.8404392 0.33362985 0
3.6470003 -1.8440883 0.33371642 0
3.6440003 -1.8482786 0.33378136 0
3.6410003 -1.852458 0.3338463 0
3.6390002 -1.8571857 0.3338896 0
3.6380002 -1.8624674 0.33391124 0
3.6380002 -1.8683081 0.33391124 0
3.6390002 -1.8747133 0.3338896 0
3.6430004 -1.8828216 0.333803 0
3.9340003 -1.7097858 0.32112944 0
3.9270003 -1.7128522 0.32129359 0
3.9210002 -1.7163678 0.32143429 0
3.9170003 -1.7208143 0.32152811 0
3.9130003 -1.7252463 0.32162189 0
3.9110003 -1.7306234 0.3216688 0
3.9100003 -1.736475 0.32169223 0
3.9100003 -1.7428063 0.32169223 0
3.9120002 -1.7501081 0.32164535 0
4.0540004 -1.983788 0.31831551 0
4.0480003 -1.9871862 0.3184562 0
4.0440001 -1.991631 0.31854999 0
4.04 -1.9960611 0.31864381 0
4.0380001 -2.0015516 0.31869072 0
4.0360003 -2.0070353 0.31873763 0
4.0360003 -2.0135939 0.31873763 0
4.0380001 -2.0212386 0.31869072 0
3.6640003 -1.8358395 0.32746083 0
3.6570003 -1.8378761 0.32762498 0
3.6510003 -1.8404392 0.32776567 0
3.6470003 -1.8440883 0.32785946 0
3.6440003 -1.8482786 0.32792982 0
3.6410003 -1.852458 0.32800016 0
3.6390002 -1.8571857 0.32804707 0
3.6380002 -1.8624674 0.32807052 0
3.6380002 -1.8683081 0.32807052 0
3.6390002 -1.8747133 0.32804707 0
3.6430004 -1.8828216 0.32795325 0
3.9340003 -1.7097858 0.31475478 0
3.9270003 -1.7128522 0.31493157 0
3.9210002 -1.7163678 0.31508309 0
3.9170003 -1.7208143 0.31518412 0
3.9130003 -1.7252463 0.31528512 0
3.9110003 -1.7306234 0.31533563 0
3.9100003 -1.736475 0.31536087 0
3.9100003 -1.7428063 0.31536087 0
3.9120002 -1.7501081 0.31531036 0
4.0540004 -1.983788 0.31172439 0
4.0480003 -1.9871862 0.31187591 0
4.0440001 -1.991631 0.31197694 0
4.04 -1.9960611 0.31207794 0
4.0380001 -2.0015516 0.31212845 0
4.0360003 -2.0070353 0.31217897 0
4.0360003 -2.0135939 0.31217897 0
4.0380001 -2.0212386 0.31212845 0
3.6640003 -1.8358395 0.3215732 0
3.6570003 -1.8378761 0.32174996 0
3.6510003 -1.8404392 0.3219015 0
3.6470003 -1.8440883 0.3220025 0
3.6440003 -1.8482786 0.32207826 0
3.6410003 -1.852458 0.32215402 0
3.6390002 -1.8571857 0.32220453 0
3.6380002 -1.8624674 0.32222977 0
3.6380002 -1.8683081 0.32222977 0
3.6390002 -1.8747133 0.32220453 0
3.6430004 -1.8828216 0.3221035 0
3.9340003 -1.7097858 0.30838013 0
3.9270003 -1.7128522 0.30856955 0
3.9210002 -1.7163678 0.30873188 0
3.9170003 -1.7208143 0.3088401 0
3.9130003 -1.7252463 0.30894834 0
3.9110003 -1.7306234 0.30900246 0
3.9100003 -1.736475 0.30902952 0
3.9100003 -1.7428063 0.30902952 0
3.9120002 -1.7501081 0.3089754 0
4.0540004 -1.983788 0.30513328 0
4.0480003 -1.9871862 0.30529562 0
4.0440001 -1.991631 0.30540386 0
4.04 -1.9960611 0.30551207 0
4.0380001 -2.0015516 0.30556619 0
4.0360003 -2.0070353 0.30562031 0
4.0360003 -2.0135939 0.30562031 0
4.0380001 -2.0212386 0.30556619 0
3.6640003 -1.8358395 0.31568557 0
3.6570003 -1.8378761 0.31587496 0
3.6510003 -1.8404392 0.3160373 0
3.6470003 -1.8440883 0.31614554 0
3.6440003 -1.8482786 0.31622672 0
3.6410003 -1.852458 0.31630787 0
3.6390002 -1.8571857 0.31636199 0
3.6380002 -1.8624674 0.31638905 0
3.6380002 -1.8683081 0.31638905 0
3.6390002 -1.8747133 0.31636199 0
3.6430004 -1.8828216 0.31625375 0
3.9340003 -1.7097858 0.30200547 0
3.9270003 -1.7128522 0.3022075 0
3.9210002 -1.7163678 0.30238068 0
3.9170003 -1.7208143 0.30249611 0
3.9130003 -1.7252463 0.30261156 0
3.9110003 -1.7306234 0.30266929 0
3.9100003 -1.736475 0.30269814 0
3.9100003 -1.7428063 0.30269814 0
3.9120002 -1.7501081 0.30264044 0
4.0540004 -1.983788 0.29854217 0
4.0480003 -1.9871862 0.29871532 0
4.0440001 -1.991631 0.29883078 0
4.04 -1.9960611 0.29894623 0
4.0380001 -2.0015516 0.29900396 0
4.0360003 -2.0070353 0.29906166 0
4.0360003 -2.0135939 0.29906166 0
4.0380001 -2.0212386 0.29900396 0
3.6640003 -1.8358395 0.30979794 0
3.6570003 -1.8378761 0.30999994 0
3.6510003 -1.8404392 0.31017312 0
3.6470003 -1.8440883 0.31028855 0
3.6440003 -1.8482786 0.31037515 0
3.6410003 -1.852458 0.31046173 0
3.6390002 -1.8571857 0.31051946 0
3.6380002 -1.8624674 0.31054831 0
3.6380002 -1.8683081 0.31054831 0
3.6390002 -1.8747133 0.31051946 0
3.6430004 -1.8828216 0.310404 0
3.9340003 -1.7097858 0.29563081 0
3.9270003 -1.7128522 0.29584548 0
3.9210002 -1.7163678 0.29602945 0
3.9170003 -1.7208143 0.29615211 0
3.9130003 -1.7252463 0.29627478 0
3.9110003 -1.7306234 0.29633611 0
3.9100003 -1.736475 0.29636678 0
3.9100003 -1.7428063 0.29636678 0
3.9120002 -1.7501081 0.29630545 0
4.0540004 -1.983788 0.29195106 0
4.0480003 -1.9871862 0.29213506 0
4.0440001 -1.991631 0.2922577 0
4.04 -1.9960611 0.29238036 0
4.0380001 -2.0015516 0.2924417 0
4.0360003 -2.0070353 0.292503 0
4.0360003 -2.0135939 0.292503 0
4.0380001 -2.0212386 0.2924417 0
3.6640003 -1.8358395 0.30391032 0
3.6570003 -1.8378761 0.30412495 0
3.6510003 -1.8404392 0.30430895 0
3.6470003 -1.8440883 0.30443162 0
3.6440003 -1.8482786 0.30452359 0
3.6410003 -1.852458 0.30461559 0
3.6390002 -1.8571857 0.30467692 0
3.6380002 -1.8624674 0.30470759 0
3.6380002 -1.8683081 0.30470759 0
3.6390002 -1.8747133 0.30467692 0
3.6430004 -1.8828216 0.30455425 0
3.9340003 -1.7097858 0.28925616 0
3.9270003 -1.7128522 0.28948343 0
3.9210002 -1.7163678 0.28967828 0
3.9170003 -1.7208143 0.28980812 0
3.9130003 -1.7252463 0.289938 0
3.9110003 -1.7306234 0.29000294 0
3.9100003 -1.736475 0.2900354 0
3.9100003 -1.7428063 0.2900354 0
3.9120002 -1.7501081 0.28997046 0
4.0540004 -1.983788 0.28535995 0
4.0480003 -1.9871862 0.28555477 0
4.0440001 -1.991631 0.28568462 0
4.04 -1.9960611 0.28581449 0
4.0380001 -2.0015516 0.28587943 0
4.0360003 -2.0070353 0.28594437 0
4.0360003 -2.0135939 0.28594437 0
4.0380001 -2.0212386 0.28587943 0
3.6640003 -1.8358395 0.29802269 0
3.6570003 -1.8378761 0.29824996 0
3.6510003 -1.8404392 0.29844475 0
3.6470003 -1.8440883 0.29857463 0
3.6440003 -1.8482786 0.29867205 0
3.6410003 -1.852458 0.29876944 0
3.6390002 -1.8571857 0.29883438 0
3.6380002 -1.8624674 0.29886687 0
3.6380002 -1.8683081 0.29886687 0
3.6390002 -1.8747133 0.29883438 0
3.6430004 -1.8828216 0.2987045 0
3.9340003 -1.7097858 0.2828815 0
3.9270003 -1.7128522 0.28312141 0
3.9210002 -1.7163678 0.28332704 0
3.9170003 -1.7208143 0.28346413 0
3.9130003 -1.7252463 0.28360122 0
3.9110003 -1.7306234 0.28366977 0
3.9100003 -1.736475 0.28370404 0
3.9100003 -1.7428063 0.28370404 0
3.9120002 -1.7501081 0.2836355 0
4.0540004 -1.983788 0.27876884 0
4.0480003 -1.9871862 0.27897447 0
4.0440001 -1.991631 0.27911153 0
4.04 -1.9960611 0.27924863 0
4.0380001 -2.0015516 0.2793172 0
4.0360003 -2.0070353 0.27938575 0
4.0360003 -2.0135939 0.27938575 0
4.0380001 -2.0212386 0.2793172 0
3.6640003 -1.8358395 0.29213506 0
3.6570003 -1.8378761 0.29237494 0
3.6510003 -1.8404392 0.29258057 0
3.6470003 -1.8440883 0.29271767 0
3.6440003 -1.8482786 0.29282048 0
3.6410003 -1.852458 0.2929233 0
3.6390002 -1.8571857 0.29299185 0
3.6380002 -1.8624674 0.29302612 0
3.6380002 -1.8683081 0.29302612 0
3.6390002 -1.8747133 0.29299185 0
3.6430004 -1.8828216 0.29285476 0
3.9340003 -1.7097858 0.27650684 0
3.9270003 -1.7128522 0.27675939 0
3.9210002 -1.7163678 0.27697584 0
3.9170003 -1.7208143 0.27712014 0
3.9130003 -1.7252463 0.27726445 0
3.9110003 -1.7306234 0.2773366 0
3.9100003 -1.736475 0.27737266 0
3.9100003 -1.7428063 0.27737266 0
3.9120002 -1.7501081 0.27730054 0
4.0540004 -1.983788 0.2721777 0
4.0480003 -1.9871862 0.27239418 0
4.0440001 -1.991631 0.27253848 0
4.04 -1.9960611 0.27268279 0
4.0380001 -2.0015516 0.27275491 0
4.0360003 -2.0070353 0.27282709 0
4.0360003 -2.0135939 0.27282709 0
4.0380001 -2.0212386 0.27275491 0
3.6640003 -1.8358395 0.2862474 0
3.6570003 -1.8378761 0.28649995 0
3.6510003 -1.8404392 0.2867164 0
3.6470003 -1.8440883 0.2868607 0
3.6440003 -1.8482786 0.28696895 0
3.6410003 -1.852458 0.28707716 0
3.6390002 -1.8571857 0.28714931 0
3.6380002 -1.8624674 0.2871854 0
3.6380002 -1.8683081 0.2871854 0
3.6390002 -1.8747133 0.28714931 0
3.6430004 -1.8828216 0.28700501 0
3.9340003 -1.7097858 0.27013218 0
3.9270003 -1.7128522 0.27039737 0
3.9210002 -1.7163678 0.27062464 0
3.9170003 -1.7208143 0.27077615 0
3.9130003 -1.7252463 0.27092767 0
3.9110003 -1.7306234 0.27100343 0
3.9100003 -1.736475 0.2710413 0
3.9100003 -1.7428063 0.2710413 0
3.9120002 -1.7501081 0.27096558 0
4.0540004 -1.983788 0.26558658 0
4.0480003 -1.9871862 0.26581389 0
4.0440001 -1.991631 0.2659654 0
4.04 -1.9960611 0.26611692 0
4.0380001 -2.0015516 0.26619267 0
4.0360003 -2.0070353 0.26626843 0
4.0360003 -2.0135939 0.26626843 0
4.0380001 -2.0212386 0.26619267 0
3.6640003 -1.8358395 0.28035977 0
3.6570003 -1.8378761 0.28062493 0
3.6510003 -1.8404392 0.28085223 0
3.6470003 -1.8440883 0.28100374 0
3.6440003 -1.8482786 0.28111738 0
3.6410003 -1.852458 0.28123102 0
3.6390002 -1.8571857 0.28130677 0
3.6380002 -1.8624674 0.28134465 0
3.6380002 -1.8683081 0.28134465 0
3.6390002 -1.8747133 0.28130677 0
3.6430004 -1.8828216 0.28115526 0
3.9340003 -1.7097858 0.26375753 0
3.9270003 -1.7128522 0.26403531 0
3.9210002 -1.7163678 0.26427341 0
3.9170003 -1.7208143 0.26443213 0
3.9130003 -1.7252463 0.26459089 0
3.9110003 -1.7306234 0.26467025 0
3.9100003 -1.736475 0.26470995 0
3.9100003 -1.7428063 0.26470995 0
3.9120002 -1.7501081 0.26463059 0
4.0540004 -1.983788 0.25899547 0
4.0480003 -1.9871862 0.25923359 0
4.0440001 -1.991631 0.25939232 0
4.04 -1.9960611 0.25955105 0
4.0380001 -2.0015516 0.25963044 0
4.0360003 -2.0070353 0.25970978 0
4.0360003 -2.0135939 0.25970978 0
4.0380001 -2.0212386 0.25963044 0
3.6640003 -1.8358395 0.27447215 0
3.6570003 -1.8378761 0.27474993 0
3.6510003 -1.8404392 0.27498806 0
3.6470003 -1.8440883 0.27514678 0
3.6440003 -1.8482786 0.27526581 0
3.6410003 -1.852458 0.2753849 0
3.6390002 -1.8571857 0.27546424 0
3.6380002 -1.8624674 0.27550393 0
3.6380002 -1.8683081 0.27550393 0
3.6390002 -1.8747133 0.27546424 0
3.6430004 -1.8828216 0.27530551 0
3.9340003 -1.7097858 0.25738287 0
3.9270003 -1.7128522 0.25767329 0
3.9210002 -1.7163678 0.25792223 0
3.9170003 -1.7208143 0.25808817 0
3.9130003 -1.7252463 0.25825411 0
3.9110003 -1.7306234 0.25833708 0
3.9100003 -1.736475 0.25837857 0
3.9100003 -1.7428063 0.25837857 0
3.9120002 -1.7501081 0.2582956 0
4.0540004 -1.983788 0.25240436 0
4.0480003 -1.9871862 0.2526533 0
4.0440001 -1.991631 0.25281924 0
4.04 -1.9960611 0.25298518 0
4.0380001 -2.0015516 0.25306815 0
4.0360003 -2.0070353 0.25315112 0
4.0360003 -2.0135939 0.25315112 0
4.0380001 -2.0212386 0.25306815 0
3.6640003 -1.8358395 0.26858452 0
3.6570003 -1.8378761 0.26887494 0
3.6510003 -1.8404392 0.26912385 0
3.6470003 -1.8440883 0.26928979 0
3.6440003 -1.8482786 0.26941425 0
3.6410003 -1.852458 0.26953873 0
3.6390002 -1.8571857 0.26962173 0
3.6380002 -1.8624674 0.26966321 0
3.6380002 -1.8683081 0.26966321 0
3.6390002 -1.8747133 0.26962173 0
3.6430004 -1.8828216 0.26945576 0
3.9350002 -1.7102566 0.25096494 0
3.9270003 -1.7128522 0.25131124 0
3.9210002 -1.7163678 0.251571 0
3.9170003 -1.7208143 0.25174415 0
3.9130003 -1.7252463 0.25191733 0
3.9110003 -1.7306234 0.25200391 0
3.9100003 -1.736475 0.25204721 0
3.9100003 -1.7428063 0.25204721 0
3.9120002 -1.7501081 0.25196064 0
4.0540004 -1.983788 0.24581324 0
4.0480003 -1.9871862 0.24607299 0
4.0440001 -1.991631 0.24624616 0
4.04 -1.9960611 0.24641934 0
4.0380001 -2.0015516 0.24650592 0
4.0360003 -2.0070353 0.24659249 0
4.0360003 -2.0135939 0.24659249 0
4.0380001 -2.0212386 0.24650592 0
3.6640003 -1.8358395 0.26269689 0
3.6570003 -1.8378761 0.26299992 0
3.6510003 -1.8404392 0.26325968 0
3.6470003 -1.8440883 0.26343283 0
3.6440003 -1.8482786 0.26356274 0
3.6410003 -1.852458 0.26369259 0
3.6390002 -1.8571857 0.26377916 0
3.6380002 -1.8624674 0.26382247 0
3.6380002 -1.8683081 0.26382247 0
3.6390002 -1.8747133 0.26377916 0
3.6430004 -1.8828216 0.26360601 0
3.9350002 -1.7102566 0.24458846 0
3.9270003 -1.7128522 0.24494922 0
3.9210002 -1.7163678 0.2452198 0
3.9170003 -1.7208143 0.24540018 0
3.9130003 -1.7252463 0.24558055 0
3.9110003 -1.7306234 0.24567075 0
3.9100003 -1.736475 0.24571584 0
3.9100003 -1.7428063 0.24571584 0
3.9120002 -1.7501081 0.24562566 0
4.0540004 -1.983788 0.23922212 0
4.0480003 -1.9871862 0.2394927 0
4.0440001 -1.991631 0.23967308 0
4.04 -1.9960611 0.23985347 0
4.0380001 -2.0015516 0.23994365 0
4.0360003 -2.0070353 0.24003385 0
4.0360003 -2.0135939 0.24003385 0
4.0380001 -2.0212386 0.23994365 0
3.6640003 -1.8358395 0.25680926 0
3.6570003 -1.8378761 0.25712493 0
3.6510003 -1.8404392 0.25739551 0
3.6470003 -1.8440883 0.25757587 0
3.6440003 -1.8482786 0.25771117 0
3.6410003 -1.852458 0.25784647 0
3.6390002 -1.8571857 0.25793666 0
3.6380002 -1.8624674 0.25798172 0
3.6380002 -1.8683081 0.25798172 0
3.6390002 -1.8747133 0.25793666 0
3.6430004 -1.8828216 0.25775626 0
3.9350002 -1.7102566 0.238212 0
3.9270003 -1.7128522 0.23858719 0
3.9210002 -1.7163678 0.23886858 0
3.9170003 -1.7208143 0.23905618 0
3.9130003 -1.7252463 0.23924378 0
3.9110003 -1.7306234 0.23933758 0
3.9100003 -1.736475 0.23938447 0
3.9100003 -1.7428063 0.23938447 0
3.9120002 -1.7501081 0.23929068 0
4.0540004 -1.983788 0.23263101 0
4.0480003 -1.9871862 0.23291241 0
4.0440001 -1.991631 0.2331 0
4.04 -1.9960611 0.23328762 0
4.0380001 -2.0015516 0.23338141 0
4.0360003 -2.0070353 0.23347521 0
4.0360003 -2.0135939 0.23347521 0
4.0380001 -2.0212386 0.23338141 0
3.6640003 -1.8358395 0.25092161 0
3.6570003 -1.8378761 0.25124991 0
3.6510003 -1.8404392 0.2515313 0
3.6470003 -1.8440883 0.25171891 0
3.6440003 -1.8482786 0.25185961 0
3.6410003 -1.852458 0.2520003 0
3.6390002 -1.8571857 0.25209409 0
3.6380002 -1.8624674 0.252141 0
3.6380002 -1.8683081 0.252141 0
3.6390002 -1.8747133 0.25209409 0
3.6430004 -1.8828216 0.25190651 0
3.9350002 -1.7102566 0.23183554 0
3.9270003 -1.7128522 0.23222516 0
3.9210002 -1.7163678 0.23251738 0
3.9170003 -1.7208143 0.23271218 0
3.9130003 -1.7252463 0.232907 0
3.9110003 -1.7306234 0.23300441 0
3.9100003 -1.736475 0.2330531 0
3.9100003 -1.7428063 0.2330531 0
3.9120002 -1.7501081 0.23295569 0
4.0540004 -1.983788 0.2260399 0
4.0480003 -1.9871862 0.22633211 0
4.0440001 -1.991631 0.22652692 0
4.04 -1.9960611 0.22672173 0
4.0380001 -2.0015516 0.22681914 0
4.0360003 -2.0070353 0.22691655 0
4.0360003 -2.0135939 0.22691655 0
4.0380001 -2.0212386 0.22681914 0
3.6640003 -1.8358395 0.24503399 0
3.6570003 -1.8378761 0.24537492 0
3.6510003 -1.8404392 0.24566713 0
3.6470003 -1.8440883 0.24586195 0
3.6440003 -1.8482786 0.24600805 0
3.6410003 -1.852458 0.24615417 0
3.6390002 -1.8571857 0.24625157 0
3.6380002 -1.8624674 0.24630028 0
3.6380002 -1.8683081 0.24630028 0
3.6390002 -1.8747133 0.24625157 0
3.6430004 -1.8828216 0.24605677 0
3.9350002 -1.7102566 0.22545908 0
3.9270003 -1.7128522 0.22586313 0
3.9210002 -1.7163678 0.22616617 0
3.9170003 -1.7208143 0.22636819 0
3.9130003 -1.7252463 0.22657022 0
3.9110003 -1.7306234 0.22667123 0
3.9100003 -1.736475 0.22672173 0
3.9100003 -1.7428063 0.22672173 0
3.9120002 -1.7501081 0.22662073 0
4.0540004 -1.983788 0.21944878 0
4.0480003 -1.9871862 0.21975182 0
4.0440001 -1.991631 0.21995385 0
4.04 -1.9960611 0.22015588 0
4.0380001 -2.0015516 0.22025689 0
4.0360003 -2.0070353 0.22035791 0
4.0360003 -2.0135939 0.22035791 0
4.0380001 -2.0212386 0.22025689 0
3.6640003 -1.8358395 0.23914637 0
3.6570003 -1.8378761 0.23949991 0
3.6510003 -1.8404392 0.23980296 0
3.6470003 -1.8440883 0.24000497 0
3.6440003 -1.8482786 0.2401565 0
3.6410003 -1.852458 0.24030803 0
3.6390002 -1.8571857 0.24040905 0
3.6380002 -1.8624674 0.24045955 0
3.6380002 -1.8683081 0.24045955 0
3.6390002 -1.8747133 0.24040905 0
3.6430004 -1.8828216 0.240207 0
3.9350002 -1.7102566 0.21908262 0
3.9270003 -1.7128522 0.21950109 0
3.9210002 -1.7163678 0.21981497 0
3.9170003 -1.7208143 0.2200242 0
3.9130003 -1.7252463 0.22023344 0
3.9110003 -1.7306234 0.22033806 0
3.9100003 -1.736475 0.22039036 0
3.9100003 -1.7428063 0.22039036 0
3.9120002 -1.7501081 0.22028576 0
4.0540004 -1.983788 0.21285766 0
4.0480003 -1.9871862 0.21317153 0
4.0440001 -1.991631 0.21338077 0
4.04 -1.9960611 0.21359001 0
4.0380001 -2.0015516 0.21369463 0
4.0360003 -2.0070353 0.21379925 0
4.0360003 -2.0135939 0.21379925 0
4.0380001 -2.0212386 0.21369463 0
3.6640003 -1.8358395 0.23325874 0
3.6570003 -1.8378761 0.23362492 0
3.6510003 -1.8404392 0.23393877 0
3.6470003 -1.8440883 0.23414801 0
3.6440003 -1.8482786 0.23430495 0
3.6410003 -1.852458 0.23446187 0
3.6390002 -1.8571857 0.23456651 0
3.6380002 -1.8624674 0.23461881 0
3.6380002 -1.8683081 0.23461881 0
3.6390002 -1.8747133 0.23456651 0
3.6430004 -1.8828216 0.23435727 0
3.9350002 -1.7102566 0.21270615 0
3.9270003 -1.7128522 0.21313907 0
3.9210002 -1.7163678 0.21346375 0
3.9170003 -1.7208143 0.21368019 0
3.9130003 -1.7252463 0.21389666 0
3.9110003 -1.7306234 0.2140049 0
3.9100003 -1.736475 0.21405901 0
3.9100003 -1.7428063 0.21405901 0
3.9120002 -1.7501081 0.21395078 0
4.0540004 -1.983788 0.20626655 0
4.0480003 -1.9871862 0.20659123 0
4.0440001 -1.991631 0.20680769 0
4.04 -1.9960611 0.20702416 0
4.0380001 -2.0015516 0.20713238 0
4.0360003 -2.0070353 0.20724061 0
4.0360003 -2.0135939 0.20724061 0
4.0380001 -2.0212386 0.20713238 0
3.6640003 -1.8358395 0.22737111 0
3.6570003 -1.8378761 0.22774991 0
3.6510003 -1.8404392 0.2280746 0
3.6470003 -1.8440883 0.22829105 0
3.6440003 -1.8482786 0.2284534 0
3.6410003 -1.852458 0.22861575 0
3.6390002 -1.8571857 0.22872397 0
3.6380002 -1.8624674 0.22877808 0
3.6380002 -1.8683081 0.22877808 0
3.6390002 -1.8747133 0.22872397 0
3.6430004 -1.8828216 0.2285075 0
3.9350002 -1.7102566 0.2063297 0
3.9270003 -1.7128522 0.20677704 0
3.9210002 -1.7163678 0.20711255 0
3.9170003 -1.7208143 0.2073362 0
3.9130003 -1.7252463 0.20755988 0
3.9110003 -1.7306234 0.20767173 0
3.9100003 -1.736475 0.20772764 0
3.9100003 -1.7428063 0.20772764 0
3.9120002 -1.7501081 0.20761581 0
4.0540004 -1.983788 0.19967543 0
4.0480003 -1.9871862 0.20001096 0
4.0440001 -1.991631 0.20023461 0
4.04 -1.9960611 0.20045829 0
4.0380001 -2.0015516 0.20057012 0
4.0360003 -2.0070353 0.20068197 0
4.0360003 -2.0135939 0.20068197 0
4.0380001 -2.0212386 0.20057012 0
3.6640003 -1.8358395 0.22148348 0
3.6570003 -1.8378761 0.22187491 0
3.6510003 -1.8404392 0.22221041 0
3.6470003 -1.8440883 0.22243409 0
3.6440003 -1.8482786 0.22260185 0
3.6410003 -1.852458 0.22276959 0
3.6390002 -1.8571857 0.22288144 0
3.6380002 -1.8624674 0.22293735 0
3.6380002 -1.8683081 0.22293735 0
3.6390002 -1.8747133 0.22288144 0
3.6430004 -1.8828216 0.22265776 0
3.9350002 -1.7102566 0.19995323 0
3.9270003 -1.7128522 0.200415 0
3.9210002 -1.7163678 0.20076133 0
3.9170003 -1.7208143 0.20099221 0
3.9130003 -1.7252463 0.20122311 0
3.9110003 -1.7306234 0.20133856 0
3.9100003 -1.736475 0.20139627 0
3.9100003 -1.7428063 0.20139627 0
3.9120002 -1.7501081 0.20128083 0
4.0540004 -1.983788 0.19308431 0
4.0480003 -1.9871862 0.19343065 0
4.0440001 -1.991631 0.19366154 0
4.04 -1.9960611 0.19389243 0
4.0380001 -2.0015516 0.19400787 0
4.0360003 -2.0070353 0.19412331 0
4.0360003 -2.0135939 0.19412331 0
4.0380001 -2.0212386 0.19400787 0
3.6640003 -1.8358395 0.21559586 0
3.6570003 -1.8378761 0.2159999 0
3.6510003 -1.8404392 0.21634623 0
3.6470003 -1.8440883 0.21657711 0
3.6440003 -1.8482786 0.21675029 0
3.6410003 -1.852458 0.21692346 0
3.6390002 -1.8571857 0.2170389 0
3.6380002 -1.8624674 0.21709663 0
3.6380002 -1.8683081 0.21709663 0
3.6390002 -1.8747133 0.2170389 0
3.6430004 -1.8828216 0.21680801 0
3.9350002 -1.7102566 0.19357677 0
3.9270003 -1.7128522 0.19405296 0
3.9210002 -1.7163678 0.19441012 0
3.9170003 -1.7208143 0.19464822 0
3.9130003 -1.7252463 0.19488633 0
3.9110003 -1.7306234 0.19500537 0
3.9100003 -1.736475 0.1950649 0
3.9100003 -1.7428063 0.1950649 0
3.9120002 -1.7501081 0.19494586 0
4.0540004 -1.983788 0.1864932 0
4.0480003 -1.9871862 0.18685035 0
4.0440001 -1.991631 0.18708846 0
4.04 -1.9960611 0.18732658 0
4.0380001 -2.0015516 0.18744561 0
4.0360003 -2.0070353 0.18756467 0
4.0360003 -2.0135939 0.18756467 0
4.0380001 -2.0212386 0.18744561 0
3.6640003 -1.8358395 0.20970821 0
3.6570003 -1.8378761 0.21012489 0
3.6510003 -1.8404392 0.21048206 0
3.6470003 -1.8440883 0.21072015 0
3.6440003 -1.8482786 0.21089873 0
3.6410003 -1.852458 0.21107732 0
3.6390002 -1.8571857 0.21119638 0
3.6380002 -1.8624674 0.21125589 0
3.6380002 -1.8683081 0.21125589 0
3.6390002 -1.8747133 0.21119638 0
3.6430004 -1.8828216 0.21095824 0
3.9350002 -1.7102566 0.18720031 0
3.9270003 -1.7128522 0.18769094 0
3.9210002 -1.7163678 0.18805891 0
3.9170003 -1.7208143 0.18830425 0
3.9130003 -1.7252463 0.18854955 0
3.9110003 -1.7306234 0.1886722 0
3.9100003 -1.736475 0.18873353 0
3.9100003 -1.7428063 0.18873353 0
3.9120002 -1.7501081 0.18861088 0
4.0540004 -1.983788 0.17990209 0
4.0480003 -1.9871862 0.18027008 0
4.0440001 -1.991631 0.18051538 0
4.04 -1.9960611 0.18076071 0
4.0380001 -2.0015516 0.18088336 0
4.0360003 -2.0070353 0.18100601 0
4.0360003 -2.0135939 0.18100601 0
4.0380001 -2.0212386 0.18088336 0
3.6640003 -1.8358395 0.20382059 0
3.6570003 -1.8378761 0.20424989 0
3.6510003 -1.8404392 0.20461787 0
3.6470003 -1.8440883 0.20486319 0
3.6440003 -1.8482786 0.20504718 0
3.6410003 -1.852458 0.20523116 0
3.6390002 -1.8571857 0.20535384 0
3.6380002 -1.8624674 0.20541516 0
3.6380002 -1.8683081 0.20541516 0
3.6390002 -1.8747133 0.20535384 0
3.6430004 -1.8828216 0.20510851 0
3.9350002 -1.7102566 0.18082383 0
3.9270003 -1.7128522 0.18132891 0
3.9210002 -1.7163678 0.1817077 0
3.9170003 -1.7208143 0.18196024 0
3.9130003 -1.7252463 0.18221277 0
3.9110003 -1.7306234 0.18233904 0
3.9100003 -1.736475 0.18240218 0
3.9100003 -1.7428063 0.18240218 0
3.9120002 -1.7501081 0.18227591 0
4.0540004 -1.983788 0.17331098 0
4.0480003 -1.9871862 0.17368978 0
4.0440001 -1.991631 0.17394231 0
4.04 -1.9960611 0.17419486 0
4.0380001 -2.0015516 0.1743211 0
4.0360003 -2.0070353 0.17444739 0
4.0360003 -2.0135939 0.17444739 0
4.0380001 -2.0212386 0.1743211 0
3.6640003 -1.8358395 0.19793296 0
3.6570003 -1.8378761 0.19837488 0
3.6510003 -1.8404392 0.1987537 0
3.6470003 -1.8440883 0.19900623 0
3.6440003 -1.8482786 0.19919562 0
3.6410003 -1.852458 0.19938503 0
3.6390002 -1.8571857 0.19951129 0
3.6380002 -1.8624674 0.19957444 0
3.6380002 -1.8683081 0.19957444 0
3.6390002 -1.8747133 0.19951129 0
3.6430004 -1.8828216 0.19925874 0
3.9350002 -1.7102566 0.17444739 0
3.9270003 -1.7128522 0.17496687 0
3.9210002 -1.7163678 0.17535651 0
3.9170003 -1.7208143 0.17561625 0
3.9130003 -1.7252463 0.17587599 0
3.9110003 -1.7306234 0.17600587 0
3.9100003 -1.736475 0.17607079 0
3.9100003 -1.7428063 0.17607079 0
3.9120002 -1.7501081 0.17594093 0
4.0540004 -1.983788 0.16671987 0
4.0480003 -1.9871862 0.16710949 0
4.0440001 -1.991631 0.16736923 0
4.04 -1.9960611 0.16762897 0
4.0380001 -2.0015516 0.16775887 0
4.0360003 -2.0070353 0.16788872 0
4.0360003 -2.0135939 0.16788872 0
4.0380001 -2.0212386 0.16775887 0
3.6640003 -1.8358395 0.19204533 0
3.6570003 -1.8378761 0.19249989 0
3.6510003 -1.8404392 0.19288951 0
3.6470003 -1.8440883 0.19314927 0
3.6440003 -1.8482786 0.19334407 0
3.6410003 -1.852458 0.19353887 0
3.6390002 -1.8571857 0.19366877 0
3.6380002 -1.8624674 0.19373369 0
3.6380002 -1.8683081 0.19373369 0
3.6390002 -1.8747133 0.19366877 0
3.6430004 -1.8828216 0.19340901 0
3.9350002 -1.7102566 0.16807093 0
3.9270003 -1.7128522 0.16860484 0
3.9210002 -1.7163678 0.16900529 0
3.9170003 -1.7208143 0.16927224 0
3.9130003 -1.7252463 0.16953923 0
3.9110003 -1.7306234 0.16967268 0
3.9100003 -1.736475 0.16973943 0
3.9100003 -1.7428063 0.16973943 0
3.9120002 -1.7501081 0.16960597 0
4.0540004 -1.983788 0.16012874 0
4.0480003 -1.9871862 0.16052918 0
4.0440001 -1.991631 0.16079614 0
4.04 -1.9960611 0.16106312 0
4.0380001 -2.0015516 0.1611966 0
4.0360003 -2.0070353 0.16133007 0
4.0360003 -2.0135939 0.16133007 0
4.0380001 -2.0212386 0.1611966 0
3.6640003 -1.8358395 0.1861577 0
3.6570003 -1.8378761 0.18662488 0
3.6510003 -1.8404392 0.18702534 0
3.6470003 -1.8440883 0.18729229 0
3.6440003 -1.8482786 0.18749252 0
3.6410003 -1.852458 0.18769273 0
3.6390002 -1.8571857 0.18782623 0
3.6380002 -1.8624674 0.18789296 0
3.6380002 -1.8683081 0.18789296 0
3.6390002 -1.8747133 0.18782623 0
3.6430004 -1.8828216 0.18755925 0
3.9350002 -1.7102566 0.16169447 0
3.9270003 -1.7128522 0.16224281 0
3.9210002 -1.7163678 0.16265409 0
3.9170003 -1.7208143 0.16292825 0
3.9130003 -1.7252463 0.16320245 0
3.9110003 -1.7306234 0.16333954 0
3.9100003 -1.736475 0.16340807 0
3.9100003 -1.7428063 0.16340807 0
3.9120002 -1.7501081 0.16327098 0
4.0540004 -1.983788 0.15353763 0
4.0480003 -1.9871862 0.1539489 0
4.0440001 -1.991631 0.15422307 0
4.04 -1.9960611 0.15449725 0
4.0380001 -2.0015516 0.15463436 0
4.0360003 -2.0070353 0.15477145 0
4.0360003 -2.0135939 0.15477145 0
4.0380001 -2.0212386 0.15463436 0
3.6640003 -1.8358395 0.18027008 0
3.6570003 -1.8378761 0.18074988 0
3.6510003 -1.8404392 0.18116115 0
3.6470003 -1.8440883 0.18143533 0
3.6440003 -1.8482786 0.18164095 0
3.6410003 -1.852458 0.1818466 0
3.6390002 -1.8571857 0.18198369 0
3.6380002 -1.8624674 0.18205224 0
3.6380002 -1.8683081 0.18205224 0
3.6390002 -1.8747133 0.18198369 0
3.6430004 -1.8828216 0.1817095 0
3.9350002 -1.7102566 0.15531799 0
3.9270003 -1.7128522 0.15588078 0
3.9210002 -1.7163678 0.15630288 0
3.9170003 -1.7208143 0.15658426 0
3.9130003 -1.7252463 0.15686567 0
3.9110003 -1.7306234 0.15700637 0
3.9100003 -1.736475 0.15707669 0
3.9100003 -1.7428063 0.15707669 0
3.9120002 -1.7501081 0.15693602 0
4.0540004 -1.983788 0.14694652 0
4.0480003 -1.9871862 0.14736861 0
4.0440001 -1.991631 0.14765 0
4.04 -1.9960611 0.1479314 0
4.0380001 -2.0015516 0.14807209 0
4.0360003 -2.0070353 0.14821279 0
4.0360003 -2.0135939 0.14821279 0
4.0380001 -2.0212386 0.14807209 0
3.6640003 -1.8358395 0.17438245 0
3.6570003 -1.8378761 0.17487487 0
3.6510003 -1.8404392 0.17529696 0
3.6470003 -1.8440883 0.17557836 0
3.6440003 -1.8482786 0.17578942 0
3.6410003 -1.852458 0.17600045 0
3.6390002 -1.8571857 0.17614116 0
3.6380002 -1.8624674 0.17621151 0
3.6380002 -1.8683081 0.17621151 0
3.6390002 -1.8747133 0.17614116 0
3.6430004 -1.8828216 0.17585975 0
3.9350002 -1.7102566 0.14894152 0
3.9270003 -1.7128522 0.14951876 0
3.9210002 -1.7163678 0.14995167 0
3.9170003 -1.7208143 0.15024027 0
3.9130003 -1.7252463 0.15052888 0
3.9110003 -1.7306234 0.15067318 0
3.9100003 -1.736475 0.15074533 0
3.9100003 -1.7428063 0.15074533 0
3.9120002 -1.7501081 0.15060103 0
4.0540004 -1.983788 0.14035541 0
4.0480003 -1.9871862 0.14078832 0
4.0440001 -1.991631 0.14107692 0
4.04 -1.9960611 0.14136553 0
4.0380001 -2.0015516 0.14150983 0
4.0360003 -2.0070353 0.14165416 0
4.0360003 -2.0135939 0.14165416 0
4.0380001 -2.0212386 0.14150983 0
3.6640003 -1.8358395 0.16849481 0
3.6570003 -1.8378761 0.16899987 0
3.6510003 -1.8404392 0.16943279 0
3.6470003 -1.8440883 0.16972141 0
3.6440003 -1.8482786 0.16993785 0
3.6410003 -1.852458 0.1701543 0
3.6390002 -1.8571857 0.17029864 0
3.6380002 -1.8624674 0.17037077 0
3.6380002 -1.8683081 0.17037077 0
3.6390002 -1.8747133 0.17029864 0
3.6430004 -1.8828216 0.17000999 0
3.9350002 -1.7102566 0.14256507 0
3.9270003 -1.7128522 0.14315671 0
3.9210002 -1.7163678 0.14360046 0
3.9170003 -1.7208143 0.14389628 0
3.9130003 -1.7252463 0.1441921 0
3.9110003 -1.7306234 0.14434001 0
3.9100003 -1.736475 0.14441398 0
3.9100003 -1.7428063 0.14441398 0
3.9120002 -1.7501081 0.14426607 0
4.0540004 -1.983788 0.13376427 0
4.0480003 -1.9871862 0.13420802 0
4.0440001 -1.991631 0.13450384 0
4.04 -1.9960611 0.13479969 0
4.0380001 -2.0015516 0.1349476 0
4.0360003 -2.0070353 0.13509551 0
4.0360003 -2.0135939 0.13509551 0
4.0380001 -2.0212386 0.1349476 0
3.6640003 -1.8358395 0.16260718 0
3.6570003 -1.8378761 0.16312487 0
3.6510003 -1.8404392 0.16356862 0
3.6470003 -1.8440883 0.16386442 0
3.6440003 -1.8482786 0.1640863 0
3.6410003 -1.852458 0.16430816 0
3.6390002 -1.8571857 0.1644561 0
3.6380002 -1.8624674 0.16453004 0
3.6380002 -1.8683081 0.16453004 0
3.6390002 -1.8747133 0.1644561 0
3.6430004 -1.8828216 0.16416025 0
3.9350002 -1.7102566 0.13618863 0
3.9270003 -1.7128522 0.13679469 0
3.9210002 -1.7163678 0.13724926 0
3.9170003 -1.7208143 0.13755229 0
3.9130003 -1.7252463 0.13785532 0
3.9110003 -1.7306234 0.13800684 0
3.9100003 -1.736475 0.13808259 0
3.9100003 -1.7428063 0.13808259 0
3.9120002 -1.7501081 0.13793111 0
4.0540004 -1.983788 0.12717316 0
4.0480003 -1.9871862 0.12762773 0
4.0440001 -1.991631 0.12793076 0
4.04 -1.9960611 0.12823382 0
4.0380001 -2.0015516 0.12838534 0
4.0360003 -2.0070353 0.12853685 0
4.0360003 -2.0135939 0.12853685 0
4.0380001 -2.0212386 0.12838534 0
3.6640003 -1.8358395 0.15671954 0
3.6570003 -1.8378761 0.15724987 0
3.6510003 -1.8404392 0.15770443 0
3.6470003 -1.8440883 0.15800747 0
3.6440003 -1.8482786 0.15823476 0
3.6410003 -1.852458 0.15846202 0
3.6390002 -1.8571857 0.15861355 0
3.6380002 -1.8624674 0.15868932 0
3.6380002 -1.8683081 0.15868932 0
3.6390002 -1.8747133 0.15861355 0
3.6430004 -1.8828216 0.1583105 0
3.9350002 -1.7102566 0.12981215 0
3.9270003 -1.7128522 0.13043264 0
3.9210002 -1.7163678 0.13089806 0
3.9170003 -1.7208143 0.1312083 0
3.9130003 -1.7252463 0.13151854 0
3.9110003 -1.7306234 0.13167366 0
3.9100003 -1.736475 0.13175124 0
3.9100003 -1.7428063 0.13175124 0
3.9120002 -1.7501081 0.13159612 0
4.0540004 -1.983788 0.12058204 0
4.0480003 -1.9871862 0.12104744 0
4.0440001 -1.991631 0.12135768 0
4.04 -1.9960611 0.12166795 0
4.0380001 -2.0015516 0.12182307 0
4.0360003 -2.0070353 0.12197819 0
4.0360003 -2.0135939 0.12197819 0
4.0380001 -2.0212386 0.12182307 0
3.6640003 -1.8358395 0.15083194 0
3.6570003 -1.8378761 0.15137485 0
3.6510003 -1.8404392 0.15184024 0
3.6470003 -1.8440883 0.15215051 0
3.6440003 -1.8482786 0.15238321 0
3.6410003 -1.852458 0.15261588 0
3.6390002 -1.8571857 0.15277103 0
3.6380002 -1.8624674 0.15284857 0
3.6380002 -1.8683081 0.15284857 0
3.6390002 -1.8747133 0.15277103 0
3.6430004 -1.8828216 0.15246075 0
3.9350002 -1.7102566 0.12343568 0
3.9270003 -1.7128522 0.12407061 0
3.9210002 -1.7163678 0.12454683 0
3.9170003 -1.7208143 0.12486428 0
3.9130003 -1.7252463 0.12518176 0
3.9110003 -1.7306234 0.12534049 0
3.9100003 -1.736475 0.12541988 0
3.9100003 -1.7428063 0.12541988 0
3.9120002 -1.7501081 0.12526116 0
4.0540004 -1.983788 0.11399093 0
4.0480003 -1.9871862 0.11446714 0
4.0440001 -1.991631 0.1147846 0
4.04 -1.9960611 0.11510208 0
4.0380001 -2.0015516 0.11526084 0
4.0360003 -2.0070353 0.11541957 0
4.0360003 -2.0135939 0.11541957 0
4.0380001 -2.0212386 0.11526084 0
3.6640003 -1.8358395 0.14494428 0
3.6570003 -1.8378761 0.14549986 0
3.6510003 -1.8404392 0.14597607 0
3.6470003 -1.8440883 0.14629352 0
3.6440003 -1.8482786 0.14653164 0
3.6410003 -1.852458 0.14676976 0
3.6390002 -1.8571857 0.14692849 0
3.6380002 -1.8624674 0.14700785 0
3.6380002 -1.8683081 0.14700785 0
3.6390002 -1.8747133 0.14692849 0
3.6430004 -1.8828216 0.14661101 0
3.9350002 -1.7102566 0.11705923 0
3.9270003 -1.7128522 0.11770859 0
3.9210002 -1.7163678 0.11819562 0
3.9170003 -1.7208143 0.11852029 0
3.9130003 -1.7252463 0.11884499 0
3.9110003 -1.7306234 0.11900732 0
3.9100003 -1.736475 0.1190885 0
3.9100003 -1.7428063 0.1190885 0
3.9120002 -1.7501081 0.11892617 0
4.0540004 -1.983788 0.10739982 0
4.0480003 -1.9871862 0.10788685 0
4.0440001 -1.991631 0.10821155 0
4.04 -1.9960611 0.10853624 0
4.0380001 -2.0015516 0.10869858 0
4.0360003 -2.0070353 0.10886091 0
4.0360003 -2.0135939 0.10886091 0
4.0380001 -2.0212386 0.10869858 0
3.6640003 -1.8358395 0.13905665 0
3.6570003 -1.8378761 0.13962486 0
3.6510003 -1.8404392 0.14011186 0
3.6470003 -1.8440883 0.14043659 0
3.6440003 -1.8482786 0.14068007 0
3.6410003 -1.852458 0.14092362 0
3.6390002 -1.8571857 0.14108595 0
3.6380002 -1.8624674 0.1411671 0
3.6380002 -1.8683081 0.1411671 0
3.6390002 -1.8747133 0.14108595 0
3.6430004 -1.8828216 0.14076126 0
3.9350002 -1.7102566 0.11068276 0
3.9270003 -1.7128522 0.11134657 0
3.9210002 -1.7163678 0.11184442 0
3.9170003 -1.7208143 0.1121763 0
3.9130003 -1.7252463 0.11250821 0
3.9110003 -1.7306234 0.11267415 0
3.9100003 -1.736475 0.11275715 0
3.9100003 -1.7428063 0.11275715 0
3.9120002 -1.7501081 0.11259121 0
4.0540004 -1.983788 0.10080871 0
4.0480003 -1.9871862 0.10130656 0
4.0440001 -1.991631 0.10163847 0
4.04 -1.9960611 0.10197037 0
4.0380001 -2.0015516 0.10213631 0
4.0360003 -2.0070353 0.10230225 0
4.0360003 -2.0135939 0.10230225 0
4.0380001 -2.0212386 0.10213631 0
3.6640003 -1.8358395 0.13316903 0
3.6570003 -1.8378761 0.13374987 0
3.6510003 -1.8404392 0.13424772 0
3.6470003 -1.8440883 0.1345796 0
3.6440003 -1.8482786 0.13482851 0
3.6410003 -1.852458 0.13507745 0
3.6390002 -1.8571857 0.13524342 0
3.6380002 -1.8624674 0.13532639 0
3.6380002 -1.8683081 0.13532639 0
3.6390002 -1.8747133 0.13524342 0
3.6430004 -1.8828216 0.13491151 0
3.9350002 -1.7102566 0.10430631 0
3.9270003 -1.7128522 0.10498452 0
3.9210002 -1.7163678 0.10549322 0
3.9170003 -1.7208143 0.10583231 0
3.9130003 -1.7252463 0.10617143 0
3.9110003 -1.7306234 0.10634097 0
3.9100003 -1.736475 0.10642576 0
3.9100003 -1.7428063 0.10642576 0
3.9120002 -1.7501081 0.10625622 0
4.0540004 -1.983788 0.094217598 0
4.0480003 -1.9871862 0.094726264 0
4.0440001 -1.991631 0.095065355 0
4.04 -1.9960611 0.095404506 0
4.0380001 -2.0015516 0.095574051 0
4.0360003 -2.0070353 0.095743597 0
4.0360003 -2.0135939 0.095743597 0
4.0380001 -2.0212386 0.095574051 0
3.6640003 -1.8358395 0.1272814 0
3.6570003 -1.8378761 0.12787485 0
3.6510003 -1.8404392 0.12838352 0
3.6470003 -1.8440883 0.12872264 0
3.6440003 -1.8482786 0.128977 0
3.6410003 -1.852458 0.1292313 0
3.6390002 -1.8571857 0.12940088 0
3.6380002 -1.8624674 0.12948567 0
3.6380002 -1.8683081 0.12948567 0
3.6390002 -1.8747133 0.12940088 0
3.6430004 -1.8828216 0.12906176 0
3.9350002 -1.7102566 0.097929835 0
3.9270003 -1.7128522 0.098622501 0
3.9210002 -1.7163678 0.099141985 0
3.9170003 -1.7208143 0.099488318 0
3.9130003 -1.7252463 0.099834651 0
3.9110003 -1.7306234 0.1000078 0
3.9100003 -1.736475 0.10009441 0
3.9100003 -1.7428063 0.10009441 0
3.9120002 -1.7501081 0.099921256 0
4.0540004 -1.983788 0.087626457 0
4.0480003 -1.9871862 0.088145971 0
4.0440001 -1.991631 0.088492304 0
4.04 -1.9960611 0.088838667 0
4.0380001 -2.0015516 0.089011818 0
4.0360003 -2.0070353 0.08918497 0
4.0360003 -2.0135939 0.08918497 0
4.0380001 -2.0212386 0.089011818 0
3.6640003 -1.8358395 0.12139377 0
3.6570003 -1.8378761 0.12199983 0
3.6510003 -1.8404392 0.12251934 0
3.6470003 -1.8440883 0.12286565 0
3.6440003 -1.8482786 0.12312543 0
3.6410003 -1.852458 0.12338516 0
3.6390002 -1.8571857 0.12355834 0
3.6380002 -1.8624674 0.12364492 0
3.6380002 -1.8683081 0.12364492 0
3.6390002 -1.8747133 0.12355834 0
3.6430004 -1.8828216 0.12321198 0
3.9350002 -1.7102566 0.09155336 0
3.9270003 -1.7128522 0.09226045 0
3.9210002 -1.7163678 0.092790782 0
3.9170003 -1.7208143 0.093144327 0
3.9130003 -1.7252463 0.093497872 0
3.9110003 -1.7306234 0.09367466 0
3.9100003 -1.736475 0.093763053 0
3.9100003 -1.7428063 0.093763053 0
3.9120002 -1.7501081 0.093586296 0
4.0540004 -1.983788 0.081035346 0
4.0480003 -1.9871862 0.081565678 0
4.0440001 -1.991631 0.081919223 0
4.04 -1.9960611 0.082272798 0
4.0380001 -2.0015516 0.082449555 0
4.0360003 -2.0070353 0.082626343 0
4.0360003 -2.0135939 0.082626343 0
4.0370002 -2.0206957 0.082537949 0
3.6640003 -1.8358395 0.11550614 0
3.6570003 -1.8378761 0.11612484 0
3.6510003 -1.8404392 0.11665517 0
3.6470003 -1.8440883 0.11700872 0
3.6440003 -1.8482786 0.11727387 0
3.6410003 -1.852458 0.11753905 0
3.6390002 -1.8571857 0.11771584 0
3.6380002 -1.8624674 0.1178042 0
3.6380002 -1.8683081 0.1178042 0
3.6390002 -1.8747133 0.11771584 0
3.6430004 -1.8828216 0.11736226 0
3.9350002 -1.7102566 0.085176915 0
3.9270003 -1.7128522 0.085898429 0
3.9210002 -1.7163678 0.08643958 0
3.9170003 -1.7208143 0.086800337 0
3.9130003 -1.7252463 0.087161094 0
3.9110003 -1.7306234 0.087341487 0
3.9100003 -1.736475 0.087431669 0
3.9100003 -1.7428063 0.087431669 0
3.9120002 -1.7501081 0.087251306 0
4.0540004 -1.983788 0.074444234 0
4.0480003 -1.9871862 0.074985385 0
4.0440001 -1.991631 0.075346142 0
4.04 -1.9960611 0.075706929 0
4.0380001 -2.0015516 0.075887293 0
4.0360003 -2.0070353 0.076067686 0
4.0360003 -2.0135939 0.076067686 0
4.0370002 -2.0206957 0.075977504 0
3.6640003 -1.8358395 0.10961851 0
3.6570003 -1.8378761 0.11024985 0
3.6510003 -1.8404392 0.110791 0
3.6470003 -1.8440883 0.11115175 0
3.6440003 -1.8482786 0.1114223 0
3.6410003 -1.852458 0.11169291 0
3.6390002 -1.8571857 0.1118733 0
3.6380002 -1.8624674 0.11196345 0
3.6380002 -1.8683081 0.11196345 0
3.6390002 -1.8747133 0.1118733 0
3.6430004 -1.8828216 0.11151251 0
3.9350002 -1.7102566 0.07880047 0
3.9270003 -1.7128522 0.079536378 0
3.9210002 -1.7163678 0.080088347 0
3.9170003 -1.7208143 0.080456346 0
3.9130003 -1.7252463 0.080824316 0
3.9110003 -1.7306234 0.081008315 0
3.9100003 -1.736475 0.081100315 0
3.9100003 -1.7428063 0.081100315 0
3.9120002 -1.7501081 0.080916315 0
4.0540004 -1.983788 0.067853123 0
4.0480003 -1.9871862 0.068405092 0
4.0440001 -1.991631 0.068773061 0
4.04 -1.9960611 0.06914106 0
4.0380001 -2.0015516 0.06932503 0
4.0360003 -2.0070353 0.069509029 0
4.0360003 -2.0135939 0.069509029 0
4.0370002 -2.0206957 0.069417059 0
3.6640003 -1.8358395 0.10373089 0
3.6570003 -1.8378761 0.10437483 0
3.6510003 -1.8404392 0.10492679 0
3.6470003 -1.8440883 0.10529476 0
3.6440003 -1.8482786 0.10557076 0
3.6410003 -1.852458 0.10584673 0
3.6390002 -1.8571857 0.10603073 0
3.6380002 -1.8624674 0.10612273 0
3.6380002 -1.8683081 0.10612273 0
3.6390002 -1.8747133 0.10603073 0
3.6430004 -1.8828216 0.10566273 0
3.9350002 -1.7102566 0.072423995 0
3.9270003 -1.7128522 0.073174357 0
3.9210002 -1.7163678 0.073737144 0
3.9170003 -1.7208143 0.074112356 0
