# .PCD v0.7 - Point Cloud Data file format
VERSION 0.7
FIELDS x y z intensity
SIZE 4 4 4 4
TYPE F F F F
COUNT 1 1 1 1
WIDTH 1422
HEIGHT 1
VIEWPOINT 0 0 0 1 0 0 0
POINTS 1422
DATA ascii
4.1059999 0.14117756 0.92542326 0
4.1070004 0.13454136 0.92556393 0
4.1100001 0.12799534 0.92598605 0
4.1140003 0.12148359 0.92654884 0
4.1680002 0.083138227 0.93414652 0
4.177 0.076633707 0.93541276 0
4.1870003 0.070127368 0.93681967 0
4.197 0.063584954 0.9382267 0
4.1110001 0.17489976 0.91943276 0
4.1080003 0.16803266 0.91901612 0
4.1059999 0.16123231 0.91873837 0
4.1030002 0.15438505 0.91832161 0
4.1030002 0.14770554 0.91832161 0
4.1030002 0.14102605 0.91832161 0
4.1040001 0.13439524 0.91846049 0
4.1059999 0.12780774 0.91873837 0
4.1090002 0.12125812 0.919155 0
4.1140003 0.11478424 0.91984951 0
4.171 0.076438904 0.92776632 0
4.1800003 0.069912717 0.92901647 0
4.1890001 0.063354075 0.9302665 0
4.1990004 0.056790013 0.93165541 0
4.2080002 0.050164621 0.93290544 0
4.1150002 0.18183902 0.91328728 0
4.1100001 0.17484024 0.91260183 0
4.1059999 0.16791722 0.91205347 0
4.1030002 0.16106455 0.91164219 0
4.1020002 0.15433094 0.9115051 0
4.1000004 0.14754863 0.91123092 0
4.1000004 0.14087453 0.91123092 0
4.1010003 0.13424914 0.91136801 0
4.1020002 0.12762015 0.9115051 0
4.105 0.12107775 0.91191638 0
4.1090002 0.11456779 0.91246462 0
4.1760001 0.06979005 0.92164969 0
4.1849999 0.063238621 0.92288351 0
4.1940002 0.056654725 0.92411733 0
4.2030001 0.050038364 0.92535114 0
4.211 0.043366071 0.92644787 0
4.1150002 0.18183902 0.90658605 0
4.1100001 0.17484024 0.90590966 0
4.105 0.16785949 0.90523314 0
4.1020002 0.16100863 0.90482736 0
4.1000004 0.15422271 0.90455687 0
4.098 0.14744399 0.90428627 0
4.098 0.14077352 0.90428627 0
4.098 0.13410304 0.90428627 0
4.099 0.12747945 0.90442157 0
4.1010003 0.12089737 0.90469205 0
4.105 0.11439462 0.90523314 0
4.1100001 0.10791896 0.90590966 0
4.1740003 0.069728732 0.91456795 0
4.1820002 0.063152045 0.91565013 0
4.191 0.056573551 0.91686773 0
4.1990004 0.049937349 0.91795003 0
4.2080002 0.043295722 0.91916764 0
4.217 0.036621626 0.92038524 0
4.1150002 0.18183902 0.89988494 0
4.1090002 0.17478071 0.89908403 0
4.1040001 0.16780178 0.89841664 0
4.1010003 0.16095272 0.89801621 0
4.098 0.15411447 0.89761573 0
4.0960002 0.14733937 0.89734876 0
4.0950003 0.140622 0.89721531 0
4.0950003 0.13395692 0.89721531 0
4.0960002 0.12733875 0.89734876 0
4.098 0.12076207 0.89761573 0
4.1000004 0.11417817 0.8978827 0
4.105 0.10771151 0.89855015 0
4.1810002 0.063123181 0.90869474 0
4.1900001 0.056546498 0.90989614 0
4.198 0.049912091 0.91096389 0
4.2070003 0.043272268 0.91216528 0
4.2150002 0.036578339 0.91323316 0
4.224 0.029875394 0.91443443 0
4.1150002 0.18183902 0.89318377 0
4.1090002 0.17478071 0.89239371 0
4.1040001 0.16780178 0.89173532 0
4.1000004 0.16089681 0.89120865 0
4.0970001 0.15406038 0.89081359 0
4.0950003 0.14728707 0.89055026 0
4.0929999 0.14052097 0.89028692 0
4.0929999 0.1338595 0.89028692 0
4.0929999 0.12719806 0.89028692 0
4.0940003 0.12058169 0.89041853 0
4.0960002 0.114005 0.89068192 0
4.1000004 0.10750408 0.89120865 0
4.1810002 0.063123181 0.90187454 0
4.1890001 0.056519438 0.90292799 0
4.198 0.049912091 0.90411305 0
4.2060003 0.043248829 0.90516651 0
4.2140002 0.036556695 0.90621984 0
4.223 0.029855546 0.90740502 0
4.1150002 0.18183902 0.8864826 0
4.1100001 0.17484024 0.88583326 0
4.1040001 0.16780178 0.88505399 0
4.099 0.16084088 0.88440466 0
4.0960002 0.15400626 0.88401496 0
4.0929999 0.14718243 0.88362539 0
4.0910001 0.14041997 0.88336563 0
4.0900002 0.13371341 0.88323575 0
4.0900002 0.12705736 0.88323575 0
4.0910001 0.12044641 0.88336563 0
4.0929999 0.11387512 0.88362539 0
4.0950003 0.10729663 0.88388515 0
4.1000004 0.10082999 0.88453454 0
4.1890001 0.056519438 0.89609337 0
4.198 0.049912091 0.89726216 0
4.2060003 0.043248829 0.89830118 0
4.2140002 0.036556695 0.89934015 0
4.223 0.029855546 0.90050906 0
4.2309999 0.023103889 0.90154803 0
4.2740002 -0.011060234 0.90713263 0
4.2820001 -0.017990466 0.90817165 0
4.2910004 -0.024944147 0.9093405 0
4.1150002 0.18183902 0.87978148 0
4.1100001 0.17484024 0.87914121 0
4.1040001 0.16780178 0.87837267 0
4.099 0.16084088 0.87773234 0
4.0940003 0.15389803 0.877092 0
4.0910001 0.14707783 0.87670779 0
4.0890002 0.14031896 0.87645161 0
4.0880003 0.133616 0.87632358 0
4.0880003 0.12696357 0.87632358 0
4.0880003 0.12031111 0.87632358 0
4.0890002 0.11370195 0.87645161 0
4.092 0.10717218 0.87683588 0
4.0950003 0.10063156 0.87722003 0
4.1890001 0.056519438 0.88925874 0
4.198 0.049912091 0.89041138 0
4.2060003 0.043248829 0.89143586 0
4.2140002 0.036556695 0.89246047 0
4.223 0.029855546 0.8936131 0
4.2309999 0.023103889 0.89463764 0
4.2400002 0.016339611 0.89579028 0
4.2480001 0.0095284358 0.89681482 0
4.257 0.002701018 0.89796746 0
4.2650003 -0.0041696839 0.89899206 0
4.2740002 -0.011060234 0.9001447 0
4.2820001 -0.017990466 0.90116924 0
4.2910004 -0.024944147 0.90232188 0
4.2940001 -0.031951942 0.90270615 0
4.1150002 0.18183902 0.87308037 0
4.1100001 0.17484024 0.87244904 0
4.1040001 0.16780178 0.87169147 0
4.098 0.16078497 0.87093383 0
4.0929999 0.15384391 0.87030244 0
4.0900002 0.14702551 0.86992371 0
4.0880003 0.14026846 0.86967111 0
4.086 0.13351859 0.86941862 0
4.085 0.12682286 0.86929238 0
4.085 0.12017584 0.86929238 0
4.086 0.11357209 0.86941862 0
4.0880003 0.10700622 0.86967111 0
4.0910001 0.10047284 0.87004995 0
4.0950003 0.093966499 0.87055504 0
4.1890001 0.056519438 0.88242406 0
4.198 0.049912091 0.88356048 0
4.2060003 0.043248829 0.8845706 0
4.2140002 0.036556695 0.88558072 0
4.223 0.029855546 0.88671714 0
4.2309999 0.023103889 0.88772726 0
4.2400002 0.016339611 0.88886368 0
4.2480001 0.0095284358 0.8898738 0
4.257 0.002701018 0.89101022 0
4.2650003 -0.0041696839 0.89202034 0
4.2740002 -0.011060234 0.89315671 0
4.2820001 -0.017990466 0.89416689 0
4.289 -0.024954969 0.89505076 0
4.29 -0.031966373 0.89517701 0
4.2930002 -0.038977776 0.89555579 0
4.1150002 0.18183902 0.8663792 0
4.1100001 0.17484024 0.86575687 0
4.105 0.16785949 0.8651346 0
4.098 0.16078497 0.8642633 0
4.0929999 0.15384391 0.86364102 0
4.0890002 0.14697321 0.86314321 0
4.086 0.14016743 0.86276978 0
4.0840001 0.1334212 0.86252081 0
4.0830002 0.12672906 0.86239636 0
4.0830002 0.12008564 0.86239636 0
4.0830002 0.1134422 0.86239636 0
4.0840001 0.10684027 0.86252081 0
4.0870004 0.1003141 0.86289424 0
4.0910001 0.093814969 0.86339211 0
4.198 0.049912091 0.87670958 0
4.2060003 0.043248829 0.87770534 0
4.2140002 0.036556695 0.87870103 0
4.223 0.029855546 0.87982118 0
4.2309999 0.023103889 0.88081688 0
4.2400002 0.016339611 0.88193703 0
4.2480001 0.0095284358 0.88293278 0
4.257 0.002701018 0.88405287 0
4.2650003 -0.0041696839 0.88504863 0
4.2740002 -0.011060234 0.88616872 0
4.2820001 -0.017990466 0.88716447 0
4.2870002 -0.024965793 0.88778675 0
4.2870002 -0.031977195 0.88778675 0
4.289 -0.038984992 0.88803571 0
4.2910004 -0.046 0.88828462 0
4.1150002 0.18183902 0.85967803 0
4.1100001 0.17484024 0.85906476 0
4.1059999 0.16791722 0.85857415 0
4.098 0.16078497 0.85759282 0
4.0929999 0.15384391 0.85697955 0
4.0880003 0.14692089 0.85636628 0
4.085 0.14011693 0.85599828 0
4.0820003 0.13332379 0.85563028 0
4.0810003 0.12663527 0.85550761 0
4.0799999 0.11995034 0.85538495 0
4.0799999 0.11331233 0.85538495 0
4.0810003 0.10671581 0.85550761 0
4.0830002 0.10015535 0.85575294 0
4.086 0.093625575 0.85612094 0
4.0910001 0.08715713 0.85673428 0
4.198 0.049912091 0.86985874 0
4.2060003 0.043248829 0.87084001 0
4.2140002 0.036556695 0.87182128 0
4.223 0.029855546 0.87292522 0
4.2309999 0.023103889 0.87390649 0
4.2400002 0.016339611 0.87501037 0
4.2480001 0.0095284358 0.8759917 0
4.257 0.002701018 0.87709558 0
4.2650003 -0.0041696839 0.87807691 0
4.2740002 -0.011060234 0.87918079 0
4.2820001 -0.017990466 0.88016212 0
4.2840004 -0.024982028 0.88040745 0
4.2840004 -0.031988017 0.88040745 0
4.2850003 -0.038992204 0.88053012 0
4.2880001 -0.046 0.880898 0
4.2910004 -0.053018618 0.881266 0
4.1150002 0.18183902 0.85297692 0
4.1100001 0.17484024 0.85237265 0
4.1070004 0.16797495 0.85201007 0
4.099 0.16084088 0.85104322 0
4.092 0.15378979 0.8501972 0
4.0880003 0.14692089 0.8497138 0
4.0840001 0.14006643 0.84923041 0
4.0810003 0.13327509 0.84886783 0
4.079 0.12654148 0.84862614 0
4.0780001 0.11986016 0.84850526 0
4.0770001 0.11318247 0.84838444 0
4.0780001 0.10659134 0.84850526 0
4.079 0.099996626 0.84862614 0
4.0820003 0.09347406 0.84898865 0
4.086 0.086976737 0.84947211 0
4.2060003 0.043248829 0.86397469 0
4.2140002 0.036556695 0.8649416 0
4.223 0.029855546 0.86602926 0
4.2309999 0.023103889 0.86699605 0
4.2400002 0.016339611 0.86808378 0
4.2480001 0.0095284358 0.86905062 0
4.257 0.002701018 0.87013829 0
4.2650003 -0.0041696839 0.87110519 0
4.2740002 -0.011060234 0.87219286 0
4.2820001 -0.017990466 0.87315977 0
4.2820001 -0.02499285 0.87315977 0
4.2810001 -0.031998839 0.87303889 0
4.2820001 -0.038997617 0.87315977 0
4.2840004 -0.046 0.87340146 0
4.2860003 -0.053009599 0.8736431 0
4.1150002 0.18183902 0.84627575 0
4.1100001 0.17484024 0.84568048 0
4.1070004 0.16797495 0.84532332 0
4.1000004 0.16089681 0.84448999 0
4.0929999 0.15384391 0.84365666 0
4.0870004 0.14686859 0.84294236 0
4.0830002 0.14001592 0.84246612 0
4.0799999 0.13322638 0.84210896 0
4.0770001 0.12644768 0.84175181 0
4.0760002 0.11976996 0.84163272 0
4.0750003 0.11309588 0.84151375 0
4.0750003 0.10646689 0.84151375 0
4.0760002 0.099877566 0.84163272 0
4.0780001 0.093322545 0.8418709 0
4.0810003 0.086796358 0.84222806 0
4.086 0.080327898 0.84282327 0
4.2060003 0.043248829 0.85710943 0
4.2140002 0.036556695 0.85806185 0
4.223 0.029855546 0.8591333 0
4.2309999 0.023103889 0.86008573 0
4.2400002 0.016339611 0.86115718 0
4.2480001 0.0095284358 0.8621096 0
4.257 0.002701018 0.86318105 0
4.2650003 -0.0041696839 0.86413348 0
4.2740002 -0.011060234 0.86520493 0
4.2810001 -0.01799768 0.86603832 0
4.2790003 -0.025009083 0.86580014 0
4.2790003 -0.032006055 0.86580014 0
4.2790003 -0.039003029 0.86580014 0
4.2800002 -0.046 0.86591923 0
4.2820001 -0.053002384 0.86615729 0
4.2860003 -0.060019199 0.86663353 0
4.1150002 0.18183902 0.83957458 0
4.1100001 0.17484024 0.83898842 0
4.1070004 0.16797495 0.83863664 0
4.1020002 0.16100863 0.83805037 0
4.0929999 0.15384391 0.83699512 0
4.0870004 0.14686859 0.83629167 0
4.0820003 0.13996542 0.83570546 0
4.0780001 0.13312899 0.83523643 0
4.0760002 0.12640077 0.83500195 0
4.0740004 0.11967978 0.83476746 0
4.073 0.11300929 0.83465022 0
4.072 0.10634242 0.83453298 0
4.073 0.099758521 0.83465022 0
4.0750003 0.093208894 0.8348847 0
4.0770001 0.086652055 0.83511925 0
4.0810003 0.080156535 0.83558822 0
4.2140002 0.036556695 0.8511821 0
4.223 0.029855546 0.85223734 0
4.2309999 0.023103889 0.85317528 0
4.2400002 0.016339611 0.85423052 0
4.2480001 0.0095284358 0.85516858 0
4.257 0.002701018 0.8562237 0
4.2650003 -0.0041696839 0.85716176 0
4.2740002 -0.011060234 0.85821694 0
4.2800002 -0.018004896 0.85892045 0
4.2780004 -0.025014495 0.85868597 0
4.276 -0.032016881 0.85845149 0
4.276 -0.039008439 0.85845149 0
4.277 -0.046 0.85856867 0
4.2790003 -0.052996971 0.85880321 0
4.2810001 -0.060001161 0.8590377 0
4.2080002 0.31118289 0.84360969 0
4.1150002 0.18183902 0.83287346 0
4.1100001 0.17484024 0.83229625 0
4.1070004 0.16797495 0.83194995 0
4.1040001 0.16112047 0.83160359 0
4.0940003 0.15389803 0.83044916 0
4.0870004 0.14686859 0.82964104 0
4.0820003 0.13996542 0.82906377 0
4.0770001 0.13308027 0.82848662 0
4.0740004 0.12630698 0.82814026 0
4.072 0.1195896 0.82790935 0
4.0710001 0.11292271 0.82779396 0
4.0700002 0.10625945 0.82767844 0
4.0700002 0.099639475 0.82767844 0
4.0710001 0.093057379 0.82779396 0
4.0740004 0.086543828 0.82814026 0
4.0770001 0.080019459 0.82848662 0
4.0820003 0.073549196 0.82906377 0
4.2140002 0.036556695 0.84430242 0
4.223 0.029855546 0.84534138 0
4.2309999 0.023103889 0.84626496 0
4.2400002 0.016339611 0.84730393 0
4.2480001 0.0095284358 0.8482275 0
4.257 0.002701018 0.84926647 0
4.2650003 -0.0041696839 0.85019004 0
4.2740002 -0.011060234 0.85122901 0
4.2780004 -0.018019326 0.85169077 0
4.276 -0.025025319 0.85145986 0
4.2740002 -0.032024093 0.85122901 0
4.2740002 -0.039012048 0.85122901 0
4.2740002 -0.046 0.85122901 0
4.2750001 -0.052989759 0.85134447 0
4.277 -0.059986729 0.85157537 0
4.2810001 -0.067001738 0.85203713 0
4.2020001 0.33119434 0.83605897 0
4.2000003 0.31728697 0.8358317 0
4.2080002 0.31118289 0.83674085 0
4.2150002 0.30495796 0.83753633 0
4.223 0.29879794 0.83844543 0
4.1150002 0.18183902 0.82617235 0
4.1100001 0.17484024 0.82560408 0
4.1070004 0.16797495 0.8252632 0
4.105 0.16117638 0.82503593 0
4.0960002 0.15400626 0.82401311 0
4.0870004 0.14686859 0.82299042 0
4.0810003 0.13991491 0.82230854 0
4.0770001 0.13308027 0.821854 0
4.073 0.12626007 0.82139945 0
4.0700002 0.1194994 0.82105851 0
4.0690002 0.11283612 0.82094491 0
4.0680003 0.10617648 0.82083124 0
4.0669999 0.099520415 0.82071757 0
4.0680003 0.092943743 0.82083124 0
4.0700002 0.086399511 0.82105851 0
4.072 0.079848096 0.82128584 0
4.0770001 0.073386848 0.821854 0
4.223 0.029855546 0.83844543 0
4.2309999 0.023103889 0.83935452 0
4.2400002 0.016339611 0.84037733 0
4.2480001 0.0095284358 0.84128642 0
4.257 0.002701018 0.84230918 0
4.2650003 -0.0041696839 0.84321833 0
4.2740002 -0.011060234 0.84424102 0
4.277 -0.018026542 0.84458196 0
4.2740002 -0.025036143 0.84424102 0
4.2720003 -0.032031309 0.84401381 0
4.2710004 -0.039017458 0.84390014 0
4.2710004 -0.046 0.84390014 0
4.2720003 -0.052984346 0.84401381 0
4.2730002 -0.059972297 0.84412742 0
4.276 -0.066974685 0.84446836 0
4.2020001 0.33119434 0.82920092 0
4.1960001 0.32375181 0.82852989 0
4.2000003 0.31728697 0.82897723 0
4.2080002 0.31118289 0.82987189 0
4.2150002 0.30495796 0.83065474 0
4.223 0.29879794 0.83154947 0
4.2309999 0.29260907 0.83244413 0
4.1150002 0.18183902 0.81947118 0
4.1100001 0.17484024 0.81891203 0
4.1070004 0.16797495 0.81857646 0
4.105 0.16117638 0.81835282 0
4.098 0.15411447 0.81756997 0
4.0880003 0.14692089 0.81645155 0
4.0810003 0.13991491 0.8156687 0
4.0760002 0.13303158 0.81510955 0
4.072 0.12621318 0.81466222 0
4.0690002 0.11945431 0.8143267 0
4.0669999 0.11274955 0.81410301 0
4.0650001 0.10605201 0.81387937 0
4.0650001 0.099441051 0.81387937 0
4.0650001 0.092830092 0.81387937 0
4.066 0.086255208 0.81399119 0
4.0690002 0.079745278 0.8143267 0
4.072 0.0732245 0.81466222 0
4.0770001 0.066754252 0.81522143 0
4.223 0.029855546 0.83154947 0
4.2309999 0.023103889 0.83244413 0
4.2400002 0.016339611 0.83345068 0
4.2480001 0.0095284358 0.83434534 0
4.257 0.002701018 0.83535188 0
4.2650003 -0.0041696839 0.83624661 0
4.2740002 -0.011060234 0.83725309 0
4.276 -0.018033758 0.83747679 0
4.2730002 -0.025041552 0.83714128 0
4.2710004 -0.032034919 0.83691764 0
4.2690001 -0.039021067 0.83669388 0
4.2680001 -0.046 0.83658206 0
4.2690001 -0.052978933 0.83669388 0
4.27 -0.059961475 0.8368057 0
4.2720003 -0.066953033 0.83702946 0
4.276 -0.073966242 0.83747679 0
4.2080002 0.33865848 0.82300305 0
4.2020001 0.33119434 0.82234287 0
4.1960001 0.32375181 0.82168263 0
4.2000003 0.31728697 0.82212281 0
4.2080002 0.31118289 0.82300305 0
4.2150002 0.30495796 0.82377326 0
4.223 0.29879794 0.82465351 0
4.2309999 0.29260907 0.82553375 0
4.2390003 0.28639135 0.82641399 0
4.2460003 0.28005999 0.82718426 0
4.2540002 0.27378631 0.8280645 0
4.2620001 0.26748383 0.8289448 0
4.1150002 0.18183902 0.81277001 0
4.1100001 0.17484024 0.81221986 0
4.1070004 0.16797495 0.81188977 0
4.105 0.16117638 0.81166971 0
4.1010003 0.15427683 0.81122959 0
4.0900002 0.14702551 0.8100192 0
4.0820003 0.13996542 0.80913895 0
4.0760002 0.13303158 0.80847871 0
4.0710001 0.12616628 0.80792856 0
4.0680003 0.11940922 0.80759847 0
4.0650001 0.11266297 0.80726838 0
4.0640001 0.10601053 0.80715835 0
4.0630002 0.099361673 0.80704832 0
4.0620003 0.092716455 0.80693829 0
4.0630002 0.086146981 0.80704832 0
4.0650001 0.079608187 0.80726838 0
4.0680003 0.073094636 0.80759847 0
4.072 0.066600919 0.80803859 0
4.2309999 0.023103889 0.82553375 0
4.2400002 0.016339611 0.82652402 0
4.2480001 0.0095284358 0.82740432 0
4.257 0.002701018 0.82839459 0
4.2650003 -0.0041696839 0.82927489 0
4.2740002 -0.011060234 0.83026516 0
4.276 -0.018033758 0.83048522 0
4.2720003 -0.025046963 0.8300451 0
4.2690001 -0.032042131 0.82971501 0
4.2670002 -0.039024673 0.82949495 0
4.2660003 -0.046 0.82938492 0
4.2650003 -0.052971721 0.82927489 0
4.2660003 -0.059947044 0.82938492 0
4.2680001 -0.066931389 0.82960498 0
4.2710004 -0.073930167 0.82993507 0
4.2080002 0.33865848 0.8161341 0
4.2020001 0.33119434 0.81548476 0
4.1960001 0.32375181 0.81483537 0
4.2000003 0.31728697 0.81526828 0
4.2080002 0.31118289 0.8161341 0
4.2150002 0.30495796 0.81689173 0
4.223 0.29879794 0.81775755 0
4.2309999 0.29260907 0.81862336 0
4.2390003 0.28639135 0.81948924 0
4.2460003 0.28005999 0.82024682 0
4.2540002 0.27378631 0.82111263 0
4.2620001 0.26748383 0.82197845 0
4.27 0.26115245 0.82284427 0
4.2780004 0.25479224 0.82371014 0
4.2860003 0.24840313 0.8245759 0
4.2940001 0.2419852 0.82544178 0
4.1150002 0.18183902 0.8060689 0
4.1100001 0.17484024 0.80552775 0
4.1070004 0.16797495 0.80520308 0
4.105 0.16117638 0.8049866 0
4.1030002 0.15438505 0.80477011 0
4.0910001 0.14707783 0.80347139 0
4.0820003 0.13996542 0.80249733 0
4.0760002 0.13303158 0.80184793 0
4.0710001 0.12616628 0.80130684 0
4.0669999 0.11936411 0.80087388 0
4.0640001 0.11261968 0.80054921 0
4.0620003 0.10592756 0.80033278 0
4.0599999 0.099242643 0.8001163 0
4.0599999 0.092640698 0.8001163 0
4.0610003 0.086074829 0.80022454 0
4.0620003 0.079505369 0.80033278 0
4.0640001 0.072964758 0.80054921 0
4.0680003 0.066478267 0.80098212 0
4.073 0.060006198 0.80152327 0
4.2309999 0.023103889 0.81862336 0
4.2400002 0.016339611 0.81959742 0
4.2480001 0.0095284358 0.8204633 0
4.257 0.002701018 0.82143736 0
4.2650003 -0.0041696839 0.82230318 0
4.2740002 -0.011060234 0.82327718 0
4.2750001 -0.018040972 0.82338548 0
4.2710004 -0.025052374 0.82295251 0
4.2670002 -0.032049347 0.8225196 0
4.2650003 -0.039028279 0.82230318 0
4.263 -0.046 0.82208669 0
4.263 -0.052968111 0.82208669 0
4.263 -0.059936222 0.82208669 0
4.2639999 -0.066909745 0.82219493 0
4.2670002 -0.073901303 0.8225196 0
4.2710004 -0.080912709 0.82295251 0
4.2080002 0.33865848 0.80926526 0
4.2020001 0.33119434 0.80862665 0
4.1960001 0.32375181 0.80798817 0
4.2000003 0.31728697 0.80841386 0
4.2080002 0.31118289 0.80926526 0
4.2150002 0.30495796 0.81001019 0
4.223 0.29879794 0.81086159 0
4.2309999 0.29260907 0.81171298 0
4.2390003 0.28639135 0.81256437 0
4.2460003 0.28005999 0.81330937 0
4.2540002 0.27378631 0.8141607 0
4.2620001 0.26748383 0.81501216 0
4.27 0.26115245 0.81586349 0
4.2780004 0.25479224 0.81671494 0
4.2860003 0.24840313 0.81756634 0
4.2940001 0.2419852 0.81841779 0
4.302 0.23553836 0.81926918 0
4.1150002 0.18183902 0.79936773 0
4.1100001 0.17484024 0.79883564 0
4.1070004 0.16797495 0.79851633 0
4.105 0.16117638 0.79830348 0
4.1030002 0.15438505 0.79809058 0
4.0950003 0.14728707 0.79723918 0
4.0840001 0.14006643 0.79606855 0
4.0760002 0.13303158 0.79521716 0
4.0700002 0.12611936 0.79457855 0
4.066 0.11931902 0.79415292 0
4.0630002 0.11257638 0.79383361 0
4.0599999 0.10584457 0.79351437 0
4.0580001 0.099163264 0.79330146 0
4.0580001 0.09256494 0.79330146 0
4.0580001 0.085966602 0.79330146 0
4.059 0.079402551 0.79340792 0
4.0599999 0.072834894 0.79351437 0
4.0630002 0.066324949 0.79383361 0
4.0680003 0.059861902 0.79436576 0
4.2400002 0.016339611 0.81267083 0
4.2480001 0.0095284358 0.81352222 0
4.257 0.002701018 0.81448001 0
4.2650003 -0.0041696839 0.81533146 0
4.2740002 -0.011060234 0.81628925 0
4.2750001 -0.018040972 0.81639564 0
4.27 -0.025057787 0.81586349 0
4.2660003 -0.032052957 0.81543785 0
4.263 -0.039031889 0.81511855 0
4.2620001 -0.046 0.81501216 0
4.2610002 -0.052964505 0.81490576 0
4.2600002 -0.0599254 0.81479931 0
4.2610002 -0.066893511 0.81490576 0
4.263 -0.073872447 0.81511855 0
4.2660003 -0.080867618 0.81543785 0
4.2080002 0.33865848 0.8023963 0
4.2020001 0.33119434 0.8017686 0
4.1960001 0.32375181 0.8011409 0
4.2000003 0.31728697 0.80155933 0
4.2080002 0.31118289 0.8023963 0
4.2150002 0.30495796 0.80312872 0
4.223 0.29879794 0.80396563 0
4.2309999 0.29260907 0.80480254 0
4.2390003 0.28639135 0.80563956 0
4.2460003 0.28005999 0.80637193 0
4.2540002 0.27378631 0.8072089 0
4.2620001 0.26748383 0.80804586 0
4.27 0.26115245 0.80888283 0
4.2780004 0.25479224 0.8097198 0
4.2860003 0.24840313 0.81055677 0
4.2940001 0.2419852 0.81139374 0
4.302 0.23553836 0.81223071 0
4.1150002 0.18183902 0.79266655 0
4.1100001 0.17484024 0.79214346 0
4.1070004 0.16797495 0.79182959 0
4.105 0.16117638 0.79162037 0
4.1030002 0.15438505 0.7914111 0
4.1000004 0.14754863 0.79109728 0
4.086 0.14016743 0.78963256 0
4.0770001 0.13308027 0.78869104 0
4.0700002 0.12611936 0.78795862 0
4.0650001 0.11927393 0.78743553 0
4.0620003 0.11253309 0.78712165 0
4.059 0.10580309 0.78680778 0
4.0570002 0.099123582 0.78659856 0
4.0560002 0.092489168 0.7864939 0
4.0550003 0.08585839 0.78638935 0
4.0560002 0.079299733 0.7864939 0
4.0570002 0.072737485 0.78659856 0
4.059 0.066202283 0.78680778 0
4.0630002 0.059717592 0.78722632 0
4.2400002 0.016339611 0.80574417 0
4.2480001 0.0095284358 0.80658114 0
4.257 0.002701018 0.80752277 0
4.2650003 -0.0041696839 0.80835974 0
4.2740002 -0.011060234 0.80930126 0
4.2750001 -0.018040972 0.80940592 0
4.27 -0.025057787 0.80888283 0
4.2650003 -0.032056563 0.80835974 0
4.2620001 -0.039033692 0.80804586 0
4.2600002 -0.046 0.80783659 0
4.2580004 -0.052959092 0.80762738 0
4.2580004 -0.059918184 0.80762738 0
4.2580004 -0.066877276 0.80762738 0
4.2590003 -0.073843583 0.80773199 0
4.2620001 -0.080831543 0.80804586 0
4.2080002 0.33865848 0.7955274 0
4.2020001 0.33119434 0.79491055 0
4.1960001 0.32375181 0.79429364 0
4.2000003 0.31728697 0.79470491 0
4.2080002 0.31118289 0.7955274 0
4.2150002 0.30495796 0.79624712 0
4.223 0.29879794 0.79706967 0
4.2309999 0.29260907 0.79789221 0
4.2390003 0.28639135 0.79871476 0
4.2460003 0.28005999 0.79943448 0
4.2540002 0.27378631 0.80025697 0
4.2620001 0.26748383 0.80107951 0
4.27 0.26115245 0.80190206 0
4.2780004 0.25479224 0.8027246 0
4.2860003 0.24840313 0.80354714 0
4.2940001 0.2419852 0.80436969 0
4.302 0.23553836 0.80519223 0
4.1150002 0.18183902 0.78596544 0
4.1100001 0.17484024 0.78545135 0
4.1070004 0.16797495 0.7851429 0
4.105 0.16117638 0.78493726 0
4.1030002 0.15438505 0.78473163 0
4.1030002 0.14770554 0.78473163 0
4.0890002 0.14031896 0.78329217 0
4.0780001 0.13312899 0.78216124 0
4.0710001 0.12616628 0.78144145 0
4.0650001 0.11927393 0.78082454 0
4.0599999 0.11244652 0.78031051 0
4.0570002 0.1057201 0.780002 0
4.0550003 0.099044219 0.77979636 0
4.053 0.092375547 0.77959073 0
4.053 0.085786223 0.77959073 0
4.053 0.079196915 0.77959073 0
4.0540004 0.072640076 0.7796936 0
4.0560002 0.066110283 0.77989924 0
4.059 0.059602145 0.78020763 0
4.0630002 0.053110238 0.78061891 0
4.2480001 0.0095284358 0.79964006 0
4.257 0.002701018 0.80056542 0
4.2650003 -0.0041696839 0.80138803 0
4.2740002 -0.011060234 0.80231333 0
4.276 -0.018033758 0.80251896 0
4.2690001 -0.025063198 0.80179924 0
4.2639999 -0.032060169 0.80128515 0
4.2610002 -0.039035495 0.80097675 0
4.2580004 -0.046 0.8006683 0
4.256 -0.052955486 0.8004626 0
4.2550001 -0.059907362 0.80035985 0
4.2550001 -0.066861041 0.80035985 0
4.256 -0.07382194 0.8004626 0
4.2580004 -0.080795459 0.8006683 0
4.2610002 -0.087787025 0.80097675 0
4.2080002 0.33865848 0.7886585 0
4.2020001 0.33119434 0.78805244 0
4.1960001 0.32375181 0.78744638 0
4.2000003 0.31728697 0.78785038 0
4.2080002 0.31118289 0.7886585 0
4.2150002 0.30495796 0.78936565 0
4.223 0.29879794 0.79017371 0
4.2309999 0.29260907 0.79098183 0
4.2390003 0.28639135 0.79178989 0
4.2460003 0.28005999 0.79249704 0
4.2540002 0.27378631 0.7933051 0
4.2620001 0.26748383 0.79411328 0
4.27 0.26115245 0.79492128 0
4.2780004 0.25479224 0.79572946 0
4.2860003 0.24840313 0.79653752 0
4.2940001 0.2419852 0.79734564 0
4.302 0.23553836 0.79815376 0
4.1150002 0.18183902 0.77926427 0
4.1100001 0.17484024 0.77875924 0
4.1070004 0.16797495 0.77845621 0
4.105 0.16117638 0.77825415 0
4.1030002 0.15438505 0.77805209 0
4.1030002 0.14770554 0.77805209 0
4.092 0.14047047 0.77694094 0
4.0799999 0.13322638 0.77572882 0
4.0710001 0.12616628 0.77481973 0
4.0650001 0.11927393 0.77421361 0
4.0599999 0.11244652 0.77370858 0
4.0560002 0.10567862 0.77330446 0
4.053 0.098964855 0.77300143 0
4.052 0.092337653 0.77290046 0
4.0510001 0.085714072 0.77279943 0
4.0500002 0.079094082 0.7726984 0
4.0510001 0.072542667 0.77279943 0
4.052 0.065987632 0.77290046 0
4.0550003 0.059486706 0.77320349 0
4.0580001 0.052974958 0.77350652 0
4.2480001 0.0095284358 0.7926991 0
4.257 0.002701018 0.79360819 0
4.2650003 -0.0041696839 0.79441631 0
4.2740002 -0.011060234 0.7953254 0
4.276 -0.018033758 0.79552746 0
4.2690001 -0.025063198 0.79482031 0
4.2639999 -0.032060169 0.79431522 0
4.2600002 -0.039037302 0.79391122 0
4.257 -0.046 0.79360819 0
4.2540002 -0.052951876 0.7933051 0
4.2530003 -0.059900146 0.79320407 0
4.2530003 -0.066850215 0.79320407 0
4.2530003 -0.073800296 0.79320407 0
4.2540002 -0.080759384 0.7933051 0
4.257 -0.087743729 0.79360819 0
4.2080002 0.33865848 0.7817896 0
4.2020001 0.33119434 0.78119433 0
4.1960001 0.32375181 0.78059912 0
4.2000003 0.31728697 0.78099597 0
4.2080002 0.31118289 0.7817896 0
4.2150002 0.30495796 0.78248405 0
4.223 0.29879794 0.78327775 0
4.2309999 0.29260907 0.78407145 0
4.2390003 0.28639135 0.78486514 0
4.2460003 0.28005999 0.78555954 0
4.2540002 0.27378631 0.78635323 0
4.2620001 0.26748383 0.78714693 0
4.27 0.26115245 0.78794062 0
4.2780004 0.25479224 0.78873426 0
4.2860003 0.24840313 0.78952795 0
4.2940001 0.2419852 0.79032159 0
4.302 0.23553836 0.79111528 0
4.1150002 0.18183902 0.7725631 0
4.1100001 0.17484024 0.77206707 0
4.1070004 0.16797495 0.77176946 0
4.105 0.16117638 0.77157104 0
4.1030002 0.15438505 0.77137262 0
4.1030002 0.14770554 0.77137262 0
4.1020002 0.14097555 0.77127337 0
4.0820003 0.13332379 0.76928926 0
4.072 0.12621318 0.76829708 0
4.0650001 0.11927393 0.76760268 0
4.0599999 0.11244652 0.76710659 0
4.0550003 0.10563713 0.76661056 0
4.052 0.098925158 0.76631296 0
4.0500002 0.092261896 0.76611447 0
4.0480003 0.085605845 0.76591611 0
4.0480003 0.079025552 0.76591611 0
4.0480003 0.072445258 0.76591611 0
4.0490003 0.065895632 0.76601529 0
4.0510001 0.059371267 0.76621372 0
4.0540004 0.052866731 0.76651138 0
4.059 0.046401877 0.76700741 0
4.2480001 0.0095284358 0.78575802 0
4.257 0.002701018 0.7866509 0
4.2650003 -0.0041696839 0.78744459 0
4.2740002 -0.011060234 0.78833747 0
4.2780004 -0.018019326 0.78873426 0
4.27 -0.025057787 0.78794062 0
4.2639999 -0.032060169 0.78734529 0
4.2590003 -0.039039105 0.78684926 0
4.2550001 -0.046 0.78645241 0
4.2530003 -0.052950073 0.78625405 0
4.2509999 -0.05989293 0.78605562 0
4.25 -0.066833988 0.78595638 0
4.25 -0.073778644 0.78595638 0
4.2509999 -0.080732331 0.78605562 0
4.2530003 -0.087700441 0.78625405 0
4.256 -0.094688386 0.78655171 0
4.2080002 0.33865848 0.7749207 0
4.2020001 0.33119434 0.77433628 0
4.1960001 0.32375181 0.77375185 0
4.2000003 0.31728697 0.77414143 0
4.2080002 0.31118289 0.7749207 0
4.2150002 0.30495796 0.77560258 0
4.223 0.29879794 0.77638179 0
4.2309999 0.29260907 0.777161 0
4.2390003 0.28639135 0.77794027 0
4.2460003 0.28005999 0.77862215 0
4.2540002 0.27378631 0.7794013 0
4.2620001 0.26748383 0.78018063 0
4.27 0.26115245 0.78095984 0
4.2780004 0.25479224 0.78173912 0
4.2860003 0.24840313 0.78251839 0
4.2940001 0.2419852 0.7832976 0
4.302 0.23553836 0.78407681 0
4.1150002 0.18183902 0.76586199 0
4.1100001 0.17484024 0.76537496 0
4.1070004 0.16797495 0.76508272 0
4.105 0.16117638 0.76488793 0
4.1030002 0.15438505 0.76469314 0
4.1030002 0.14770554 0.76469314 0
4.1040001 0.14107655 0.76479053 0
4.086 0.13351859 0.7630372 0
4.0740004 0.12630698 0.76186836 0
4.0650001 0.11927393 0.76099169 0
4.059 0.11240321 0.76040727 0
4.0550003 0.10563713 0.76001763 0
4.0510001 0.098885491 0.75962806 0
4.0480003 0.092186138 0.75933582 0
4.0469999 0.085569769 0.75923836 0
4.046 0.078957006 0.75914097 0
4.0450001 0.07234785 0.75904357 0
4.046 0.065803647 0.75914097 0
4.0469999 0.059255812 0.75923836 0
4.0500002 0.052758496 0.7595306 0
4.0540004 0.046275619 0.75992024 0
4.257 0.002701018 0.7796936 0
4.2650003 -0.0041696839 0.78047282 0
4.2740002 -0.011060234 0.78134942 0
4.2800002 -0.018004896 0.7819339 0
4.2710004 -0.025052374 0.78105724 0
4.2639999 -0.032060169 0.78037542 0
4.2590003 -0.039039105 0.77988839 0
4.2540002 -0.046 0.7794013 0
4.2509999 -0.052946467 0.77910912 0
4.2490001 -0.059885718 0.77891433 0
4.2480001 -0.066823162 0.77881694 0
4.2470002 -0.073757 0.77871954 0
4.2480001 -0.08070527 0.77881694 0
4.2490001 -0.087657154 0.77891433 0
4.2520003 -0.094637886 0.77920651 0
4.2080002 0.33865848 0.7680518 0
4.2020001 0.33119434 0.76747823 0
4.1960001 0.32375181 0.76690459 0
4.2000003 0.31728697 0.76728702 0
4.2080002 0.31118289 0.7680518 0
4.2150002 0.30495796 0.76872104 0
4.223 0.29879794 0.76948583 0
4.2309999 0.29260907 0.77025062 0
4.2390003 0.28639135 0.77101547 0
4.2460003 0.28005999 0.77168465 0
4.2540002 0.27378631 0.77244949 0
4.2620001 0.26748383 0.77321434 0
4.27 0.26115245 0.77397907 0
4.2780004 0.25479224 0.77474391 0
4.2860003 0.24840313 0.77550876 0
4.2940001 0.2419852 0.77627361 0
4.302 0.23553836 0.7770384 0
4.1150002 0.18183902 0.75916082 0
4.1100001 0.17484024 0.75868285 0
4.1070004 0.16797495 0.75839603 0
4.105 0.16117638 0.75820482 0
4.1030002 0.15438505 0.75801361 0
4.1030002 0.14770554 0.75801361 0
4.1040001 0.14107655 0.75810921 0
4.0929999 0.1338595 0.75705755 0
4.0760002 0.12640077 0.75543237 0
4.066 0.11931902 0.75447631 0
4.059 0.11240321 0.75380713 0
4.0540004 0.10559565 0.75332916 0
4.0500002 0.098845795 0.75294673 0
4.0469999 0.092148244 0.75265992 0
4.0450001 0.085497618 0.75246871 0
4.0430002 0.078854188 0.75227749 0
4.0430002 0.072282925 0.75227749 0
4.0430002 0.065711647 0.75227749 0
4.0440001 0.059169237 0.7523731 0
4.046 0.052650269 0.75256431 0
4.0490003 0.046149347 0.75285113 0
4.0540004 0.039684501 0.75332916 0
4.257 0.002701018 0.77273631 0
4.2650003 -0.0041696839 0.77350116 0
4.2740002 -0.011060234 0.77436149 0
4.283 -0.01798325 0.77522194 0
4.2720003 -0.025046963 0.77417034 0
4.2639999 -0.032060169 0.77340549 0
4.2580004 -0.039040908 0.77283192 0
4.2530003 -0.046 0.77235389 0
4.25 -0.05294466 0.77206707 0
4.2470002 -0.059878498 0.77178025 0
4.2460003 -0.066812336 0.77168465 0
4.2450004 -0.073742568 0.7715891 0
4.2450004 -0.080678217 0.7715891 0
4.2460003 -0.087624677 0.77168465 0
4.2480001 -0.094587386 0.77187586 0
4.2520003 -0.10158616 0.77225828 0
4.2080002 0.33865848 0.7611829 0
4.2020001 0.33119434 0.76062012 0
4.1960001 0.32375181 0.76005733 0
4.2000003 0.31728697 0.76043248 0
4.2080002 0.31118289 0.7611829 0
4.2150002 0.30495796 0.76183951 0
4.223 0.29879794 0.76258987 0
4.2309999 0.29260907 0.76334023 0
4.2390003 0.28639135 0.76409066 0
4.2460003 0.28005999 0.76474726 0
4.2540002 0.27378631 0.76549757 0
4.2620001 0.26748383 0.76624799 0
4.27 0.26115245 0.76699841 0
4.2780004 0.25479224 0.76774877 0
4.2860003 0.24840313 0.76849914 0
4.2940001 0.2419852 0.76924956 0
4.302 0.23553836 0.76999992 0
4.1150002 0.18183902 0.75245965 0
4.1100001 0.17484024 0.75199068 0
4.1070004 0.16797495 0.75170934 0
4.105 0.16117638 0.75152171 0
4.1030002 0.15438505 0.75133407 0
4.1030002 0.14770554 0.75133407 0
4.1040001 0.14107655 0.75142789 0
4.105 0.13444395 0.75152171 0
4.0599999 0.11244652 0.7473008 0
4.0540004 0.10559565 0.74673802 0
4.0490003 0.098806113 0.74626899 0
4.046 0.092110381 0.74598765 0
4.0430002 0.085425466 0.7457062 0
4.0420003 0.078819931 0.74561238 0
4.0410004 0.072217986 0.74551868 0
4.04 0.065619648 0.74542481 0
4.0410004 0.059082653 0.74551868 0
4.0430002 0.052569095 0.7457062 0
4.0450001 0.046048332 0.74589384 0
4.0490003 0.039567251 0.74626899 0
4.257 0.002701018 0.76577902 0
4.2650003 -0.0041696839 0.76652938 0
4.2740002 -0.011060234 0.76737356 0
4.283 -0.01798325 0.76821774 0
4.2740002 -0.025036143 0.76737356 0
4.2650003 -0.032056563 0.76652938 0
4.2580004 -0.039040908 0.76587284 0
4.2530003 -0.046 0.76540381 0
4.2490001 -0.052942857 0.7650286 0
4.2460003 -0.059874892 0.76474726 0
4.244 -0.066801518 0.76455963 0
4.243 -0.073728144 0.76446581 0
4.2420001 -0.080651157 0.76437205 0
4.243 -0.087592214 0.76446581 0
4.244 -0.094536871 0.76455963 0
4.2470002 -0.101514 0.76484102 0
4.2080002 0.33865848 0.75431401 0
4.2020001 0.33119434 0.75376201 0
4.1960001 0.32375181 0.75321007 0
4.2000003 0.31728697 0.75357807 0
4.2080002 0.31118289 0.75431401 0
4.2150002 0.30495796 0.75495797 0
4.223 0.29879794 0.75569391 0
4.2309999 0.29260907 0.75642991 0
4.2390003 0.28639135 0.75716585 0
4.2460003 0.28005999 0.75780976 0
4.2540002 0.27378631 0.75854576 0
4.2620001 0.26748383 0.75928169 0
4.27 0.26115245 0.76001763 0
4.2780004 0.25479224 0.76075363 0
4.2860003 0.24840313 0.76148951 0
4.2940001 0.2419852 0.76222551 0
4.302 0.23553836 0.76296151 0
4.1150002 0.18183902 0.74575853 0
4.1100001 0.17484024 0.74529856 0
4.1070004 0.16797495 0.74502259 0
4.105 0.16117638 0.7448386 0
4.1030002 0.15438505 0.7446546 0
4.1030002 0.14770554 0.7446546 0
4.1040001 0.14107655 0.74474657 0
4.105 0.13444395 0.7448386 0
4.086 0.12686977 0.74309075 0
4.0599999 0.11244652 0.74069881 0
4.0540004 0.10559565 0.74014688 0
4.0490003 0.098806113 0.73968697 0
4.0450001 0.092072502 0.73931897 0
4.0420003 0.085389391 0.739043 0
4.04 0.078751385 0.73885894 0
4.0380001 0.072120577 0.738675 0
4.0380001 0.065558329 0.738675 0
4.0380001 0.05899607 0.738675 0
4.039 0.052460875 0.73876697 0
4.0420003 0.045972575 0.739043 0
4.0450001 0.039473455 0.73931897 0
4.2650003 -0.0041696839 0.75955766 0
4.2740002 -0.011060234 0.76038563 0
4.283 -0.01798325 0.76121354 0
4.2780004 -0.025014495 0.76075363 0
4.2660003 -0.032052957 0.75964969 0
4.2590003 -0.039039105 0.75900567 0
4.2530003 -0.046 0.75845373 0
4.2480001 -0.052941054 0.75799382 0
4.2450004 -0.059871286 0.75771779 0
4.2420001 -0.066790693 0.75744182 0
4.2400002 -0.073706493 0.75725782 0
4.2400002 -0.080633119 0.75725782 0
4.2400002 -0.087559745 0.75725782 0
4.2410002 -0.094498992 0.75734985 0
4.243 -0.10145628 0.75753379 0
4.2470002 -0.10845325 0.75790179 0
4.2080002 0.33865848 0.74744511 0
4.2020001 0.33119434 0.74690402 0
4.1960001 0.32375181 0.74636281 0
4.2000003 0.31728697 0.74672359 0
4.2080002 0.31118289 0.74744511 0
4.2150002 0.30495796 0.74807644 0
4.223 0.29879794 0.74879795 0
4.2309999 0.29260907 0.74951947 0
4.2390003 0.28639135 0.75024104 0
4.2460003 0.28005999 0.75087231 0
4.2540002 0.27378631 0.75159383 0
4.2620001 0.26748383 0.7523154 0
4.27 0.26115245 0.75303686 0
4.2780004 0.25479224 0.75375843 0
4.2860003 0.24840313 0.75447994 0
4.2940001 0.2419852 0.75520146 0
4.302 0.23553836 0.75592303 0
4.1150002 0.18183902 0.73905742 0
4.1100001 0.17484024 0.73860645 0
4.1070004 0.16797495 0.73833585 0
4.105 0.16117638 0.73815548 0
4.1030002 0.15438505 0.73797512 0
4.1030002 0.14770554 0.73797512 0
4.1040001 0.14107655 0.7380653 0
4.105 0.13444395 0.73815548 0
4.1080003 0.12790154 0.73842609 0
4.0540004 0.10559565 0.73355579 0
4.0480003 0.098766431 0.73301464 0
4.0440001 0.092034623 0.73265386 0
4.0410004 0.085353315 0.73238331 0
4.0380001 0.078682825 0.73211277 0
4.0360003 0.072055653 0.73193234 0
4.0360003 0.065496996 0.73193234 0
4.0350003 0.058909487 0.73184216 0
4.0360003 0.052379701 0.73193234 0
4.0380001 0.04587156 0.73211277 0
4.0410004 0.03937966 0.73238331 0
4.0450001 0.032898571 0.7327441 0
4.2650003 -0.0041696839 0.75258601 0
4.2740002 -0.011060234 0.75339764 0
4.2680001 -0.032045741 0.75285649 0
4.2590003 -0.039039105 0.7520448 0
4.2520003 -0.046 0.75141346 0
4.2480001 -0.052941054 0.75105274 0
4.244 -0.059867676 0.75069195 0
4.2400002 -0.066779867 0.75033116 0
4.2390003 -0.073699281 0.75024104 0
4.237 -0.080606058 0.75006062 0
4.237 -0.087527275 0.75006062 0
4.2380004 -0.094461113 0.7501508 0
4.2390003 -0.10139856 0.75024104 0
4.2420001 -0.10837208 0.75051153 0
4.2080002 0.33865848 0.74057621 0
4.2020001 0.33119434 0.74004591 0
4.1960001 0.32375181 0.73951554 0
4.2000003 0.31728697 0.73986912 0
4.2080002 0.31118289 0.74057621 0
4.2150002 0.30495796 0.7411949 0
4.223 0.29879794 0.74190199 0
4.2309999 0.29260907 0.74260908 0
4.2390003 0.28639135 0.74331617 0
4.2460003 0.28005999 0.74393487 0
4.2540002 0.27378631 0.74464202 0
4.2620001 0.26748383 0.74534905 0
4.27 0.26115245 0.7460562 0
4.2780004 0.25479224 0.74676329 0
4.2860003 0.24840313 0.74747038 0
4.2940001 0.2419852 0.74817747 0
4.302 0.23553836 0.74888456 0
4.1150002 0.18183902 0.73235625 0
4.1100001 0.17484024 0.73191428 0
4.1070004 0.16797495 0.73164916 0
4.105 0.16117638 0.73147237 0
4.1030002 0.15438505 0.73129559 0
4.1030002 0.14770554 0.73129559 0
4.1040001 0.14107655 0.73138404 0
4.105 0.13444395 0.73147237 0
4.1080003 0.12790154 0.73173755 0
4.0550003 0.10563713 0.72705305 0
4.0480003 0.098766431 0.72643435 0
4.0430002 0.091996744 0.72599244 0
4.04 0.085317239 0.7257272 0
4.0370002 0.078648567 0.72546208 0
4.0350003 0.072023183 0.72528529 0
4.033 0.065404996 0.72510856 0
4.033 0.058851767 0.72510856 0
4.033 0.052298527 0.72510856 0
4.0339999 0.045770545 0.72519696 0
4.0370002 0.039285857 0.72546208 0
4.04 0.032790337 0.7257272 0
4.2710004 -0.032034919 0.74614453 0
4.2610002 -0.039035495 0.74526072 0
4.2530003 -0.046 0.74455357 0
4.2470002 -0.052939251 0.74402326 0
4.2420001 -0.05986046 0.74358135 0
4.2390003 -0.066774458 0.74331617 0
4.237 -0.073684849 0.74313939 0
4.2350001 -0.080588028 0.7429626 0
4.2350001 -0.087505631 0.7429626 0
4.2350001 -0.094423234 0.7429626 0
4.2360001 -0.10135527 0.74305105 0
4.2380004 -0.10830715 0.74322784 0
4.2420001 -0.11530231 0.74358135 0
4.2080002 0.33865848 0.73370731 0
4.2020001 0.33119434 0.73318779 0
4.1960001 0.32375181 0.73266828 0
4.2000003 0.31728697 0.73301464 0
4.2080002 0.31118289 0.73370731 0
4.2150002 0.30495796 0.73431337 0
4.223 0.29879794 0.73500603 0
4.2309999 0.29260907 0.7356987 0
4.2390003 0.28639135 0.73639137 0
4.2460003 0.28005999 0.73699743 0
4.2540002 0.27378631 0.73769009 0
4.2620001 0.26748383 0.73838276 0
4.27 0.26115245 0.73907542 0
4.2780004 0.25479224 0.73976809 0
4.2860003 0.24840313 0.74046075 0
4.2940001 0.2419852 0.74115348 0
4.302 0.23553836 0.74184608 0
4.1150002 0.18183902 0.72565508 0
4.1100001 0.17484024 0.72522223 0
4.1070004 0.16797495 0.72496247 0
4.105 0.16117638 0.72478926 0
4.1030002 0.15438505 0.72461605 0
4.1030002 0.14770554 0.72461605 0
4.1040001 0.14107655 0.72470272 0
4.105 0.13444395 0.72478926 0
4.1080003 0.12790154 0.72504902 0
4.0560002 0.10567862 0.72054672 0
4.0490003 0.098806113 0.71994066 0
4.0430002 0.091996744 0.71942115 0
4.039 0.085281163 0.71907485 0
4.0360003 0.07861428 0.71881509 0
4.033 0.071958244 0.71855533 0
4.0310001 0.065343678 0.71838212 0
4.0310001 0.058794048 0.71838212 0
4.0310001 0.052244421 0.71838212 0
4.0320001 0.045720045 0.71846873 0
4.033 0.039192054 0.71855533 0
4.0360003 0.032703761 0.71881509 0
4.2620001 -0.039033692 0.73838276 0
4.2530003 -0.046 0.73760355 0
4.2470002 -0.052939251 0.73708403 0
4.2420001 -0.05986046 0.73665112 0
4.2380004 -0.066769049 0.73630476 0
4.2350001 -0.073670417 0.73604506 0
4.2330003 -0.080569983 0.73587191 0
4.2320004 -0.087473154 0.73578525 0
4.2320004 -0.094385356 0.73578525 0
4.2330003 -0.10131197 0.73587191 0
4.2340002 -0.10824221 0.73595846 0
4.237 -0.11521213 0.73621821 0
4.2080002 0.33865848 0.72683835 0
4.2020001 0.33119434 0.72632974 0
4.1960001 0.32375181 0.72582108 0
4.2000003 0.31728697 0.72616017 0
4.2080002 0.31118289 0.72683835 0
4.2150002 0.30495796 0.72743183 0
4.223 0.29879794 0.72811007 0
4.2309999 0.29260907 0.72878832 0
4.2390003 0.28639135 0.72946656 0
4.2460003 0.28005999 0.73005998 0
4.2540002 0.27378631 0.73073822 0
4.2620001 0.26748383 0.73141646 0
4.27 0.26115245 0.73209465 0
4.2780004 0.25479224 0.73277295 0
4.2860003 0.24840313 0.73345113 0
4.2940001 0.2419852 0.73412943 0
4.302 0.23553836 0.73480761 0
4.1150002 0.18183902 0.71895397 0
4.1100001 0.17484024 0.71853006 0
4.1070004 0.16797495 0.71827573 0
4.105 0.16117638 0.71810615 0
4.1030002 0.15438505 0.71793658 0
4.1030002 0.14770554 0.71793658 0
4.1040001 0.14107655 0.71802139 0
4.105 0.13444395 0.71810615 0
4.1080003 0.12790154 0.71836048 0
4.0490003 0.098806113 0.71335852 0
4.0430002 0.091996744 0.71284986 0
4.0380001 0.085245088 0.71242595 0
4.0339999 0.078545734 0.71208686 0
4.0310001 0.07189329 0.71183252 0
4.0300002 0.065313011 0.71174777 0
4.0290003 0.058736321 0.71166295 0
4.0280004 0.052163247 0.71157819 0
4.0290003 0.04564428 0.71166295 0
4.0300002 0.039121713 0.71174777 0
4.0210004 0.03237908 0.71098471 0
4.0210004 0.025847483 0.71098471 0
4.2550001 -0.046 0.73082304 0
4.2470002 -0.052939251 0.73014474 0
4.2420001 -0.05986046 0.72972089 0
4.237 -0.066763639 0.72929698 0
4.2340002 -0.073663205 0.72904265 0
4.2320004 -0.080560967 0.72887313 0
4.23 -0.087451518 0.7287035 0
4.2290001 -0.094347477 0.72861874 0
4.23 -0.10126868 0.7287035 0
4.2309999 -0.1081935 0.72878832 0
4.2330003 -0.11513998 0.72895789 0
4.2080002 0.33865848 0.71996951 0
4.2020001 0.33119434 0.71947169 0
4.1960001 0.32375181 0.71897376 0
4.2000003 0.31728697 0.71930569 0
4.2080002 0.31118289 0.71996951 0
4.2150002 0.30495796 0.7205503 0
4.223 0.29879794 0.72121412 0
4.2309999 0.29260907 0.72187793 0
4.2390003 0.28639135 0.72254169 0
4.2460003 0.28005999 0.7231226 0
4.2540002 0.27378631 0.72378635 0
4.2620001 0.26748383 0.72445011 0
4.27 0.26115245 0.72511399 0
4.2780004 0.25479224 0.72577775 0
4.2860003 0.24840313 0.72644156 0
4.2940001 0.2419852 0.72710538 0
4.302 0.23553836 0.72776914 0
4.1150002 0.18183902 0.71225286 0
4.1100001 0.17484024 0.71183795 0
4.1070004 0.16797495 0.71158898 0
4.105 0.16117638 0.71142304 0
4.1030002 0.15438505 0.7112571 0
4.1030002 0.14770554 0.7112571 0
4.1040001 0.14107655 0.71134007 0
4.105 0.13444395 0.71142304 0
4.1080003 0.12790154 0.71167195 0
4.112 0.1213934 0.71200383 0
4.0500002 0.098845795 0.70685941 0
4.0430002 0.091996744 0.70627856 0
4.0380001 0.085245088 0.70586371 0
4.033 0.078511462 0.70544887 0
4.0300002 0.071860835 0.70519996 0
4.0280004 0.065251678 0.70503402 0
4.026 0.058649737 0.70486802 0
4.026 0.052109133 0.70486802 0
4.026 0.045568522 0.70486802 0
4.0170002 0.038816866 0.70412123 0
4.0150003 0.032249209 0.70395529 0
4.0139999 0.02570859 0.70387232 0
4.013 0.019171592 0.70378935 0
4.2480001 -0.052941054 0.72328854 0
4.2410002 -0.059856854 0.72270763 0
4.237 -0.066763639 0.72237575 0
4.2330003 -0.073655985 0.72204387 0
4.23 -0.080542929 0.72179496 0
4.2280002 -0.087429866 0.72162896 0
4.2270002 -0.094322219 0.72154605 0
4.2270002 -0.10122539 0.72154605 0
4.2270002 -0.10812856 0.72154605 0
4.2290001 -0.11506781 0.72171199 0
4.2320004 -0.12203413 0.7219609 0
4.2080002 0.33865848 0.71310055 0
4.2020001 0.33119434 0.71261358 0
4.1960001 0.32375181 0.71212649 0
4.2000003 0.31728697 0.71245122 0
4.2080002 0.31118289 0.71310055 0
4.2150002 0.30495796 0.71366882 0
4.223 0.29879794 0.71431816 0
4.2309999 0.29260907 0.71496749 0
4.2390003 0.28639135 0.71561694 0
4.2460003 0.28005999 0.71618509 0
4.2540002 0.27378631 0.71683449 0
4.2620001 0.26748383 0.71748388 0
4.27 0.26115245 0.71813321 0
4.2780004 0.25479224 0.7187826 0
4.2860003 0.24840313 0.719432 0
4.2940001 0.2419852 0.72008133 0
4.302 0.23553836 0.72073072 0
4.1150002 0.18183902 0.70555162 0
4.1100001 0.17484024 0.70514584 0
4.1070004 0.16797495 0.70490229 0
4.105 0.16117638 0.70473993 0
4.1030002 0.15438505 0.70457757 0
4.1030002 0.14770554 0.70457757 0
4.1040001 0.14107655 0.70465875 0
4.105 0.13444395 0.70473993 0
4.1080003 0.12790154 0.70498347 0
4.112 0.1213934 0.70530814 0
4.0440001 0.092034623 0.69978845 0
4.0370002 0.085209012 0.6992203 0
4.033 0.078511462 0.69889557 0
4.0290003 0.071828365 0.69857091 0
4.026 0.065190345 0.69832742 0
4.0250001 0.058620881 0.69824624 0
4.0240002 0.052055012 0.69816506 0
4.0150003 0.045290735 0.69743454 0
4.0120001 0.038699616 0.697191 0
4.0100002 0.032140967 0.69702864 0
4.0080004 0.025589544 0.69686633 0
4.007 0.019063357 0.69678515 0
4.006 0.012540795 0.69670397 0
4.006 0.0060362592 0.69670397 0
4.2420001 -0.05986046 0.71586043 0
4.2360001 -0.066758223 0.7153734 0
4.2320004 -0.073648773 0.71504873 0
4.2290001 -0.080533907 0.71480519 0
4.2260003 -0.087408222 0.7145617 0
4.2250004 -0.094296962 0.71448052 0
4.224 -0.1011821 0.71439934 0
4.224 -0.10807987 0.71439934 0
4.2250004 -0.11499567 0.71448052 0
4.2280002 -0.12195475 0.71472406 0
4.2080002 0.33865848 0.70623171 0
4.2020001 0.33119434 0.70575547 0
4.1960001 0.32375181 0.70527929 0
4.2000003 0.31728697 0.70559675 0
4.2080002 0.31118289 0.70623171 0
4.2150002 0.30495796 0.70678729 0
4.223 0.29879794 0.7074222 0
4.2309999 0.29260907 0.70805717 0
4.2390003 0.28639135 0.70869207 0
4.2460003 0.28005999 0.70924771 0
4.2540002 0.27378631 0.70988262 0
4.2620001 0.26748383 0.71051753 0
4.27 0.26115245 0.71115243 0
4.2780004 0.25479224 0.71178746 0
4.2860003 0.24840313 0.71242237 0
4.2940001 0.2419852 0.71305728 0
4.302 0.23553836 0.71369225 0
4.1150002 0.18183902 0.69885051 0
4.1100001 0.17484024 0.69845366 0
4.1070004 0.16797495 0.6982156 0
4.105 0.16117638 0.69805682 0
4.1030002 0.15438505 0.69789809 0
4.1030002 0.14770554 0.69789809 0
4.1040001 0.14107655 0.69797748 0
4.105 0.13444395 0.69805682 0
4.1080003 0.12790154 0.69829494 0
4.112 0.1213934 0.69861239 0
4.0440001 0.092034623 0.69321543 0
4.0380001 0.085245088 0.69273919 0
4.0320001 0.078477204 0.69226301 0
4.0280004 0.071795896 0.69194555 0
4.026 0.065190345 0.69178677 0
4.0240002 0.05859201 0.6916281 0
4.0150003 0.051811498 0.6909138 0
4.0110002 0.04518972 0.69059628 0
4.0080004 0.03860582 0.69035816 0
4.0050001 0.032032747 0.6901201 0
4.0030003 0.025490332 0.68996131 0
4.0009999 0.018955138 0.68980259 0
3.9990003 0.012427155 0.68964386 0
3.9980004 0.0059208162 0.68956447 0
3.9980004 -0.00056928396 0.68956447 0
4.2360001 -0.066758223 0.70845401 0
4.2309999 -0.073641554 0.70805717 0
4.2270002 -0.080515869 0.70773965 0
4.2250004 -0.087397397 0.70758092 0
4.223 -0.094271712 0.7074222 0
4.2220001 -0.10115324 0.70734286 0
4.2210002 -0.10803115 0.70726347 0
4.223 -0.1149596 0.7074222 0
4.2120004 -0.12163728 0.70654917 0
4.211 -0.12849176 0.70646977 0
4.2080002 0.33865848 0.69936275 0
4.2020001 0.33119434 0.69889742 0
4.1960001 0.32375181 0.69843203 0
4.2000003 0.31728697 0.69874227 0
4.2080002 0.31118289 0.69936275 0
4.2150002 0.30495796 0.69990575 0
4.223 0.29879794 0.70052624 0
4.2309999 0.29260907 0.70114672 0
4.2390003 0.28639135 0.70176727 0
4.2460003 0.28005999 0.7023102 0
4.2540002 0.27378631 0.70293069 0
4.2620001 0.26748383 0.70355123 0
4.27 0.26115245 0.70417178 0
4.2780004 0.25479224 0.70479226 0
4.2860003 0.24840313 0.70541275 0
4.2940001 0.2419852 0.70603329 0
4.302 0.23553836 0.70665377 0
4.1150002 0.18183902 0.6921494 0
4.1100001 0.17484024 0.69176155 0
4.1070004 0.16797495 0.69152886 0
4.105 0.16117638 0.69137371 0
4.1030002 0.15438505 0.69121861 0
4.1030002 0.14770554 0.69121861 0
4.1040001 0.14107655 0.69129616 0
4.105 0.13444395 0.69137371 0
4.1080003 0.12790154 0.6916064 0
4.112 0.1213934 0.6919167 0
4.1170001 0.11491413 0.69230449 0
4.0380001 0.085245088 0.68617696 0
4.0320001 0.078477204 0.68571156 0
4.0290003 0.071828365 0.68547893 0
4.026 0.065190345 0.68524623 0
4.0240002 0.05859201 0.68509102 0
4.013 0.051757392 0.68423784 0
4.0090003 0.045139212 0.6839276 0
4.0050001 0.038535472 0.68361735 0
4.0020003 0.031967808 0.68338466 0
3.9990003 0.025410961 0.68315196 0
3.9960003 0.018864948 0.68291926 0
3.9940002 0.012345981 0.68276417 0
3.9920003 0.005834233 0.68260902 0
3.9910002 -0.00065767393 0.68253148 0
3.9900002 -0.0071459711 0.68245387 0
3.9900002 -0.013621643 0.68245387 0
4.2309999 -0.073641554 0.70114672 0
4.2260003 -0.080506846 0.70075893 0
4.223 -0.087375753 0.70052624 0
4.2210002 -0.094246462 0.70037115 0
4.2200003 -0.10112438 0.70029354 0
4.2200003 -0.10801493 0.70029354 0
4.2090001 -0.11470705 0.69944036 0
4.2070003 -0.12153807 0.69928521 0
4.2049999 -0.12836188 0.69913006 0
4.204 -0.13520193 0.69905257 0
4.2080002 0.33865848 0.69249392 0
4.2020001 0.33119434 0.69203931 0
4.1960001 0.32375181 0.69158477 0
4.2000003 0.31728697 0.6918878 0
4.2080002 0.31118289 0.69249392 0
