# .PCD v0.7 - Point Cloud Data file format
VERSION 0.7
FIELDS x y z intensity
SIZE 4 4 4 4
TYPE F F F F
COUNT 1 1 1 1
WIDTH 1395
HEIGHT 1
VIEWPOINT 0 0 0 1 0 0 0
POINTS 1395
DATA ascii
4.0890002 -0.032691501 0.82987189 0
4.0950003 -0.03933493 0.83056462 0
4.1020002 -0.046 0.83137268 0
4.1100001 -0.05269213 0.83229625 0
4.1170001 -0.05940951 0.83310437 0
4.1240001 -0.066152148 0.83391249 0
3.9630003 -0.071707875 0.81532598 0
3.9570003 -0.078080729 0.81463337 0
3.9510002 -0.084431931 0.81394064 0
3.9450002 -0.090761498 0.81324804 0
3.9400003 -0.097083852 0.81267083 0
3.9430003 -0.10351803 0.81301713 0
3.9500003 -0.1100352 0.81382525 0
3.9580002 -0.11659744 0.81474876 0
3.9650002 -0.1231669 0.81555688 0
3.9720004 -0.12976164 0.816365 0
3.9790003 -0.13638161 0.81717312 0
3.9860003 -0.14302684 0.81798124 0
3.9930003 -0.14969733 0.81878936 0
4.0009999 -0.15642373 0.81971288 0
4.0080004 -0.16314653 0.820521 0
4.0150003 -0.16989458 0.82132912 0
4.0230002 -0.17670396 0.82225263 0
4.0300002 -0.1835043 0.82306075 0
4.0370002 -0.19032991 0.82386887 0
4.0450001 -0.19722228 0.82479239 0
4.052 -0.20410019 0.8256005 0
4.0599999 -0.21104845 0.82652402 0
4.0669999 -0.21797869 0.82733214 0
4.0750003 -0.22498287 0.82825571 0
4.0830002 -0.23201592 0.82917929 0
4.0900002 -0.23902552 0.82998735 0
4.098 -0.24611448 0.83091092 0
4.1059999 -0.2532323 0.83183444 0
4.1129999 -0.26032126 0.83264256 0
4.1210003 -0.26749504 0.83356613 0
4.1290002 -0.27469763 0.8344897 0
4.1370001 -0.28192911 0.83541322 0
4.1440001 -0.28912449 0.83622134 0
4.152 -0.29641187 0.83714485 0
4.1600003 -0.30372813 0.83806843 0
4.1680002 -0.31107324 0.838992 0
4.1760001 -0.3184472 0.83991551 0
4.184 -0.32585004 0.84083909 0
4.1920004 -0.33328173 0.84176266 0
4.2000003 -0.34074226 0.84268618 0
4.1350002 0.075270027 0.82844508 0
4.1270003 0.068287492 0.82753599 0
4.1210003 0.061391529 0.82685417 0
4.1160002 0.054544266 0.82628596 0
4.1129999 0.047765557 0.82594502 0
4.105 0.040880423 0.82503593 0
4.0950003 0.033980858 0.82389951 0
4.0890002 0.027196731 0.82321769 0
4.085 0.020470332 0.82276309 0
4.0820003 0.013774596 0.82242215 0
4.0799999 0.0071041137 0.82219493 0
4.079 0.00045347214 0.82208127 0
4.079 -0.0061827376 0.82208127 0
4.0799999 -0.012809932 0.82219493 0
4.0820003 -0.019433513 0.82242215 0
4.085 -0.026058901 0.82276309 0
4.0890002 -0.032691501 0.82321769 0
4.0950003 -0.03933493 0.82389951 0
4.1020002 -0.046 0.82469499 0
4.1100001 -0.05269213 0.82560408 0
4.1170001 -0.05940951 0.82639956 0
4.1240001 -0.066152148 0.82719505 0
3.9630003 -0.071707875 0.80889904 0
3.9570003 -0.078080729 0.80821717 0
3.9510002 -0.084431931 0.80753541 0
3.9450002 -0.090761498 0.80685353 0
3.9400003 -0.097083852 0.80628538 0
3.9430003 -0.10351803 0.80662626 0
3.9500003 -0.1100352 0.80742168 0
3.9580002 -0.11659744 0.80833083 0
3.9650002 -0.1231669 0.80912632 0
3.9720004 -0.12976164 0.8099218 0
3.9790003 -0.13638161 0.81071734 0
3.9860003 -0.14302684 0.81151277 0
3.9930003 -0.14969733 0.81230825 0
4.0009999 -0.15642373 0.81321734 0
4.0080004 -0.16314653 0.81401289 0
4.0150003 -0.16989458 0.81480831 0
4.0230002 -0.17670396 0.81571746 0
4.0300002 -0.1835043 0.81651294 0
4.0370002 -0.19032991 0.81730843 0
4.0450001 -0.19722228 0.81821752 0
4.052 -0.20410019 0.819013 0
4.0599999 -0.21104845 0.81992209 0
4.0669999 -0.21797869 0.82071757 0
4.0750003 -0.22498287 0.82162672 0
4.0830002 -0.23201592 0.82253581 0
4.0900002 -0.23902552 0.8233313 0
4.098 -0.24611448 0.82424045 0
4.1059999 -0.2532323 0.82514954 0
4.1129999 -0.26032126 0.82594502 0
4.1210003 -0.26749504 0.82685417 0
4.1290002 -0.27469763 0.82776326 0
4.1370001 -0.28192911 0.82867241 0
4.1440001 -0.28912449 0.82946789 0
4.152 -0.29641187 0.83037698 0
4.1600003 -0.30372813 0.83128613 0
4.1680002 -0.31107324 0.83219522 0
4.1760001 -0.3184472 0.83310437 0
4.184 -0.32585004 0.83401346 0
4.1920004 -0.33328173 0.83492255 0
4.2000003 -0.34074226 0.8358317 0
4.2080002 -0.34823167 0.83674085 0
4.145 0.082349956 0.82282627 0
4.1340003 0.075237557 0.82159603 0
4.1259999 0.068256825 0.82070136 0
4.1210003 0.061391529 0.82014215 0
4.1170001 0.054571334 0.81969488 0
4.1140003 0.047790814 0.8193593 0
4.105 0.040880423 0.81835282 0
4.0950003 0.033980858 0.81723446 0
4.0890002 0.027196731 0.81656337 0
4.085 0.020470332 0.81611609 0
4.0820003 0.013774596 0.81578058 0
4.0799999 0.0071041137 0.81555688 0
4.079 0.00045347214 0.81544507 0
4.079 -0.0061827376 0.81544507 0
4.0799999 -0.012809932 0.81555688 0
4.0820003 -0.019433513 0.81578058 0
4.085 -0.026058901 0.81611609 0
4.0890002 -0.032691501 0.81656337 0
4.0950003 -0.03933493 0.81723446 0
4.1020002 -0.046 0.81801724 0
4.1100001 -0.05269213 0.81891203 0
4.1170001 -0.05940951 0.81969488 0
4.1240001 -0.066152148 0.82047772 0
3.9630003 -0.071707875 0.80247205 0
3.9570003 -0.078080729 0.80180109 0
3.9510002 -0.084431931 0.80113006 0
3.9450002 -0.090761498 0.80045903 0
3.9400003 -0.097083852 0.79989982 0
3.9430003 -0.10351803 0.80023539 0
3.9500003 -0.1100352 0.80101824 0
3.9580002 -0.11659744 0.8019129 0
3.9650002 -0.1231669 0.80269575 0
3.9720004 -0.12976164 0.8034786 0
3.9790003 -0.13638161 0.80426145 0
3.9860003 -0.14302684 0.80504429 0
3.9930003 -0.14969733 0.80582714 0
4.0009999 -0.15642373 0.80672181 0
4.0080004 -0.16314653 0.80750471 0
4.0150003 -0.16989458 0.80828756 0
4.0230002 -0.17670396 0.80918223 0
4.0300002 -0.1835043 0.80996513 0
4.0370002 -0.19032991 0.81074792 0
4.0450001 -0.19722228 0.81164265 0
4.052 -0.20410019 0.81242549 0
4.0599999 -0.21104845 0.81332016 0
4.0669999 -0.21797869 0.81410301 0
4.0750003 -0.22498287 0.81499767 0
4.0830002 -0.23201592 0.8158924 0
4.0900002 -0.23902552 0.81667525 0
4.098 -0.24611448 0.81756997 0
4.1059999 -0.2532323 0.81846464 0
4.1129999 -0.26032126 0.81924748 0
4.1210003 -0.26749504 0.82014215 0
4.1290002 -0.27469763 0.82103682 0
4.1370001 -0.28192911 0.8219316 0
4.1440001 -0.28912449 0.82271439 0
4.152 -0.29641187 0.82360911 0
4.1600003 -0.30372813 0.82450378 0
4.1680002 -0.31107324 0.82539845 0
4.1760001 -0.3184472 0.82629317 0
4.184 -0.32585004 0.8271879 0
4.1920004 -0.33328173 0.82808256 0
4.2000003 -0.34074226 0.82897723 0
4.2080002 -0.34823167 0.82987189 0
4.1430001 0.082281426 0.81585091 0
4.1330004 0.075205103 0.81475061 0
4.1270003 0.068287492 0.81409037 0
4.1220002 0.061420385 0.81354022 0
4.118 0.054598387 0.8131001 0
4.1160002 0.047841322 0.81288004 0
4.105 0.040880423 0.81166971 0
4.0950003 0.033980858 0.81056935 0
4.0890002 0.027196731 0.80990916 0
4.085 0.020470332 0.80946904 0
4.0820003 0.013774596 0.80913895 0
4.0799999 0.0071041137 0.80891889 0
4.079 0.00045347214 0.8088088 0
4.079 -0.0061827376 0.8088088 0
4.0799999 -0.012809932 0.80891889 0
4.0820003 -0.019433513 0.80913895 0
4.085 -0.026058901 0.80946904 0
4.0890002 -0.032691501 0.80990916 0
4.0950003 -0.03933493 0.81056935 0
4.1020002 -0.046 0.81133962 0
4.1100001 -0.05269213 0.81221986 0
4.1170001 -0.05940951 0.81299007 0
4.1240001 -0.066152148 0.81376028 0
3.9630003 -0.071707875 0.79604512 0
3.9570003 -0.078080729 0.79538488 0
3.9510002 -0.084431931 0.7947247 0
3.9450002 -0.090761498 0.79406452 0
3.9400003 -0.097083852 0.79351437 0
3.9430003 -0.10351803 0.79384446 0
3.9500003 -0.1100352 0.79461467 0
3.9580002 -0.11659744 0.79549491 0
3.9650002 -0.1231669 0.79626513 0
3.9720004 -0.12976164 0.7970354 0
3.9790003 -0.13638161 0.79780567 0
3.9860003 -0.14302684 0.79857588 0
3.9930003 -0.14969733 0.79934609 0
4.0009999 -0.15642373 0.80022633 0
4.0080004 -0.16314653 0.80099654 0
4.0150003 -0.16989458 0.80176675 0
4.0230002 -0.17670396 0.80264699 0
4.0300002 -0.1835043 0.80341727 0
4.0370002 -0.19032991 0.80418754 0
4.0450001 -0.19722228 0.80506778 0
4.052 -0.20410019 0.80583799 0
4.0599999 -0.21104845 0.80671823 0
4.0669999 -0.21797869 0.80748844 0
4.0750003 -0.22498287 0.80836874 0
4.0830002 -0.23201592 0.80924898 0
4.0900002 -0.23902552 0.8100192 0
4.098 -0.24611448 0.8108995 0
4.1059999 -0.2532323 0.81177974 0
4.1129999 -0.26032126 0.81254995 0
4.1210003 -0.26749504 0.81343019 0
4.1290002 -0.27469763 0.81431043 0
4.1370001 -0.28192911 0.81519073 0
4.1440001 -0.28912449 0.815961 0
4.152 -0.29641187 0.81684124 0
4.1600003 -0.30372813 0.81772149 0
4.1680002 -0.31107324 0.81860173 0
4.1760001 -0.3184472 0.81948197 0
4.184 -0.32585004 0.82036221 0
4.1920004 -0.33328173 0.82124251 0
4.2000003 -0.34074226 0.82212281 0
4.2080002 -0.34823167 0.82300305 0
4.1410003 0.08221288 0.80888283 0
4.1330004 0.075205103 0.80801702 0
4.1270003 0.068287492 0.80736762 0
4.1230001 0.061449248 0.80693471 0
4.1200004 0.054652501 0.80660999 0
4.118 0.047891822 0.80639356 0
4.105 0.040880423 0.8049866 0
4.0950003 0.033980858 0.80390429 0
4.0890002 0.027196731 0.80325496 0
4.085 0.020470332 0.80282199 0
4.0820003 0.013774596 0.80249733 0
4.0799999 0.0071041137 0.8022809 0
4.079 0.00045347214 0.80217266 0
4.079 -0.0061827376 0.80217266 0
4.0799999 -0.012809932 0.8022809 0
4.0820003 -0.019433513 0.80249733 0
4.085 -0.026058901 0.80282199 0
4.0890002 -0.032691501 0.80325496 0
4.0950003 -0.03933493 0.80390429 0
4.1020002 -0.046 0.80466187 0
4.1100001 -0.05269213 0.80552775 0
4.1170001 -0.05940951 0.80628538 0
4.1240001 -0.066152148 0.80704296 0
3.9630003 -0.071707875 0.78961813 0
3.9570003 -0.078080729 0.7889688 0
3.9510002 -0.084431931 0.78831941 0
3.9450002 -0.090761498 0.78767002 0
3.9400003 -0.097083852 0.78712893 0
3.9430003 -0.10351803 0.78745359 0
3.9500003 -0.1100352 0.78821117 0
3.9580002 -0.11659744 0.78907698 0
3.9650002 -0.1231669 0.78983462 0
3.9720004 -0.12976164 0.79059219 0
3.9790003 -0.13638161 0.79134977 0
3.9860003 -0.14302684 0.7921074 0
3.9930003 -0.14969733 0.79286504 0
4.0009999 -0.15642373 0.7937308 0
4.0080004 -0.16314653 0.79448843 0
4.0150003 -0.16989458 0.79524601 0
4.0230002 -0.17670396 0.79611182 0
4.0300002 -0.1835043 0.7968694 0
4.0370002 -0.19032991 0.79762703 0
4.0450001 -0.19722228 0.79849291 0
4.052 -0.20410019 0.79925048 0
4.0599999 -0.21104845 0.8001163 0
4.0669999 -0.21797869 0.80087388 0
4.0750003 -0.22498287 0.80173975 0
4.0830002 -0.23201592 0.80260557 0
4.0900002 -0.23902552 0.80336314 0
4.098 -0.24611448 0.80422896 0
4.1059999 -0.2532323 0.80509484 0
4.1129999 -0.26032126 0.80585241 0
4.1210003 -0.26749504 0.80671823 0
4.1290002 -0.27469763 0.80758405 0
4.1370001 -0.28192911 0.80844986 0
4.1440001 -0.28912449 0.8092075 0
4.152 -0.29641187 0.81007332 0
4.1600003 -0.30372813 0.81093913 0
4.1680002 -0.31107324 0.81180495 0
4.1760001 -0.3184472 0.81267083 0
4.184 -0.32585004 0.81353664 0
4.1920004 -0.33328173 0.81440246 0
4.2000003 -0.34074226 0.81526828 0
4.2080002 -0.34823167 0.8161341 0
4.217 -0.35583112 0.81710815 0
4.1500001 0.089285627 0.8030926 0
4.1400003 0.082178608 0.80202836 0
4.1330004 0.075205103 0.80128336 0
4.1280003 0.068318143 0.80075121 0
4.1240001 0.061478112 0.80032557 0
4.1220002 0.054706614 0.80011272 0
4.1200004 0.047942329 0.79989982 0
4.105 0.040880423 0.79830348 0
4.0950003 0.033980858 0.79723918 0
4.0890002 0.027196731 0.7966007 0
4.085 0.020470332 0.796175 0
4.0820003 0.013774596 0.7958557 0
4.0799999 0.0071041137 0.79564285 0
4.079 0.00045347214 0.7955364 0
4.079 -0.0061827376 0.7955364 0
4.0799999 -0.012809932 0.79564285 0
4.0820003 -0.019433513 0.7958557 0
4.085 -0.026058901 0.796175 0
4.0890002 -0.032691501 0.7966007 0
4.0950003 -0.03933493 0.79723918 0
4.1020002 -0.046 0.79798424 0
4.1100001 -0.05269213 0.79883564 0
4.1170001 -0.05940951 0.79958057 0
4.1240001 -0.066152148 0.80032557 0
3.9630003 -0.071707875 0.7831912 0
3.9570003 -0.078080729 0.7825526 0
3.9510002 -0.084431931 0.78191406 0
3.9450002 -0.090761498 0.78127551 0
3.9400003 -0.097083852 0.78074342 0
3.9430003 -0.10351803 0.78106272 0
3.9500003 -0.1100352 0.78180766 0
3.9580002 -0.11659744 0.78265905 0
3.9650002 -0.1231669 0.78340399 0
3.9720004 -0.12976164 0.78414899 0
3.9790003 -0.13638161 0.78489399 0
3.9860003 -0.14302684 0.78563893 0
3.9930003 -0.14969733 0.78638393 0
4.0009999 -0.15642373 0.78723526 0
4.0080004 -0.16314653 0.78798032 0
4.0150003 -0.16989458 0.78872526 0
4.0230002 -0.17670396 0.78957665 0
4.0300002 -0.1835043 0.79032159 0
4.0370002 -0.19032991 0.79106659 0
4.0450001 -0.19722228 0.79191798 0
4.052 -0.20410019 0.79266298 0
4.0599999 -0.21104845 0.79351437 0
4.0669999 -0.21797869 0.79425931 0
4.0750003 -0.22498287 0.7951107 0
4.0830002 -0.23201592 0.7959621 0
4.0900002 -0.23902552 0.79670709 0
4.098 -0.24611448 0.79755849 0
4.1059999 -0.2532323 0.79840988 0
4.1129999 -0.26032126 0.79915488 0
4.1210003 -0.26749504 0.80000627 0
4.1290002 -0.27469763 0.80085766 0
4.1370001 -0.28192911 0.80170906 0
4.1440001 -0.28912449 0.80245399 0
4.152 -0.29641187 0.80330545 0
4.1600003 -0.30372813 0.80415684 0
4.1680002 -0.31107324 0.80500823 0
4.1760001 -0.3184472 0.80585963 0
4.184 -0.32585004 0.80671102 0
4.1920004 -0.33328173 0.80756241 0
4.2000003 -0.34074226 0.80841386 0
4.2080002 -0.34823167 0.80926526 0
4.217 -0.35583112 0.81022298 0
4.1480002 0.089213461 0.79611903 0
4.1389999 0.082144335 0.79517746 0
4.1330004 0.075205103 0.79454976 0
4.1290002 0.06834881 0.79413128 0
4.125 0.061506968 0.79371274 0
4.1230001 0.054733675 0.79350352 0
4.1220002 0.047992837 0.79339892 0
4.105 0.040880423 0.79162037 0
4.0950003 0.033980858 0.79057419 0
4.0890002 0.027196731 0.78994644 0
4.085 0.020470332 0.78952795 0
4.0820003 0.013774596 0.78921413 0
4.0799999 0.0071041137 0.7890048 0
4.079 0.00045347214 0.7889002 0
4.079 -0.0061827376 0.7889002 0
4.0799999 -0.012809932 0.7890048 0
4.0820003 -0.019433513 0.78921413 0
4.085 -0.026058901 0.78952795 0
4.0890002 -0.032691501 0.78994644 0
4.0950003 -0.03933493 0.79057419 0
4.1020002 -0.046 0.7913065 0
4.1100001 -0.05269213 0.79214346 0
4.1170001 -0.05940951 0.79287583 0
4.1240001 -0.066152148 0.79360819 0
3.9630003 -0.071707875 0.77676415 0
3.9570003 -0.078080729 0.77613652 0
3.9510002 -0.084431931 0.77550876 0
3.9450002 -0.090761498 0.77488101 0
3.9400003 -0.097083852 0.77435791 0
3.9430003 -0.10351803 0.77467179 0
3.9500003 -0.1100352 0.7754041 0
3.9580002 -0.11659744 0.77624106 0
3.9650002 -0.1231669 0.77697343 0
3.9720004 -0.12976164 0.77770579 0
3.9790003 -0.13638161 0.77843815 0
3.9860003 -0.14302684 0.77917051 0
3.9930003 -0.14969733 0.77990282 0
4.0009999 -0.15642373 0.78073978 0
4.0080004 -0.16314653 0.78147221 0
4.0150003 -0.16989458 0.78220451 0
4.0230002 -0.17670396 0.78304148 0
4.0300002 -0.1835043 0.78377378 0
4.0370002 -0.19032991 0.78450608 0
4.0450001 -0.19722228 0.78534317 0
4.052 -0.20410019 0.78607547 0
4.0599999 -0.21104845 0.78691244 0
4.0669999 -0.21797869 0.78764474 0
4.0750003 -0.22498287 0.78848171 0
4.0830002 -0.23201592 0.78931868 0
4.0900002 -0.23902552 0.79005104 0
4.098 -0.24611448 0.79088801 0
4.1059999 -0.2532323 0.79172492 0
4.1129999 -0.26032126 0.79245734 0
4.1210003 -0.26749504 0.79329431 0
4.1290002 -0.27469763 0.79413128 0
4.1370001 -0.28192911 0.79496825 0
4.1440001 -0.28912449 0.79570055 0
4.152 -0.29641187 0.79653752 0
4.1600003 -0.30372813 0.79737449 0
4.1680002 -0.31107324 0.79821146 0
4.1760001 -0.3184472 0.79904842 0
4.184 -0.32585004 0.79988539 0
4.1920004 -0.33328173 0.80072236 0
4.2000003 -0.34074226 0.80155933 0
4.2080002 -0.34823167 0.8023963 0
4.217 -0.35583112 0.80333793 0
4.158 0.09635292 0.79038656 0
4.1470003 0.089177385 0.78925556 0
4.1389999 0.082144335 0.78843302 0
4.1340003 0.075237557 0.78791893 0
4.1300001 0.068379477 0.78750765 0
4.1270003 0.061564695 0.78719926 0
4.125 0.054787789 0.78699362 0
4.1240001 0.048043344 0.78689075 0
4.105 0.040880423 0.78493726 0
4.0950003 0.033980858 0.78390908 0
4.0890002 0.027196731 0.78329217 0
4.085 0.020470332 0.7828809 0
4.0820003 0.013774596 0.78257245 0
4.0799999 0.0071041137 0.78236687 0
4.079 0.00045347214 0.78226399 0
4.079 -0.0061827376 0.78226399 0
4.0799999 -0.012809932 0.78236687 0
4.0820003 -0.019433513 0.78257245 0
4.085 -0.026058901 0.7828809 0
4.0890002 -0.032691501 0.78329217 0
4.0950003 -0.03933493 0.78390908 0
4.1020002 -0.046 0.78462881 0
4.1100001 -0.05269213 0.78545135 0
4.1170001 -0.05940951 0.78617108 0
4.1240001 -0.066152148 0.78689075 0
3.9630003 -0.071707875 0.77033722 0
3.9570003 -0.078080729 0.76972032 0
3.9510002 -0.084431931 0.76910341 0
3.9450002 -0.090761498 0.7684865 0
3.9400003 -0.097083852 0.76797247 0
3.9430003 -0.10351803 0.76828086 0
3.9500003 -0.1100352 0.76900059 0
3.9580002 -0.11659744 0.76982313 0
3.9650002 -0.1231669 0.77054286 0
3.9720004 -0.12976164 0.77126265 0
3.9790003 -0.13638161 0.77198231 0
3.9860003 -0.14302684 0.77270198 0
3.9930003 -0.14969733 0.77342176 0
4.0009999 -0.15642373 0.77424431 0
4.0080004 -0.16314653 0.77496403 0
4.0150003 -0.16989458 0.77568376 0
4.0230002 -0.17670396 0.77650625 0
4.0300002 -0.1835043 0.77722597 0
4.0370002 -0.19032991 0.7779457 0
4.0450001 -0.19722228 0.77876824 0
4.052 -0.20410019 0.77948797 0
4.0599999 -0.21104845 0.78031051 0
4.0669999 -0.21797869 0.78103018 0
4.0750003 -0.22498287 0.78185272 0
4.0830002 -0.23201592 0.78267527 0
4.0900002 -0.23902552 0.78339499 0
4.098 -0.24611448 0.78421754 0
4.1059999 -0.2532323 0.78504002 0
4.1129999 -0.26032126 0.78575981 0
4.1210003 -0.26749504 0.78658235 0
4.1290002 -0.27469763 0.78740489 0
4.1370001 -0.28192911 0.78822744 0
4.1440001 -0.28912449 0.78894711 0
4.152 -0.29641187 0.78976965 0
4.1600003 -0.30372813 0.79059219 0
4.1680002 -0.31107324 0.79141474 0
4.1760001 -0.3184472 0.79223728 0
4.184 -0.32585004 0.79305983 0
4.1920004 -0.33328173 0.79388237 0
4.2000003 -0.34074226 0.79470491 0
4.2080002 -0.34823167 0.7955274 0
4.217 -0.35583112 0.79645276 0
4.1560001 0.096277177 0.78340584 0
4.1460004 0.089141309 0.78239572 0
4.1400003 0.082178608 0.78178966 0
4.1350002 0.075270027 0.78128457 0
4.131 0.068410143 0.78088045 0
4.1290002 0.061622415 0.78067845 0
4.1270003 0.054841902 0.78047645 0
4.1259999 0.048093852 0.78037542 0
4.105 0.040880423 0.77825415 0
4.0950003 0.033980858 0.77724403 0
4.0890002 0.027196731 0.77663791 0
4.085 0.020470332 0.77623391 0
4.0820003 0.013774596 0.77593088 0
4.0799999 0.0071041137 0.77572882 0
4.079 0.00045347214 0.77562779 0
4.079 -0.0061827376 0.77562779 0
4.0799999 -0.012809932 0.77572882 0
4.0820003 -0.019433513 0.77593088 0
4.085 -0.026058901 0.77623391 0
4.0890002 -0.032691501 0.77663791 0
4.0950003 -0.03933493 0.77724403 0
4.1020002 -0.046 0.77795112 0
4.1100001 -0.05269213 0.77875924 0
4.1170001 -0.05940951 0.77946627 0
4.1240001 -0.066152148 0.78017342 0
3.9630003 -0.071707875 0.76391029 0
3.9570003 -0.078080729 0.76330423 0
3.9510002 -0.084431931 0.76269805 0
3.9450002 -0.090761498 0.76209199 0
3.9400003 -0.097083852 0.76158696 0
3.9430003 -0.10351803 0.76189005 0
3.9500003 -0.1100352 0.76259708 0
3.9580002 -0.11659744 0.7634052 0
3.9650002 -0.1231669 0.76411223 0
3.9720004 -0.12976164 0.76481938 0
3.9790003 -0.13638161 0.76552647 0
3.9860003 -0.14302684 0.76623356 0
3.9930003 -0.14969733 0.76694065 0
4.0009999 -0.15642373 0.76774877 0
4.0080004 -0.16314653 0.76845586 0
4.0150003 -0.16989458 0.76916295 0
4.0230002 -0.17670396 0.76997101 0
4.0300002 -0.1835043 0.77067816 0
4.0370002 -0.19032991 0.77138519 0
4.0450001 -0.19722228 0.77219331 0
4.052 -0.20410019 0.77290046 0
4.0599999 -0.21104845 0.77370858 0
4.0669999 -0.21797869 0.77441561 0
4.0750003 -0.22498287 0.77522373 0
4.0830002 -0.23201592 0.77603185 0
4.0900002 -0.23902552 0.77673894 0
4.098 -0.24611448 0.77754706 0
4.105 -0.25317639 0.77825415 0
4.1129999 -0.26032126 0.77906227 0
4.1210003 -0.26749504 0.77987039 0
4.1290002 -0.27469763 0.78067845 0
4.1370001 -0.28192911 0.78148663 0
4.1440001 -0.28912449 0.78219366 0
4.152 -0.29641187 0.78300178 0
4.1600003 -0.30372813 0.7838099 0
4.1680002 -0.31107324 0.78461802 0
4.1760001 -0.3184472 0.78542608 0
4.184 -0.32585004 0.7862342 0
4.1920004 -0.33328173 0.78704232 0
4.2000003 -0.34074226 0.78785038 0
4.2080002 -0.34823167 0.7886585 0
4.217 -0.35583112 0.78956765 0
4.1540003 0.09620142 0.77643228 0
4.1460004 0.089141309 0.77563864 0
4.1400003 0.082178608 0.77504337 0
4.1360002 0.075302497 0.77464652 0
4.1330004 0.068471476 0.77434891 0
4.1300001 0.061651278 0.77405131 0
4.1290002 0.054896008 0.77395201 0
4.1290002 0.048169609 0.77395201 0
4.105 0.040880423 0.77157104 0
4.0950003 0.033980858 0.77057898 0
4.0890002 0.027196731 0.76998365 0
4.085 0.020470332 0.7695868 0
4.0820003 0.013774596 0.76928926 0
4.0799999 0.0071041137 0.76909077 0
4.079 0.00045347214 0.76899159 0
4.079 -0.0061827376 0.76899159 0
4.0799999 -0.012809932 0.76909077 0
4.0820003 -0.019433513 0.76928926 0
4.085 -0.026058901 0.7695868 0
4.0890002 -0.032691501 0.76998365 0
4.0950003 -0.03933493 0.77057898 0
4.1020002 -0.046 0.77127337 0
4.1100001 -0.05269213 0.77206707 0
4.1170001 -0.05940951 0.77276158 0
4.1240001 -0.066152148 0.77345598 0
3.9630003 -0.071707875 0.7574833 0
3.9570003 -0.078080729 0.75688803 0
3.9510002 -0.084431931 0.75629282 0
3.9450002 -0.090761498 0.75569749 0
3.9400003 -0.097083852 0.75520146 0
3.9430003 -0.10351803 0.75549912 0
3.9500003 -0.1100352 0.75619358 0
3.9580002 -0.11659744 0.75698721 0
3.9650002 -0.1231669 0.75768173 0
3.9720004 -0.12976164 0.75837624 0
3.9790003 -0.13638161 0.75907063 0
3.9860003 -0.14302684 0.75976515 0
3.9930003 -0.14969733 0.76045954 0
4.0009999 -0.15642373 0.76125324 0
4.0080004 -0.16314653 0.76194775 0
4.0150003 -0.16989458 0.7626422 0
4.0230002 -0.17670396 0.76343584 0
4.0300002 -0.1835043 0.76413035 0
4.0370002 -0.19032991 0.76482475 0
4.0450001 -0.19722228 0.76561844 0
4.052 -0.20410019 0.76631296 0
4.0599999 -0.21104845 0.76710659 0
4.0669999 -0.21797869 0.76780105 0
4.0750003 -0.22498287 0.76859474 0
4.0830002 -0.23201592 0.76938844 0
4.0900002 -0.23902552 0.77008283 0
4.098 -0.24611448 0.77087659 0
4.105 -0.25317639 0.77157104 0
4.1129999 -0.26032126 0.77236468 0
4.1210003 -0.26749504 0.77315843 0
4.1290002 -0.27469763 0.77395201 0
4.1370001 -0.28192911 0.77474576 0
4.1440001 -0.28912449 0.77544022 0
4.152 -0.29641187 0.77623385 0
4.1600003 -0.30372813 0.77702761 0
4.1680002 -0.31107324 0.77782118 0
4.1760001 -0.3184472 0.77861488 0
4.184 -0.32585004 0.77940857 0
4.1920004 -0.33328173 0.78020227 0
4.2000003 -0.34074226 0.78099597 0
4.2080002 -0.34823167 0.7817896 0
4.217 -0.35583112 0.78268254 0
4.1630001 0.10333006 0.7705375 0
4.1530004 0.096163541 0.76956344 0
4.1460004 0.089141309 0.76888156 0
4.1410003 0.08221288 0.76839453 0
4.1370001 0.075334966 0.76800489 0
4.1340003 0.068502143 0.76771271 0
4.132 0.061708998 0.76751786 0
4.131 0.054950129 0.76742047 0
4.131 0.048220117 0.76742047 0
4.105 0.040880423 0.76488793 0
4.0950003 0.033980858 0.76391387 0
4.0890002 0.027196731 0.76332945 0
4.085 0.020470332 0.76293981 0
4.0820003 0.013774596 0.76264763 0
4.0799999 0.0071041137 0.76245278 0
4.079 0.00045347214 0.76235533 0
4.079 -0.0061827376 0.76235533 0
4.0799999 -0.012809932 0.76245278 0
4.0820003 -0.019433513 0.76264763 0
4.085 -0.026058901 0.76293981 0
4.0890002 -0.032691501 0.76332945 0
4.0950003 -0.03933493 0.76391387 0
4.1020002 -0.046 0.76459569 0
4.1100001 -0.05269213 0.76537496 0
4.1170001 -0.05940951 0.76605678 0
4.1240001 -0.066152148 0.76673865 0
3.9630003 -0.071707875 0.75105631 0
3.9570003 -0.078080729 0.75047189 0
3.9510002 -0.084431931 0.74988747 0
3.9450002 -0.090761498 0.74930298 0
3.9400003 -0.097083852 0.74881601 0
3.9430003 -0.10351803 0.7491082 0
3.9500003 -0.1100352 0.74979007 0
3.9580002 -0.11659744 0.75056928 0
3.9650002 -0.1231669 0.7512511 0
3.9720004 -0.12976164 0.75193298 0
3.9790003 -0.13638161 0.75261486 0
3.9860003 -0.14302684 0.75329667 0
3.9930003 -0.14969733 0.75397849 0
4.0009999 -0.15642373 0.75475776 0
4.0080004 -0.16314653 0.75543958 0
4.0150003 -0.16989458 0.7561214 0
4.0230002 -0.17670396 0.75690067 0
4.0300002 -0.1835043 0.75758249 0
4.0370002 -0.19032991 0.7582643 0
4.0450001 -0.19722228 0.75904357 0
4.052 -0.20410019 0.75972545 0
4.0599999 -0.21104845 0.76050466 0
4.0669999 -0.21797869 0.76118648 0
4.0750003 -0.22498287 0.76196575 0
4.0830002 -0.23201592 0.76274502 0
4.0900002 -0.23902552 0.76342684 0
4.098 -0.24611448 0.76420611 0
4.105 -0.25317639 0.76488793 0
4.1129999 -0.26032126 0.76566714 0
4.1210003 -0.26749504 0.76644641 0
4.1290002 -0.27469763 0.76722562 0
4.1370001 -0.28192911 0.76800489 0
4.1440001 -0.28912449 0.76868677 0
4.152 -0.29641187 0.76946598 0
4.1600003 -0.30372813 0.77024519 0
4.1680002 -0.31107324 0.77102447 0
4.1760001 -0.3184472 0.77180374 0
4.184 -0.32585004 0.77258301 0
4.1920004 -0.33328173 0.77336228 0
4.2000003 -0.34074226 0.77414143 0
4.2080002 -0.34823167 0.7749207 0
4.217 -0.35583112 0.77579737 0
4.1610003 0.1032507 0.76355851 0
4.152 0.096125647 0.76269805 0
4.1460004 0.089141309 0.76212448 0
4.1420002 0.082247153 0.76174212 0
4.138 0.075367436 0.76135969 0
4.1360002 0.068563461 0.76116848 0
4.1350002 0.061795581 0.76107287 0
4.1340003 0.055031296 0.76097727 0
4.1340003 0.048295874 0.76097727 0
4.105 0.040880423 0.75820482 0
4.0950003 0.033980858 0.75724876 0
4.0890002 0.027196731 0.75667518 0
4.085 0.020470332 0.75629282 0
4.0820003 0.013774596 0.756006 0
4.0799999 0.0071041137 0.75581479 0
4.079 0.00045347214 0.75571918 0
4.079 -0.0061827376 0.75571918 0
4.0799999 -0.012809932 0.75581479 0
4.0820003 -0.019433513 0.756006 0
4.085 -0.026058901 0.75629282 0
4.0890002 -0.032691501 0.75667518 0
4.0950003 -0.03933493 0.75724876 0
4.1020002 -0.046 0.757918 0
4.1100001 -0.05269213 0.75868285 0
4.1170001 -0.05940951 0.75935203 0
4.1240001 -0.066152148 0.76002121 0
3.9630003 -0.071707875 0.74462938 0
3.9570003 -0.078080729 0.74405575 0
3.9510002 -0.084431931 0.74348211 0
3.9450002 -0.090761498 0.74290854 0
3.9400003 -0.097083852 0.74243051 0
3.9430003 -0.10351803 0.74271733 0
3.9500003 -0.1100352 0.74338651 0
3.9580002 -0.11659744 0.74415135 0
3.9650002 -0.1231669 0.74482059 0
3.9720004 -0.12976164 0.74548978 0
3.9790003 -0.13638161 0.74615896 0
3.9860003 -0.14302684 0.7468282 0
3.9930003 -0.14969733 0.74749744 0
4.0009999 -0.15642373 0.74826217 0
4.0080004 -0.16314653 0.74893141 0
4.0150003 -0.16989458 0.74960065 0
4.0230002 -0.17670396 0.7503655 0
4.0300002 -0.1835043 0.75103468 0
4.0370002 -0.19032991 0.75170386 0
4.0450001 -0.19722228 0.75246871 0
4.052 -0.20410019 0.75313795 0
4.0599999 -0.21104845 0.75390273 0
4.0669999 -0.21797869 0.75457191 0
4.0750003 -0.22498287 0.75533676 0
4.0830002 -0.23201592 0.75610161 0
4.0900002 -0.23902552 0.75677079 0
4.098 -0.24611448 0.75753558 0
4.105 -0.25317639 0.75820482 0
4.1129999 -0.26032126 0.7589696 0
4.1210003 -0.26749504 0.75973445 0
4.1290002 -0.27469763 0.76049924 0
4.1370001 -0.28192911 0.76126409 0
4.1440001 -0.28912449 0.76193333 0
4.152 -0.29641187 0.76269805 0
4.1600003 -0.30372813 0.7634629 0
4.1680002 -0.31107324 0.76422775 0
4.1760001 -0.3184472 0.76499259 0
4.184 -0.32585004 0.76575732 0
4.1920004 -0.33328173 0.76652217 0
4.2000003 -0.34074226 0.76728702 0
4.2080002 -0.34823167 0.7680518 0
4.217 -0.35583112 0.7689122 0
4.1600003 0.10321102 0.75668061 0
4.152 0.096125647 0.75593019 0
4.1470003 0.089177385 0.75546122 0
4.1430001 0.082281426 0.75508606 0
4.1400003 0.075432375 0.75480461 0
4.138 0.068624794 0.75461704 0
4.1370001 0.061853301 0.75452328 0
4.1360002 0.055085409 0.75442946 0
4.1370001 0.048371647 0.75452328 0
4.105 0.040880423 0.75152171 0
4.0950003 0.033980858 0.75058377 0
4.0890002 0.027196731 0.75002092 0
4.085 0.020470332 0.74964571 0
4.0820003 0.013774596 0.74936438 0
4.0799999 0.0071041137 0.74917674 0
4.079 0.00045347214 0.74908298 0
4.079 -0.0061827376 0.74908298 0
4.0799999 -0.012809932 0.74917674 0
4.0820003 -0.019433513 0.74936438 0
4.085 -0.026058901 0.74964571 0
4.0890002 -0.032691501 0.75002092 0
4.0950003 -0.03933493 0.75058377 0
4.1020002 -0.046 0.75124031 0
4.1100001 -0.05269213 0.75199068 0
4.1170001 -0.05940951 0.75264728 0
4.1240001 -0.066152148 0.75330389 0
3.9630003 -0.071707875 0.73820239 0
3.9570003 -0.078080729 0.73763961 0
3.9510002 -0.084431931 0.73707682 0
3.9450002 -0.090761498 0.73651397 0
3.9400003 -0.097083852 0.73604506 0
3.9430003 -0.10351803 0.73632646 0
3.9500003 -0.1100352 0.736983 0
3.9580002 -0.11659744 0.73773336 0
3.9650002 -0.1231669 0.73838997 0
3.9720004 -0.12976164 0.73904657 0
3.9790003 -0.13638161 0.73970318 0
3.9860003 -0.14302684 0.74035978 0
3.9930003 -0.14969733 0.74101633 0
4.0009999 -0.15642373 0.74176669 0
4.0080004 -0.16314653 0.7424233 0
4.0150003 -0.16989458 0.7430799 0
4.0230002 -0.17670396 0.74383026 0
4.0300002 -0.1835043 0.74448687 0
4.0370002 -0.19032991 0.74514341 0
4.0450001 -0.19722228 0.74589384 0
4.052 -0.20410019 0.74655044 0
4.0599999 -0.21104845 0.7473008 0
4.0669999 -0.21797869 0.74795735 0
4.0750003 -0.22498287 0.74870777 0
4.0830002 -0.23201592 0.74945813 0
4.0900002 -0.23902552 0.75011474 0
4.098 -0.24611448 0.7508651 0
4.105 -0.25317639 0.75152171 0
4.1129999 -0.26032126 0.75227207 0
4.1210003 -0.26749504 0.75302243 0
4.1290002 -0.27469763 0.75377285 0
4.1370001 -0.28192911 0.75452328 0
4.1440001 -0.28912449 0.75517982 0
4.152 -0.29641187 0.75593019 0
4.1600003 -0.30372813 0.75668061 0
4.1680002 -0.31107324 0.75743097 0
4.1760001 -0.3184472 0.75818139 0
4.184 -0.32585004 0.75893176 0
4.1920004 -0.33328173 0.75968218 0
4.2000003 -0.34074226 0.76043248 0
4.2080002 -0.34823167 0.7611829 0
4.217 -0.35583112 0.76202708 0
4.1690001 0.11036672 0.75072622 0
4.1589999 0.10317132 0.74980628 0
4.1530004 0.096163541 0.74925435 0
4.1480002 0.089213461 0.74879432 0
4.1440001 0.082315698 0.74842638 0
4.1420002 0.075497299 0.74824238 0
4.1400003 0.068686128 0.74805838 0
4.1389999 0.06191102 0.74796641 0
4.1389999 0.055166584 0.74796641 0
4.1400003 0.048447404 0.74805838 0
4.105 0.040880423 0.7448386 0
4.0950003 0.033980858 0.74391866 0
4.0890002 0.027196731 0.74336672 0
4.085 0.020470332 0.74299872 0
4.0820003 0.013774596 0.74272275 0
4.0799999 0.0071041137 0.74253875 0
4.079 0.00045347214 0.74244678 0
4.079 -0.0061827376 0.74244678 0
4.0799999 -0.012809932 0.74253875 0
4.0820003 -0.019433513 0.74272275 0
4.085 -0.026058901 0.74299872 0
4.0890002 -0.032691501 0.74336672 0
4.0950003 -0.03933493 0.74391866 0
4.1020002 -0.046 0.74456263 0
4.1100001 -0.05269213 0.74529856 0
4.1170001 -0.05940951 0.74594253 0
4.1240001 -0.066152148 0.7465865 0
3.9630003 -0.071707875 0.7317754 0
3.9570003 -0.078080729 0.73122346 0
3.9510002 -0.084431931 0.73067153 0
3.9450002 -0.090761498 0.73011947 0
3.9400003 -0.097083852 0.72965956 0
3.9430003 -0.10351803 0.72993553 0
3.9500003 -0.1100352 0.7305795 0
3.9580002 -0.11659744 0.73131543 0
3.9650002 -0.1231669 0.7319594 0
3.9720004 -0.12976164 0.73260337 0
3.9790003 -0.13638161 0.73324728 0
3.9860003 -0.14302684 0.73389131 0
3.9930003 -0.14969733 0.73453522 0
4.0009999 -0.15642373 0.73527122 0
4.0080004 -0.16314653 0.73591518 0
4.0150003 -0.16989458 0.73655915 0
4.0230002 -0.17670396 0.73729503 0
4.0300002 -0.1835043 0.737939 0
4.0370002 -0.19032991 0.73858297 0
4.0450001 -0.19722228 0.73931897 0
4.052 -0.20410019 0.73996294 0
4.0599999 -0.21104845 0.74069881 0
4.0669999 -0.21797869 0.74134278 0
4.0750003 -0.22498287 0.74207878 0
4.0830002 -0.23201592 0.74281472 0
4.0900002 -0.23902552 0.74345869 0
4.098 -0.24611448 0.74419463 0
4.105 -0.25317639 0.7448386 0
4.1129999 -0.26032126 0.74557453 0
4.1210003 -0.26749504 0.74631047 0
4.1290002 -0.27469763 0.74704647 0
4.1370001 -0.28192911 0.74778241 0
4.1440001 -0.28912449 0.74842638 0
4.152 -0.29641187 0.74916232 0
4.1600003 -0.30372813 0.74989831 0
4.1680002 -0.31107324 0.75063419 0
4.1760001 -0.3184472 0.75137019 0
4.184 -0.32585004 0.75210613 0
4.1920004 -0.33328173 0.75284207 0
4.2000003 -0.34074226 0.75357807 0
4.2080002 -0.34823167 0.75431401 0
4.217 -0.35583112 0.75514197 0
4.1670003 0.11028375 0.74374729 0
4.1589999 0.10317132 0.74302578 0
4.1530004 0.096163541 0.74248463 0
4.1490002 0.089249536 0.74212384 0
4.145 0.082349956 0.74176311 0
4.1430001 0.075529784 0.74158275 0
4.1420002 0.068747461 0.74149251 0
4.1410003 0.061968748 0.74140233 0
4.1420002 0.05524775 0.74149251 0
4.1430001 0.048523162 0.74158275 0
4.105 0.040880423 0.73815548 0
4.0950003 0.033980858 0.73725361 0
4.0890002 0.027196731 0.73671246 0
4.085 0.020470332 0.73635173 0
4.0820003 0.013774596 0.73608112 0
4.0799999 0.0071041137 0.7359007 0
4.079 0.00045347214 0.73581052 0
4.079 -0.0061827376 0.73581052 0
4.0799999 -0.012809932 0.7359007 0
4.0820003 -0.019433513 0.73608112 0
4.085 -0.026058901 0.73635173 0
4.0890002 -0.032691501 0.73671246 0
4.0950003 -0.03933493 0.73725361 0
4.1020002 -0.046 0.73788488 0
4.1100001 -0.05269213 0.73860645 0
4.1170001 -0.05940951 0.73923779 0
4.1240001 -0.066152148 0.73986912 0
3.9630003 -0.071707875 0.72534847 0
3.9570003 -0.078080729 0.72480726 0
3.9510002 -0.084431931 0.72426617 0
3.9450002 -0.090761498 0.72372502 0
3.9400003 -0.097083852 0.72327411 0
3.9430003 -0.10351803 0.72354466 0
3.9500003 -0.1100352 0.72417599 0
3.9580002 -0.11659744 0.7248975 0
3.9650002 -0.1231669 0.72552884 0
3.9720004 -0.12976164 0.72616017 0
3.9790003 -0.13638161 0.7267915 0
3.9860003 -0.14302684 0.72742283 0
3.9930003 -0.14969733 0.72805417 0
4.0009999 -0.15642373 0.72877568 0
4.0080004 -0.16314653 0.72940701 0
4.0150003 -0.16989458 0.7300384 0
4.0230002 -0.17670396 0.73075986 0
4.0300002 -0.1835043 0.73139119 0
4.0370002 -0.19032991 0.73202252 0
4.0450001 -0.19722228 0.7327441 0
4.052 -0.20410019 0.73337543 0
4.0599999 -0.21104845 0.73409688 0
4.0669999 -0.21797869 0.73472822 0
4.0750003 -0.22498287 0.73544979 0
4.0830002 -0.23201592 0.73617131 0
4.0900002 -0.23902552 0.73680258 0
4.098 -0.24611448 0.73752415 0
4.105 -0.25317639 0.73815548 0
4.1129999 -0.26032126 0.738877 0
4.1210003 -0.26749504 0.73959851 0
4.1290002 -0.27469763 0.74032009 0
4.1370001 -0.28192911 0.74104154 0
4.1440001 -0.28912449 0.74167293 0
4.152 -0.29641187 0.74239445 0
4.1600003 -0.30372813 0.74311596 0
4.1680002 -0.31107324 0.74383748 0
4.1760001 -0.3184472 0.74455905 0
4.184 -0.32585004 0.7452805 0
4.1920004 -0.33328173 0.74600208 0
4.2000003 -0.34074226 0.74672359 0
4.2080002 -0.34823167 0.74744511 0
4.217 -0.35583112 0.7482568 0
4.177 0.1175116 0.73783624 0
4.1660004 0.11024226 0.73686397 0
4.1589999 0.10317132 0.73624527 0
4.1530004 0.096163541 0.73571491 0
4.1500001 0.089285627 0.73544979 0
4.1470003 0.082418516 0.73518461 0
4.145 0.075594708 0.73500782 0
4.1440001 0.068808779 0.73491943 0
4.1440001 0.062055331 0.73491943 0
4.145 0.055328932 0.73500782 0
4.1460004 0.048598919 0.73509622 0
4.105 0.040880423 0.73147237 0
4.0950003 0.033980858 0.73058856 0
4.0890002 0.027196731 0.73005819 0
4.085 0.020470332 0.72970462 0
4.0820003 0.013774596 0.7294395 0
4.0799999 0.0071041137 0.72926271 0
4.079 0.00045347214 0.72917438 0
4.079 -0.0061827376 0.72917438 0
4.0799999 -0.012809932 0.72926271 0
4.0820003 -0.019433513 0.7294395 0
4.085 -0.026058901 0.72970462 0
4.0890002 -0.032691501 0.73005819 0
4.0950003 -0.03933493 0.73058856 0
4.1020002 -0.046 0.73120725 0
4.1100001 -0.05269213 0.73191428 0
4.1170001 -0.05940951 0.73253304 0
4.1240001 -0.066152148 0.73315173 0
3.9630003 -0.071707875 0.71892148 0
3.9570003 -0.078080729 0.71839118 0
3.9510002 -0.084431931 0.71786082 0
3.9450002 -0.090761498 0.71733052 0
3.9400003 -0.097083852 0.71688855 0
3.9430003 -0.10351803 0.71715379 0
3.9500003 -0.1100352 0.71777248 0
3.9580002 -0.11659744 0.71847951 0
3.9650002 -0.1231669 0.71909821 0
3.9720004 -0.12976164 0.71971697 0
3.9790003 -0.13638161 0.72033572 0
3.9860003 -0.14302684 0.72095436 0
3.9930003 -0.14969733 0.72157311 0
4.0009999 -0.15642373 0.72228014 0
4.0080004 -0.16314653 0.72289884 0
4.0150003 -0.16989458 0.7235176 0
4.0230002 -0.17670396 0.72422469 0
4.0300002 -0.1835043 0.72484338 0
4.0370002 -0.19032991 0.72546208 0
4.0450001 -0.19722228 0.72616923 0
4.052 -0.20410019 0.72678792 0
4.0599999 -0.21104845 0.72749496 0
4.0669999 -0.21797869 0.72811365 0
4.0750003 -0.22498287 0.7288208 0
4.0830002 -0.23201592 0.72952789 0
4.0900002 -0.23902552 0.73014653 0
4.098 -0.24611448 0.73085368 0
4.105 -0.25317639 0.73147237 0
4.1129999 -0.26032126 0.73217946 0
4.1210003 -0.26749504 0.73288655 0
4.1290002 -0.27469763 0.73359364 0
4.1370001 -0.28192911 0.73430073 0
4.1440001 -0.28912449 0.73491943 0
4.152 -0.29641187 0.73562658 0
4.1600003 -0.30372813 0.73633361 0
4.1680002 -0.31107324 0.73704076 0
4.1760001 -0.3184472 0.73774785 0
4.184 -0.32585004 0.73845494 0
4.1920004 -0.33328173 0.73916203 0
4.2000003 -0.34074226 0.73986912 0
4.2080002 -0.34823167 0.74057621 0
4.217 -0.35583112 0.74137163 0
4.1750002 0.11742502 0.7308501 0
4.165 0.11020076 0.72998422 0
4.1589999 0.10317132 0.72946477 0
4.1550002 0.096239299 0.72911841 0
4.151 0.089321688 0.72877204 0
4.1490002 0.082487062 0.72859889 0
4.1470003 0.075659662 0.72842574 0
4.1460004 0.068870127 0.7283392 0
4.1470003 0.062141914 0.72842574 0
4.1480002 0.055410098 0.72851229 0
4.1500001 0.048699934 0.7286855 0
4.105 0.040880423 0.72478926 0
4.0950003 0.033980858 0.72392344 0
4.0890002 0.027196731 0.72340393 0
4.085 0.020470332 0.72305763 0
4.0820003 0.013774596 0.72279787 0
4.0799999 0.0071041137 0.72262466 0
4.079 0.00045347214 0.72253811 0
4.079 -0.0061827376 0.72253811 0
4.0799999 -0.012809932 0.72262466 0
4.0820003 -0.019433513 0.72279787 0
4.085 -0.026058901 0.72305763 0
4.0890002 -0.032691501 0.72340393 0
4.0950003 -0.03933493 0.72392344 0
4.1020002 -0.046 0.7245295 0
4.1100001 -0.05269213 0.72522223 0
4.1170001 -0.05940951 0.72582829 0
4.1240001 -0.066152148 0.72643435 0
3.9630003 -0.071707875 0.71249449 0
3.9570003 -0.078080729 0.71197498 0
3.9510002 -0.084431931 0.71145546 0
3.9450002 -0.090761498 0.71093601 0
3.9400003 -0.097083852 0.7105031 0
3.9430003 -0.10351803 0.71076286 0
3.9500003 -0.1100352 0.71136892 0
3.9580002 -0.11659744 0.71206158 0
3.9650002 -0.1231669 0.71266764 0
3.9720004 -0.12976164 0.71327376 0
3.9790003 -0.13638161 0.71387982 0
3.9860003 -0.14302684 0.71448588 0
3.9930003 -0.14969733 0.715092 0
4.0009999 -0.15642373 0.71578467 0
4.0080004 -0.16314653 0.71639073 0
4.0150003 -0.16989458 0.71699685 0
4.0230002 -0.17670396 0.71768951 0
4.0300002 -0.1835043 0.71829557 0
4.0370002 -0.19032991 0.71890163 0
4.0450001 -0.19722228 0.7195943 0
4.052 -0.20410019 0.72020042 0
4.0599999 -0.21104845 0.72089303 0
4.0669999 -0.21797869 0.72149909 0
4.0750003 -0.22498287 0.72219181 0
4.0830002 -0.23201592 0.72288442 0
4.0900002 -0.23902552 0.72349048 0
4.098 -0.24611448 0.7241832 0
4.105 -0.25317639 0.72478926 0
4.1129999 -0.26032126 0.72548193 0
4.1210003 -0.26749504 0.72617459 0
4.1290002 -0.27469763 0.72686726 0
4.1370001 -0.28192911 0.72755992 0
4.1440001 -0.28912449 0.72816598 0
4.152 -0.29641187 0.72885865 0
4.1600003 -0.30372813 0.72955132 0
4.1680002 -0.31107324 0.73024398 0
4.1760001 -0.3184472 0.73093665 0
4.184 -0.32585004 0.73162931 0
4.1920004 -0.33328173 0.73232198 0
4.2000003 -0.34074226 0.73301464 0
4.2080002 -0.34823167 0.73370731 0
4.217 -0.35583112 0.73448652 0
4.1730003 0.11733843 0.72387111 0
4.165 0.11020076 0.72319293 0
4.1600003 0.10321102 0.72276902 0
4.1560001 0.096277177 0.72242987 0
4.1530004 0.089393839 0.72217554 0
4.151 0.082555607 0.72200596 0
4.1500001 0.075757056 0.72192121 0
4.1490002 0.068962112 0.72183645 0
4.1500001 0.062228497 0.72192121 0
4.151 0.055491272 0.72200596 0
4.1530004 0.048775692 0.72217554 0
4.105 0.040880423 0.71810615 0
4.0950003 0.033980858 0.71725833 0
4.0890002 0.027196731 0.71674967 0
4.085 0.020470332 0.71641058 0
4.0820003 0.013774596 0.71615624 0
4.0799999 0.0071041137 0.71598667 0
4.079 0.00045347214 0.71590191 0
4.079 -0.0061827376 0.71590191 0
4.0799999 -0.012809932 0.71598667 0
4.0820003 -0.019433513 0.71615624 0
4.085 -0.026058901 0.71641058 0
4.0890002 -0.032691501 0.71674967 0
4.0950003 -0.03933493 0.71725833 0
4.1020002 -0.046 0.71785182 0
4.1100001 -0.05269213 0.71853006 0
4.1170001 -0.05940951 0.71912348 0
4.1240001 -0.066152148 0.71971697 0
3.9630003 -0.071707875 0.70606756 0
3.9570003 -0.078080729 0.7055589 0
3.9510002 -0.084431931 0.70505023 0
3.9450002 -0.090761498 0.7045415 0
3.9400003 -0.097083852 0.70411766 0
3.9430003 -0.10351803 0.70437193 0
3.9500003 -0.1100352 0.70496541 0
3.9580002 -0.11659744 0.70564365 0
3.9650002 -0.1231669 0.70623708 0
3.9720004 -0.12976164 0.70683056 0
3.9790003 -0.13638161 0.70742404 0
3.9860003 -0.14302684 0.70801747 0
3.9930003 -0.14969733 0.70861089 0
4.0009999 -0.15642373 0.70928913 0
4.0080004 -0.16314653 0.70988262 0
4.0150003 -0.16989458 0.71047604 0
4.0230002 -0.17670396 0.71115428 0
4.0300002 -0.1835043 0.71174777 0
4.0370002 -0.19032991 0.71234119 0
4.0450001 -0.19722228 0.71301943 0
4.052 -0.20410019 0.71361291 0
4.0599999 -0.21104845 0.7142911 0
4.0669999 -0.21797869 0.71488452 0
4.0750003 -0.22498287 0.71556282 0
4.0830002 -0.23201592 0.716241 0
4.0900002 -0.23902552 0.71683449 0
4.098 -0.24611448 0.71751273 0
4.105 -0.25317639 0.71810615 0
4.1129999 -0.26032126 0.71878439 0
4.1210003 -0.26749504 0.71946263 0
4.1290002 -0.27469763 0.72014081 0
4.1370001 -0.28192911 0.72081912 0
4.1440001 -0.28912449 0.72141254 0
4.152 -0.29641187 0.72209078 0
4.1600003 -0.30372813 0.72276902 0
4.1680002 -0.31107324 0.7234472 0
4.1760001 -0.3184472 0.7241255 0
4.184 -0.32585004 0.72480369 0
4.1920004 -0.33328173 0.72548199 0
4.2000003 -0.34074226 0.72616017 0
4.2080002 -0.34823167 0.72683835 0
4.217 -0.35583112 0.72760141 0
4.1820002 0.12455006 0.71781212 0
4.1719999 0.11729515 0.71698236 0
4.1660004 0.11024226 0.71648455 0
4.1600003 0.10321102 0.71598667 0
4.1570001 0.096315056 0.71573776 0
4.1540003 0.089429915 0.71548879 0
4.1530004 0.082624152 0.71540588 0
4.152 0.075821996 0.71532285 0
4.152 0.069054097 0.71532285 0
4.1530004 0.06231508 0.71540588 0
4.1540003 0.055572439 0.71548879 0
4.1570001 0.048876707 0.71573776 0
4.105 0.040880423 0.71142304 0
4.0950003 0.033980858 0.71059328 0
4.0890002 0.027196731 0.71009541 0
4.085 0.020470332 0.70976353 0
4.0820003 0.013774596 0.70951462 0
4.0799999 0.0071041137 0.70934868 0
4.079 0.00045347214 0.70926571 0
4.079 -0.0061827376 0.70926571 0
4.0799999 -0.012809932 0.70934868 0
4.0820003 -0.019433513 0.70951462 0
4.085 -0.026058901 0.70976353 0
4.0890002 -0.032691501 0.71009541 0
4.0950003 -0.03933493 0.71059328 0
4.1020002 -0.046 0.71117413 0
4.1100001 -0.05269213 0.71183795 0
4.1170001 -0.05940951 0.71241879 0
4.1240001 -0.066152148 0.71299958 0
3.9630003 -0.071707875 0.69964057 0
3.9570003 -0.078080729 0.69914269 0
3.9510002 -0.084431931 0.69864488 0
3.9450002 -0.090761498 0.69814706 0
3.9400003 -0.097083852 0.69773215 0
3.9430003 -0.10351803 0.69798112 0
3.9500003 -0.1100352 0.69856191 0
3.9580002 -0.11659744 0.69922566 0
3.9650002 -0.1231669 0.69980651 0
3.9720004 -0.12976164 0.70038736 0
3.9790003 -0.13638161 0.70096821 0
3.9860003 -0.14302684 0.70154899 0
3.9930003 -0.14969733 0.70212984 0
4.0009999 -0.15642373 0.7027936 0
4.0080004 -0.16314653 0.70337451 0
4.0150003 -0.16989458 0.70395529 0
4.0230002 -0.17670396 0.70461905 0
4.0300002 -0.1835043 0.70519996 0
4.0370002 -0.19032991 0.70578074 0
4.0450001 -0.19722228 0.70644456 0
4.052 -0.20410019 0.70702535 0
4.0599999 -0.21104845 0.70768917 0
4.0669999 -0.21797869 0.70826995 0
4.0750003 -0.22498287 0.70893383 0
4.0830002 -0.23201592 0.70959759 0
4.0900002 -0.23902552 0.71017838 0
4.098 -0.24611448 0.71084225 0
4.105 -0.25317639 0.71142304 0
4.1129999 -0.26032126 0.71208686 0
4.1210003 -0.26749504 0.71275067 0
4.1290002 -0.27469763 0.71341443 0
4.1370001 -0.28192911 0.71407825 0
4.1440001 -0.28912449 0.71465909 0
4.152 -0.29641187 0.71532285 0
4.1600003 -0.30372813 0.71598667 0
4.1680002 -0.31107324 0.71665049 0
4.1760001 -0.3184472 0.7173143 0
4.184 -0.32585004 0.71797812 0
4.1920004 -0.33328173 0.71864188 0
4.2000003 -0.34074226 0.71930569 0
4.2080002 -0.34823167 0.71996951 0
4.217 -0.35583112 0.72071624 0
4.1800003 0.12445988 0.71082783 0
4.1719999 0.11729515 0.71017838 0
4.1660004 0.11024226 0.70969141 0
4.1620002 0.10329038 0.70936668 0
4.158 0.09635292 0.70904201 0
4.1560001 0.089502066 0.70887971 0
4.1550002 0.082692698 0.70879853 0
4.1540003 0.075886935 0.70871735 0
4.1550002 0.069146097 0.70879853 0
4.1560001 0.062401664 0.70887971 0
4.158 0.055680674 0.70904201 0
4.1610003 0.048977721 0.70928556 0
4.105 0.040880423 0.70473993 0
4.0950003 0.033980858 0.70392823 0
4.0890002 0.027196731 0.7034412 0
4.085 0.020470332 0.70311654 0
4.0820003 0.013774596 0.70287299 0
4.0799999 0.0071041137 0.70271063 0
4.079 0.00045347214 0.70262945 0
4.079 -0.0061827376 0.70262945 0
4.0799999 -0.012809932 0.70271063 0
4.0820003 -0.019433513 0.70287299 0
4.085 -0.026058901 0.70311654 0
4.0890002 -0.032691501 0.7034412 0
4.0950003 -0.03933493 0.70392823 0
4.1020002 -0.046 0.70449644 0
4.1100001 -0.05269213 0.70514584 0
4.1170001 -0.05940951 0.70571399 0
4.1240001 -0.066152148 0.70628226 0
3.9630003 -0.071707875 0.69321358 0
3.9570003 -0.078080729 0.69272661 0
3.9510002 -0.084431931 0.69223952 0
3.9450002 -0.090761498 0.69175255 0
3.9400003 -0.097083852 0.69134665 0
3.9430003 -0.10351803 0.69159019 0
3.9500003 -0.1100352 0.6921584 0
3.9580002 -0.11659744 0.69280773 0
3.9650002 -0.1231669 0.69337595 0
3.9720004 -0.12976164 0.69394416 0
3.9790003 -0.13638161 0.69451237 0
3.9860003 -0.14302684 0.69508052 0
3.9930003 -0.14969733 0.69564879 0
4.0009999 -0.15642373 0.69629812 0
4.0080004 -0.16314653 0.69686633 0
4.0150003 -0.16989458 0.69743454 0
4.0230002 -0.17670396 0.69808388 0
4.0300002 -0.1835043 0.69865209 0
4.0370002 -0.19032991 0.6992203 0
4.0450001 -0.19722228 0.69986963 0
4.052 -0.20410019 0.7004379 0
4.0599999 -0.21104845 0.70108724 0
4.0669999 -0.21797869 0.70165539 0
4.0750003 -0.22498287 0.70230484 0
4.0830002 -0.23201592 0.70295417 0
4.0900002 -0.23902552 0.70352232 0
4.098 -0.24611448 0.70417178 0
4.105 -0.25317639 0.70473993 0
4.1129999 -0.26032126 0.70538932 0
4.1210003 -0.26749504 0.70603871 0
4.1290002 -0.27469763 0.70668805 0
4.1370001 -0.28192911 0.70733744 0
4.1440001 -0.28912449 0.70790565 0
4.152 -0.29641187 0.70855498 0
4.1600003 -0.30372813 0.70920438 0
4.1680002 -0.31107324 0.70985377 0
4.1760001 -0.3184472 0.7105031 0
4.184 -0.32585004 0.71115249 0
4.1920004 -0.33328173 0.71180189 0
4.2000003 -0.34074226 0.71245122 0
4.2080002 -0.34823167 0.71310055 0
4.217 -0.35583112 0.71383113 0
4.1900001 0.13174726 0.70480311 0
4.1790004 0.12441479 0.70393002 0
4.1719999 0.11729515 0.70337445 0
4.1660004 0.11024226 0.70289826 0
4.1630001 0.10333006 0.70266014 0
4.1600003 0.096428692 0.70242202 0
4.158 0.089574218 0.7022633 0
4.1570001 0.082761243 0.70218396 0
4.1570001 0.075984344 0.70218396 0
4.1570001 0.06920743 0.70218396 0
4.1589999 0.062488239 0.70234263 0
4.1620002 0.055788893 0.70258081 0
4.1660004 0.049103986 0.70289826 0
4.105 0.040880423 0.69805682 0
4.0950003 0.033980858 0.69726312 0
4.0890002 0.027196731 0.69678694 0
4.085 0.020470332 0.69646949 0
4.0820003 0.013774596 0.69623137 0
4.0799999 0.0071041137 0.69607264 0
4.079 0.00045347214 0.6959933 0
4.079 -0.0061827376 0.6959933 0
4.0799999 -0.012809932 0.69607264 0
4.0820003 -0.019433513 0.69623137 0
4.085 -0.026058901 0.69646949 0
4.0890002 -0.032691501 0.69678694 0
4.0950003 -0.03933493 0.69726312 0
4.1020002 -0.046 0.69781876 0
4.1100001 -0.05269213 0.69845366 0
4.1170001 -0.05940951 0.69900924 0
4.1240001 -0.066152148 0.69956481 0
3.9630003 -0.071707875 0.68678665 0
3.9570003 -0.078080729 0.68631041 0
3.9510002 -0.084431931 0.68583423 0
3.9450002 -0.090761498 0.68535805 0
3.9400003 -0.097083852 0.6849612 0
3.9430003 -0.10351803 0.68519926 0
3.9500003 -0.1100352 0.6857549 0
3.9580002 -0.11659744 0.6863898 0
3.9650002 -0.1231669 0.68694532 0
3.9720004 -0.12976164 0.68750095 0
3.9790003 -0.13638161 0.68805653 0
3.9860003 -0.14302684 0.6886121 0
3.9930003 -0.14969733 0.68916768 0
4.0009999 -0.15642373 0.68980259 0
4.0080004 -0.16314653 0.69035816 0
4.0150003 -0.16989458 0.6909138 0
4.0230002 -0.17670396 0.69154871 0
4.0300002 -0.1835043 0.69210422 0
4.0370002 -0.19032991 0.69265985 0
4.0450001 -0.19722228 0.69329476 0
4.052 -0.20410019 0.69385034 0
4.0599999 -0.21104845 0.69448531 0
4.0669999 -0.21797869 0.69504082 0
4.0750003 -0.22498287 0.69567585 0
4.0830002 -0.23201592 0.69631076 0
4.0900002 -0.23902552 0.69686627 0
4.098 -0.24611448 0.69750124 0
4.105 -0.25317639 0.69805682 0
4.1129999 -0.26032126 0.69869179 0
4.1210003 -0.26749504 0.69932675 0
4.1290002 -0.27469763 0.69996166 0
4.1370001 -0.28192911 0.70059657 0
4.1440001 -0.28912449 0.70115221 0
4.152 -0.29641187 0.70178711 0
4.1600003 -0.30372813 0.70242202 0
4.1680002 -0.31107324 0.70305699 0
