# .PCD v0.7 - Point Cloud Data file format
VERSION 0.7
FIELDS x y z intensity
SIZE 4 4 4 4
TYPE F F F F
COUNT 1 1 1 1
WIDTH 1396
HEIGHT 1
VIEWPOINT 0 0 0 1 0 0 0
POINTS 1396
DATA ascii
4.8180003 0.13729216 0.18883096 0
4.8180003 0.12932295 0.18883096 0
4.8170004 0.12131584 0.18887964 0
4.8160005 0.11331235 0.18892834 0
4.8160005 0.10534672 0.18892834 0
4.8150005 0.097348645 0.18897705 0
4.8140001 0.089354157 0.18902576 0
4.8140001 0.081392139 0.18902576 0
4.8130002 0.073403075 0.18907447 0
4.8120003 0.065417618 0.18912315 0
4.8120003 0.057459224 0.18912315 0
4.8110003 0.049479175 0.18917187 0
4.8100004 0.04150274 0.18922056 0
4.8100004 0.033547942 0.18922056 0
4.8090005 0.025576916 0.18926926 0
4.8080001 0.017609488 0.18931799 0
4.8080001 0.0096583031 0.18931799 0
4.8070002 0.001696296 0.18936668 0
4.8070002 -0.006253086 0.18936668 0
4.8060002 -0.014209684 0.18941538 0
4.8050003 -0.022162676 0.18946408 0
4.8050003 -0.03010845 0.18946408 0
4.8040004 -0.038056027 0.18951279 0
4.8030005 -0.046 0.18956147 0
4.8030005 -0.053942166 0.18956147 0
4.8020005 -0.06188073 0.18961018 0
4.8010001 -0.06981568 0.1896589 0
4.8670001 0.74364585 0.1783869 0
4.8670001 0.73558831 0.1783869 0
4.8660002 0.72735751 0.17843741 0
4.8650002 0.71913034 0.17848791 0
4.8650002 0.71107638 0.17848791 0
4.8640003 0.70285457 0.17853841 0
4.8630004 0.69463646 0.17858893 0
4.8630004 0.68658608 0.17858893 0
4.8620005 0.67837334 0.17863941 0
4.8610005 0.67016423 0.17868993 0
4.8610005 0.66211742 0.17868993 0
4.8600001 0.65391362 0.17874044 0
4.8590002 0.64571351 0.17879096 0
4.8590002 0.63767034 0.17879096 0
4.8580003 0.62947565 0.17884146 0
4.8570004 0.6212846 0.17889196 0
4.8570004 0.61324501 0.17889196 0
4.8560004 0.60505939 0.17894247 0
4.8550005 0.59687728 0.17899296 0
4.8550005 0.58884132 0.17899296 0
4.8540001 0.58066458 0.1790435 0
4.8540001 0.57263047 0.1790435 0
4.8530002 0.5644592 0.17909399 0
4.8520002 0.55629158 0.1791445 0
4.8520002 0.54826099 0.1791445 0
4.8510003 0.54009879 0.179195 0
4.8500004 0.53194016 0.1792455 0
4.8500004 0.5239132 0.1792455 0
4.8490005 0.51576 0.17929602 0
4.8480005 0.50761038 0.1793465 0
4.8480005 0.49958706 0.1793465 0
4.8470001 0.49144286 0.17939705 0
4.8460002 0.48330224 0.17944753 0
4.8460002 0.47528255 0.17944753 0
4.8450003 0.46714735 0.17949805 0
4.8440003 0.45901579 0.17954855 0
4.8440003 0.45099968 0.17954855 0
4.8430004 0.44287351 0.17959905 0
4.8420005 0.43475097 0.17964956 0
4.8420005 0.4267385 0.17964956 0
4.8410001 0.4186213 0.17970008 0
4.8400002 0.41050777 0.17975059 0
4.8400002 0.40249884 0.17975059 0
4.8390002 0.39439073 0.17980108 0
4.8380003 0.38628623 0.17985159 0
4.8380003 0.37828094 0.17985159 0
4.8370004 0.37018186 0.17990209 0
4.8360004 0.36208639 0.17995259 0
4.8360004 0.35408467 0.17995259 0
4.8350005 0.34599459 0.18000311 0
4.8340001 0.33790809 0.18005362 0
4.8340001 0.32991001 0.18005362 0
4.8330002 0.32182893 0.18010414 0
4.8330002 0.31383267 0.18010414 0
4.8320003 0.30575705 0.18015462 0
4.8310003 0.297685 0.18020514 0
4.8310003 0.28969231 0.18020514 0
4.8300004 0.28162569 0.18025564 0
4.8290005 0.27356267 0.18030614 0
4.8290005 0.26557362 0.18030614 0
4.8280001 0.25751597 0.18035667 0
4.8270001 0.24946195 0.18040717 0
4.8270001 0.24147654 0.18040717 0
4.8260002 0.23342791 0.18045768 0
4.8250003 0.22538295 0.18050817 0
4.8250003 0.21740109 0.18050817 0
4.8240004 0.20936152 0.18055868 0
4.8230004 0.20132555 0.18060918 0
4.8230004 0.19334731 0.18060918 0
4.8220005 0.18531676 0.18065968 0
4.8210001 0.1772898 0.18071021 0
4.8210001 0.16931516 0.18071021 0
4.8200002 0.16129363 0.18076071 0
4.8190002 0.15327571 0.18081123 0
4.8190002 0.14530468 0.18081123 0
4.8180003 0.13729216 0.18086171 0
4.8180003 0.12932295 0.18086171 0
4.8170004 0.12131584 0.18091223 0
4.8160005 0.11331235 0.18096273 0
4.8160005 0.10534672 0.18096273 0
4.8150005 0.097348645 0.18101323 0
4.8140001 0.089354157 0.18106376 0
4.8140001 0.081392139 0.18106376 0
4.8130002 0.073403075 0.18111426 0
4.8120003 0.065417618 0.18116477 0
4.8120003 0.057459224 0.18116477 0
4.8110003 0.049479175 0.18121526 0
4.8100004 0.04150274 0.18126577 0
4.8100004 0.033547942 0.18126577 0
4.8090005 0.025576916 0.18131627 0
4.8080001 0.017609488 0.1813668 0
4.8080001 0.0096583031 0.1813668 0
4.8070002 0.001696296 0.1814173 0
4.8070002 -0.006253086 0.1814173 0
4.8060002 -0.014209684 0.1814678 0
4.8050003 -0.022162676 0.18151832 0
4.8050003 -0.03010845 0.18151832 0
4.8040004 -0.038056027 0.1815688 0
4.8030005 -0.046 0.18161932 0
4.8030005 -0.053942166 0.18161932 0
4.8020005 -0.06188073 0.18166982 0
4.8010001 -0.06981568 0.18172035 0
4.8670001 0.74364585 0.1703293 0
4.8670001 0.73558831 0.1703293 0
4.8660002 0.72735751 0.17038159 0
4.8650002 0.71913034 0.17043391 0
4.8650002 0.71107638 0.17043391 0
4.8640003 0.70285457 0.17048621 0
4.8630004 0.69463646 0.17053853 0
4.8630004 0.68658608 0.17053853 0
4.8620005 0.67837334 0.17059083 0
4.8610005 0.67016423 0.17064312 0
4.8610005 0.66211742 0.17064312 0
4.8600001 0.65391362 0.17069547 0
4.8590002 0.64571351 0.17074777 0
4.8590002 0.63767034 0.17074777 0
4.8580003 0.62947565 0.17080006 0
4.8570004 0.6212846 0.17085239 0
4.8570004 0.61324501 0.17085239 0
4.8560004 0.60505939 0.17090468 0
4.8550005 0.59687728 0.17095701 0
4.8550005 0.58884132 0.17095701 0
4.8540001 0.58066458 0.17100933 0
4.8540001 0.57263047 0.17100933 0
4.8530002 0.5644592 0.17106162 0
4.8520002 0.55629158 0.17111395 0
4.8520002 0.54826099 0.17111395 0
4.8510003 0.54009879 0.17116624 0
4.8500004 0.53194016 0.17121857 0
4.8500004 0.5239132 0.17121857 0
4.8490005 0.51576 0.17127086 0
4.8480005 0.50761038 0.17132317 0
4.8480005 0.49958706 0.17132317 0
4.8470001 0.49144286 0.17137551 0
4.8460002 0.48330224 0.1714278 0
4.8460002 0.47528255 0.1714278 0
4.8450003 0.46714735 0.17148013 0
4.8440003 0.45901579 0.17153242 0
4.8440003 0.45099968 0.17153242 0
4.8430004 0.44287351 0.17158473 0
4.8420005 0.43475097 0.17163704 0
4.8420005 0.4267385 0.17163704 0
4.8410001 0.4186213 0.17168936 0
4.8400002 0.41050777 0.17174169 0
4.8400002 0.40249884 0.17174169 0
4.8390002 0.39439073 0.17179398 0
4.8380003 0.38628623 0.17184627 0
4.8380003 0.37828094 0.17184627 0
4.8370004 0.37018186 0.1718986 0
4.8360004 0.36208639 0.17195089 0
4.8360004 0.35408467 0.17195089 0
4.8350005 0.34599459 0.17200322 0
4.8340001 0.33790809 0.17205554 0
4.8340001 0.32991001 0.17205554 0
4.8330002 0.32182893 0.17210783 0
4.8330002 0.31383267 0.17210783 0
4.8320003 0.30575705 0.17216016 0
4.8310003 0.297685 0.17221245 0
4.8310003 0.28969231 0.17221245 0
4.8300004 0.28162569 0.17226478 0
4.8290005 0.27356267 0.17231707 0
4.8290005 0.26557362 0.17231707 0
4.8280001 0.25751597 0.17236939 0
4.8270001 0.24946195 0.17242172 0
4.8270001 0.24147654 0.17242172 0
4.8260002 0.23342791 0.17247401 0
4.8250003 0.22538295 0.17252631 0
4.8250003 0.21740109 0.17252631 0
4.8240004 0.20936152 0.17257863 0
4.8230004 0.20132555 0.17263094 0
4.8230004 0.19334731 0.17263094 0
4.8220005 0.18531676 0.17268325 0
4.8210001 0.1772898 0.17273557 0
4.8210001 0.16931516 0.17273557 0
4.8200002 0.16129363 0.17278787 0
4.8190002 0.15327571 0.17284019 0
4.8190002 0.14530468 0.17284019 0
4.8180003 0.13729216 0.1728925 0
4.8180003 0.12932295 0.1728925 0
4.8170004 0.12131584 0.17294481 0
4.8160005 0.11331235 0.1729971 0
4.8160005 0.10534672 0.1729971 0
4.8150005 0.097348645 0.17304941 0
4.8140001 0.089354157 0.17310175 0
4.8140001 0.081392139 0.17310175 0
4.8130002 0.073403075 0.17315406 0
4.8120003 0.065417618 0.17320636 0
4.8120003 0.057459224 0.17320636 0
4.8110003 0.049479175 0.17325866 0
4.8100004 0.04150274 0.17331098 0
4.8100004 0.033547942 0.17331098 0
4.8090005 0.025576916 0.17336328 0
4.8080001 0.017609488 0.17341562 0
4.8080001 0.0096583031 0.17341562 0
4.8070002 0.001696296 0.17346792 0
4.8070002 -0.006253086 0.17346792 0
4.8060002 -0.014209684 0.17352022 0
4.8050003 -0.022162676 0.17357254 0
4.8050003 -0.03010845 0.17357254 0
4.8040004 -0.038056027 0.17362483 0
4.8030005 -0.046 0.17367715 0
4.8030005 -0.053942166 0.17367715 0
4.8020005 -0.06188073 0.17372945 0
4.8010001 -0.06981568 0.17378178 0
4.8670001 0.74364585 0.16227169 0
4.8670001 0.73558831 0.16227169 0
4.8660002 0.72735751 0.1623258 0
4.8650002 0.71913034 0.16237989 0
4.8650002 0.71107638 0.16237989 0
4.8640003 0.70285457 0.162434 0
4.8630004 0.69463646 0.16248812 0
4.8630004 0.68658608 0.16248812 0
4.8620005 0.67837334 0.16254222 0
4.8610005 0.67016423 0.16259634 0
4.8610005 0.66211742 0.16259634 0
4.8600001 0.65391362 0.16265048 0
4.8590002 0.64571351 0.16270459 0
4.8590002 0.63767034 0.16270459 0
4.8580003 0.62947565 0.16275871 0
4.8570004 0.6212846 0.16281281 0
4.8570004 0.61324501 0.16281281 0
4.8560004 0.60505939 0.16286692 0
4.8550005 0.59687728 0.16292104 0
4.8550005 0.58884132 0.16292104 0
4.8540001 0.58066458 0.16297518 0
4.8530002 0.57249159 0.16302928 0
4.8530002 0.5644592 0.16302928 0
4.8520002 0.55629158 0.1630834 0
4.8520002 0.54826099 0.1630834 0
4.8510003 0.54009879 0.16313751 0
4.8500004 0.53194016 0.1631916 0
4.8500004 0.5239132 0.1631916 0
4.8490005 0.51576 0.16324571 0
4.8480005 0.50761038 0.16329983 0
4.8480005 0.49958706 0.16329983 0
4.8470001 0.49144286 0.16335396 0
4.8460002 0.48330224 0.16340807 0
4.8460002 0.47528255 0.16340807 0
4.8450003 0.46714735 0.16346219 0
4.8440003 0.45901579 0.1635163 0
4.8440003 0.45099968 0.1635163 0
4.8430004 0.44287351 0.1635704 0
4.8420005 0.43475097 0.16362453 0
4.8420005 0.4267385 0.16362453 0
4.8410001 0.4186213 0.16367866 0
4.8400002 0.41050777 0.16373277 0
4.8400002 0.40249884 0.16373277 0
4.8390002 0.39439073 0.16378689 0
4.8380003 0.38628623 0.16384099 0
4.8380003 0.37828094 0.16384099 0
4.8370004 0.37018186 0.16389509 0
4.8360004 0.36208639 0.16394919 0
4.8360004 0.35408467 0.16394919 0
4.8350005 0.34599459 0.16400331 0
4.8340001 0.33790809 0.16405745 0
4.8340001 0.32991001 0.16405745 0
4.8330002 0.32182893 0.16411155 0
4.8330002 0.31383267 0.16411155 0
4.8320003 0.30575705 0.16416568 0
4.8310003 0.297685 0.16421978 0
4.8310003 0.28969231 0.16421978 0
4.8300004 0.28162569 0.16427389 0
4.8290005 0.27356267 0.16432801 0
4.8290005 0.26557362 0.16432801 0
4.8280001 0.25751597 0.16438214 0
4.8270001 0.24946195 0.16443627 0
4.8270001 0.24147654 0.16443627 0
4.8260002 0.23342791 0.16449037 0
4.8250003 0.22538295 0.16454448 0
4.8250003 0.21740109 0.16454448 0
4.8240004 0.20936152 0.1645986 0
4.8230004 0.20132555 0.16465271 0
4.8230004 0.19334731 0.16465271 0
4.8220005 0.18531676 0.1647068 0
4.8210001 0.1772898 0.16476093 0
4.8210001 0.16931516 0.16476093 0
4.8200002 0.16129363 0.16481504 0
4.8190002 0.15327571 0.16486916 0
4.8190002 0.14530468 0.16486916 0
4.8180003 0.13729216 0.16492327 0
4.8180003 0.12932295 0.16492327 0
4.8170004 0.12131584 0.16497737 0
4.8160005 0.11331235 0.16503149 0
4.8160005 0.10534672 0.16503149 0
4.8150005 0.097348645 0.1650856 0
4.8140001 0.089354157 0.16513975 0
4.8140001 0.081392139 0.16513975 0
4.8130002 0.073403075 0.16519386 0
4.8120003 0.065417618 0.16524796 0
4.8120003 0.057459224 0.16524796 0
4.8110003 0.049479175 0.16530208 0
4.8100004 0.04150274 0.16535619 0
4.8100004 0.033547942 0.16535619 0
4.8090005 0.025576916 0.16541028 0
4.8080001 0.017609488 0.16546442 0
4.8080001 0.0096583031 0.16546442 0
4.8070002 0.001696296 0.16551852 0
4.8070002 -0.006253086 0.16551852 0
4.8060002 -0.014209684 0.16557264 0
4.8050003 -0.022162676 0.16562675 0
4.8050003 -0.03010845 0.16562675 0
4.8040004 -0.038056027 0.16568086 0
4.8030005 -0.046 0.16573498 0
4.8030005 -0.053942166 0.16573498 0
4.8020005 -0.06188073 0.16578908 0
4.8010001 -0.06981568 0.16584323 0
4.8670001 0.74364585 0.15421407 0
4.8670001 0.73558831 0.15421407 0
4.8660002 0.72735751 0.15426999 0
4.8650002 0.71913034 0.15432589 0
4.8650002 0.71107638 0.15432589 0
4.8640003 0.70285457 0.15438183 0
4.8630004 0.69463646 0.15443772 0
4.8630004 0.68658608 0.15443772 0
4.8620005 0.67837334 0.15449366 0
4.8610005 0.67016423 0.15454955 0
4.8610005 0.66211742 0.15454955 0
4.8600001 0.65391362 0.15460551 0
4.8590002 0.64571351 0.15466142 0
4.8590002 0.63767034 0.15466142 0
4.8580003 0.62947565 0.15471734 0
4.8570004 0.6212846 0.15477324 0
4.8570004 0.61324501 0.15477324 0
4.8560004 0.60505939 0.15482914 0
4.8550005 0.59687728 0.15488507 0
4.8550005 0.58884132 0.15488507 0
4.8540001 0.58066458 0.15494099 0
4.8530002 0.57249159 0.15499693 0
4.8530002 0.5644592 0.15499693 0
4.8520002 0.55629158 0.15505283 0
4.8520002 0.54826099 0.15505283 0
4.8510003 0.54009879 0.15510875 0
4.8500004 0.53194016 0.15516466 0
4.8500004 0.5239132 0.15516466 0
4.8490005 0.51576 0.15522058 0
4.8480005 0.50761038 0.15527649 0
4.8480005 0.49958706 0.15527649 0
4.8470001 0.49144286 0.15533245 0
4.8460002 0.48330224 0.15538834 0
4.8460002 0.47528255 0.15538834 0
4.8450003 0.46714735 0.15544428 0
4.8440003 0.45901579 0.15550017 0
4.8440003 0.45099968 0.15550017 0
4.8430004 0.44287351 0.15555608 0
4.8420005 0.43475097 0.15561201 0
4.8420005 0.4267385 0.15561201 0
4.8410001 0.4186213 0.15566793 0
4.8400002 0.41050777 0.15572385 0
4.8400002 0.40249884 0.15572385 0
4.8390002 0.39439073 0.15577976 0
4.8380003 0.38628623 0.15583569 0
4.8380003 0.37828094 0.15583569 0
4.8370004 0.37018186 0.1558916 0
4.8360004 0.36208639 0.15594752 0
4.8360004 0.35408467 0.15594752 0
4.8350005 0.34599459 0.15600342 0
4.8340001 0.33790809 0.15605938 0
4.8340001 0.32991001 0.15605938 0
4.8330002 0.32182893 0.15611528 0
4.8320003 0.31375149 0.1561712 0
4.8320003 0.30575705 0.1561712 0
4.8310003 0.297685 0.15622711 0
4.8310003 0.28969231 0.15622711 0
4.8300004 0.28162569 0.15628301 0
4.8290005 0.27356267 0.15633895 0
4.8290005 0.26557362 0.15633895 0
4.8280001 0.25751597 0.15639487 0
4.8270001 0.24946195 0.15645079 0
4.8270001 0.24147654 0.15645079 0
4.8260002 0.23342791 0.1565067 0
4.8250003 0.22538295 0.15656263 0
4.8250003 0.21740109 0.15656263 0
4.8240004 0.20936152 0.15661852 0
4.8230004 0.20132555 0.15667446 0
4.8230004 0.19334731 0.15667446 0
4.8220005 0.18531676 0.15673035 0
4.8210001 0.1772898 0.15678631 0
4.8210001 0.16931516 0.15678631 0
4.8200002 0.16129363 0.15684222 0
4.8190002 0.15327571 0.15689814 0
4.8190002 0.14530468 0.15689814 0
4.8180003 0.13729216 0.15695405 0
4.8180003 0.12932295 0.15695405 0
4.8170004 0.12131584 0.15700997 0
4.8160005 0.11331235 0.15706587 0
4.8160005 0.10534672 0.15706587 0
4.8150005 0.097348645 0.15712178 0
4.8140001 0.089354157 0.15717773 0
4.8140001 0.081392139 0.15717773 0
4.8130002 0.073403075 0.15723363 0
4.8120003 0.065417618 0.15728956 0
4.8120003 0.057459224 0.15728956 0
4.8110003 0.049479175 0.15734546 0
4.8100004 0.04150274 0.15740138 0
4.8100004 0.033547942 0.15740138 0
4.8090005 0.025576916 0.15745729 0
4.8080001 0.017609488 0.15751325 0
4.8080001 0.0096583031 0.15751325 0
4.8070002 0.001696296 0.15756916 0
4.8070002 -0.006253086 0.15756916 0
4.8060002 -0.014209684 0.15762508 0
4.8050003 -0.022162676 0.15768097 0
4.8050003 -0.03010845 0.15768097 0
4.8040004 -0.038056027 0.15773691 0
4.8030005 -0.046 0.15779281 0
4.8030005 -0.053942166 0.15779281 0
4.8020005 -0.06188073 0.15784873 0
4.8010001 -0.06981568 0.15790467 0
4.8670001 0.74364585 0.14615646 0
4.8670001 0.73558831 0.14615646 0
4.8660002 0.72735751 0.14621419 0
4.8650002 0.71913034 0.14627188 0
4.8650002 0.71107638 0.14627188 0
4.8640003 0.70285457 0.14632961 0
4.8630004 0.69463646 0.14638734 0
4.8630004 0.68658608 0.14638734 0
4.8620005 0.67837334 0.14644504 0
4.8610005 0.67016423 0.14650276 0
4.8610005 0.66211742 0.14650276 0
4.8600001 0.65391362 0.14656052 0
4.8590002 0.64571351 0.14661822 0
4.8590002 0.63767034 0.14661822 0
4.8580003 0.62947565 0.14667594 0
4.8570004 0.6212846 0.14673367 0
4.8570004 0.61324501 0.14673367 0
4.8560004 0.60505939 0.1467914 0
4.8550005 0.59687728 0.1468491 0
4.8550005 0.58884132 0.1468491 0
4.8540001 0.58066458 0.14690685 0
4.8530002 0.57249159 0.14696455 0
4.8530002 0.5644592 0.14696455 0
4.8520002 0.55629158 0.14702228 0
4.8520002 0.54826099 0.14702228 0
4.8510003 0.54009879 0.14708 0
4.8500004 0.53194016 0.14713773 0
4.8500004 0.5239132 0.14713773 0
4.8490005 0.51576 0.14719543 0
4.8480005 0.50761038 0.14725316 0
4.8480005 0.49958706 0.14725316 0
4.8470001 0.49144286 0.14731091 0
4.8460002 0.48330224 0.14736861 0
4.8460002 0.47528255 0.14736861 0
4.8450003 0.46714735 0.14742634 0
4.8440003 0.45901579 0.14748406 0
4.8440003 0.45099968 0.14748406 0
4.8430004 0.44287351 0.14754176 0
4.8420005 0.43475097 0.14759949 0
4.8420005 0.4267385 0.14759949 0
4.8410001 0.4186213 0.14765725 0
4.8400002 0.41050777 0.14771494 0
4.8400002 0.40249884 0.14771494 0
4.8390002 0.39439073 0.14777267 0
4.8380003 0.38628623 0.1478304 0
4.8380003 0.37828094 0.1478304 0
4.8370004 0.37018186 0.14788809 0
4.8360004 0.36208639 0.14794582 0
4.8360004 0.35408467 0.14794582 0
4.8350005 0.34599459 0.14800355 0
4.8340001 0.33790809 0.14806128 0
4.8340001 0.32991001 0.14806128 0
4.8330002 0.32182893 0.148119 0
4.8320003 0.31375149 0.14817673 0
4.8320003 0.30575705 0.14817673 0
4.8310003 0.297685 0.14823443 0
4.8310003 0.28969231 0.14823443 0
4.8300004 0.28162569 0.14829215 0
4.8290005 0.27356267 0.14834988 0
4.8290005 0.26557362 0.14834988 0
4.8280001 0.25751597 0.14840761 0
4.8270001 0.24946195 0.14846534 0
4.8270001 0.24147654 0.14846534 0
4.8260002 0.23342791 0.14852306 0
4.8250003 0.22538295 0.14858076 0
4.8250003 0.21740109 0.14858076 0
4.8240004 0.20936152 0.14863849 0
4.8230004 0.20132555 0.14869621 0
4.8230004 0.19334731 0.14869621 0
4.8220005 0.18531676 0.14875391 0
4.8210001 0.1772898 0.14881167 0
4.8210001 0.16931516 0.14881167 0
4.8200002 0.16129363 0.1488694 0
4.8190002 0.15327571 0.14892709 0
4.8190002 0.14530468 0.14892709 0
4.8180003 0.13729216 0.14898482 0
4.8180003 0.12932295 0.14898482 0
4.8170004 0.12131584 0.14904255 0
4.8160005 0.11331235 0.14910024 0
4.8160005 0.10534672 0.14910024 0
4.8150005 0.097348645 0.14915797 0
4.8140001 0.089354157 0.14921573 0
4.8140001 0.081392139 0.14921573 0
4.8130002 0.073403075 0.14927343 0
4.8120003 0.065417618 0.14933115 0
4.8120003 0.057459224 0.14933115 0
4.8110003 0.049479175 0.14938888 0
4.8100004 0.04150274 0.14944658 0
4.8100004 0.033547942 0.14944658 0
4.8090005 0.025576916 0.1495043 0
4.8080001 0.017609488 0.14956206 0
4.8080001 0.0096583031 0.14956206 0
4.8070002 0.001696296 0.14961976 0
4.8070002 -0.006253086 0.14961976 0
4.8060002 -0.014209684 0.14967749 0
4.8050003 -0.022162676 0.14973521 0
4.8050003 -0.03010845 0.14973521 0
4.8040004 -0.038056027 0.14979291 0
4.8030005 -0.046 0.14985064 0
4.8030005 -0.053942166 0.14985064 0
4.8020005 -0.06188073 0.14990836 0
4.8010001 -0.06981568 0.14996609 0
4.8670001 0.74364585 0.13809887 0
4.8670001 0.73558831 0.13809887 0
4.8660002 0.72735751 0.13815838 0
4.8650002 0.71913034 0.1382179 0
4.8650002 0.71107638 0.1382179 0
4.8640003 0.70285457 0.13827741 0
4.8630004 0.69463646 0.13833693 0
4.8630004 0.68658608 0.13833693 0
4.8620005 0.67837334 0.13839644 0
4.8610005 0.67016423 0.13845599 0
4.8610005 0.66211742 0.13845599 0
4.8600001 0.65391362 0.1385155 0
4.8590002 0.64571351 0.13857505 0
4.8590002 0.63767034 0.13857505 0
4.8580003 0.62947565 0.13863456 0
4.8570004 0.6212846 0.13869408 0
4.8570004 0.61324501 0.13869408 0
4.8560004 0.60505939 0.13875362 0
4.8550005 0.59687728 0.13881314 0
4.8550005 0.58884132 0.13881314 0
4.8540001 0.58066458 0.13887268 0
4.8530002 0.57249159 0.1389322 0
4.8530002 0.5644592 0.1389322 0
4.8520002 0.55629158 0.13899174 0
4.8520002 0.54826099 0.13899174 0
4.8510003 0.54009879 0.13905123 0
4.8500004 0.53194016 0.13911077 0
4.8500004 0.5239132 0.13911077 0
4.8490005 0.51576 0.13917029 0
4.8480005 0.50761038 0.1392298 0
4.8480005 0.49958706 0.1392298 0
4.8470001 0.49144286 0.13928935 0
4.8460002 0.48330224 0.13934889 0
4.8460002 0.47528255 0.13934889 0
4.8450003 0.46714735 0.13940838 0
4.8440003 0.45901579 0.13946792 0
4.8440003 0.45099968 0.13946792 0
4.8430004 0.44287351 0.13952747 0
4.8420005 0.43475097 0.13958696 0
4.8420005 0.4267385 0.13958696 0
4.8410001 0.4186213 0.13964653 0
4.8400002 0.41050777 0.13970605 0
4.8400002 0.40249884 0.13970605 0
4.8390002 0.39439073 0.13976556 0
4.8380003 0.38628623 0.13982508 0
4.8380003 0.37828094 0.13982508 0
4.8370004 0.37018186 0.13988462 0
4.8360004 0.36208639 0.13994411 0
4.8360004 0.35408467 0.13994411 0
4.8350005 0.34599459 0.14000365 0
4.8340001 0.33790809 0.1400632 0
4.8340001 0.32991001 0.1400632 0
4.8330002 0.32182893 0.14012271 0
4.8320003 0.31375149 0.14018223 0
4.8320003 0.30575705 0.14018223 0
4.8310003 0.297685 0.14024177 0
4.8310003 0.28969231 0.14024177 0
4.8300004 0.28162569 0.14030129 0
4.8290005 0.27356267 0.1403608 0
4.8290005 0.26557362 0.1403608 0
4.8280001 0.25751597 0.14042038 0
4.8270001 0.24946195 0.14047986 0
4.8270001 0.24147654 0.14047986 0
4.8260002 0.23342791 0.14053941 0
4.8250003 0.22538295 0.14059892 0
4.8250003 0.21740109 0.14059892 0
4.8240004 0.20936152 0.14065844 0
4.8230004 0.20132555 0.14071795 0
4.8230004 0.19334731 0.14071795 0
4.8220005 0.18531676 0.1407775 0
4.8210001 0.1772898 0.14083701 0
4.8210001 0.16931516 0.14083701 0
4.8200002 0.16129363 0.14089656 0
4.8190002 0.15327571 0.14095607 0
4.8190002 0.14530468 0.14095607 0
4.8180003 0.13729216 0.14101559 0
4.8180003 0.12932295 0.14101559 0
4.8170004 0.12131584 0.1410751 0
4.8160005 0.11331235 0.14113465 0
4.8160005 0.10534672 0.14113465 0
4.8150005 0.097348645 0.14119416 0
4.8140001 0.089354157 0.14125371 0
4.8140001 0.081392139 0.14125371 0
4.8130002 0.073403075 0.14131325 0
4.8120003 0.065417618 0.14137274 0
4.8120003 0.057459224 0.14137274 0
4.8110003 0.049479175 0.14143229 0
4.8100004 0.04150274 0.1414918 0
4.8100004 0.033547942 0.1414918 0
4.8090005 0.025576916 0.14155132 0
4.8080001 0.017609488 0.14161086 0
4.8080001 0.0096583031 0.14161086 0
4.8070002 0.001696296 0.14167041 0
4.8070002 -0.006253086 0.14167041 0
4.8060002 -0.014209684 0.14172989 0
4.8050003 -0.022162676 0.14178944 0
4.8050003 -0.03010845 0.14178944 0
4.8040004 -0.038056027 0.14184895 0
4.8030005 -0.046 0.14190847 0
4.8030005 -0.053942166 0.14190847 0
4.8020005 -0.06188073 0.14196798 0
4.8010001 -0.06981568 0.14202756 0
4.8670001 0.74364585 0.13004124 0
4.8670001 0.73558831 0.13004124 0
4.8660002 0.72735751 0.13010255 0
4.8650002 0.71913034 0.13016391 0
4.8650002 0.71107638 0.13016391 0
4.8640003 0.70285457 0.13022524 0
4.8630004 0.69463646 0.13028654 0
4.8630004 0.68658608 0.13028654 0
4.8620005 0.67837334 0.13034788 0
4.8610005 0.67016423 0.13040921 0
4.8610005 0.66211742 0.13040921 0
4.8600001 0.65391362 0.13047054 0
4.8590002 0.64571351 0.13053188 0
4.8590002 0.63767034 0.13053188 0
4.8580003 0.62947565 0.13059318 0
4.8570004 0.6212846 0.13065451 0
4.8570004 0.61324501 0.13065451 0
4.8560004 0.60505939 0.13071585 0
4.8550005 0.59687728 0.13077715 0
4.8550005 0.58884132 0.13077715 0
4.8540001 0.58066458 0.13083851 0
4.8530002 0.57249159 0.13089985 0
4.8530002 0.5644592 0.13089985 0
4.8520002 0.55629158 0.13096115 0
4.8510003 0.54812753 0.13102248 0
4.8510003 0.54009879 0.13102248 0
4.8500004 0.53194016 0.13108385 0
4.8500004 0.5239132 0.13108385 0
4.8490005 0.51576 0.13114515 0
4.8480005 0.50761038 0.13120648 0
4.8480005 0.49958706 0.13120648 0
4.8470001 0.49144286 0.13126785 0
4.8460002 0.48330224 0.13132915 0
4.8460002 0.47528255 0.13132915 0
4.8450003 0.46714735 0.13139048 0
4.8440003 0.45901579 0.13145182 0
4.8440003 0.45099968 0.13145182 0
4.8430004 0.44287351 0.13151312 0
4.8420005 0.43475097 0.13157445 0
4.8420005 0.4267385 0.13157445 0
4.8410001 0.4186213 0.13163581 0
4.8400002 0.41050777 0.13169712 0
4.8400002 0.40249884 0.13169712 0
4.8390002 0.39439073 0.13175845 0
4.8380003 0.38628623 0.13181978 0
4.8380003 0.37828094 0.13181978 0
4.8370004 0.37018186 0.13188112 0
4.8360004 0.36208639 0.13194245 0
4.8360004 0.35408467 0.13194245 0
4.8350005 0.34599459 0.13200375 0
4.8340001 0.33790809 0.13206512 0
4.8340001 0.32991001 0.13206512 0
4.8330002 0.32182893 0.13212645 0
4.8320003 0.31375149 0.13218775 0
4.8320003 0.30575705 0.13218775 0
4.8310003 0.297685 0.13224909 0
4.8310003 0.28969231 0.13224909 0
4.8300004 0.28162569 0.13231042 0
4.8290005 0.27356267 0.13237172 0
4.8290005 0.26557362 0.13237172 0
4.8280001 0.25751597 0.13243309 0
4.8270001 0.24946195 0.13249442 0
4.8270001 0.24147654 0.13249442 0
4.8260002 0.23342791 0.13255572 0
4.8250003 0.22538295 0.13261706 0
4.8250003 0.21740109 0.13261706 0
4.8240004 0.20936152 0.13267839 0
4.8230004 0.20132555 0.13273969 0
4.8230004 0.19334731 0.13273969 0
4.8220005 0.18531676 0.13280106 0
4.8210001 0.1772898 0.13286242 0
4.8210001 0.16931516 0.13286242 0
4.8200002 0.16129363 0.13292372 0
4.8190002 0.15327571 0.13298506 0
4.8190002 0.14530468 0.13298506 0
4.8180003 0.13729216 0.13304639 0
4.8180003 0.12932295 0.13304639 0
4.8170004 0.12131584 0.13310769 0
4.8160005 0.11331235 0.13316903 0
4.8160005 0.10534672 0.13316903 0
4.8150005 0.097348645 0.13323036 0
4.8140001 0.089354157 0.13329169 0
4.8140001 0.081392139 0.13329169 0
4.8130002 0.073403075 0.13335302 0
4.8120003 0.065417618 0.13341433 0
4.8120003 0.057459224 0.13341433 0
4.8110003 0.049479175 0.13347566 0
4.8100004 0.04150274 0.13353699 0
4.8100004 0.033547942 0.13353699 0
4.8090005 0.025576916 0.13359833 0
4.8080001 0.017609488 0.13365969 0
4.8080001 0.0096583031 0.13365969 0
4.8070002 0.001696296 0.13372102 0
4.8070002 -0.006253086 0.13372102 0
4.8060002 -0.014209684 0.13378233 0
4.8050003 -0.022162676 0.13384366 0
4.8050003 -0.03010845 0.13384366 0
4.8040004 -0.038056027 0.13390499 0
4.8030005 -0.046 0.1339663 0
4.8030005 -0.053942166 0.1339663 0
4.8020005 -0.06188073 0.13402763 0
4.8010001 -0.06981568 0.13408899 0
4.8670001 0.74364585 0.12198362 0
4.8670001 0.73558831 0.12198362 0
4.8660002 0.72735751 0.12204677 0
4.8650002 0.71913034 0.12210989 0
4.8650002 0.71107638 0.12210989 0
4.8640003 0.70285457 0.12217301 0
4.8630004 0.69463646 0.12223613 0
4.8630004 0.68658608 0.12223613 0
4.8620005 0.67837334 0.12229928 0
4.8610005 0.67016423 0.12236241 0
4.8610005 0.66211742 0.12236241 0
4.8600001 0.65391362 0.12242556 0
4.8590002 0.64571351 0.12248868 0
4.8590002 0.63767034 0.12248868 0
4.8580003 0.62947565 0.12255183 0
4.8570004 0.6212846 0.12261495 0
4.8570004 0.61324501 0.12261495 0
4.8560004 0.60505939 0.12267807 0
4.8550005 0.59687728 0.12274119 0
4.8550005 0.58884132 0.12274119 0
4.8540001 0.58066458 0.12280437 0
4.8530002 0.57249159 0.12286749 0
4.8530002 0.5644592 0.12286749 0
4.8520002 0.55629158 0.12293062 0
4.8510003 0.54812753 0.12299377 0
4.8510003 0.54009879 0.12299377 0
4.8500004 0.53194016 0.12305686 0
4.8500004 0.5239132 0.12305686 0
4.8490005 0.51576 0.12312001 0
4.8480005 0.50761038 0.12318316 0
4.8480005 0.49958706 0.12318316 0
4.8470001 0.49144286 0.12324628 0
4.8460002 0.48330224 0.12330943 0
4.8460002 0.47528255 0.12330943 0
4.8450003 0.46714735 0.12337252 0
4.8440003 0.45901579 0.12343568 0
4.8440003 0.45099968 0.12343568 0
4.8430004 0.44287351 0.12349883 0
4.8420005 0.43475097 0.12356192 0
4.8420005 0.4267385 0.12356192 0
4.8410001 0.4186213 0.1236251 0
4.8400002 0.41050777 0.12368822 0
4.8400002 0.40249884 0.12368822 0
4.8390002 0.39439073 0.12375134 0
4.8380003 0.38628623 0.12381449 0
4.8380003 0.37828094 0.12381449 0
4.8370004 0.37018186 0.12387761 0
4.8360004 0.36208639 0.12394074 0
4.8360004 0.35408467 0.12394074 0
4.8350005 0.34599459 0.12400386 0
4.8340001 0.33790809 0.12406701 0
4.8340001 0.32991001 0.12406701 0
4.8330002 0.32182893 0.12413016 0
4.8320003 0.31375149 0.12419328 0
4.8320003 0.30575705 0.12419328 0
4.8310003 0.297685 0.1242564 0
4.8310003 0.28969231 0.1242564 0
4.8300004 0.28162569 0.12431952 0
4.8290005 0.27356267 0.12438267 0
4.8290005 0.26557362 0.12438267 0
4.8280001 0.25751597 0.12444583 0
4.8270001 0.24946195 0.12450895 0
4.8270001 0.24147654 0.12450895 0
4.8260002 0.23342791 0.1245721 0
4.8250003 0.22538295 0.12463522 0
4.8250003 0.21740109 0.12463522 0
4.8240004 0.20936152 0.12469834 0
4.8230004 0.20132555 0.12476149 0
4.8230004 0.19334731 0.12476149 0
4.8220005 0.18531676 0.12482458 0
4.8210001 0.1772898 0.12488776 0
4.8210001 0.16931516 0.12488776 0
4.8200002 0.16129363 0.12495089 0
4.8190002 0.15327571 0.12501401 0
4.8190002 0.14530468 0.12501401 0
4.8180003 0.13729216 0.12507716 0
4.8180003 0.12932295 0.12507716 0
4.8170004 0.12131584 0.12514025 0
4.8160005 0.11331235 0.1252034 0
4.8160005 0.10534672 0.1252034 0
4.8150005 0.097348645 0.12526655 0
4.8140001 0.089354157 0.12532967 0
4.8140001 0.081392139 0.12532967 0
4.8130002 0.073403075 0.12539282 0
4.8120003 0.065417618 0.12545595 0
4.8120003 0.057459224 0.12545595 0
4.8110003 0.049479175 0.12551907 0
4.8100004 0.04150274 0.12558222 0
4.8100004 0.033547942 0.12558222 0
4.8090005 0.025576916 0.12564534 0
4.8080001 0.017609488 0.12570849 0
4.8080001 0.0096583031 0.12570849 0
4.8070002 0.001696296 0.12577164 0
4.8070002 -0.006253086 0.12577164 0
4.8060002 -0.014209684 0.12583473 0
4.8050003 -0.022162676 0.12589788 0
4.8050003 -0.03010845 0.12589788 0
4.8040004 -0.038056027 0.12596101 0
4.8030005 -0.046 0.12602413 0
4.8030005 -0.053942166 0.12602413 0
4.8020005 -0.06188073 0.12608728 0
4.8010001 -0.06981568 0.12615043 0
4.8670001 0.74364585 0.11392602 0
4.8670001 0.73558831 0.11392602 0
4.8660002 0.72735751 0.11399096 0
4.8650002 0.71913034 0.11405587 0
4.8650002 0.71107638 0.11405587 0
4.8640003 0.70285457 0.11412081 0
4.8630004 0.69463646 0.11418575 0
4.8630004 0.68658608 0.11418575 0
4.8620005 0.67837334 0.11425066 0
4.8610005 0.67016423 0.11431563 0
4.8610005 0.66211742 0.11431563 0
4.8600001 0.65391362 0.11438057 0
4.8590002 0.64571351 0.11444551 0
4.8590002 0.63767034 0.11444551 0
4.8580003 0.62947565 0.11451045 0
4.8570004 0.6212846 0.11457536 0
4.8570004 0.61324501 0.11457536 0
4.8560004 0.60505939 0.1146403 0
4.8550005 0.59687728 0.11470523 0
4.8550005 0.58884132 0.11470523 0
4.8540001 0.58066458 0.1147702 0
4.8530002 0.57249159 0.11483514 0
4.8530002 0.5644592 0.11483514 0
4.8520002 0.55629158 0.11490008 0
4.8510003 0.54812753 0.11496499 0
4.8510003 0.54009879 0.11496499 0
4.8500004 0.53194016 0.11502993 0
4.8500004 0.5239132 0.11502993 0
4.8490005 0.51576 0.11509487 0
4.8480005 0.50761038 0.11515978 0
4.8480005 0.49958706 0.11515978 0
4.8470001 0.49144286 0.11522478 0
4.8460002 0.48330224 0.11528969 0
4.8460002 0.47528255 0.11528969 0
4.8450003 0.46714735 0.11535463 0
4.8440003 0.45901579 0.11541957 0
4.8440003 0.45099968 0.11541957 0
4.8430004 0.44287351 0.11548448 0
4.8420005 0.43475097 0.11554942 0
4.8420005 0.4267385 0.11554942 0
4.8410001 0.4186213 0.11561438 0
4.8400002 0.41050777 0.11567932 0
4.8400002 0.40249884 0.11567932 0
4.8390002 0.39439073 0.11574426 0
4.8380003 0.38628623 0.11580917 0
4.8380003 0.37828094 0.11580917 0
4.8370004 0.37018186 0.11587411 0
4.8360004 0.36208639 0.11593905 0
4.8360004 0.35408467 0.11593905 0
4.8350005 0.34599459 0.11600396 0
4.8340001 0.33790809 0.11606896 0
4.8340001 0.32991001 0.11606896 0
4.8330002 0.32182893 0.1161339 0
4.8320003 0.31375149 0.11619881 0
4.8320003 0.30575705 0.11619881 0
4.8310003 0.297685 0.11626375 0
4.8310003 0.28969231 0.11626375 0
4.8300004 0.28162569 0.11632866 0
4.8290005 0.27356267 0.1163936 0
4.8290005 0.26557362 0.1163936 0
4.8280001 0.25751597 0.11645856 0
4.8270001 0.24946195 0.11652347 0
4.8270001 0.24147654 0.11652347 0
4.8260002 0.23342791 0.11658844 0
4.8250003 0.22538295 0.11665338 0
4.8250003 0.21740109 0.11665338 0
4.8240004 0.20936152 0.11671829 0
4.8230004 0.20132555 0.11678323 0
4.8230004 0.19334731 0.11678323 0
4.8220005 0.18531676 0.11684817 0
4.8210001 0.1772898 0.11691311 0
4.8210001 0.16931516 0.11691311 0
4.8200002 0.16129363 0.11697808 0
4.8190002 0.15327571 0.11704299 0
4.8190002 0.14530468 0.11704299 0
4.8180003 0.13729216 0.11710793 0
4.8180003 0.12932295 0.11710793 0
4.8170004 0.12131584 0.11717287 0
4.8160005 0.11331235 0.11723778 0
4.8160005 0.10534672 0.11723778 0
4.8150005 0.097348645 0.11730272 0
4.8140001 0.089354157 0.11736768 0
4.8140001 0.081392139 0.11736768 0
4.8130002 0.073403075 0.11743259 0
4.8120003 0.065417618 0.11749756 0
4.8120003 0.057459224 0.11749756 0
4.8110003 0.049479175 0.11756247 0
4.8100004 0.04150274 0.11762741 0
4.8100004 0.033547942 0.11762741 0
4.8090005 0.025576916 0.11769235 0
4.8080001 0.017609488 0.11775729 0
4.8080001 0.0096583031 0.11775729 0
4.8070002 0.001696296 0.11782223 0
4.8070002 -0.006253086 0.11782223 0
4.8060002 -0.014209684 0.1178872 0
4.8050003 -0.022162676 0.11795211 0
4.8050003 -0.03010845 0.11795211 0
4.8040004 -0.038056027 0.11801705 0
4.8030005 -0.046 0.11808199 0
4.8030005 -0.053942166 0.11808199 0
4.8020005 -0.06188073 0.1181469 0
4.8010001 -0.06981568 0.11821187 0
4.8670001 0.74364585 0.1058684 0
4.8670001 0.73558831 0.1058684 0
4.8660002 0.72735751 0.10593513 0
4.8650002 0.71913034 0.10600188 0
4.8650002 0.71107638 0.10600188 0
4.8640003 0.70285457 0.10606861 0
4.8630004 0.69463646 0.10613534 0
4.8630004 0.68658608 0.10613534 0
4.8620005 0.67837334 0.1062021 0
4.8610005 0.67016423 0.10626882 0
4.8610005 0.66211742 0.10626882 0
4.8600001 0.65391362 0.10633558 0
4.8590002 0.64571351 0.10640234 0
4.8590002 0.63767034 0.10640234 0
4.8580003 0.62947565 0.10646904 0
4.8570004 0.6212846 0.10653579 0
4.8570004 0.61324501 0.10653579 0
4.8560004 0.60505939 0.10660255 0
4.8550005 0.59687728 0.10666925 0
4.8550005 0.58884132 0.10666925 0
4.8540001 0.58066458 0.10673603 0
4.8530002 0.57249159 0.10680279 0
4.8530002 0.5644592 0.10680279 0
4.8520002 0.55629158 0.10686952 0
4.8510003 0.54812753 0.10693625 0
4.8510003 0.54009879 0.10693625 0
4.8500004 0.53194016 0.10700297 0
4.8500004 0.5239132 0.10700297 0
4.8490005 0.51576 0.10706973 0
4.8480005 0.50761038 0.10713646 0
4.8480005 0.49958706 0.10713646 0
4.8470001 0.49144286 0.10720322 0
4.8460002 0.48330224 0.10726997 0
4.8460002 0.47528255 0.10726997 0
4.8450003 0.46714735 0.1073367 0
4.8440003 0.45901579 0.10740343 0
4.8440003 0.45099968 0.10740343 0
4.8430004 0.44287351 0.10747018 0
4.8420005 0.43475097 0.10753688 0
4.8420005 0.4267385 0.10753688 0
4.8410001 0.4186213 0.10760367 0
4.8400002 0.41050777 0.10767043 0
4.8400002 0.40249884 0.10767043 0
4.8390002 0.39439073 0.10773712 0
4.8380003 0.38628623 0.10780388 0
4.8380003 0.37828094 0.10780388 0
4.8370004 0.37018186 0.10787061 0
4.8360004 0.36208639 0.10793734 0
4.8360004 0.35408467 0.10793734 0
4.8350005 0.34599459 0.10800409 0
4.8340001 0.33790809 0.10807085 0
4.8340001 0.32991001 0.10807085 0
4.8330002 0.32182893 0.10813761 0
4.8320003 0.31375149 0.10820433 0
4.8320003 0.30575705 0.10820433 0
4.8310003 0.297685 0.10827106 0
4.8310003 0.28969231 0.10827106 0
4.8300004 0.28162569 0.10833782 0
4.8290005 0.27356267 0.10840452 0
4.8290005 0.26557362 0.10840452 0
4.8280001 0.25751597 0.1084713 0
4.8270001 0.24946195 0.10853806 0
4.8270001 0.24147654 0.10853806 0
4.8260002 0.23342791 0.10860476 0
4.8250003 0.22538295 0.10867152 0
4.8250003 0.21740109 0.10867152 0
4.8240004 0.20936152 0.10873827 0
4.8230004 0.20132555 0.10880497 0
4.8230004 0.19334731 0.10880497 0
4.8220005 0.18531676 0.10887173 0
4.8210001 0.1772898 0.10893849 0
4.8210001 0.16931516 0.10893849 0
4.8200002 0.16129363 0.10900521 0
4.8190002 0.15327571 0.10907197 0
4.8190002 0.14530468 0.10907197 0
4.8180003 0.13729216 0.1091387 0
4.8170004 0.12928325 0.10920542 0
4.8170004 0.12131584 0.10920542 0
4.8160005 0.11331235 0.10927218 0
4.8160005 0.10534672 0.10927218 0
4.8150005 0.097348645 0.10933891 0
4.8140001 0.089354157 0.10940567 0
4.8140001 0.081392139 0.10940567 0
4.8130002 0.073403075 0.10947239 0
4.8120003 0.065417618 0.10953915 0
4.8120003 0.057459224 0.10953915 0
4.8110003 0.049479175 0.10960588 0
4.8100004 0.04150274 0.10967261 0
4.8100004 0.033547942 0.10967261 0
4.8090005 0.025576916 0.10973936 0
4.8080001 0.017609488 0.10980612 0
4.8080001 0.0096583031 0.10980612 0
4.8070002 0.001696296 0.10987285 0
4.8060002 -0.006262105 0.1099396 0
4.8060002 -0.014209684 0.1099396 0
4.8050003 -0.022162676 0.11000633 0
4.8050003 -0.03010845 0.11000633 0
4.8040004 -0.038056027 0.11007306 0
4.8030005 -0.046 0.11013982 0
4.8030005 -0.053942166 0.11013982 0
4.8020005 -0.06188073 0.11020651 0
4.8010001 -0.06981568 0.1102733 0
4.8670001 0.74364585 0.097810805 0
4.8670001 0.73558831 0.097810805 0
4.8660002 0.72735751 0.09787932 0
4.8650002 0.71913034 0.097947866 0
4.8650002 0.71107638 0.097947866 0
4.8640003 0.70285457 0.098016411 0
4.8630004 0.69463646 0.098084956 0
4.8630004 0.68658608 0.098084956 0
4.8620005 0.67837334 0.098153502 0
4.8610005 0.67016423 0.098222017 0
4.8610005 0.66211742 0.098222017 0
4.8600001 0.65391362 0.098290622 0
4.8590002 0.64571351 0.098359138 0
4.8590002 0.63767034 0.098359138 0
4.8580003 0.62947565 0.098427683 0
4.8570004 0.6212846 0.098496228 0
4.8570004 0.61324501 0.098496228 0
4.8560004 0.60505939 0.098564744 0
4.8550005 0.59687728 0.098633319 0
4.8550005 0.58884132 0.098633319 0
4.8540001 0.58066458 0.098701894 0
4.8530002 0.57249159 0.09877041 0
4.8530002 0.5644592 0.09877041 0
4.8520002 0.55629158 0.098838955 0
4.8510003 0.54812753 0.098907501 0
4.8510003 0.54009879 0.098907501 0
4.8500004 0.53194016 0.098976046 0
4.8490005 0.52378517 0.099044591 0
4.8490005 0.51576 0.099044591 0
4.8480005 0.50761038 0.099113107 0
4.8480005 0.49958706 0.099113107 0
4.8470001 0.49144286 0.099181682 0
4.8460002 0.48330224 0.099250227 0
4.8460002 0.47528255 0.099250227 0
4.8450003 0.46714735 0.099318773 0
4.8440003 0.45901579 0.099387318 0
4.8440003 0.45099968 0.099387318 0
4.8430004 0.44287351 0.099455833 0
4.8420005 0.43475097 0.099524379 0
4.8420005 0.4267385 0.099524379 0
4.8410001 0.4186213 0.099592954 0
4.8400002 0.41050777 0.099661499 0
4.8400002 0.40249884 0.099661499 0
4.8390002 0.39439073 0.099730045 0
4.8380003 0.38628623 0.09979856 0
4.8380003 0.37828094 0.09979856 0
4.8370004 0.37018186 0.099867105 0
4.8360004 0.36208639 0.099935681 0
4.8360004 0.35408467 0.099935681 0
4.8350005 0.34599459 0.1000042 0
4.8340001 0.33790809 0.10007277 0
4.8340001 0.32991001 0.10007277 0
4.8330002 0.32182893 0.10014129 0
4.8320003 0.31375149 0.10020986 0
4.8320003 0.30575705 0.10020986 0
4.8310003 0.297685 0.10027841 0
4.8300004 0.28961655 0.10034692 0
4.8300004 0.28162569 0.10034692 0
4.8290005 0.27356267 0.10041547 0
4.8290005 0.26557362 0.10041547 0
4.8280001 0.25751597 0.10048404 0
4.8270001 0.24946195 0.10055259 0
4.8270001 0.24147654 0.10055259 0
4.8260002 0.23342791 0.10062113 0
4.8250003 0.22538295 0.10068965 0
4.8250003 0.21740109 0.10068965 0
4.8240004 0.20936152 0.10075819 0
4.8230004 0.20132555 0.10082674 0
4.8230004 0.19334731 0.10082674 0
4.8220005 0.18531676 0.10089529 0
4.8210001 0.1772898 0.10096386 0
4.8210001 0.16931516 0.10096386 0
4.8200002 0.16129363 0.10103238 0
4.8190002 0.15327571 0.10110092 0
4.8190002 0.14530468 0.10110092 0
4.8180003 0.13729216 0.1011695 0
4.8170004 0.12928325 0.10123801 0
4.8170004 0.12131584 0.10123801 0
4.8160005 0.11331235 0.10130656 0
4.8160005 0.10534672 0.10130656 0
4.8150005 0.097348645 0.10137507 0
4.8140001 0.089354157 0.10144368 0
4.8140001 0.081392139 0.10144368 0
4.8130002 0.073403075 0.10151222 0
4.8120003 0.065417618 0.10158074 0
4.8120003 0.057459224 0.10158074 0
4.8110003 0.049479175 0.10164928 0
4.8100004 0.04150274 0.1017178 0
4.8100004 0.033547942 0.1017178 0
4.8090005 0.025576916 0.10178635 0
4.8080001 0.017609488 0.10185495 0
4.8080001 0.0096583031 0.10185495 0
4.8070002 0.001696296 0.10192347 0
4.8060002 -0.006262105 0.10199201 0
4.8060002 -0.014209684 0.10199201 0
4.8050003 -0.022162676 0.10206056 0
4.8050003 -0.03010845 0.10206056 0
4.8040004 -0.038056027 0.1021291 0
4.8030005 -0.046 0.10219765 0
4.8030005 -0.053942166 0.10219765 0
4.8020005 -0.06188073 0.10226616 0
4.8010001 -0.06981568 0.10233474 0
4.8670001 0.74364585 0.089753181 0
4.8670001 0.73558831 0.089753181 0
4.8660002 0.72735751 0.089823544 0
4.8650002 0.71913034 0.089893878 0
4.8650002 0.71107638 0.089893878 0
4.8640003 0.70285457 0.089964211 0
4.8630004 0.69463646 0.090034574 0
4.8630004 0.68658608 0.090034574 0
4.8620005 0.67837334 0.090104878 0
4.8610005 0.67016423 0.090175241 0
4.8610005 0.66211742 0.090175241 0
4.8600001 0.65391362 0.090245634 0
4.8590002 0.64571351 0.090315968 0
4.8590002 0.63767034 0.090315968 0
4.8580003 0.62947565 0.090386331 0
4.8570004 0.6212846 0.090456635 0
4.8570004 0.61324501 0.090456635 0
4.8560004 0.60505939 0.090526998 0
4.8550005 0.59687728 0.090597361 0
4.8550005 0.58884132 0.090597361 0
4.8540001 0.58066458 0.090667725 0
4.8530002 0.57249159 0.090738058 0
4.8530002 0.5644592 0.090738058 0
4.8520002 0.55629158 0.090808392 0
4.8510003 0.54812753 0.090878755 0
4.8510003 0.54009879 0.090878755 0
4.8500004 0.53194016 0.090949088 0
4.8490005 0.52378517 0.091019422 0
4.8490005 0.51576 0.091019422 0
4.8480005 0.50761038 0.091089785 0
4.8480005 0.49958706 0.091089785 0
4.8470001 0.49144286 0.091160148 0
4.8460002 0.48330224 0.091230512 0
4.8460002 0.47528255 0.091230512 0
4.8450003 0.46714735 0.091300845 0
4.8440003 0.45901579 0.091371179 0
4.8440003 0.45099968 0.091371179 0
4.8430004 0.44287351 0.091441542 0
4.8420005 0.43475097 0.091511846 0
4.8420005 0.4267385 0.091511846 0
4.8410001 0.4186213 0.091582239 0
4.8400002 0.41050777 0.091652602 0
4.8400002 0.40249884 0.091652602 0
4.8390002 0.39439073 0.091722935 0
4.8380003 0.38628623 0.091793299 0
4.8380003 0.37828094 0.091793299 0
4.8370004 0.37018186 0.091863602 0
4.8360004 0.36208639 0.091933966 0
4.8360004 0.35408467 0.091933966 0
4.8350005 0.34599459 0.092004329 0
4.8340001 0.33790809 0.092074692 0
4.8340001 0.32991001 0.092074692 0
4.8330002 0.32182893 0.092145026 0
4.8320003 0.31375149 0.092215359 0
4.8320003 0.30575705 0.092215359 0
4.8310003 0.297685 0.092285722 0
4.8300004 0.28961655 0.092356056 0
4.8300004 0.28162569 0.092356056 0
4.8290005 0.27356267 0.092426389 0
4.8290005 0.26557362 0.092426389 0
4.8280001 0.25751597 0.092496783 0
4.8270001 0.24946195 0.092567116 0
4.8270001 0.24147654 0.092567116 0
4.8260002 0.23342791 0.092637479 0
4.8250003 0.22538295 0.092707813 0
4.8250003 0.21740109 0.092707813 0
4.8240004 0.20936152 0.092778146 0
4.8230004 0.20132555 0.09284851 0
4.8230004 0.19334731 0.09284851 0
4.8220005 0.18531676 0.092918813 0
4.8210001 0.1772898 0.092989206 0
4.8210001 0.16931516 0.092989206 0
4.8200002 0.16129363 0.09305957 0
4.8190002 0.15327571 0.093129903 0
4.8190002 0.14530468 0.093129903 0
4.8180003 0.13729216 0.093200266 0
4.8170004 0.12928325 0.09327057 0
4.8170004 0.12131584 0.09327057 0
4.8160005 0.11331235 0.093340933 0
4.8160005 0.10534672 0.093340933 0
4.8150005 0.097348645 0.093411297 0
4.8140001 0.089354157 0.09348166 0
4.8140001 0.081392139 0.09348166 0
4.8130002 0.073403075 0.093551993 0
4.8120003 0.065417618 0.093622327 0
4.8120003 0.057459224 0.093622327 0
4.8110003 0.049479175 0.09369269 0
4.8100004 0.04150274 0.093763053 0
4.8100004 0.033547942 0.093763053 0
4.8090005 0.025576916 0.093833357 0
4.8080001 0.017609488 0.09390375 0
4.8080001 0.0096583031 0.09390375 0
4.8070002 0.001696296 0.093974084 0
4.8060002 -0.006262105 0.094044447 0
4.8060002 -0.014209684 0.094044447 0
4.8050003 -0.022162676 0.09411478 0
4.8050003 -0.03010845 0.09411478 0
4.8040004 -0.038056027 0.094185114 0
4.8030005 -0.046 0.094255477 0
4.8030005 -0.053942166 0.094255477 0
4.8020005 -0.06188073 0.094325811 0
4.8010001 -0.06981568 0.094396174 0
4.8670001 0.74364585 0.081695586 0
4.8670001 0.73558831 0.081695586 0
4.8660002 0.72735751 0.081767738 0
4.8650002 0.71913034 0.081839859 0
4.8650002 0.71107638 0.081839859 0
4.8640003 0.70285457 0.081912011 0
4.8630004 0.69463646 0.081984162 0
4.8630004 0.68658608 0.081984162 0
4.8620005 0.67837334 0.082056314 0
4.8610005 0.67016423 0.082128465 0
4.8610005 0.66211742 0.082128465 0
4.8600001 0.65391362 0.082200646 0
4.8590002 0.64571351 0.082272798 0
4.8590002 0.63767034 0.082272798 0
4.8580003 0.62947565 0.082344919 0
4.8570004 0.6212846 0.082417071 0
4.8570004 0.61324501 0.082417071 0
4.8560004 0.60505939 0.082489222 0
4.8550005 0.59687728 0.082561374 0
4.8550005 0.58884132 0.082561374 0
4.8540001 0.58066458 0.082633555 0
4.8530002 0.57249159 0.082705706 0
4.8530002 0.5644592 0.082705706 0
4.8520002 0.55629158 0.082777858 0
4.8510003 0.54812753 0.082850009 0
4.8510003 0.54009879 0.082850009 0
4.8500004 0.53194016 0.082922131 0
4.8490005 0.52378517 0.082994282 0
4.8490005 0.51576 0.082994282 0
4.8480005 0.50761038 0.083066434 0
4.8480005 0.49958706 0.083066434 0
4.8470001 0.49144286 0.083138615 0
4.8460002 0.48330224 0.083210766 0
4.8460002 0.47528255 0.083210766 0
4.8450003 0.46714735 0.083282918 0
4.8440003 0.45901579 0.083355069 0
4.8440003 0.45099968 0.083355069 0
4.8430004 0.44287351 0.083427191 0
4.8420005 0.43475097 0.083499342 0
4.8420005 0.4267385 0.083499342 0
4.8410001 0.4186213 0.083571523 0
4.8400002 0.41050777 0.083643675 0
4.8400002 0.40249884 0.083643675 0
4.8390002 0.39439073 0.083715856 0
4.8380003 0.38628623 0.083787978 0
4.8380003 0.37828094 0.083787978 0
4.8370004 0.37018186 0.083860129 0
4.8360004 0.36208639 0.083932251 0
4.8360004 0.35408467 0.083932251 0
4.8350005 0.34599459 0.084004402 0
4.8340001 0.33790809 0.084076613 0
4.8340001 0.32991001 0.084076613 0
4.8330002 0.32182893 0.084148735 0
4.8320003 0.31375149 0.084220916 0
4.8320003 0.30575705 0.084220916 0
4.8310003 0.297685 0.084293038 0
4.8300004 0.28961655 0.084365189 0
4.8300004 0.28162569 0.084365189 0
4.8290005 0.27356267 0.08443734 0
4.8290005 0.26557362 0.08443734 0
4.8280001 0.25751597 0.084509522 0
4.8270001 0.24946195 0.084581673 0
4.8270001 0.24147654 0.084581673 0
4.8260002 0.23342791 0.084653795 0
4.8250003 0.22538295 0.084725976 0
4.8250003 0.21740109 0.084725976 0
4.8240004 0.20936152 0.084798098 0
4.8230004 0.20132555 0.084870249 0
4.8230004 0.19334731 0.084870249 0
4.8220005 0.18531676 0.0849424 0
4.8210001 0.1772898 0.085014582 0
4.8210001 0.16931516 0.085014582 0
4.8200002 0.16129363 0.085086733 0
4.8190002 0.15327571 0.085158855 0
4.8190002 0.14530468 0.085158855 0
4.8180003 0.13729216 0.085231036 0
4.8170004 0.12928325 0.085303187 0
4.8170004 0.12131584 0.085303187 0
4.8160005 0.11331235 0.085375309 0
4.8160005 0.10534672 0.085375309 0
4.8150005 0.097348645 0.08544746 0
4.8140001 0.089354157 0.085519642 0
4.8140001 0.081392139 0.085519642 0
4.8130002 0.073403075 0.085591793 0
4.8120003 0.065417618 0.085663944 0
4.8120003 0.057459224 0.085663944 0
4.8110003 0.049479175 0.085736096 0
4.8100004 0.04150274 0.085808247 0
4.8100004 0.033547942 0.085808247 0
4.8090005 0.025576916 0.085880369 0
4.8080001 0.017609488 0.08595255 0
4.8080001 0.0096583031 0.08595255 0
4.8070002 0.001696296 0.086024702 0
4.8060002 -0.006262105 0.086096853 0
4.8060002 -0.014209684 0.086096853 0
4.8050003 -0.022162676 0.086169004 0
4.8050003 -0.03010845 0.086169004 0
4.8040004 -0.038056027 0.086241156 0
4.8030005 -0.046 0.086313307 0
4.8030005 -0.053942166 0.086313307 0
4.8020005 -0.06188073 0.086385459 0
4.8010001 -0.06981568 0.08645761 0
4.8670001 0.74364585 0.073637962 0
4.8670001 0.73558831 0.073637962 0
4.8660002 0.72735751 0.073711902 0
4.8650002 0.71913034 0.073785871 0
4.8650002 0.71107638 0.073785871 0
4.8640003 0.70285457 0.073859841 0
4.8630004 0.69463646 0.07393375 0
4.8630004 0.68658608 0.07393375 0
4.8620005 0.67837334 0.07400772 0
4.8610005 0.67016423 0.074081659 0
4.8610005 0.66211742 0.074081659 0
4.8600001 0.65391362 0.074155658 0
4.8590002 0.64571351 0.074229598 0
4.8590002 0.63767034 0.074229598 0
4.8580003 0.62947565 0.074303538 0
4.8570004 0.6212846 0.074377507 0
4.8570004 0.61324501 0.074377507 0
4.8560004 0.60505939 0.074451447 0
4.8550005 0.59687728 0.074525416 0
4.8550005 0.58884132 0.074525416 0
4.8540001 0.58066458 0.074599385 0
4.8530002 0.57249159 0.074673355 0
4.8530002 0.5644592 0.074673355 0
4.8520002 0.55629158 0.074747294 0
4.8510003 0.54812753 0.074821234 0
4.8510003 0.54009879 0.074821234 0
4.8500004 0.53194016 0.074895203 0
4.8490005 0.52378517 0.074969143 0
4.8490005 0.51576 0.074969143 0
4.8480005 0.50761038 0.075043112 0
4.8480005 0.49958706 0.075043112 0
4.8470001 0.49144286 0.075117081 0
4.8460002 0.48330224 0.075191021 0
4.8460002 0.47528255 0.075191021 0
4.8450003 0.46714735 0.07526499 0
4.8440003 0.45901579 0.07533893 0
4.8440003 0.45099968 0.07533893 0
4.8430004 0.44287351 0.075412899 0
4.8420005 0.43475097 0.075486839 0
4.8420005 0.4267385 0.075486839 0
4.8410001 0.4186213 0.075560838 0
4.8400002 0.41050777 0.075634778 0
4.8400002 0.40249884 0.075634778 0
