# .PCD v0.7 - Point Cloud Data file format
VERSION 0.7
FIELDS x y z intensity
SIZE 4 4 4 4
TYPE F F F F
COUNT 1 1 1 1
WIDTH 1415
HEIGHT 1
VIEWPOINT 0 0 0 1 0 0 0
POINTS 1415
DATA ascii
2.8970003 0.84581363 0.9715178 0
2.8970003 0.84130955 0.9715178 0
2.8970003 0.83680546 0.9715178 0
2.8970003 0.83230132 0.9715178 0
2.8970003 0.82779717 0.9715178 0
2.8970003 0.82329309 0.9715178 0
2.8980002 0.81913531 0.97174501 0
2.8990002 0.81497389 0.97197235 0
2.9000001 0.81080884 0.97219956 0
2.9010003 0.80664033 0.97242689 0
2.9020002 0.80246806 0.97265422 0
2.9030001 0.79829228 0.97288144 0
2.9050002 0.79444838 0.97333598 0
2.9070003 0.79059726 0.97379053 0
2.9090002 0.78673887 0.97424507 0
2.9110003 0.78287333 0.97469974 0
2.9130001 0.77900052 0.97515416 0
2.9160001 0.77544701 0.97583604 0
2.9180002 0.77155805 0.97629058 0
2.9210002 0.76798469 0.97697246 0
2.9240003 0.76440054 0.97765434 0
2.9270003 0.76080555 0.97833622 0
2.9310002 0.75751722 0.97924531 0
2.9350002 0.75421441 0.9801544 0
2.9390001 0.75089723 0.98106349 0
2.9430003 0.74756557 0.98197269 0
2.9480002 0.74452978 0.983109 0
2.9530003 0.741476 0.98424554 0
2.9590001 0.73871064 0.98560905 0
2.9660003 0.7362287 0.98720014 0
2.9730003 0.73372138 0.98879111 0
2.9810002 0.73149002 0.99060929 0
2.9910002 0.72982872 0.99288201 0
2.9330003 0.91349977 0.9751308 0
2.9260001 0.90629166 0.97355247 0
2.9200003 0.89948416 0.97219968 0
2.9160001 0.89344496 0.97129762 0
2.9130001 0.88779175 0.97062123 0
2.9110003 0.88251925 0.97017038 0
2.9080002 0.87688601 0.96949387 0
2.9060001 0.87162971 0.9690429 0
2.9040003 0.86638069 0.96859205 0
2.9030001 0.86150128 0.9683665 0
2.9020002 0.85662562 0.96814096 0
2.9010003 0.85175359 0.96791553 0
2.9010003 0.84724224 0.96791553 0
2.9000001 0.84237552 0.96769011 0
2.9000001 0.83786601 0.96769011 0
2.9000001 0.83335644 0.96769011 0
2.9010003 0.82919693 0.96791553 0
2.9010003 0.82468563 0.96791553 0
2.9010003 0.82017428 0.96791553 0
2.9020002 0.81600749 0.96814096 0
2.9030001 0.81183708 0.9683665 0
2.9040003 0.80766308 0.96859205 0
2.9050002 0.80348545 0.96881747 0
2.9070003 0.79964161 0.96926844 0
2.9080002 0.79545492 0.96949387 0
2.9100003 0.79159838 0.96994483 0
2.9120002 0.78773457 0.9703958 0
2.9140003 0.78386366 0.97084677 0
2.9160001 0.77998543 0.97129762 0
2.9190001 0.77642649 0.97197413 0
2.9220002 0.77285677 0.97265053 0
2.9240003 0.76895332 0.9731015 0
2.9280002 0.76568484 0.97400343 0
2.9310002 0.76208264 0.97467983 0
2.9340003 0.75846964 0.97535634 0
2.9380002 0.7551614 0.97625816 0
2.9430003 0.75215268 0.97738564 0
2.9470003 0.74881387 0.97828746 0
2.9520001 0.74577075 0.97941482 0
2.9570003 0.74270976 0.9805423 0
2.9640002 0.74024397 0.98212063 0
2.9710002 0.73775285 0.98369884 0
2.9790003 0.73553962 0.98550272 0
2.9880002 0.73359871 0.9875319 0
2.9420002 0.91690886 0.97257483 0
2.9330003 0.90893066 0.97056174 0
2.9270003 0.90211046 0.96921968 0
2.9220002 0.89568526 0.96810126 0
2.9190001 0.89002132 0.96743035 0
2.9160001 0.88436824 0.96675932 0
2.9130001 0.87872583 0.96608829 0
2.9110003 0.87346059 0.9656409 0
2.9080002 0.86783814 0.96496987 0
2.9070003 0.86295164 0.96474624 0
2.9060001 0.85806865 0.9645226 0
2.9050002 0.85318941 0.96429896 0
2.9050002 0.84867084 0.96429896 0
2.9040003 0.84379697 0.96407533 0
2.9040003 0.83928025 0.96407533 0
2.9040003 0.83476347 0.96407533 0
2.9040003 0.83024675 0.96407533 0
2.9050002 0.82607818 0.96429896 0
2.9050002 0.82155961 0.96429896 0
2.9060001 0.81738555 0.9645226 0
2.9070003 0.81320804 0.96474624 0
2.9080002 0.80902672 0.96496987 0
2.9090002 0.80484188 0.96519363 0
2.9100003 0.80065352 0.96541727 0
2.9120002 0.79679692 0.96586466 0
2.9140003 0.79293317 0.96631205 0
2.9160001 0.78906214 0.96675932 0
2.9180002 0.78518403 0.96720672 0
2.9200003 0.78129864 0.96765411 0
2.9230001 0.77773243 0.96832502 0
2.9250002 0.77383083 0.96877241 0
2.9280002 0.7702449 0.96944344 0
2.9310002 0.76664811 0.97011447 0
2.9350002 0.76335973 0.97100902 0
2.9390001 0.76005697 0.9719038 0
2.9420002 0.75642407 0.97257483 0
2.9470003 0.75340813 0.97369325 0
2.9520001 0.75037408 0.97481143 0
2.9570003 0.74732208 0.97592986 0
2.9620001 0.74425197 0.97704828 0
2.9680002 0.74147052 0.97839022 0
2.9760003 0.73927712 0.98017967 0
2.9850001 0.7373578 0.98219264 0
2.9950001 0.73570728 0.98442936 0
2.9420002 0.91232359 0.96798956 0
2.9350002 0.90511203 0.96643651 0
2.9300003 0.8986724 0.96532714 0
2.9250002 0.89225084 0.96421778 0
2.9220002 0.88658684 0.96355212 0
2.9180002 0.8805657 0.96266472 0
2.9150002 0.87492526 0.96199906 0
2.9140003 0.87002432 0.96177721 0
2.9120002 0.86476439 0.96133351 0
2.9110003 0.85987252 0.96111166 0
2.9100003 0.85498422 0.96088982 0
2.9090002 0.85009944 0.96066785 0
2.9080002 0.84521836 0.960446 0
2.9080002 0.84069443 0.960446 0
2.9080002 0.83617043 0.960446 0
2.9090002 0.83199638 0.96066785 0
2.9090002 0.82747066 0.96066785 0
2.9090002 0.82294494 0.96066785 0
2.9100003 0.81876373 0.96088982 0
2.9110003 0.81457889 0.96111166 0
2.9120002 0.81039041 0.96133351 0
2.9130001 0.80619836 0.96155536 0
2.9140003 0.80200273 0.96177721 0
2.9160001 0.79813892 0.96222091 0
2.9180002 0.79426795 0.96266472 0
2.9200003 0.79038984 0.96310842 0
2.9220002 0.78650433 0.96355212 0
2.9240003 0.78261179 0.96399593 0
2.9270003 0.77903843 0.96466148 0
2.9290001 0.77512956 0.96510518 0
2.9320002 0.77153635 0.96577084 0
2.9360001 0.76825339 0.96665835 0
2.9390001 0.76463681 0.9673239 0
2.9430003 0.76132691 0.96821141 0
2.9470003 0.75800246 0.96909881 0
2.9510002 0.75466359 0.96998632 0
2.9570003 0.75193441 0.97131753 0
2.9620001 0.74887329 0.97242689 0
2.9680002 0.74610269 0.9737581 0
2.9740002 0.74331039 0.97508931 0
2.9830003 0.74141103 0.97708607 0
2.9930003 0.73978215 0.97930479 0
2.9450002 0.90886384 0.96406448 0
2.9380002 0.90165949 0.96252394 0
2.9330003 0.89522356 0.96142364 0
2.9280002 0.88880563 0.96032333 0
2.9240003 0.8827737 0.95944309 0
2.9210002 0.87712234 0.95878291 0
2.9190001 0.87184614 0.95834267 0
2.9180002 0.86693978 0.95812273 0
2.9160001 0.86167628 0.95768249 0
2.9150002 0.85677892 0.95746255 0
2.9140003 0.85188526 0.95724237 0
2.9130001 0.84699506 0.95702231 0
2.9130001 0.84246212 0.95702231 0
2.9130001 0.83792913 0.95702231 0
2.9130001 0.83339614 0.95702231 0
2.9130001 0.8288632 0.95702231 0
2.9130001 0.82433021 0.95702231 0
2.9140003 0.82014185 0.95724237 0
2.9150002 0.81594974 0.95746255 0
2.9160001 0.81175411 0.95768249 0
2.9170003 0.8075549 0.95790267 0
2.9190001 0.80368924 0.95834267 0
2.9200003 0.79948103 0.95856285 0
2.9220002 0.7956028 0.95900297 0
2.9240003 0.79171741 0.95944309 0
2.9260001 0.78782475 0.95988321 0
2.9290001 0.78425324 0.96054339 0
2.9310002 0.78034437 0.96098351 0
2.9340003 0.77675301 0.9616437 0
2.9370003 0.77315086 0.96230388 0
2.9400003 0.76953781 0.96296418 0
2.9440002 0.76623321 0.96384442 0
2.9480002 0.76291418 0.96472466 0
2.9520001 0.75958073 0.9656049 0
2.9560003 0.75623292 0.96648514 0
2.9620001 0.75349468 0.9678055 0
2.9680002 0.75073487 0.96912599 0
2.9740002 0.74795341 0.97044635 0
2.9810002 0.74545693 0.97198677 0
2.9900002 0.74354488 0.97396731 0
3.0030003 0.74281251 0.97682822 0
2.9490001 0.90576673 0.96034682 0
2.9410002 0.89819622 0.95860076 0
2.9350002 0.89139396 0.95729113 0
2.9310002 0.88534951 0.95641804 0
2.9280002 0.87968552 0.95576334 0
2.9260001 0.87439674 0.9553268 0
2.9240003 0.86911523 0.95489025 0
2.9220002 0.86384088 0.95445371 0
2.9200003 0.85857379 0.95401716 0
2.9190001 0.85367101 0.95379901 0
2.9180002 0.84877187 0.95358074 0
2.9180002 0.84422988 0.95358074 0
2.9180002 0.83968782 0.95358074 0
2.9180002 0.83514589 0.95358074 0
2.9180002 0.8306039 0.95358074 0
2.9180002 0.8260619 0.95358074 0
2.9190001 0.82186443 0.95379901 0
2.9200003 0.81766343 0.95401716 0
2.9210002 0.81345868 0.95423543 0
2.9220002 0.80925041 0.95445371 0
2.9230001 0.80503845 0.95467198 0
2.9250002 0.80115855 0.95510852 0
2.9270003 0.79727131 0.95554507 0
2.9290001 0.79337686 0.95598149 0
2.9300003 0.78914523 0.95619988 0
2.9330003 0.78556645 0.9568547 0
2.9360001 0.78197676 0.9575094 0
2.9390001 0.77837646 0.9581641 0
2.9420002 0.77476519 0.95881891 0
2.9450002 0.77114314 0.95947373 0
2.9490001 0.76782954 0.96034682 0
2.9530003 0.76450157 0.96121979 0
2.9570003 0.76115912 0.96209288 0
2.9620001 0.75811601 0.96318412 0
2.9680002 0.75536704 0.96449375 0
2.9740002 0.75259644 0.96580327 0
2.9820001 0.75042099 0.96754932 0
2.9900002 0.74821675 0.9692955 0
3.0000002 0.74659336 0.9714781 0
2.9100003 0.95911801 0.94730699 0
2.9080002 0.95379317 0.94687414 0
2.9080002 0.94926918 0.94687414 0
2.9090002 0.9451403 0.94709063 0
2.9110003 0.941401 0.94752347 0
2.9130001 0.93765444 0.94795644 0
2.9160001 0.93429035 0.94860578 0
2.9180002 0.93052769 0.94903874 0
2.9210002 0.92714369 0.94968808 0
2.9240003 0.92374903 0.95033741 0
2.9270003 0.9203434 0.95098686 0
2.9290001 0.91654634 0.95141971 0
2.9320002 0.91312093 0.95206904 0
2.9360001 0.9100616 0.95293498 0
2.9410002 0.90736312 0.95401716 0
2.9460001 0.90464652 0.95509946 0
2.9450002 0.89509189 0.9548831 0
2.9390001 0.88829327 0.95358431 0
2.9360001 0.88261485 0.95293498 0
2.9330003 0.8769474 0.95228553 0
2.9300003 0.87129062 0.9516362 0
2.9280002 0.86600548 0.95120323 0
2.9260001 0.86072749 0.95077038 0
2.9250002 0.85581392 0.95055389 0
2.9240003 0.85090399 0.95033741 0
2.9240003 0.84635115 0.95033741 0
2.9230001 0.84144652 0.95012105 0
2.9230001 0.83689553 0.95012105 0
2.9230001 0.83234453 0.95012105 0
2.9230001 0.82779354 0.95012105 0
2.9240003 0.82358712 0.95033741 0
2.9250002 0.81937701 0.95055389 0
2.9260001 0.81516325 0.95077038 0
2.9270003 0.81094605 0.95098686 0
2.9280002 0.80672508 0.95120323 0
2.9300003 0.80283612 0.9516362 0
2.9320002 0.79893982 0.95206904 0
2.9340003 0.79503644 0.95250201 0
2.9360001 0.79112571 0.95293498 0
2.9380002 0.78720784 0.95336783 0
2.9410002 0.78360927 0.95401716 0
2.9440002 0.77999985 0.95466661 0
2.9470003 0.77637964 0.95531595 0
2.9510002 0.77306968 0.95618176 0
2.9550002 0.76974523 0.95704758 0
2.9590001 0.76640636 0.9579134 0
2.9640002 0.76336873 0.9589957 0
2.9690001 0.76031309 0.960078 0
2.9750001 0.75755143 0.96137679 0
2.9820001 0.75507843 0.96289194 0
2.9910002 0.75319707 0.96484005 0
3.0000002 0.75128323 0.96678817 0
2.9050002 0.96615279 0.94170618 0
2.9030001 0.96082985 0.94127691 0
2.9020002 0.9559145 0.94106221 0
2.9010003 0.95100266 0.94084764 0
2.9010003 0.94649136 0.94084764 0
2.9020002 0.94237512 0.94106221 0
2.9040003 0.93864846 0.9414916 0
2.9060001 0.93491447 0.94192088 0
2.9080002 0.93117344 0.94235027 0
2.9100003 0.92742509 0.94277954 0
2.9130001 0.92405552 0.94342339 0
2.9150002 0.92029101 0.94385278 0
2.9170003 0.91651934 0.94428205 0
2.9200003 0.91312093 0.94492602 0
2.9220002 0.90933287 0.9453553 0
2.9240003 0.90553772 0.94578469 0
2.9270003 0.90211046 0.94642854 0
2.9290001 0.89829898 0.94685793 0
2.9310002 0.89448041 0.9472872 0
2.9330003 0.89065456 0.94771659 0
2.9360001 0.88718933 0.94836044 0
2.9390001 0.88371336 0.94900441 0
2.9410002 0.87986231 0.9494338 0
2.9380002 0.87419111 0.94878972 0
2.9350002 0.86853081 0.94814587 0
2.9330003 0.86324024 0.94771659 0
2.9310002 0.85795689 0.9472872 0
2.9300003 0.85303611 0.94707263 0
2.9300003 0.84847242 0.94707263 0
2.9290001 0.843557 0.94685793 0
2.9290001 0.83899516 0.94685793 0
2.9280002 0.83408523 0.94664323 0
2.9290001 0.82987148 0.94685793 0
2.9300003 0.82565427 0.94707263 0
2.9300003 0.82109064 0.94707263 0
2.9310002 0.81686795 0.9472872 0
2.9320002 0.81264156 0.9475019 0
2.9340003 0.80874896 0.94793117 0
2.9350002 0.80451357 0.94814587 0
2.9370003 0.8006084 0.94857514 0
2.9390001 0.79669589 0.94900441 0
2.9410002 0.79277623 0.9494338 0
2.9440002 0.78917766 0.95007777 0
2.9470003 0.78556824 0.95072162 0
2.9500003 0.78194797 0.95136559 0
2.9530003 0.77831692 0.95200968 0
2.9570003 0.7749961 0.95286822 0
2.9610002 0.77166086 0.95372677 0
2.9660003 0.76862866 0.95480013 0
2.9710002 0.76557839 0.95587337 0
2.9770002 0.762824 0.95716131 0
2.9830003 0.76004797 0.95844913 0
2.9920001 0.75818098 0.96038103 0
3.0030003 0.75689852 0.96274221 0
2.9020002 0.96945381 0.93654919 0
2.8990002 0.96372855 0.93591058 0
2.8970003 0.95841634 0.93548489 0
2.8970003 0.95391226 0.93548489 0
2.8970003 0.94940811 0.93548489 0
2.8970003 0.94490403 0.93548489 0
2.8980002 0.94079489 0.93569767 0
2.9000001 0.93707544 0.93612337 0
2.9020002 0.93334883 0.93654919 0
2.9040003 0.9296149 0.93697488 0
2.9060001 0.92587388 0.93740058 0
2.9080002 0.92212552 0.93782628 0
2.9100003 0.91837007 0.93825197 0
2.9120002 0.91460723 0.93867767 0
2.9140003 0.91083729 0.93910336 0
2.9160001 0.90706003 0.93952906 0
2.9180002 0.90327573 0.93995476 0
2.9200003 0.89948416 0.94038045 0
2.9220002 0.89568526 0.94080615 0
2.9240003 0.89187926 0.94123185 0
2.9270003 0.88843584 0.94187045 0
2.9290001 0.88461351 0.94229603 0
2.9310002 0.88078403 0.94272172 0
2.9330003 0.8769474 0.94314742 0
2.9360001 0.87346596 0.94378603 0
2.9380002 0.86961305 0.94421172 0
2.9400003 0.86575294 0.94463742 0
2.9390001 0.86081403 0.94442451 0
2.9380002 0.85587883 0.94421172 0
2.9370003 0.85094726 0.94399893 0
2.9360001 0.84601921 0.94378603 0
2.9350002 0.84109479 0.94357312 0
2.9350002 0.83652216 0.94357312 0
2.9350002 0.83194953 0.94357312 0
2.9360001 0.82772136 0.94378603 0
2.9370003 0.82348967 0.94399893 0
2.9370003 0.81891346 0.94399893 0
2.9380002 0.81467623 0.94421172 0
2.9400003 0.81077284 0.94463742 0
2.9420002 0.80686218 0.94506311 0
2.9430003 0.80261064 0.94527602 0
2.9450002 0.79868734 0.9457016 0
2.9470003 0.79475683 0.94612741 0
2.9500003 0.79114741 0.9467659 0
2.9540002 0.78785366 0.94761729 0
2.9570003 0.78422081 0.9482559 0
2.9600003 0.78057706 0.94889438 0
2.9630003 0.77692264 0.94953299 0
2.9690001 0.77421504 0.95081007 0
2.9740002 0.77116841 0.95187426 0
2.9790003 0.76810378 0.95293856 0
2.9860003 0.76564884 0.95442843 0
2.9930003 0.76316851 0.95591843 0
3.0060003 0.76252455 0.95868552 0
2.9000001 0.97315156 0.93161392 0
2.8970003 0.96742463 0.9309808 0
2.8950002 0.96211231 0.93055868 0
2.8940003 0.95720959 0.93034768 0
2.8930001 0.95231038 0.93013656 0
2.8940003 0.94821227 0.93034768 0
2.8940003 0.94371355 0.93034768 0
2.8950002 0.93960983 0.93055868 0
2.8970003 0.93589586 0.9309808 0
2.8990002 0.9321745 0.9314028 0
2.9000001 0.92805642 0.93161392 0
2.9020002 0.92432249 0.93203604 0
2.9040003 0.92058146 0.93245816 0
2.9060001 0.9168331 0.93288016 0
2.9080002 0.91307765 0.93330228 0
2.9100003 0.90931493 0.9337244 0
2.9120002 0.90554488 0.93414652 0
2.9140003 0.90176773 0.93456864 0
2.9160001 0.89798331 0.93499064 0
2.9180002 0.89419174 0.93541276 0
2.9200003 0.89039296 0.93583488 0
2.9220002 0.88658684 0.93625689 0
2.9240003 0.8827737 0.93667901 0
2.9260001 0.87895316 0.93710113 0
2.9290001 0.87548983 0.93773425 0
2.9310002 0.87165314 0.93815637 0
2.9330003 0.8678093 0.93857849 0
2.9350002 0.86395812 0.93900049 0
2.9370003 0.86009979 0.93942261 0
2.9390001 0.85623419 0.93984473 0
2.9410002 0.85236138 0.94026685 0
2.9430003 0.84848148 0.94068897 0
2.9420002 0.84354442 0.94047785 0
2.9420002 0.83895916 0.94047785 0
2.9420002 0.83437389 0.94047785 0
2.9430003 0.83013314 0.94068897 0
2.9430003 0.82554609 0.94068897 0
2.9440002 0.82129991 0.94089997 0
2.9440002 0.81671101 0.94089997 0
2.9460001 0.81279665 0.94132197 0
2.9480002 0.8088752 0.94174409 0
2.9500003 0.80494654 0.94216621 0
2.9520001 0.80101055 0.94258833 0
2.9540002 0.79706746 0.94301045 0
2.9570003 0.79344547 0.94364345 0
2.9610002 0.79013908 0.94448769 0
2.9640002 0.78649354 0.94512081 0
2.9680002 0.78316015 0.94596505 0
2.9720001 0.77981222 0.94680917 0
2.9770002 0.77676928 0.94786441 0
2.9840002 0.77434313 0.94934177 0
2.9900002 0.77157611 0.95060802 0
2.9960003 0.76878744 0.95187426 0
2.9990003 0.76504093 0.9525075 0
3.0040002 0.761904 0.95356262 0
3.0090003 0.75874925 0.95461786 0
2.9000001 0.97766113 0.92710435 0
2.8960001 0.97152102 0.92626739 0
2.8940003 0.96620703 0.92584896 0
2.8900001 0.96009207 0.92501199 0
2.8900001 0.95560062 0.92501199 0
2.8890002 0.95070869 0.92480266 0
2.8890002 0.94621897 0.92480266 0
2.8900001 0.9421261 0.92501199 0
2.8910003 0.93802977 0.9252212 0
2.8920002 0.93392968 0.92543054 0
2.8940003 0.93021744 0.92584896 0
2.8970003 0.92688763 0.92647672 0
2.8990002 0.92315912 0.92689514 0
2.9020002 0.91980946 0.9275229 0
2.9040003 0.9160648 0.92794132 0
2.9060001 0.91231281 0.92835987 0
2.9070003 0.90817308 0.92856908 0
2.9090002 0.90440851 0.92898762 0
2.9110003 0.90063673 0.92940605 0
2.9130001 0.89685768 0.92982447 0
2.9150002 0.89307159 0.93024302 0
2.9170003 0.88927817 0.93066156 0
2.9190001 0.88547754 0.93107998 0
2.9210002 0.88166976 0.93149841 0
2.9230001 0.87785465 0.93191695 0
2.9250002 0.87403238 0.9323355 0
2.9270003 0.8702029 0.93275392 0
2.9290001 0.86636621 0.93317246 0
2.9310002 0.8625223 0.93359089 0
2.9330003 0.85867119 0.93400943 0
2.9350002 0.8548128 0.93442786 0
2.9370003 0.85094726 0.9348464 0
2.9390001 0.84707445 0.93526483 0
2.9410002 0.84319448 0.93568325 0
2.9430003 0.83930731 0.93610179 0
2.9450002 0.83541286 0.93652022 0
2.9470003 0.8315112 0.93693876 0
2.9500003 0.82794511 0.93756652 0
2.9510002 0.82368624 0.93777573 0
2.9520001 0.81942385 0.93798494 0
2.9540002 0.81549519 0.93840349 0
2.9560003 0.81155932 0.93882203 0
2.9580002 0.80761617 0.93924034 0
2.9600003 0.80366588 0.93965888 0
2.9620001 0.79970825 0.94007742 0
2.9660003 0.79640013 0.94091439 0
2.9690001 0.79275095 0.94154203 0
2.9710002 0.78876638 0.94196057 0
2.9730003 0.7847746 0.942379 0
2.9760003 0.78109664 0.94300687 0
2.9780002 0.77708846 0.9434253 0
2.9810002 0.77339071 0.94405293 0
2.9830003 0.76936644 0.94447148 0
2.9850001 0.7653349 0.9448899 0
2.9880002 0.76160818 0.94551766 0
2.9900002 0.75756055 0.94593608 0
2.9930003 0.75381398 0.94656396 0
2.9950001 0.74974996 0.94698226 0
2.9980001 0.7459836 0.94761014 0
3.0000002 0.74190342 0.94802856 0
3.0030003 0.73811722 0.94865632 0
3.0060003 0.73432028 0.94928408 0
3.0090003 0.73051244 0.94991171 0
3.0120003 0.72669375 0.95053947 0
3.0150001 0.72286421 0.95116723 0
2.8970003 0.9764328 0.92197263 0
2.8920002 0.96989036 0.92093539 0
2.8900001 0.96458352 0.92052054 0
2.8880002 0.95928395 0.9201057 0
2.8870003 0.95439398 0.91989827 0
2.8860002 0.94950736 0.91969073 0
2.8870003 0.94542181 0.91989827 0
2.8870003 0.94093573 0.91989827 0
2.8880002 0.93684459 0.9201057 0
2.8900001 0.93314314 0.92052054 0
2.8910003 0.92904317 0.92072797 0
2.8940003 0.92571872 0.92135024 0
2.8960001 0.92199564 0.92176509 0
2.9000001 0.91903734 0.9225949 0
2.9020002 0.91529632 0.92300975 0
2.9040003 0.91154796 0.9234246 0
2.9050002 0.90741193 0.92363203 0
2.9070003 0.90365094 0.92404699 0
2.9090002 0.89988279 0.92446184 0
2.9110003 0.89610738 0.92487669 0
2.9130001 0.89232475 0.92529154 0
2.9150002 0.88853502 0.92570639 0
2.9170003 0.88473803 0.92612135 0
2.9180002 0.8805657 0.92632878 0
2.9200003 0.87675619 0.92674363 0
2.9220002 0.87293923 0.92715847 0
2.9240003 0.86911523 0.92757344 0
2.9260001 0.86528391 0.92798817 0
2.9280002 0.86144543 0.92840314 0
2.9300003 0.85759974 0.92881799 0
2.9320002 0.85374677 0.92923284 0
2.9340003 0.8498866 0.9296478 0
2.9360001 0.84601921 0.93006265 0
2.9380002 0.84214461 0.9304775 0
2.9400003 0.83826286 0.93089247 0
2.9420002 0.83437389 0.93130732 0
2.9440002 0.83047765 0.93172216 0
2.9460001 0.82657415 0.93213701 0
2.9480002 0.82266355 0.93255186 0
2.9500003 0.81874567 0.93296683 0
2.9520001 0.81482053 0.93338168 0
2.9540002 0.81088829 0.93379653 0
2.9560003 0.80694878 0.93421149 0
2.9580002 0.80300206 0.93462622 0
2.9600003 0.79904813 0.93504119 0
2.9620001 0.79508686 0.93545604 0
2.9640002 0.7911185 0.93587089 0
2.9670002 0.78746766 0.93649328 0
2.9690001 0.78348303 0.93690813 0
2.9710002 0.77949119 0.93732297 0
2.9730003 0.77549213 0.93773782 0
2.9750001 0.77148587 0.93815267 0
2.9770002 0.76747245 0.93856764 0
2.9800003 0.76376557 0.93918991 0
2.9820001 0.75973582 0.93960476 0
2.9840002 0.75569898 0.94001961 0
2.9860003 0.7516548 0.94043458 0
2.9880002 0.74760348 0.94084942 0
2.9900002 0.74354488 0.94126427 0
2.9930003 0.73978215 0.94188654 0
2.9950001 0.73570728 0.94230151 0
2.9980001 0.73192471 0.94292378 0
3.0000002 0.72783375 0.94333875 0
3.0020003 0.72373551 0.9437536 0
3.0050001 0.71992397 0.94437587 0
3.0070002 0.71580952 0.94479072 0
3.0100002 0.71197826 0.94541311 0
3.0130002 0.70813614 0.94603539 0
3.0160003 0.70428324 0.94665766 0
2.9000001 0.98217058 0.91808534 0
2.8930001 0.97479486 0.91664588 0
2.8890002 0.96866739 0.91582334 0
2.8870003 0.96336603 0.91541219 0
2.8850002 0.95807183 0.9150008 0
2.8840003 0.95318717 0.91479528 0
2.8840003 0.94870651 0.91479528 0
2.8840003 0.94422585 0.91479528 0
2.8840003 0.93974513 0.91479528 0
2.8860002 0.93605453 0.91520643 0
2.8870003 0.93196356 0.91541219 0
2.8890002 0.92826027 0.91582334 0
2.8910003 0.92454982 0.91623473 0
2.8940003 0.92122 0.91685152 0
2.8970003 0.91787934 0.91746843 0
2.9000001 0.91452783 0.91808534 0
2.9020002 0.91078317 0.91849661 0
2.9040003 0.9070313 0.91890788 0
2.9060001 0.90327209 0.91931915 0
2.9080002 0.89950585 0.91973042 0
2.9100003 0.89573228 0.9201417 0
2.9110003 0.89157808 0.92034733 0
2.9130001 0.88779175 0.92075861 0
2.9150002 0.88399839 0.92116988 0
2.9170003 0.88019776 0.92158115 0
2.9190001 0.87638998 0.92199242 0
2.9210002 0.87257493 0.92240369 0
2.9220002 0.86839008 0.92260933 0
2.9240003 0.86456245 0.9230206 0
2.9260001 0.86072749 0.92343175 0
2.9280002 0.85688543 0.92384315 0
2.9300003 0.85303611 0.92425442 0
2.9320002 0.84917951 0.92466569 0
2.9340003 0.84531575 0.92507696 0
2.9350002 0.84109479 0.9252826 0
2.9370003 0.83721846 0.92569387 0
2.9390001 0.83333486 0.92610514 0
2.9410002 0.82944405 0.92651641 0
2.9430003 0.82554609 0.92692769 0
2.9450002 0.82164073 0.92733884 0
2.9470003 0.81772834 0.92775023 0
2.9490001 0.81380856 0.92816138 0
2.9510002 0.80988175 0.92857277 0
2.9530003 0.80594772 0.92898393 0
2.9550002 0.8020063 0.9293952 0
2.9570003 0.79805779 0.92980647 0
2.9590001 0.79410201 0.93021774 0
2.9610002 0.79013908 0.93062901 0
2.9630003 0.78616887 0.93104041 0
2.9650002 0.78219146 0.93145156 0
2.9670002 0.77820688 0.93186283 0
2.9690001 0.77421504 0.9322741 0
2.9710002 0.77021605 0.93268538 0
2.9730003 0.76620978 0.93309665 0
2.9750001 0.76219624 0.93350792 0
2.9770002 0.75817555 0.93391919 0
2.9800003 0.75445795 0.9345361 0
2.9820001 0.75042099 0.93494737 0
2.9840002 0.74637687 0.93535864 0
2.9860003 0.74232554 0.93576992 0
2.9880002 0.73826689 0.93618119 0
2.9900002 0.73420119 0.93659246 0
2.9930003 0.73042762 0.93720937 0
2.9950001 0.7263456 0.93762064 0
2.9970002 0.72225636 0.93803191 0
2.9990003 0.71815991 0.93844318 0
3.0010002 0.71405619 0.93885446 0
3.0040002 0.71023577 0.93947136 0
3.0060003 0.7061159 0.93988264 0
3.0090003 0.70227557 0.94049954 0
3.0130002 0.69870949 0.94132197 0
3.0180001 0.69541204 0.94235015 0
2.8960001 0.98052561 0.9127605 0
2.8910003 0.97397602 0.91174138 0
2.8870003 0.96785212 0.9109261 0
2.8840003 0.96214843 0.91031456 0
2.8820002 0.95685959 0.90990686 0
2.8820002 0.95238256 0.90990686 0
2.8810003 0.94750512 0.90970314 0
2.8810003 0.94302988 0.90970314 0
2.8820002 0.93895149 0.90990686 0
2.8830001 0.93486947 0.91011071 0
2.8840003 0.93078381 0.91031456 0
2.8860002 0.927086 0.91072214 0
2.8880002 0.92338097 0.91112983 0
2.8910003 0.92005664 0.91174138 0
2.8940003 0.9167214 0.91235292 0
2.8980002 0.91375947 0.91316819 0
2.9010003 0.91040081 0.91377962 0
2.9030001 0.9066506 0.91418731 0
2.9050002 0.90289336 0.91459501 0
2.9070003 0.89912885 0.9150027 0
2.9080002 0.8949818 0.91520655 0
2.9100003 0.89120471 0.91561413 0
2.9120002 0.8874203 0.91602182 0
2.9140003 0.88362873 0.91642952 0
2.9150002 0.87946182 0.91663325 0
2.9170003 0.87565768 0.91704094 0
2.9190001 0.87184614 0.91744864 0
2.9210002 0.86802751 0.91785634 0
2.9230001 0.86420161 0.91826391 0
2.9250002 0.86036849 0.91867161 0
2.9270003 0.85652828 0.9190793 0
2.9280002 0.85232538 0.91928303 0
2.9300003 0.84847242 0.91969073 0
2.9320002 0.84461224 0.92009842 0
2.9340003 0.84074491 0.92050612 0
2.9360001 0.83687025 0.9209137 0
2.9380002 0.8329885 0.92132139 0
2.9400003 0.82909954 0.92172909 0
2.9420002 0.8252033 0.92213666 0
2.9430003 0.82095897 0.92234063 0
2.9450002 0.8170501 0.92274821 0
2.9470003 0.81313401 0.9231559 0
2.9490001 0.80921072 0.92356348 0
2.9510002 0.80528027 0.92397118 0
2.9530003 0.80134255 0.92437887 0
2.9550002 0.79739755 0.92478645 0
2.9570003 0.79344547 0.92519414 0
2.9590001 0.78948605 0.92560184 0
2.9610002 0.78551948 0.92600942 0
2.9630003 0.78154576 0.92641711 0
2.9650002 0.7775647 0.92682481 0
2.9670002 0.77357656 0.9272325 0
2.9690001 0.76958102 0.92764008 0
2.9710002 0.76557839 0.92804778 0
2.9730003 0.76156855 0.92845547 0
2.9750001 0.75755143 0.92886305 0
2.9770002 0.75352716 0.92927074 0
2.9790003 0.74949569 0.92967844 0
2.9810002 0.74545693 0.93008614 0
2.9830003 0.74141103 0.93049383 0
2.9850001 0.7373578 0.93090141 0
2.9870002 0.73329747 0.9313091 0
2.9890003 0.72922993 0.9317168 0
2.9910002 0.72515506 0.93212438 0
2.9930003 0.72107303 0.93253207 0
2.9950001 0.7169838 0.93293977 0
2.9970002 0.71288735 0.93334734 0
2.9990003 0.70878375 0.93375504 0
3.0020003 0.70496148 0.93436658 0
3.0040002 0.70084155 0.93477416 0
3.0080001 0.6972844 0.93558955 0
3.0120003 0.69371295 0.93640482 0
3.0170002 0.69040829 0.93742394 0
2.8930001 0.9792918 0.90765214 0
2.8880002 0.97274768 0.90664196 0
2.8840003 0.96662915 0.90583384 0
2.8820002 0.96133673 0.90542984 0
2.8800001 0.95605159 0.90502584 0
2.8790002 0.95117581 0.90482378 0
2.8780003 0.94630378 0.90462172 0
2.8790002 0.94223255 0.90482378 0
2.8790002 0.93776089 0.90482378 0
2.8800001 0.93368429 0.90502584 0
2.8820002 0.92999738 0.90542984 0
2.8830001 0.92591172 0.9056319 0
2.8860002 0.9226017 0.90623796 0
2.8880002 0.91889316 0.90664196 0
2.8910003 0.91556329 0.90724802 0
2.8950002 0.91260678 0.90805614 0
2.8990002 0.90963596 0.90886426 0
2.9030001 0.9066506 0.90967238 0
2.9040003 0.90251452 0.90987444 0
2.9060001 0.8987518 0.91027844 0
2.9080002 0.8949818 0.91068256 0
2.9100003 0.89120471 0.91108656 0
2.9110003 0.88704872 0.91128862 0
2.9130001 0.88325876 0.91169262 0
2.9150002 0.87946182 0.91209674 0
2.9170003 0.87565768 0.91250074 0
2.9180002 0.87148178 0.9127028 0
2.9200003 0.86766499 0.91310692 0
2.9220002 0.86384088 0.91351092 0
2.9240003 0.86000961 0.91391492 0
2.9260001 0.85617107 0.91431892 0
2.9270003 0.85197002 0.9145211 0
2.9290001 0.8481189 0.9149251 0
2.9310002 0.84426051 0.9153291 0
2.9330003 0.84039497 0.91573322 0
2.9350002 0.83652216 0.91613722 0
2.9360001 0.83229584 0.91633928 0
2.9380002 0.82841045 0.91674328 0
2.9400003 0.82451785 0.9171474 0
2.9420002 0.82061803 0.9175514 0
2.9440002 0.81671101 0.91795552 0
2.9460001 0.81279665 0.91835952 0
2.9480002 0.8088752 0.91876364 0
2.9500003 0.80494654 0.91916764 0
2.9510002 0.80067873 0.9193697 0
2.9530003 0.79673743 0.91977382 0
2.9550002 0.79278886 0.92017782 0
2.9570003 0.78883308 0.92058182 0
2.9590001 0.78487009 0.92098582 0
2.9610002 0.78089994 0.92138994 0
2.9630003 0.77692264 0.92179406 0
2.9650002 0.77293789 0.92219806 0
2.9670002 0.76894611 0.92260218 0
2.9690001 0.76494706 0.92300618 0
2.9710002 0.76094079 0.92341018 0
2.9730003 0.75692737 0.9238143 0
2.9740002 0.75259644 0.92401636 0
2.9760003 0.74857032 0.92442036 0
2.9780002 0.744537 0.92482436 0
2.9800003 0.74049646 0.92522848 0
2.9820001 0.73644871 0.92563248 0
2.9840002 0.73239374 0.9260366 0
2.9860003 0.72833163 0.9264406 0
2.9880002 0.72426218 0.92684472 0
2.9900002 0.72018558 0.92724872 0
2.9920001 0.71610171 0.92765272 0
2.9940002 0.71201074 0.92805684 0
2.9950001 0.70762205 0.9282589 0
2.9970002 0.70351839 0.9286629 0
2.9990003 0.69940752 0.9290669 0
3.0040002 0.6961444 0.93007708 0
3.0080001 0.69258004 0.9308852 0
3.0120003 0.68900138 0.93169332 0
3.0190003 0.68624699 0.9331075 0
2.8910003 0.97846937 0.90275478 0
2.8850002 0.97151923 0.90155351 0
2.8820002 0.96581376 0.90095282 0
2.8790002 0.96011913 0.90035212 0
2.8770003 0.95483935 0.8999517 0
2.8770003 0.95037138 0.8999517 0
2.8760002 0.94550282 0.89975142 0
2.8760002 0.9410367 0.89975142 0
2.8760002 0.93657041 0.89975142 0
2.8770003 0.93249929 0.8999517 0
2.8790002 0.92881757 0.90035212 0
2.8800001 0.92473745 0.90055233 0
2.8830001 0.92143279 0.90115297 0
2.8850002 0.91772962 0.90155351 0
2.8890002 0.91479117 0.90235436 0
2.8920002 0.9114542 0.902955 0
2.8970003 0.90887123 0.90395617 0
2.9010003 0.90588951 0.90475702 0
2.9040003 0.90251452 0.90535772 0
2.9060001 0.8987518 0.90575814 0
2.9070003 0.89460665 0.90595829 0
2.9090002 0.89083129 0.90635872 0
2.9110003 0.88704872 0.90675926 0
2.9130001 0.88325876 0.90715969 0
2.9150002 0.87946182 0.90756011 0
2.9160001 0.87529141 0.90776038 0
2.9180002 0.87148178 0.90816081 0
2.9200003 0.86766499 0.90856123 0
2.9220002 0.86384088 0.90896165 0
2.9230001 0.85965055 0.90916193 0
2.9250002 0.85581392 0.90956235 0
2.9270003 0.85197002 0.90996277 0
2.9290001 0.8481189 0.9103632 0
2.9310002 0.84426051 0.91076374 0
2.9320002 0.84004498 0.91096389 0
2.9340003 0.83617407 0.91136444 0
2.9360001 0.83229584 0.91176474 0
2.9380002 0.82841045 0.91216528 0
2.9400003 0.82451785 0.91256571 0
2.9410002 0.82027709 0.91276598 0
2.9430003 0.81637192 0.9131664 0
2.9450002 0.81245935 0.91356683 0
2.9470003 0.80853975 0.91396725 0
2.9490001 0.80461282 0.91436768 0
2.9500003 0.80034685 0.91456795 0
2.9520001 0.79640728 0.91496837 0
2.9540002 0.79246056 0.9153688 0
2.9560003 0.78850669 0.91576934 0
2.9580002 0.78454542 0.91616976 0
2.9600003 0.78057706 0.91657019 0
2.9610002 0.7762804 0.91677046 0
2.9630003 0.77229941 0.91717088 0
2.9650002 0.76831114 0.91757119 0
2.9670002 0.76431578 0.91797173 0
2.9690001 0.76031309 0.91837215 0
2.9710002 0.75630325 0.91877258 0
2.9730003 0.7522862 0.91917312 0
2.9750001 0.74826187 0.91957355 0
2.9770002 0.74423033 0.91997397 0
2.9790003 0.74019164 0.92037439 0
2.9810002 0.73614562 0.92077482 0
2.9830003 0.7320925 0.92117524 0
2.9850001 0.72803211 0.92157567 0
2.9870002 0.72396457 0.92197621 0
2.9890003 0.71988982 0.92237663 0
2.9900002 0.71551371 0.9225769 0
2.9910002 0.71113402 0.92277706 0
2.9920001 0.70675081 0.92297733 0
2.9940002 0.70265257 0.92337775 0
2.9960003 0.69854712 0.92377818 0
2.9990003 0.69471943 0.92437887 0
3.0030003 0.69116414 0.92517972 0
3.0070002 0.68759435 0.92598069 0
3.0140002 0.68484896 0.92738223 0
3.0210001 0.6820783 0.92878377 0
2.8880002 0.97723544 0.89766628 0
2.8830001 0.97070026 0.89667416 0
2.8790002 0.96459079 0.89588046 0
2.8770003 0.95930755 0.89548367 0
2.8750002 0.95403123 0.89508682 0
2.8740003 0.94916463 0.8948884 0
2.8730001 0.94430149 0.89468992 0
2.8730001 0.93984073 0.89468992 0
2.8740003 0.93577677 0.8948884 0
2.8750002 0.93170917 0.89508682 0
2.8760002 0.92763793 0.89528525 0
2.8780003 0.92395455 0.8956821 0
2.8800001 0.92026395 0.89607882 0
2.8830001 0.91695404 0.89667416 0
2.8860002 0.91363317 0.89726943 0
2.8890002 0.91030157 0.8978647 0
2.8940003 0.9077239 0.89885676 0
2.8990002 0.90512818 0.89984882 0
2.9040003 0.90251452 0.900841 0
2.9060001 0.8987518 0.90123779 0
2.9070003 0.89460665 0.90143621 0
2.9090002 0.89083129 0.90183306 0
2.9110003 0.88704872 0.90222991 0
2.9130001 0.88325876 0.90262669 0
2.9140003 0.87909389 0.90282512 0
2.9160001 0.87529141 0.90322196 0
2.9180002 0.87148178 0.90361881 0
2.9200003 0.86766499 0.90401566 0
2.9210002 0.86348015 0.90421414 0
2.9230001 0.85965055 0.90461087 0
2.9250002 0.85581392 0.90500772 0
2.9270003 0.85197002 0.90540457 0
2.9280002 0.84776533 0.90560305 0
2.9300003 0.84390879 0.9059999 0
2.9320002 0.84004498 0.90639675 0
2.9340003 0.83617407 0.90679348 0
2.9350002 0.83194953 0.90699196 0
2.9370003 0.82806599 0.90738881 0
2.9390001 0.82417512 0.90778565 0
2.9410002 0.82027709 0.9081825 0
2.9430003 0.81637192 0.90857923 0
2.9450002 0.81245935 0.90897608 0
2.9460001 0.80820417 0.90917456 0
2.9480002 0.80427909 0.90957141 0
2.9500003 0.80034685 0.90996826 0
2.9520001 0.79640728 0.91036499 0
2.9540002 0.79246056 0.91076183 0
2.9550002 0.78818011 0.91096032 0
2.9570003 0.78422081 0.91135716 0
2.9590001 0.78025419 0.91175389 0
2.9610002 0.7762804 0.91215086 0
2.9630003 0.77229941 0.91254771 0
2.9650002 0.76831114 0.91294444 0
2.9660003 0.76400012 0.91314292 0
2.9680002 0.75999922 0.91353977 0
2.9700003 0.75599116 0.91393661 0
2.9720001 0.75197589 0.91433346 0
2.9740002 0.74795341 0.91473031 0
2.9760003 0.74392372 0.91512716 0
2.9780002 0.73988676 0.91552401 0
2.9790003 0.73553962 0.91572237 0
2.9810002 0.73149002 0.91611922 0
2.9830003 0.72743326 0.91651607 0
2.9850001 0.72336924 0.91691291 0
2.9870002 0.71929812 0.91730976 0
2.9870002 0.71463168 0.91730976 0
2.9880002 0.71025741 0.91750813 0
2.9890003 0.70587963 0.91770661 0
2.9910002 0.7017867 0.91810334 0
2.9930003 0.69768667 0.91850019 0
2.9960003 0.69386441 0.91909552 0
3.0000002 0.69031453 0.91988921 0
3.0040002 0.68675017 0.92068279 0
3.0090003 0.68345106 0.92167497 0
3.0160003 0.68068939 0.92306387 0
3.0260003 0.67873043 0.92504811 0
2.8860002 0.97641289 0.89278513 0
2.8800001 0.96947181 0.89160544 0
2.8760002 0.9633677 0.89081895 0
2.8740003 0.95808983 0.8904258 0
2.8720002 0.95281911 0.89003253 0
2.8710003 0.94795787 0.88983595 0
2.8710003 0.94350076 0.88983595 0
2.8710003 0.93904352 0.88983595 0
2.8710003 0.93458629 0.88983595 0
2.8720002 0.93052405 0.89003253 0
2.8740003 0.92685151 0.8904258 0
2.8750002 0.92278028 0.89062238 0
2.8770003 0.91909516 0.89101565 0
2.8800001 0.9157905 0.89160544 0
2.8830001 0.91247511 0.89219528 0
2.8870003 0.90953314 0.89298177 0
2.8910003 0.90657669 0.89376819 0
2.8960001 0.90398639 0.89475125 0
2.9020002 0.90175694 0.89593101 0
2.9060001 0.8987518 0.89671743 0
2.9070003 0.89460665 0.89691412 0
2.9090002 0.89083129 0.89730728 0
2.9110003 0.88704872 0.89770055 0
2.9130001 0.88325876 0.8980937 0
2.9140003 0.87909389 0.8982904 0
2.9160001 0.87529141 0.89868361 0
2.9180002 0.87148178 0.89907682 0
2.9200003 0.86766499 0.89947009 0
2.9210002 0.86348015 0.89966667 0
2.9230001 0.85965055 0.90005982 0
2.9250002 0.85581392 0.90045309 0
2.9270003 0.85197002 0.90084636 0
2.9280002 0.84776533 0.90104294 0
2.9300003 0.84390879 0.90143621 0
2.9320002 0.84004498 0.90182942 0
2.9340003 0.83617407 0.90222269 0
2.9350002 0.83194953 0.90241927 0
2.9370003 0.82806599 0.90281254 0
2.9390001 0.82417512 0.90320575 0
2.9410002 0.82027709 0.90359902 0
2.9420002 0.81603271 0.9037956 0
2.9440002 0.81212211 0.90418887 0
2.9460001 0.80820417 0.90458202 0
2.9480002 0.80427909 0.9049753 0
2.9500003 0.80034685 0.90536857 0
2.9510002 0.79607719 0.90556514 0
2.9530003 0.79213226 0.90595829 0
2.9550002 0.78818011 0.90635157 0
2.9570003 0.78422081 0.90674484 0
2.9590001 0.78025419 0.90713799 0
2.9600003 0.77595931 0.90733469 0
2.9620001 0.77198011 0.90772784 0
2.9640002 0.76799375 0.90812111 0
2.9660003 0.76400012 0.90851438 0
2.9680002 0.75999922 0.90890753 0
2.9700003 0.75599116 0.9093008 0
2.9720001 0.75197589 0.90969396 0
2.9730003 0.74764496 0.90989065 0
2.9750001 0.743617 0.91028392 0
2.9770002 0.73958194 0.91067708 0
2.9790003 0.73553962 0.91107035 0
2.9810002 0.73149002 0.91146362 0
2.9830003 0.72743326 0.91185689 0
2.9840002 0.72307169 0.91205347 0
2.9840002 0.71841067 0.91205347 0
2.9840002 0.71374959 0.91205347 0
2.9850001 0.70938075 0.91225004 0
2.9860003 0.70500839 0.91244662 0
2.9880002 0.70092088 0.91283989 0
2.9900002 0.69682628 0.91323316 0
2.9930003 0.69300944 0.91382301 0
2.9970002 0.68946487 0.91460943 0
3.0010002 0.68590599 0.91539586 0
3.0060003 0.68261224 0.91637897 0
3.0120003 0.6795783 0.91755867 0
3.0200002 0.67707455 0.91913152 0
2.8830001 0.97517908 0.88771641 0
2.8780003 0.96865296 0.88674241 0
2.8740003 0.96255243 0.88596314 0
2.8720002 0.95727813 0.88557351 0
2.8690002 0.95160699 0.88498908 0
2.8690002 0.94715339 0.88498908 0
2.8680003 0.94229937 0.88479424 0
2.8680003 0.93784755 0.88479424 0
2.8690002 0.93379247 0.88498908 0
2.8690002 0.92933887 0.88498908 0
2.8710003 0.92567182 0.88537872 0
2.8720002 0.921606 0.88557351 0
2.8750002 0.91831589 0.88615799 0
2.8770003 0.91462713 0.88654757 0
2.8800001 0.91131711 0.88713199 0
2.8840003 0.90838051 0.88791132 0
2.8880002 0.90542954 0.88869047 0
2.8930001 0.90284461 0.88966453 0
2.8990002 0.90062052 0.89083338 0
2.9050002 0.8983748 0.89200228 0
2.9070003 0.89460665 0.89239192 0
2.9090002 0.89083129 0.89278156 0
2.9110003 0.88704872 0.89317119 0
2.9130001 0.88325876 0.89356077 0
2.9140003 0.87909389 0.89375561 0
2.9160001 0.87529141 0.89414519 0
2.9180002 0.87148178 0.89453483 0
2.9200003 0.86766499 0.89492452 0
2.9210002 0.86348015 0.89511925 0
2.9230001 0.85965055 0.89550889 0
2.9250002 0.85581392 0.89589852 0
2.9270003 0.85197002 0.89628816 0
2.9280002 0.84776533 0.89648294 0
2.9300003 0.84390879 0.89687258 0
2.9320002 0.84004498 0.89726216 0
2.9340003 0.83617407 0.89765185 0
2.9350002 0.83194953 0.89784658 0
2.9370003 0.82806599 0.89823627 0
2.9390001 0.82417512 0.89862585 0
2.9410002 0.82027709 0.89901549 0
2.9420002 0.81603271 0.89921033 0
2.9440002 0.81212211 0.89959991 0
2.9460001 0.80820417 0.89998949 0
2.9480002 0.80427909 0.90037918 0
2.9500003 0.80034685 0.90076882 0
2.9510002 0.79607719 0.90096366 0
2.9530003 0.79213226 0.90135324 0
2.9550002 0.78818011 0.90174282 0
2.9570003 0.78422081 0.90213251 0
2.9590001 0.78025419 0.90252209 0
2.9600003 0.77595931 0.90271688 0
2.9620001 0.77198011 0.90310657 0
2.9640002 0.76799375 0.90349615 0
2.9660003 0.76400012 0.90388578 0
2.9680002 0.75999922 0.90427542 0
2.9690001 0.75567907 0.90447021 0
2.9710002 0.75166559 0.90485978 0
2.9730003 0.74764496 0.90524948 0
2.9750001 0.743617 0.90563905 0
2.9770002 0.73958194 0.90602875 0
2.9780002 0.73523653 0.90622354 0
2.9800003 0.73118877 0.90661311 0
2.9820001 0.72713381 0.90700269 0
2.9820001 0.72247636 0.90700269 0
2.9810002 0.71752316 0.9068079 0
2.9820001 0.71316153 0.90700269 0
2.9820001 0.70850408 0.90700269 0
2.9830003 0.70413715 0.90719759 0
2.9850001 0.70005506 0.90758717 0
2.9870002 0.69596583 0.90797687 0
2.9900002 0.69215441 0.90856123 0
2.9940002 0.68861532 0.9093405 0
2.9980001 0.68506175 0.91011977 0
3.0030003 0.68177348 0.91109383 0
3.0080001 0.67846709 0.91206789 0
3.0160003 0.67597061 0.91362631 0
2.8900001 0.98254943 0.8845886 0
2.8810003 0.97435665 0.8828516 0
2.8750002 0.96742451 0.88169354 0
2.8710003 0.96132958 0.88092154 0
2.8690002 0.95606053 0.88053548 0
2.8670001 0.95079887 0.88014942 0
2.8660002 0.94594663 0.87995642 0
2.8650002 0.94109797 0.87976348 0
2.8660002 0.93705022 0.87995642 0
2.8660002 0.93260205 0.87995642 0
2.8670001 0.92854887 0.88014942 0
2.8680003 0.92449218 0.88034248 0
2.8700001 0.9208231 0.88072848 0
2.8720002 0.91714704 0.88111454 0
2.8740003 0.91346365 0.88150054 0
2.8780003 0.91054511 0.8822726 0
2.8810003 0.90722793 0.8828516 0
2.8850002 0.90428221 0.8836236 0
2.8900001 0.90170276 0.8845886 0
2.8960001 0.89948416 0.88574666 0
2.9020002 0.8972438 0.88690472 0
2.9070003 0.89460665 0.88786978 0
2.9090002 0.89083129 0.88825577 0
2.9110003 0.88704872 0.88864177 0
2.9130001 0.88325876 0.88902777 0
2.9140003 0.87909389 0.88922083 0
2.9160001 0.87529141 0.88960683 0
2.9180002 0.87148178 0.88999283 0
2.9200003 0.86766499 0.89037883 0
2.9210002 0.86348015 0.89057183 0
2.9230001 0.85965055 0.89095783 0
2.9250002 0.85581392 0.89134395 0
2.9270003 0.85197002 0.89172995 0
2.9280002 0.84776533 0.89192295 0
2.9300003 0.84390879 0.89230895 0
2.9320002 0.84004498 0.89269495 0
2.9340003 0.83617407 0.89308101 0
2.9350002 0.83194953 0.89327395 0
2.9370003 0.82806599 0.89366001 0
2.9390001 0.82417512 0.89404595 0
2.9410002 0.82027709 0.89443207 0
2.9420002 0.81603271 0.89462507 0
2.9440002 0.81212211 0.89501107 0
2.9460001 0.80820417 0.89539707 0
2.9480002 0.80427909 0.89578307 0
2.9500003 0.80034685 0.89616907 0
2.9510002 0.79607719 0.89636207 0
2.9530003 0.79213226 0.89674813 0
2.9550002 0.78818011 0.89713413 0
2.9570003 0.78422081 0.89752018 0
2.9590001 0.78025419 0.89790612 0
2.9600003 0.77595931 0.89809918 0
2.9620001 0.77198011 0.89848518 0
2.9640002 0.76799375 0.89887118 0
2.9660003 0.76400012 0.89925718 0
2.9680002 0.75999922 0.89964318 0
2.9690001 0.75567907 0.89983618 0
2.9710002 0.75166559 0.90022224 0
2.9730003 0.74764496 0.9006083 0
2.9750001 0.743617 0.90099424 0
2.9770002 0.73958194 0.9013803 0
2.9780002 0.73523653 0.9015733 0
2.9800003 0.73118877 0.9019593 0
2.9800003 0.72653502 0.9019593 0
2.9790003 0.72158355 0.9017663 0
2.9780002 0.7166357 0.9015733 0
2.9790003 0.71227956 0.9017663 0
2.9790003 0.70762748 0.9017663 0
2.9810002 0.70355624 0.9021523 0
2.9820001 0.69918919 0.9023453 0
2.9840002 0.69510543 0.9027313 0
2.9870002 0.69129944 0.90331042 0
2.9900002 0.6874826 0.90388942 0
2.9940002 0.68393624 0.90466142 0
2.9990003 0.68065512 0.90562642 0
3.0050001 0.67763376 0.90678453 0
3.0130002 0.67514271 0.90832853 0
3.0230002 0.6731711 0.91025865 0
2.8880002 0.98172331 0.87971479 0
2.8780003 0.97312272 0.87780273 0
2.8730001 0.96660566 0.87684667 0
2.8690002 0.96051419 0.87608188 0
2.8660002 0.95484304 0.87550825 0
2.8640003 0.94958669 0.87512589 0
2.8640003 0.94514215 0.87512589 0
2.8630002 0.94029707 0.87493467 0
2.8630002 0.93585426 0.87493467 0
2.8630002 0.93141145 0.87493467 0
2.8640003 0.92736381 0.87512589 0
2.8660002 0.92370564 0.87550825 0
2.8670001 0.91964883 0.87569952 0
2.8690002 0.91597813 0.87608188 0
2.8720002 0.91268802 0.87665546 0
2.8750002 0.90938705 0.87722909 0
2.8780003 0.90607524 0.87780273 0
2.8830001 0.90351737 0.87875867 0
2.8870003 0.90056098 0.87952352 0
2.8930001 0.89834774 0.88067073 0
2.8990002 0.8961128 0.881818 0
2.9070003 0.89460665 0.88334763 0
2.9090002 0.89083129 0.88373005 0
2.9110003 0.88704872 0.88411248 0
2.9130001 0.88325876 0.88449478 0
2.9140003 0.87909389 0.88468605 0
2.9160001 0.87529141 0.88506842 0
2.9180002 0.87148178 0.88545084 0
2.9200003 0.86766499 0.88583326 0
2.9210002 0.86348015 0.88602448 0
2.9230001 0.85965055 0.88640684 0
2.9250002 0.85581392 0.88678932 0
2.9270003 0.85197002 0.88717175 0
2.9280002 0.84776533 0.8873629 0
2.9300003 0.84390879 0.88774532 0
2.9320002 0.84004498 0.88812768 0
2.9340003 0.83617407 0.88851011 0
2.9350002 0.83194953 0.88870132 0
2.9370003 0.82806599 0.88908374 0
2.9390001 0.82417512 0.88946611 0
2.9410002 0.82027709 0.88984853 0
2.9420002 0.81603271 0.89003968 0
2.9440002 0.81212211 0.89042211 0
2.9460001 0.80820417 0.89080453 0
2.9480002 0.80427909 0.89118695 0
2.9500003 0.80034685 0.89156938 0
2.9510002 0.79607719 0.89176059 0
2.9530003 0.79213226 0.89214301 0
2.9550002 0.78818011 0.89252543 0
2.9570003 0.78422081 0.89290786 0
2.9590001 0.78025419 0.89329016 0
2.9600003 0.77595931 0.89348143 0
2.9620001 0.77198011 0.8938638 0
2.9640002 0.76799375 0.89424622 0
2.9660003 0.76400012 0.89462864 0
2.9680002 0.75999922 0.89501107 0
2.9690001 0.75567907 0.89520222 0
2.9710002 0.75166559 0.89558464 0
2.9730003 0.74764496 0.89596707 0
2.9750001 0.743617 0.89634943 0
2.9770002 0.73958194 0.89673185 0
2.9780002 0.73523653 0.89692307 0
2.9790003 0.73088765 0.89711428 0
2.9770002 0.72563666 0.89673185 0
2.9760003 0.72069067 0.8965407 0
2.9760003 0.71604407 0.8965407 0
2.9760003 0.71139747 0.8965407 0
2.9760003 0.70675087 0.8965407 0
2.9780002 0.702685 0.89692307 0
2.9790003 0.69832349 0.89711428 0
2.9810002 0.69424504 0.8974967 0
2.9840002 0.69044435 0.89807034 0
2.9870002 0.68663293 0.89864391 0
2.9910002 0.68309206 0.8994087 0
2.9960003 0.67981637 0.90036476 0
3.0020003 0.67680043 0.90151197 0
3.0090003 0.67403877 0.90285039 0
3.0190003 0.67207444 0.90476239 0
2.8850002 0.98048413 0.8746587 0
2.8760002 0.97230017 0.87295407 0
2.8700001 0.96537721 0.87181771 0
2.8660002 0.95929122 0.87106013 0
2.8640003 0.95403123 0.87068129 0
2.8620002 0.94877863 0.87030244 0
2.8610003 0.94393539 0.87011313 0
2.8600001 0.93909568 0.86992371 0
2.8600001 0.93465841 0.86992371 0
2.8610003 0.93061787 0.87011313 0
2.8610003 0.92617869 0.87011313 0
2.8630002 0.92252594 0.87049186 0
2.8640003 0.91847467 0.87068129 0
2.8670001 0.91519886 0.87124944 0
2.8690002 0.91152453 0.87162828 0
2.8720002 0.90822905 0.87219644 0
2.8760002 0.90530676 0.87295407 0
2.8800001 0.90237021 0.87371165 0
2.8840003 0.89941919 0.87446928 0
2.8900001 0.89721131 0.8756057 0
2.8960001 0.8949818 0.87674212 0
2.9050002 0.89385629 0.8784467 0
2.9090002 0.89083129 0.87920427 0
2.9110003 0.88704872 0.87958312 0
2.9130001 0.88325876 0.87996185 0
2.9140003 0.87909389 0.88015127 0
2.9160001 0.87529141 0.88053 0
2.9180002 0.87148178 0.88090885 0
2.9200003 0.86766499 0.88128769 0
2.9210002 0.86348015 0.88147712 0
2.9230001 0.85965055 0.88185585 0
2.9250002 0.85581392 0.88223469 0
2.9270003 0.85197002 0.88261348 0
2.9280002 0.84776533 0.88280284 0
2.9300003 0.84390879 0.88318169 0
2.9320002 0.84004498 0.88356048 0
2.9340003 0.83617407 0.88393927 0
2.9350002 0.83194953 0.88412869 0
2.9370003 0.82806599 0.88450748 0
2.9390001 0.82417512 0.88488626 0
2.9410002 0.82027709 0.88526511 0
2.9420002 0.81603271 0.88545442 0
2.9440002 0.81212211 0.88583326 0
2.9460001 0.80820417 0.88621199 0
2.9480002 0.80427909 0.88659084 0
2.9500003 0.80034685 0.88696969 0
2.9510002 0.79607719 0.88715911 0
2.9530003 0.79213226 0.8875379 0
2.9550002 0.78818011 0.88791662 0
2.9570003 0.78422081 0.88829547 0
2.9590001 0.78025419 0.88867426 0
2.9600003 0.77595931 0.88886368 0
2.9620001 0.77198011 0.88924247 0
2.9640002 0.76799375 0.88962126 0
2.9660003 0.76400012 0.8900001 0
2.9680002 0.75999922 0.89037883 0
2.9690001 0.75567907 0.89056826 0
2.9710002 0.75166559 0.8909471 0
2.9730003 0.74764496 0.89132583 0
2.9750001 0.743617 0.89170468 0
2.9770002 0.73958194 0.89208353 0
2.9780002 0.73523653 0.89227283 0
2.9770002 0.73028511 0.89208353 0
2.9740002 0.72473842 0.89151525 0
2.9740002 0.7200954 0.89151525 0
2.9730003 0.71515661 0.89132583 0
2.9730003 0.71051538 0.89132583 0
2.9740002 0.70616639 0.89151525 0
2.9750001 0.70181376 0.89170468 0
2.9760003 0.69745761 0.8918941 0
2.9780002 0.69338459 0.89227283 0
2.9810002 0.68958938 0.89284104 0
2.9840002 0.68578333 0.89340925 0
2.9880002 0.68224782 0.89416689 0
2.9930003 0.67897761 0.89511383 0
2.9980001 0.67568922 0.89606082 0
3.0060003 0.6732108 0.89757603 0
3.0150001 0.67097765 0.89928067 0
2.8830001 0.97965789 0.86980098 0
2.8730001 0.97106636 0.86792505 0
2.8680003 0.96455824 0.86698711 0
2.8640003 0.95847595 0.86623669 0
2.8610003 0.95281374 0.8656739 0
2.8590002 0.94756645 0.86529875 0
2.8580003 0.94272864 0.86511111 0
2.8580003 0.93829483 0.86511111 0
2.8580003 0.93386108 0.86511111 0
2.8580003 0.92942733 0.86511111 0
2.8590002 0.92538857 0.86529875 0
2.8600001 0.92134631 0.86548626 0
2.8620002 0.91769177 0.86586148 0
2.8640003 0.91403008 0.86623669 0
2.8660002 0.91036105 0.8666119 0
2.8690002 0.90707093 0.86717463 0
2.8730001 0.90415418 0.86792505 0
2.8770003 0.901223 0.86867547 0
2.8820002 0.89865798 0.86961341 0
2.8870003 0.89607489 0.87055141 0
2.8940003 0.89422786 0.87186456 0
2.9020002 0.89273065 0.87336534 0
2.9090002 0.89083129 0.87467849 0
2.9110003 0.88704872 0.8750537 0
2.9130001 0.88325876 0.87542886 0
2.9140003 0.87909389 0.87561655 0
2.9160001 0.87529141 0.8759917 0
2.9180002 0.87148178 0.87636685 0
2.9200003 0.86766499 0.87674212 0
2.9210002 0.86348015 0.8769297 0
2.9230001 0.85965055 0.87730485 0
2.9250002 0.85581392 0.87768006 0
2.9270003 0.85197002 0.87805521 0
2.9280002 0.84776533 0.87824285 0
2.9300003 0.84390879 0.87861806 0
2.9320002 0.84004498 0.87899321 0
2.9340003 0.83617407 0.87936842 0
2.9350002 0.83194953 0.87955606 0
2.9370003 0.82806599 0.87993121 0
2.9390001 0.82417512 0.88030636 0
2.9410002 0.82027709 0.88068157 0
2.9420002 0.81603271 0.88086915 0
2.9440002 0.81212211 0.88124442 0
2.9460001 0.80820417 0.88161957 0
2.9480002 0.80427909 0.88199472 0
2.9500003 0.80034685 0.88237 0
2.9510002 0.79607719 0.88255757 0
2.9530003 0.79213226 0.88293278 0
2.9550002 0.78818011 0.88330793 0
2.9570003 0.78422081 0.88368309 0
2.9590001 0.78025419 0.88405824 0
2.9600003 0.77595931 0.88424593 0
2.9620001 0.77198011 0.88462108 0
2.9640002 0.76799375 0.88499629 0
2.9660003 0.76400012 0.88537151 0
2.9680002 0.75999922 0.88574672 0
2.9690001 0.75567907 0.88593423 0
2.9710002 0.75166559 0.88630944 0
2.9730003 0.74764496 0.88668466 0
2.9750001 0.743617 0.88705987 0
2.9770002 0.73958194 0.88743508 0
2.9760003 0.73463053 0.88724744 0
2.9740002 0.72938144 0.88687229 0
2.9720001 0.72413951 0.88649702 0
2.9710002 0.71920252 0.88630944 0
2.9700003 0.7142691 0.88612187 0
