# .PCD v0.7 - Point Cloud Data file format
VERSION 0.7
FIELDS x y z intensity
SIZE 4 4 4 4
TYPE F F F F
COUNT 1 1 1 1
WIDTH 1420
HEIGHT 1
VIEWPOINT 0 0 0 1 0 0 0
POINTS 1420
DATA ascii
4.4580002 -2.2053568 0.49183825 0
4.4530001 -2.210007 0.49173003 0
4.4480004 -2.2146394 0.49162179 0
4.4440002 -2.2197909 0.49153522 0
4.4390001 -2.2243888 0.491427 0
4.4350004 -2.2295101 0.4913404 0
4.4300003 -2.2340734 0.49123219 0
4.4260001 -2.2391639 0.49114561 0
4.4210005 -2.2436934 0.49103737 0
4.4170003 -2.2487531 0.49095079 0
4.4120002 -2.253248 0.49084255 0
4.4080005 -2.2582772 0.49075598 0
4.4030004 -2.2627378 0.49064773 0
4.3990002 -2.2677362 0.49056116 0
4.3940001 -2.2721629 0.49045295 0
4.3900003 -2.2771304 0.49036634 0
4.3860002 -2.2820837 0.49027976 0
4.381 -2.2864597 0.49017155 0
4.3770003 -2.2913823 0.49008495 0
4.3720002 -2.2957239 0.48997673 0
4.368 -2.300616 0.48989016 0
4.3640003 -2.3054934 0.48980355 0
4.3590002 -2.3097847 0.48969534 0
4.8110003 -1.8282781 0.49152261 0
4.8050003 -1.8337995 0.49140355 0
4.8000002 -1.8397069 0.49130434 0
4.7950001 -1.8455962 0.49120513 0
4.7890005 -1.8510566 0.49108607 0
4.7840004 -1.8569081 0.49098685 0
4.7790003 -1.8627416 0.49088764 0
4.7730002 -1.8681403 0.49076861 0
4.7680001 -1.8739358 0.4906694 0
4.7630005 -1.8797137 0.49057019 0
4.7570004 -1.8850511 0.49045113 0
4.7520003 -1.8907907 0.49035192 0
4.7470002 -1.8965125 0.4902527 0
4.7420001 -1.902216 0.49015349 0
4.7360005 -1.9074725 0.49003446 0
4.7310004 -1.9131383 0.48993525 0
4.7260003 -1.9187858 0.48983604 0
4.7210002 -1.9244156 0.48973683 0
4.7160001 -1.9300272 0.48963761 0
4.7100005 -1.9351826 0.48951858 0
4.7050004 -1.9407562 0.48941934 0
4.7000003 -1.9463118 0.48932016 0
4.6950002 -1.9518497 0.48922092 0
4.6900005 -1.9573694 0.48912174 0
4.6850004 -1.962871 0.48902252 0
4.6800003 -1.9683546 0.48892331 0
4.6740003 -1.973369 0.48880425 0
4.6690001 -1.9788148 0.48870504 0
4.6640005 -1.9842426 0.48860583 0
4.6590004 -1.9896522 0.48850662 0
4.6540003 -1.9950435 0.48840743 0
4.6490002 -2.000417 0.48830819 0
4.6440005 -2.0057728 0.48820901 0
4.6390004 -2.0111103 0.4881098 0
4.6340003 -2.0164297 0.48801059 0
4.6290002 -2.0217309 0.48791137 0
4.6240001 -2.0270143 0.48781216 0
4.6190004 -2.0322797 0.48771295 0
4.6140003 -2.0375271 0.48761374 0
4.6090002 -2.0427561 0.48751453 0
4.6050005 -2.0484438 0.48743516 0
4.6000004 -2.0536387 0.48733595 0
4.5950003 -2.0588155 0.48723674 0
4.5900002 -2.0639741 0.48713753 0
4.5850005 -2.0691154 0.48703831 0
4.5800004 -2.0742381 0.48693913 0
4.5750003 -2.0793428 0.48683989 0
4.5700002 -2.0844295 0.48674071 0
4.5660005 -2.0899889 0.48666131 0
4.5610003 -2.0950415 0.48656213 0
4.5560002 -2.1000757 0.48646292 0
4.5510001 -2.105092 0.48636371 0
4.5460005 -2.1100907 0.4862645 0
4.5420003 -2.1155705 0.48618513 0
4.5370002 -2.1205347 0.48608592 0
4.5320001 -2.1254807 0.48598671 0
4.5270004 -2.1304088 0.4858875 0
4.5230002 -2.1358254 0.48580813 0
4.5180001 -2.1407192 0.48570892 0
4.5130005 -2.1455951 0.48560971 0
4.5090003 -2.1509647 0.48553035 0
4.5040002 -2.1558063 0.48543113 0
4.4990001 -2.1606295 0.48533192 0
4.4940004 -2.1654351 0.48523271 0
4.4900002 -2.1707418 0.48515335 0
4.4850001 -2.1755128 0.48505414 0
4.4810004 -2.180789 0.48497477 0
4.4760003 -2.1855259 0.48487556 0
4.4710002 -2.1902447 0.48477635 0
4.4670005 -2.1954739 0.48469698 0
4.4620004 -2.2001584 0.48459777 0
4.4580002 -2.2053568 0.48451841 0
4.4530001 -2.210007 0.4844192 0
4.4480004 -2.2146394 0.48431998 0
4.4440002 -2.2197909 0.48424062 0
4.4390001 -2.2243888 0.48414141 0
4.4350004 -2.2295101 0.48406205 0
4.4300003 -2.2340734 0.48396283 0
4.4260001 -2.2391639 0.48388347 0
4.4210005 -2.2436934 0.48378426 0
4.4170003 -2.2487531 0.48370489 0
4.4120002 -2.253248 0.48360568 0
4.4080005 -2.2582772 0.48352632 0
4.4030004 -2.2627378 0.48342711 0
4.3990002 -2.2677362 0.48334774 0
4.3940001 -2.2721629 0.48324853 0
4.3900003 -2.2771304 0.48316917 0
4.3860002 -2.2820837 0.4830898 0
4.381 -2.2864597 0.48299056 0
4.3770003 -2.2913823 0.48291123 0
4.3720002 -2.2957239 0.48281199 0
4.368 -2.300616 0.48273265 0
4.3640003 -2.3054934 0.48265326 0
4.3590002 -2.3097847 0.48255405 0
4.8770003 -1.7580377 0.48475653 0
4.8710003 -1.7638081 0.48464829 0
4.8660002 -1.7699428 0.48455808 0
4.8600001 -1.7756717 0.48444986 0
4.8540001 -1.781379 0.48434162 0
4.8490005 -1.7874562 0.48425144 0
4.8430004 -1.7931218 0.48414323 0
4.8380003 -1.799161 0.48405302 0
4.8330002 -1.805182 0.48396283 0
4.8270001 -1.8107864 0.48385459 0
4.8220005 -1.8167697 0.48376441 0
4.8160005 -1.8223326 0.4836562 0
4.8110003 -1.8282781 0.48356599 0
4.8050003 -1.8337995 0.48345777 0
4.8000002 -1.8397069 0.48336756 0
4.7950001 -1.8455962 0.48327738 0
4.7890005 -1.8510566 0.48316917 0
4.7840004 -1.8569081 0.48307896 0
4.7790003 -1.8627416 0.48298877 0
4.7730002 -1.8681403 0.48288053 0
4.7680001 -1.8739358 0.48279035 0
4.7630005 -1.8797137 0.48270017 0
4.7570004 -1.8850511 0.48259193 0
4.7520003 -1.8907907 0.48250175 0
4.7470002 -1.8965125 0.48241156 0
4.7420001 -1.902216 0.48232135 0
4.7360005 -1.9074725 0.48221314 0
4.7310004 -1.9131383 0.48212296 0
4.7260003 -1.9187858 0.48203278 0
4.7210002 -1.9244156 0.48194256 0
4.7160001 -1.9300272 0.48185238 0
4.7100005 -1.9351826 0.48174417 0
4.7050004 -1.9407562 0.48165396 0
4.7000003 -1.9463118 0.48156375 0
4.6950002 -1.9518497 0.48147357 0
4.6900005 -1.9573694 0.48138338 0
4.6850004 -1.962871 0.4812932 0
4.6800003 -1.9683546 0.48120302 0
4.6740003 -1.973369 0.48109478 0
4.6690001 -1.9788148 0.4810046 0
4.6640005 -1.9842426 0.48091441 0
4.6590004 -1.9896522 0.4808242 0
4.6540003 -1.9950435 0.48073402 0
4.6490002 -2.000417 0.48064381 0
4.6440005 -2.0057728 0.48055363 0
4.6390004 -2.0111103 0.48046345 0
4.6340003 -2.0164297 0.48037326 0
4.6290002 -2.0217309 0.48028305 0
4.6240001 -2.0270143 0.48019287 0
4.6190004 -2.0322797 0.48010269 0
4.6140003 -2.0375271 0.48001251 0
4.6090002 -2.0427561 0.47992229 0
4.6050005 -2.0484438 0.47985014 0
4.6000004 -2.0536387 0.47975996 0
4.5950003 -2.0588155 0.47966975 0
4.5900002 -2.0639741 0.47957957 0
4.5850005 -2.0691154 0.47948939 0
4.5800004 -2.0742381 0.4793992 0
4.5750003 -2.0793428 0.47930902 0
4.5700002 -2.0844295 0.47921881 0
4.5660005 -2.0899889 0.47914666 0
4.5610003 -2.0950415 0.47905648 0
4.5560002 -2.1000757 0.4789663 0
4.5510001 -2.105092 0.47887608 0
4.5460005 -2.1100907 0.4787859 0
4.5420003 -2.1155705 0.47871375 0
4.5370002 -2.1205347 0.47862357 0
4.5320001 -2.1254807 0.47853336 0
4.5270004 -2.1304088 0.47844318 0
4.5230002 -2.1358254 0.47837102 0
4.5180001 -2.1407192 0.47828084 0
4.5130005 -2.1455951 0.47819066 0
4.5090003 -2.1509647 0.47811851 0
4.5040002 -2.1558063 0.4780283 0
4.4990001 -2.1606295 0.47793812 0
4.4940004 -2.1654351 0.47784793 0
4.4900002 -2.1707418 0.47777575 0
4.4850001 -2.1755128 0.47768557 0
4.4810004 -2.180789 0.47761345 0
4.4760003 -2.1855259 0.47752324 0
4.4710002 -2.1902447 0.47743303 0
4.4670005 -2.1954739 0.4773609 0
4.4620004 -2.2001584 0.47727072 0
4.4580002 -2.2053568 0.47719854 0
4.4530001 -2.210007 0.47710836 0
4.4480004 -2.2146394 0.47701818 0
4.4440002 -2.2197909 0.47694603 0
4.4390001 -2.2243888 0.47685581 0
4.4350004 -2.2295101 0.47678369 0
4.4300003 -2.2340734 0.47669348 0
4.4260001 -2.2391639 0.47662133 0
4.4210005 -2.2436934 0.47653115 0
4.4170003 -2.2487531 0.476459 0
4.4120002 -2.253248 0.47636878 0
4.4080005 -2.2582772 0.47629666 0
4.4030004 -2.2627378 0.47620645 0
4.3990002 -2.2677362 0.4761343 0
4.3940001 -2.2721629 0.47604412 0
4.3900003 -2.2771304 0.47597197 0
4.3860002 -2.2820837 0.47589982 0
4.381 -2.2864597 0.47580963 0
4.3770003 -2.2913823 0.47573748 0
4.3720002 -2.2957239 0.47564727 0
4.368 -2.300616 0.47557512 0
4.3640003 -2.3054934 0.47550297 0
4.3590002 -2.3097847 0.47541279 0
4.355 -2.3146317 0.47534063 0
4.9680004 -1.661 0.47815818 0
4.9620004 -1.6671077 0.47806078 0
4.9560003 -1.6731938 0.47796336 0
4.9500003 -1.6792581 0.47786596 0
4.9440002 -1.6853009 0.47776854 0
4.9390001 -1.6916845 0.47768739 0
4.9330001 -1.6976858 0.47758996 0
4.9270005 -1.7036656 0.47749257 0
4.9220004 -1.7099915 0.47741139 0
4.9160004 -1.7159295 0.477314 0
4.9100003 -1.7218461 0.4772166 0
4.9050002 -1.7281142 0.47713542 0
4.8990002 -1.7339892 0.47703803 0
4.8930001 -1.7398425 0.4769406 0
4.8880005 -1.7460533 0.47685945 0
4.8820004 -1.7518651 0.47676203 0
4.8770003 -1.7580377 0.47668087 0
4.8710003 -1.7638081 0.47658345 0
4.8660002 -1.7699428 0.47650227 0
4.8600001 -1.7756717 0.47640488 0
4.8540001 -1.781379 0.47630745 0
4.8490005 -1.7874562 0.4762263 0
4.8430004 -1.7931218 0.47612891 0
4.8380003 -1.799161 0.47604772 0
4.8330002 -1.805182 0.47596654 0
4.8270001 -1.8107864 0.47586915 0
4.8220005 -1.8167697 0.47578797 0
4.8160005 -1.8223326 0.47569057 0
4.8110003 -1.8282781 0.47560939 0
4.8050003 -1.8337995 0.475512 0
4.8000002 -1.8397069 0.47543082 0
4.7950001 -1.8455962 0.47534963 0
4.7890005 -1.8510566 0.47525224 0
4.7840004 -1.8569081 0.47517109 0
4.7790003 -1.8627416 0.47508991 0
4.7730002 -1.8681403 0.47499251 0
4.7680001 -1.8739358 0.47491133 0
4.7630005 -1.8797137 0.47483015 0
4.7570004 -1.8850511 0.47473276 0
4.7520003 -1.8907907 0.47465158 0
4.7470002 -1.8965125 0.47457039 0
4.7420001 -1.902216 0.47448921 0
4.7360005 -1.9074725 0.47439182 0
4.7310004 -1.9131383 0.47431067 0
4.7260003 -1.9187858 0.47422948 0
4.7210002 -1.9244156 0.4741483 0
4.7160001 -1.9300272 0.47406715 0
4.7100005 -1.9351826 0.47396976 0
4.7050004 -1.9407562 0.47388858 0
4.7000003 -1.9463118 0.47380739 0
4.6950002 -1.9518497 0.47372621 0
4.6900005 -1.9573694 0.47364506 0
4.6850004 -1.962871 0.47356388 0
4.6800003 -1.9683546 0.4734827 0
4.6750002 -1.97382 0.47340155 0
4.6690001 -1.9788148 0.47330412 0
4.6640005 -1.9842426 0.47322297 0
4.6590004 -1.9896522 0.47314179 0
4.6540003 -1.9950435 0.47306061 0
4.6490002 -2.000417 0.47297943 0
4.6440005 -2.0057728 0.47289827 0
4.6390004 -2.0111103 0.47281709 0
4.6340003 -2.0164297 0.47273594 0
4.6290002 -2.0217309 0.47265476 0
4.6240001 -2.0270143 0.47257358 0
4.6190004 -2.0322797 0.47249243 0
4.6140003 -2.0375271 0.47241125 0
4.6090002 -2.0427561 0.47233006 0
4.6050005 -2.0484438 0.47226512 0
4.6000004 -2.0536387 0.47218397 0
4.5950003 -2.0588155 0.47210279 0
4.5900002 -2.0639741 0.47202161 0
4.5850005 -2.0691154 0.47194046 0
4.5800004 -2.0742381 0.47185928 0
4.5750003 -2.0793428 0.47177809 0
4.5700002 -2.0844295 0.47169691 0
4.5660005 -2.0899889 0.471632 0
4.5610003 -2.0950415 0.47155082 0
4.5560002 -2.1000757 0.47146964 0
4.5510001 -2.105092 0.47138849 0
4.5460005 -2.1100907 0.47130731 0
4.5420003 -2.1155705 0.47124237 0
4.5370002 -2.1205347 0.47116122 0
4.5320001 -2.1254807 0.47108003 0
4.5270004 -2.1304088 0.47099885 0
4.5230002 -2.1358254 0.47093391 0
4.5180001 -2.1407192 0.47085276 0
4.5130005 -2.1455951 0.47077158 0
4.5090003 -2.1509647 0.47070664 0
4.5040002 -2.1558063 0.47062546 0
4.4990001 -2.1606295 0.47054431 0
4.4940004 -2.1654351 0.47046313 0
4.4900002 -2.1707418 0.47039819 0
4.4850001 -2.1755128 0.47031701 0
4.4810004 -2.180789 0.4702521 0
4.4760003 -2.1855259 0.47017092 0
4.4710002 -2.1902447 0.47008973 0
4.4670005 -2.1954739 0.47002482 0
4.4620004 -2.2001584 0.46994364 0
4.4580002 -2.2053568 0.4698787 0
4.4530001 -2.210007 0.46979752 0
4.4480004 -2.2146394 0.46971637 0
4.4440002 -2.2197909 0.4696514 0
4.4390001 -2.2243888 0.46957025 0
4.4350004 -2.2295101 0.46950531 0
4.4300003 -2.2340734 0.46942413 0
4.4260001 -2.2391639 0.46935922 0
4.4210005 -2.2436934 0.46927804 0
4.4170003 -2.2487531 0.4692131 0
4.4120002 -2.253248 0.46913192 0
4.4080005 -2.2582772 0.46906698 0
4.4030004 -2.2627378 0.4689858 0
4.3990002 -2.2677362 0.46892089 0
4.3940001 -2.2721629 0.4688397 0
4.3900003 -2.2771304 0.46877477 0
4.3860002 -2.2820837 0.46870983 0
4.381 -2.2864597 0.46862864 0
4.3770003 -2.2913823 0.46856374 0
4.3720002 -2.2957239 0.46848255 0
4.368 -2.300616 0.46841761 0
4.3640003 -2.3054934 0.46835268 0
4.3590002 -2.3097847 0.46827149 0
4.355 -2.3146317 0.46820658 0
5.0620003 -1.5596837 0.47127485 0
5.0560002 -1.5661341 0.47118825 0
5.0500002 -1.5725628 0.47110167 0
5.0440001 -1.57897 0.4710151 0
5.0380001 -1.5853555 0.47092852 0
5.0320005 -1.5917195 0.47084194 0
5.0260005 -1.5980617 0.47075534 0
5.0200005 -1.6043822 0.47066876 0
5.0140004 -1.6106811 0.47058219 0
5.0090003 -1.6172991 0.47051004 0
5.0030003 -1.6235565 0.47042346 0
4.9970002 -1.6297923 0.47033685 0
4.9910002 -1.6360065 0.47025028 0
4.9850001 -1.6421989 0.4701637 0
4.9790001 -1.6483697 0.4700771 0
4.9730005 -1.6545191 0.46999055 0
4.9680004 -1.661 0.46991837 0
4.9620004 -1.6671077 0.46983179 0
4.9560003 -1.6731938 0.46974522 0
4.9500003 -1.6792581 0.46965864 0
4.9440002 -1.6853009 0.46957207 0
4.9390001 -1.6916845 0.46949989 0
4.9330001 -1.6976858 0.46941331 0
4.9270005 -1.7036656 0.46932673 0
4.9220004 -1.7099915 0.46925458 0
4.9160004 -1.7159295 0.46916801 0
4.9100003 -1.7218461 0.4690814 0
4.9050002 -1.7281142 0.46900925 0
4.8990002 -1.7339892 0.46892267 0
4.8930001 -1.7398425 0.4688361 0
4.8880005 -1.7460533 0.46876395 0
4.8820004 -1.7518651 0.46867737 0
4.8770003 -1.7580377 0.46860522 0
4.8710003 -1.7638081 0.46851861 0
4.8660002 -1.7699428 0.46844646 0
4.8600001 -1.7756717 0.46835989 0
4.8540001 -1.781379 0.46827331 0
4.8490005 -1.7874562 0.46820116 0
4.8430004 -1.7931218 0.46811458 0
4.8380003 -1.799161 0.46804243 0
4.8330002 -1.805182 0.46797025 0
4.8270001 -1.8107864 0.46788368 0
4.8220005 -1.8167697 0.46781152 0
4.8160005 -1.8223326 0.46772495 0
4.8110003 -1.8282781 0.4676528 0
4.8050003 -1.8337995 0.46756622 0
4.8000002 -1.8397069 0.46749407 0
4.7950001 -1.8455962 0.46742192 0
4.7890005 -1.8510566 0.46733534 0
4.7840004 -1.8569081 0.46726316 0
4.7790003 -1.8627416 0.46719104 0
4.7730002 -1.8681403 0.46710443 0
4.7680001 -1.8739358 0.46703228 0
4.7630005 -1.8797137 0.46696013 0
4.7570004 -1.8850511 0.46687356 0
4.7520003 -1.8907907 0.4668014 0
4.7470002 -1.8965125 0.46672925 0
4.7420001 -1.902216 0.4666571 0
4.7360005 -1.9074725 0.46657053 0
4.7310004 -1.9131383 0.46649837 0
4.7260003 -1.9187858 0.46642619 0
4.7210002 -1.9244156 0.46635407 0
4.7160001 -1.9300272 0.46628189 0
4.7100005 -1.9351826 0.46619532 0
4.7050004 -1.9407562 0.46612316 0
4.7000003 -1.9463118 0.46605101 0
4.6950002 -1.9518497 0.46597886 0
4.6900005 -1.9573694 0.46590671 0
4.6850004 -1.962871 0.46583456 0
4.6800003 -1.9683546 0.46576241 0
4.6750002 -1.97382 0.46569026 0
4.6690001 -1.9788148 0.46560368 0
4.6640005 -1.9842426 0.46553153 0
4.6590004 -1.9896522 0.46545938 0
4.6540003 -1.9950435 0.46538723 0
4.6490002 -2.000417 0.46531507 0
4.6440005 -2.0057728 0.46524292 0
4.6390004 -2.0111103 0.46517077 0
4.6340003 -2.0164297 0.46509862 0
4.6290002 -2.0217309 0.46502644 0
4.6240001 -2.0270143 0.46495429 0
4.6190004 -2.0322797 0.46488214 0
4.6140003 -2.0375271 0.46481001 0
4.6090002 -2.0427561 0.46473783 0
4.6050005 -2.0484438 0.46468014 0
4.6000004 -2.0536387 0.46460798 0
4.5950003 -2.0588155 0.46453583 0
4.5900002 -2.0639741 0.46446365 0
4.5850005 -2.0691154 0.46439153 0
4.5800004 -2.0742381 0.46431935 0
4.5750003 -2.0793428 0.4642472 0
4.5700002 -2.0844295 0.46417505 0
4.5660005 -2.0899889 0.46411735 0
4.5610003 -2.0950415 0.46404517 0
4.5560002 -2.1000757 0.46397305 0
4.5510001 -2.105092 0.46390086 0
4.5460005 -2.1100907 0.46382874 0
4.5420003 -2.1155705 0.46377102 0
4.5370002 -2.1205347 0.46369886 0
4.5320001 -2.1254807 0.46362668 0
4.5270004 -2.1304088 0.46355456 0
4.5230002 -2.1358254 0.46349683 0
4.5180001 -2.1407192 0.46342468 0
4.5130005 -2.1455951 0.46335253 0
4.5090003 -2.1509647 0.4632948 0
4.5040002 -2.1558063 0.46322265 0
4.4990001 -2.1606295 0.4631505 0
4.4940004 -2.1654351 0.46307835 0
4.4900002 -2.1707418 0.46302062 0
4.4850001 -2.1755128 0.46294847 0
4.4810004 -2.180789 0.46289074 0
4.4760003 -2.1855259 0.46281859 0
4.4710002 -2.1902447 0.46274644 0
4.4670005 -2.1954739 0.46268871 0
4.4620004 -2.2001584 0.46261656 0
4.4580002 -2.2053568 0.46255884 0
4.4530001 -2.210007 0.46248668 0
4.4480004 -2.2146394 0.46241453 0
4.4440002 -2.2197909 0.46235681 0
4.4390001 -2.2243888 0.46228465 0
4.4350004 -2.2295101 0.46222696 0
4.4300003 -2.2340734 0.46215481 0
4.4260001 -2.2391639 0.46209708 0
4.4210005 -2.2436934 0.46202493 0
4.4170003 -2.2487531 0.4619672 0
4.4120002 -2.253248 0.46189505 0
4.4080005 -2.2582772 0.46183732 0
4.4030004 -2.2627378 0.46176517 0
4.3990002 -2.2677362 0.46170744 0
4.3940001 -2.2721629 0.46163529 0
4.3900003 -2.2771304 0.46157756 0
4.3860002 -2.2820837 0.46151984 0
4.381 -2.2864597 0.46144769 0
4.3770003 -2.2913823 0.46138999 0
4.3720002 -2.2957239 0.46131784 0
4.368 -2.300616 0.46126011 0
4.3640003 -2.3054934 0.46120238 0
4.3590002 -2.3097847 0.46113023 0
4.355 -2.3146317 0.4610725 0
5.0680003 -1.5532116 0.46294126 0
5.0620003 -1.5596837 0.4628655 0
5.0560002 -1.5661341 0.46278974 0
5.0500002 -1.5725628 0.46271396 0
5.0440001 -1.57897 0.4626382 0
5.0380001 -1.5853555 0.46256244 0
5.0320005 -1.5917195 0.46248668 0
5.0260005 -1.5980617 0.46241093 0
5.0200005 -1.6043822 0.46233517 0
5.0140004 -1.6106811 0.46225941 0
5.0090003 -1.6172991 0.46219629 0
5.0030003 -1.6235565 0.46212053 0
4.9970002 -1.6297923 0.46204475 0
4.9910002 -1.6360065 0.46196899 0
4.9850001 -1.6421989 0.46189323 0
4.9790001 -1.6483697 0.46181747 0
4.9730005 -1.6545191 0.46174172 0
4.9680004 -1.661 0.46167859 0
4.9620004 -1.6671077 0.46160284 0
4.9560003 -1.6731938 0.46152708 0
4.9500003 -1.6792581 0.46145129 0
4.9440002 -1.6853009 0.46137553 0
4.9390001 -1.6916845 0.46131241 0
4.9330001 -1.6976858 0.46123666 0
4.9270005 -1.7036656 0.4611609 0
4.9220004 -1.7099915 0.46109778 0
4.9160004 -1.7159295 0.46102199 0
4.9100003 -1.7218461 0.46094623 0
4.9050002 -1.7281142 0.46088311 0
4.8990002 -1.7339892 0.46080735 0
4.8930001 -1.7398425 0.4607316 0
4.8880005 -1.7460533 0.46066844 0
4.8820004 -1.7518651 0.46059269 0
4.8770003 -1.7580377 0.46052957 0
4.8710003 -1.7638081 0.46045381 0
4.8660002 -1.7699428 0.46039066 0
4.8600001 -1.7756717 0.4603149 0
4.8540001 -1.781379 0.46023914 0
4.8490005 -1.7874562 0.46017602 0
4.8430004 -1.7931218 0.46010026 0
4.8380003 -1.799161 0.46003711 0
4.8330002 -1.805182 0.45997399 0
4.8270001 -1.8107864 0.45989823 0
4.8220005 -1.8167697 0.45983511 0
4.8160005 -1.8223326 0.45975932 0
4.8110003 -1.8282781 0.4596962 0
4.8050003 -1.8337995 0.45962045 0
4.8000002 -1.8397069 0.45955729 0
4.7950001 -1.8455962 0.45949417 0
4.7890005 -1.8510566 0.45941842 0
4.7840004 -1.8569081 0.45935529 0
4.7790003 -1.8627416 0.45929214 0
4.7730002 -1.8681403 0.45921639 0
4.7680001 -1.8739358 0.45915326 0
4.7630005 -1.8797137 0.45909011 0
4.7570004 -1.8850511 0.45901436 0
4.7520003 -1.8907907 0.45895123 0
4.7470002 -1.8965125 0.45888808 0
4.7420001 -1.902216 0.45882496 0
4.7360005 -1.9074725 0.4587492 0
4.7310004 -1.9131383 0.45868605 0
4.7260003 -1.9187858 0.45862293 0
4.7210002 -1.9244156 0.45855981 0
4.7160001 -1.9300272 0.45849666 0
4.7100005 -1.9351826 0.4584209 0
4.7050004 -1.9407562 0.45835778 0
4.7000003 -1.9463118 0.45829463 0
4.6950002 -1.9518497 0.45823151 0
4.6900005 -1.9573694 0.45816839 0
4.6850004 -1.962871 0.45810524 0
4.6800003 -1.9683546 0.45804211 0
4.6750002 -1.97382 0.45797896 0
4.6690001 -1.9788148 0.45790321 0
4.6640005 -1.9842426 0.45784009 0
4.6590004 -1.9896522 0.45777696 0
4.6540003 -1.9950435 0.45771381 0
4.6490002 -2.000417 0.45765069 0
4.6440005 -2.0057728 0.45758754 0
4.6390004 -2.0111103 0.45752442 0
4.6340003 -2.0164297 0.4574613 0
4.6290002 -2.0217309 0.45739815 0
4.6240001 -2.0270143 0.45733503 0
4.6190004 -2.0322797 0.45727187 0
4.6140003 -2.0375271 0.45720875 0
4.6090002 -2.0427561 0.45714563 0
4.6050005 -2.0484438 0.45709512 0
4.6000004 -2.0536387 0.45703197 0
4.5950003 -2.0588155 0.45696884 0
4.5900002 -2.0639741 0.45690572 0
4.5850005 -2.0691154 0.45684257 0
4.5800004 -2.0742381 0.45677945 0
4.5750003 -2.0793428 0.4567163 0
4.5700002 -2.0844295 0.45665318 0
4.5660005 -2.0899889 0.45660266 0
4.5610003 -2.0950415 0.45653954 0
4.5560002 -2.1000757 0.45647639 0
4.5510001 -2.105092 0.45641327 0
4.5460005 -2.1100907 0.45635015 0
4.5420003 -2.1155705 0.45629963 0
4.5370002 -2.1205347 0.45623648 0
4.5320001 -2.1254807 0.45617336 0
4.5270004 -2.1304088 0.45611024 0
4.5230002 -2.1358254 0.45605972 0
4.5180001 -2.1407192 0.45599657 0
4.5130005 -2.1455951 0.45593345 0
4.5090003 -2.1509647 0.45588294 0
4.5040002 -2.1558063 0.45581982 0
4.4990001 -2.1606295 0.45575669 0
4.4940004 -2.1654351 0.45569354 0
4.4900002 -2.1707418 0.45564306 0
4.4850001 -2.1755128 0.45557991 0
4.4810004 -2.180789 0.45552939 0
4.4760003 -2.1855259 0.45546627 0
4.4710002 -2.1902447 0.45540315 0
4.4670005 -2.1954739 0.45535263 0
4.4620004 -2.2001584 0.45528948 0
4.4580002 -2.2053568 0.455239 0
4.4530001 -2.210007 0.45517585 0
4.4480004 -2.2146394 0.45511273 0
4.4440002 -2.2197909 0.45506221 0
4.4390001 -2.2243888 0.45499909 0
4.4350004 -2.2295101 0.45494857 0
4.4300003 -2.2340734 0.45488545 0
4.4260001 -2.2391639 0.45483494 0
4.4210005 -2.2436934 0.45477182 0
4.4170003 -2.2487531 0.4547213 0
4.4120002 -2.253248 0.45465815 0
4.4080005 -2.2582772 0.45460767 0
4.4030004 -2.2627378 0.45454451 0
4.3990002 -2.2677362 0.454494 0
4.3940001 -2.2721629 0.45443088 0
4.3900003 -2.2771304 0.45438039 0
4.3860002 -2.2820837 0.45432988 0
4.381 -2.2864597 0.45426673 0
4.3770003 -2.2913823 0.45421624 0
4.3720002 -2.2957239 0.45415309 0
4.368 -2.300616 0.45410258 0
4.3640003 -2.3054934 0.45405209 0
4.3590002 -2.3097847 0.45398894 0
4.355 -2.3146317 0.45393845 0
5.0680003 -1.5532116 0.45452106 0
5.0620003 -1.5596837 0.45445615 0
5.0560002 -1.5661341 0.45439121 0
5.0500002 -1.5725628 0.45432627 0
5.0440001 -1.57897 0.45426133 0
5.0380001 -1.5853555 0.45419639 0
5.0320005 -1.5917195 0.45413145 0
5.0260005 -1.5980617 0.45406651 0
5.0200005 -1.6043822 0.45400158 0
5.0140004 -1.6106811 0.45393664 0
5.0090003 -1.6172991 0.45388252 0
5.0030003 -1.6235565 0.45381758 0
4.9970002 -1.6297923 0.45375264 0
4.9910002 -1.6360065 0.45368773 0
4.9850001 -1.6421989 0.45362279 0
4.9790001 -1.6483697 0.45355785 0
4.9730005 -1.6545191 0.45349291 0
4.9680004 -1.661 0.45343879 0
4.9620004 -1.6671077 0.45337385 0
4.9560003 -1.6731938 0.45330891 0
4.9500003 -1.6792581 0.45324397 0
4.9440002 -1.6853009 0.45317903 0
4.9390001 -1.6916845 0.45312494 0
4.9330001 -1.6976858 0.45305997 0
4.9270005 -1.7036656 0.45299506 0
4.9220004 -1.7099915 0.45294094 0
4.9160004 -1.7159295 0.452876 0
4.9100003 -1.7218461 0.45281106 0
4.9050002 -1.7281142 0.45275694 0
4.8990002 -1.7339892 0.452692 0
4.8930001 -1.7398425 0.45262706 0
4.8880005 -1.7460533 0.45257297 0
4.8820004 -1.7518651 0.45250803 0
4.8770003 -1.7580377 0.45245391 0
4.8710003 -1.7638081 0.45238897 0
4.8660002 -1.7699428 0.45233485 0
4.8600001 -1.7756717 0.45226991 0
4.8540001 -1.781379 0.45220497 0
4.8490005 -1.7874562 0.45215088 0
4.8430004 -1.7931218 0.45208594 0
4.8380003 -1.799161 0.45203182 0
4.8330002 -1.805182 0.4519777 0
4.8270001 -1.8107864 0.45191276 0
4.8220005 -1.8167697 0.45185864 0
4.8160005 -1.8223326 0.45179373 0
4.8110003 -1.8282781 0.45173961 0
4.8050003 -1.8337995 0.45167467 0
4.8000002 -1.8397069 0.45162055 0
4.7950001 -1.8455962 0.45156643 0
4.7890005 -1.8510566 0.45150149 0
4.7840004 -1.8569081 0.4514474 0
4.7790003 -1.8627416 0.45139328 0
4.7730002 -1.8681403 0.45132834 0
4.7680001 -1.8739358 0.45127422 0
4.7630005 -1.8797137 0.4512201 0
4.7570004 -1.8850511 0.45115519 0
4.7520003 -1.8907907 0.45110106 0
4.7470002 -1.8965125 0.45104694 0
4.7420001 -1.902216 0.45099282 0
4.7360005 -1.9074725 0.45092788 0
4.7310004 -1.9131383 0.45087379 0
4.7260003 -1.9187858 0.45081967 0
4.7210002 -1.9244156 0.45076555 0
4.7160001 -1.9300272 0.45071143 0
4.7100005 -1.9351826 0.45064649 0
4.7050004 -1.9407562 0.45059237 0
4.7000003 -1.9463118 0.45053828 0
4.6950002 -1.9518497 0.45048416 0
4.6900005 -1.9573694 0.45043004 0
4.6850004 -1.962871 0.45037591 0
4.6800003 -1.9683546 0.45032179 0
4.6750002 -1.97382 0.4502677 0
4.6690001 -1.9788148 0.45020276 0
4.6640005 -1.9842426 0.45014864 0
4.6590004 -1.9896522 0.45009452 0
4.6540003 -1.9950435 0.45004043 0
4.6490002 -2.000417 0.44998631 0
4.6440005 -2.0057728 0.44993219 0
4.6390004 -2.0111103 0.44987807 0
4.6340003 -2.0164297 0.44982395 0
4.6290002 -2.0217309 0.44976985 0
4.6240001 -2.0270143 0.44971573 0
4.6190004 -2.0322797 0.44966161 0
4.6140003 -2.0375271 0.44960749 0
4.6090002 -2.0427561 0.4495534 0
4.6050005 -2.0484438 0.4495101 0
4.6000004 -2.0536387 0.44945598 0
4.5950003 -2.0588155 0.44940186 0
4.5900002 -2.0639741 0.44934773 0
4.5850005 -2.0691154 0.44929364 0
4.5800004 -2.0742381 0.44923952 0
4.5750003 -2.0793428 0.4491854 0
4.5700002 -2.0844295 0.44913131 0
4.5660005 -2.0899889 0.44908801 0
4.5610003 -2.0950415 0.44903389 0
4.5560002 -2.1000757 0.44897977 0
4.5510001 -2.105092 0.44892567 0
4.5460005 -2.1100907 0.44887155 0
4.5420003 -2.1155705 0.44882825 0
4.5370002 -2.1205347 0.44877413 0
4.5320001 -2.1254807 0.44872004 0
4.5270004 -2.1304088 0.44866592 0
4.5230002 -2.1358254 0.44862261 0
4.5180001 -2.1407192 0.44856849 0
4.5130005 -2.1455951 0.4485144 0
4.5090003 -2.1509647 0.4484711 0
4.5040002 -2.1558063 0.44841698 0
4.4990001 -2.1606295 0.44836289 0
4.4940004 -2.1654351 0.44830877 0
4.4900002 -2.1707418 0.44826546 0
4.4850001 -2.1755128 0.44821134 0
4.4810004 -2.180789 0.44816807 0
4.4760003 -2.1855259 0.44811395 0
4.4710002 -2.1902447 0.44805983 0
4.4670005 -2.1954739 0.44801655 0
4.4620004 -2.2001584 0.44796243 0
4.4580002 -2.2053568 0.44791913 0
4.4530001 -2.210007 0.44786501 0
4.4480004 -2.2146394 0.44781092 0
4.4440002 -2.2197909 0.44776762 0
4.4390001 -2.2243888 0.44771349 0
4.4350004 -2.2295101 0.44767022 0
4.4300003 -2.2340734 0.4476161 0
4.4260001 -2.2391639 0.4475728 0
4.4210005 -2.2436934 0.44751871 0
4.4170003 -2.2487531 0.4474754 0
4.4120002 -2.253248 0.44742128 0
4.4080005 -2.2582772 0.44737798 0
4.4030004 -2.2627378 0.44732389 0
4.3990002 -2.2677362 0.44728059 0
4.3940001 -2.2721629 0.44722646 0
4.3900003 -2.2771304 0.44718319 0
4.3860002 -2.2820837 0.44713989 0
4.381 -2.2864597 0.44708577 0
4.3770003 -2.2913823 0.4470425 0
4.3720002 -2.2957239 0.44698837 0
4.368 -2.300616 0.44694507 0
4.3640003 -2.3054934 0.4469018 0
4.3590002 -2.3097847 0.44684768 0
4.355 -2.3146317 0.44680437 0
5.0680003 -1.5532116 0.44610089 0
5.0620003 -1.5596837 0.44604677 0
5.0560002 -1.5661341 0.44599268 0
5.0500002 -1.5725628 0.44593856 0
5.0440001 -1.57897 0.44588444 0
5.0380001 -1.5853555 0.44583032 0
5.0320005 -1.5917195 0.44577622 0
5.0260005 -1.5980617 0.4457221 0
5.0200005 -1.6043822 0.44566798 0
5.0140004 -1.6106811 0.44561386 0
5.0090003 -1.6172991 0.44556877 0
5.0030003 -1.6235565 0.44551465 0
4.9970002 -1.6297923 0.44546056 0
4.9910002 -1.6360065 0.44540644 0
4.9850001 -1.6421989 0.44535232 0
4.9790001 -1.6483697 0.44529819 0
4.9730005 -1.6545191 0.44524407 0
4.9680004 -1.661 0.44519898 0
4.9620004 -1.6671077 0.44514489 0
4.9560003 -1.6731938 0.44509077 0
4.9500003 -1.6792581 0.44503665 0
4.9440002 -1.6853009 0.44498253 0
4.9390001 -1.6916845 0.44493744 0
4.9330001 -1.6976858 0.44488332 0
4.9270005 -1.7036656 0.44482923 0
4.9220004 -1.7099915 0.4447841 0
4.9160004 -1.7159295 0.44473001 0
4.9100003 -1.7218461 0.44467589 0
4.9050002 -1.7281142 0.4446308 0
4.8990002 -1.7339892 0.44457668 0
4.8930001 -1.7398425 0.44452256 0
4.8880005 -1.7460533 0.44447747 0
4.8820004 -1.7518651 0.44442335 0
4.8770003 -1.7580377 0.44437826 0
4.8710003 -1.7638081 0.44432414 0
4.8660002 -1.7699428 0.44427904 0
4.8600001 -1.7756717 0.44422492 0
4.8540001 -1.781379 0.44417083 0
4.8490005 -1.7874562 0.44412574 0
4.8430004 -1.7931218 0.44407162 0
4.8380003 -1.799161 0.44402653 0
4.8330002 -1.805182 0.44398141 0
4.8270001 -1.8107864 0.44392732 0
4.8220005 -1.8167697 0.44388223 0
4.8160005 -1.8223326 0.44382811 0
4.8110003 -1.8282781 0.44378302 0
4.8050003 -1.8337995 0.44372889 0
4.8000002 -1.8397069 0.4436838 0
4.7950001 -1.8455962 0.44363868 0
4.7890005 -1.8510566 0.44358459 0
4.7840004 -1.8569081 0.4435395 0
4.7790003 -1.8627416 0.44349438 0
4.7730002 -1.8681403 0.44344029 0
4.7680001 -1.8739358 0.4433952 0
4.7630005 -1.8797137 0.44335008 0
4.7570004 -1.8850511 0.44329599 0
4.7520003 -1.8907907 0.44325089 0
4.7470002 -1.8965125 0.44320577 0
4.7420001 -1.902216 0.44316068 0
4.7360005 -1.9074725 0.44310659 0
4.7310004 -1.9131383 0.44306147 0
4.7260003 -1.9187858 0.44301638 0
4.7210002 -1.9244156 0.44297129 0
4.7160001 -1.9300272 0.4429262 0
4.7100005 -1.9351826 0.44287208 0
4.7050004 -1.9407562 0.44282699 0
4.7000003 -1.9463118 0.4427819 0
4.6950002 -1.9518497 0.4427368 0
4.6900005 -1.9573694 0.44269171 0
4.6850004 -1.962871 0.44264659 0
4.6800003 -1.9683546 0.4426015 0
4.6750002 -1.97382 0.44255641 0
4.6690001 -1.9788148 0.44250229 0
4.6640005 -1.9842426 0.4424572 0
4.6590004 -1.9896522 0.44241211 0
4.6540003 -1.9950435 0.44236702 0
4.6490002 -2.000417 0.44232193 0
4.6440005 -2.0057728 0.44227684 0
4.6390004 -2.0111103 0.44223171 0
4.6340003 -2.0164297 0.44218662 0
4.6290002 -2.0217309 0.44214153 0
4.6240001 -2.0270143 0.44209644 0
4.6190004 -2.0322797 0.44205135 0
4.6140003 -2.0375271 0.44200626 0
4.6090002 -2.0427561 0.44196117 0
4.6050005 -2.0484438 0.44192508 0
4.6000004 -2.0536387 0.44187999 0
4.5950003 -2.0588155 0.4418349 0
4.5900002 -2.0639741 0.44178981 0
4.5850005 -2.0691154 0.44174471 0
4.5800004 -2.0742381 0.44169959 0
4.5750003 -2.0793428 0.4416545 0
4.5700002 -2.0844295 0.44160941 0
4.5660005 -2.0899889 0.44157335 0
4.5610003 -2.0950415 0.44152823 0
4.5560002 -2.1000757 0.44148314 0
4.5510001 -2.105092 0.44143805 0
4.5460005 -2.1100907 0.44139296 0
4.5420003 -2.1155705 0.4413569 0
4.5370002 -2.1205347 0.44131178 0
4.5320001 -2.1254807 0.44126669 0
4.5270004 -2.1304088 0.44122159 0
4.5230002 -2.1358254 0.44118553 0
4.5180001 -2.1407192 0.44114041 0
4.5130005 -2.1455951 0.44109532 0
4.5090003 -2.1509647 0.44105926 0
4.5040002 -2.1558063 0.44101417 0
4.4990001 -2.1606295 0.44096905 0
4.4940004 -2.1654351 0.44092396 0
4.4900002 -2.1707418 0.4408879 0
4.4850001 -2.1755128 0.44084281 0
4.4810004 -2.180789 0.44080672 0
4.4760003 -2.1855259 0.44076163 0
4.4710002 -2.1902447 0.44071653 0
4.4670005 -2.1954739 0.44068044 0
4.4620004 -2.2001584 0.44063535 0
4.4580002 -2.2053568 0.44059929 0
4.4530001 -2.210007 0.4405542 0
4.4480004 -2.2146394 0.44050908 0
4.4440002 -2.2197909 0.44047302 0
4.4390001 -2.2243888 0.44042793 0
4.4350004 -2.2295101 0.44039184 0
4.4300003 -2.2340734 0.44034675 0
4.4260001 -2.2391639 0.44031069 0
4.4210005 -2.2436934 0.4402656 0
4.4170003 -2.2487531 0.44022951 0
4.4120002 -2.253248 0.44018441 0
4.4080005 -2.2582772 0.44014832 0
4.4030004 -2.2627378 0.44010323 0
4.3990002 -2.2677362 0.44006717 0
4.3940001 -2.2721629 0.44002205 0
4.3900003 -2.2771304 0.43998599 0
4.3860002 -2.2820837 0.43994993 0
4.381 -2.2864597 0.43990481 0
4.3770003 -2.2913823 0.43986875 0
4.3720002 -2.2957239 0.43982366 0
4.368 -2.300616 0.43978757 0
4.3640003 -2.3054934 0.43975151 0
4.3590002 -2.3097847 0.43970639 0
4.355 -2.3146317 0.43967032 0
5.0680003 -1.5532116 0.43768072 0
5.0620003 -1.5596837 0.43763742 0
5.0560002 -1.5661341 0.43759415 0
5.0500002 -1.5725628 0.43755084 0
5.0440001 -1.57897 0.43750757 0
5.0380001 -1.5853555 0.43746427 0
5.0320005 -1.5917195 0.43742096 0
5.0260005 -1.5980617 0.43737769 0
5.0200005 -1.6043822 0.43733439 0
5.0140004 -1.6106811 0.43729109 0
5.0090003 -1.6172991 0.43725502 0
5.0030003 -1.6235565 0.43721172 0
4.9970002 -1.6297923 0.43716845 0
4.9910002 -1.6360065 0.43712515 0
4.9850001 -1.6421989 0.43708184 0
4.9790001 -1.6483697 0.43703857 0
4.9730005 -1.6545191 0.43699527 0
4.9680004 -1.661 0.43695921 0
4.9620004 -1.6671077 0.4369159 0
4.9560003 -1.6731938 0.4368726 0
4.9500003 -1.6792581 0.43682933 0
4.9440002 -1.6853009 0.43678603 0
4.9390001 -1.6916845 0.43674996 0
4.9330001 -1.6976858 0.43670666 0
4.9270005 -1.7036656 0.43666339 0
4.9220004 -1.7099915 0.4366273 0
4.9160004 -1.7159295 0.436584 0
4.9100003 -1.7218461 0.43654072 0
4.9050002 -1.7281142 0.43650463 0
4.8990002 -1.7339892 0.43646133 0
4.8930001 -1.7398425 0.43641806 0
4.8880005 -1.7460533 0.436382 0
4.8820004 -1.7518651 0.43633869 0
4.8770003 -1.7580377 0.4363026 0
4.8710003 -1.7638081 0.43625933 0
4.8660002 -1.7699428 0.43622324 0
4.8600001 -1.7756717 0.43617994 0
4.8540001 -1.781379 0.43613666 0
4.8490005 -1.7874562 0.4361006 0
4.8430004 -1.7931218 0.4360573 0
4.8380003 -1.799161 0.43602121 0
4.8330002 -1.805182 0.43598515 0
4.8270001 -1.8107864 0.43594185 0
4.8220005 -1.8167697 0.43590578 0
4.8160005 -1.8223326 0.43586248 0
4.8110003 -1.8282781 0.43582642 0
4.8050003 -1.8337995 0.43578312 0
4.8000002 -1.8397069 0.43574703 0
4.7950001 -1.8455962 0.43571097 0
4.7890005 -1.8510566 0.43566766 0
4.7840004 -1.8569081 0.4356316 0
4.7790003 -1.8627416 0.43559551 0
4.7730002 -1.8681403 0.43555224 0
4.7680001 -1.8739358 0.43551615 0
4.7630005 -1.8797137 0.43548009 0
4.7570004 -1.8850511 0.43543679 0
4.7520003 -1.8907907 0.43540072 0
4.7470002 -1.8965125 0.43536463 0
4.7420001 -1.902216 0.43532854 0
4.7360005 -1.9074725 0.43528527 0
4.7310004 -1.9131383 0.43524918 0
4.7260003 -1.9187858 0.43521312 0
4.7210002 -1.9244156 0.43517703 0
4.7160001 -1.9300272 0.43514097 0
4.7100005 -1.9351826 0.43509766 0
4.7050004 -1.9407562 0.4350616 0
4.7000003 -1.9463118 0.43502551 0
4.6950002 -1.9518497 0.43498945 0
4.6900005 -1.9573694 0.43495336 0
4.6850004 -1.962871 0.4349173 0
4.6800003 -1.9683546 0.43488121 0
4.6750002 -1.97382 0.43484515 0
4.6690001 -1.9788148 0.43480185 0
4.6640005 -1.9842426 0.43476576 0
4.6590004 -1.9896522 0.4347297 0
4.6540003 -1.9950435 0.4346936 0
4.6490002 -2.000417 0.43465754 0
4.6440005 -2.0057728 0.43462145 0
4.6390004 -2.0111103 0.43458539 0
4.6340003 -2.0164297 0.4345493 0
4.6290002 -2.0217309 0.43451324 0
4.6240001 -2.0270143 0.43447715 0
4.6190004 -2.0322797 0.43444109 0
4.6140003 -2.0375271 0.434405 0
4.6090002 -2.0427561 0.43436894 0
4.6050005 -2.0484438 0.43434006 0
4.6000004 -2.0536387 0.434304 0
4.5950003 -2.0588155 0.43426791 0
4.5900002 -2.0639741 0.43423185 0
4.5850005 -2.0691154 0.43419576 0
4.5800004 -2.0742381 0.4341597 0
4.5750003 -2.0793428 0.43412361 0
4.5700002 -2.0844295 0.43408754 0
4.5660005 -2.0899889 0.43405867 0
4.5610003 -2.0950415 0.43402261 0
4.5560002 -2.1000757 0.43398651 0
4.5510001 -2.105092 0.43395045 0
4.5460005 -2.1100907 0.43391436 0
4.5420003 -2.1155705 0.43388551 0
4.5370002 -2.1205347 0.43384942 0
4.5320001 -2.1254807 0.43381336 0
4.5270004 -2.1304088 0.43377727 0
4.5230002 -2.1358254 0.43374842 0
4.5180001 -2.1407192 0.43371233 0
4.5130005 -2.1455951 0.43367627 0
4.5090003 -2.1509647 0.43364739 0
4.5040002 -2.1558063 0.43361133 0
4.4990001 -2.1606295 0.43357524 0
4.4940004 -2.1654351 0.43353918 0
4.4900002 -2.1707418 0.4335103 0
4.4850001 -2.1755128 0.43347424 0
4.4810004 -2.180789 0.43344539 0
4.4760003 -2.1855259 0.4334093 0
4.4710002 -2.1902447 0.43337321 0
4.4670005 -2.1954739 0.43334436 0
4.4620004 -2.2001584 0.4333083 0
4.4580002 -2.2053568 0.43327942 0
4.4530001 -2.210007 0.43324336 0
4.4480004 -2.2146394 0.43320727 0
4.4440002 -2.2197909 0.43317842 0
4.4390001 -2.2243888 0.43314233 0
4.4350004 -2.2295101 0.43311349 0
4.4300003 -2.2340734 0.43307739 0
4.4260001 -2.2391639 0.43304855 0
4.4210005 -2.2436934 0.43301246 0
4.4170003 -2.2487531 0.43298361 0
4.4120002 -2.253248 0.43294752 0
4.4080005 -2.2582772 0.43291867 0
4.4030004 -2.2627378 0.43288261 0
4.3990002 -2.2677362 0.43285373 0
4.3940001 -2.2721629 0.43281767 0
4.3900003 -2.2771304 0.43278879 0
4.3860002 -2.2820837 0.43275994 0
4.381 -2.2864597 0.43272385 0
4.3770003 -2.2913823 0.432695 0
4.3720002 -2.2957239 0.43265891 0
4.368 -2.300616 0.43263006 0
4.3640003 -2.3054934 0.43260121 0
4.3590002 -2.3097847 0.43256512 0
4.355 -2.3146317 0.43253624 0
5.0680003 -1.5532116 0.42926055 0
5.0620003 -1.5596837 0.42922807 0
5.0560002 -1.5661341 0.42919561 0
5.0500002 -1.5725628 0.42916313 0
5.0440001 -1.57897 0.42913067 0
5.0380001 -1.5853555 0.42909819 0
5.0320005 -1.5917195 0.42906573 0
5.0260005 -1.5980617 0.42903328 0
5.0200005 -1.6043822 0.42900079 0
5.0140004 -1.6106811 0.42896834 0
5.0090003 -1.6172991 0.42894128 0
5.0030003 -1.6235565 0.4289088 0
4.9970002 -1.6297923 0.42887634 0
4.9910002 -1.6360065 0.42884386 0
4.9850001 -1.6421989 0.4288114 0
4.9790001 -1.6483697 0.42877892 0
4.9730005 -1.6545191 0.42874646 0
4.9680004 -1.661 0.4287194 0
4.9620004 -1.6671077 0.42868695 0
4.9560003 -1.6731938 0.42865446 0
4.9500003 -1.6792581 0.42862201 0
4.9450002 -1.6856616 0.42859495 0
4.9390001 -1.6916845 0.42856246 0
4.9330001 -1.6976858 0.42853001 0
4.9270005 -1.7036656 0.42849752 0
4.9220004 -1.7099915 0.42847049 0
4.9160004 -1.7159295 0.42843801 0
4.9100003 -1.7218461 0.42840555 0
4.9050002 -1.7281142 0.42837849 0
4.8990002 -1.7339892 0.42834601 0
4.8930001 -1.7398425 0.42831355 0
4.8880005 -1.7460533 0.42828649 0
4.8820004 -1.7518651 0.42825401 0
4.8770003 -1.7580377 0.42822695 0
4.8710003 -1.7638081 0.42819449 0
4.8660002 -1.7699428 0.42816743 0
4.8600001 -1.7756717 0.42813498 0
4.8540001 -1.781379 0.42810249 0
4.8490005 -1.7874562 0.42807543 0
4.8430004 -1.7931218 0.42804298 0
4.8380003 -1.799161 0.42801592 0
4.8330002 -1.805182 0.42798886 0
4.8270001 -1.8107864 0.4279564 0
4.8220005 -1.8167697 0.42792934 0
4.8160005 -1.8223326 0.42789686 0
4.8110003 -1.8282781 0.4278698 0
4.8050003 -1.8337995 0.42783734 0
4.8000002 -1.8397069 0.42781028 0
4.7950001 -1.8455962 0.42778322 0
4.7890005 -1.8510566 0.42775077 0
4.7840004 -1.8569081 0.42772371 0
4.7790003 -1.8627416 0.42769665 0
4.7730002 -1.8681403 0.42766416 0
4.7680001 -1.8739358 0.42763713 0
4.7630005 -1.8797137 0.42761007 0
4.7570004 -1.8850511 0.42757758 0
4.7520003 -1.8907907 0.42755052 0
4.7470002 -1.8965125 0.42752346 0
4.7420001 -1.902216 0.42749643 0
4.7360005 -1.9074725 0.42746395 0
4.7310004 -1.9131383 0.42743689 0
4.7260003 -1.9187858 0.42740983 0
4.7210002 -1.9244156 0.42738277 0
4.7160001 -1.9300272 0.42735571 0
4.7100005 -1.9351826 0.42732325 0
4.7050004 -1.9407562 0.42729619 0
4.7000003 -1.9463118 0.42726913 0
4.6950002 -1.9518497 0.42724207 0
4.6900005 -1.9573694 0.42721504 0
4.6850004 -1.962871 0.42718798 0
4.6800003 -1.9683546 0.42716092 0
4.6750002 -1.97382 0.42713386 0
4.6690001 -1.9788148 0.42710137 0
4.6640005 -1.9842426 0.42707434 0
4.6590004 -1.9896522 0.42704728 0
4.6540003 -1.9950435 0.42702022 0
4.6490002 -2.000417 0.42699316 0
4.6440005 -2.0057728 0.4269661 0
4.6390004 -2.0111103 0.42693904 0
4.6340003 -2.0164297 0.42691198 0
4.6290002 -2.0217309 0.42688492 0
4.6240001 -2.0270143 0.42685786 0
4.6190004 -2.0322797 0.42683083 0
4.6140003 -2.0375271 0.42680377 0
4.6090002 -2.0427561 0.42677671 0
4.6050005 -2.0484438 0.42675507 0
4.6000004 -2.0536387 0.42672801 0
4.5950003 -2.0588155 0.42670095 0
4.5900002 -2.0639741 0.42667389 0
4.5850005 -2.0691154 0.42664683 0
4.5800004 -2.0742381 0.42661977 0
4.5750003 -2.0793428 0.42659271 0
4.5700002 -2.0844295 0.42656565 0
4.5660005 -2.0899889 0.42654401 0
4.5610003 -2.0950415 0.42651695 0
4.5560002 -2.1000757 0.42648989 0
4.5510001 -2.105092 0.42646283 0
4.5460005 -2.1100907 0.42643577 0
4.5420003 -2.1155705 0.42641413 0
4.5370002 -2.1205347 0.42638707 0
4.5320001 -2.1254807 0.42636001 0
4.5270004 -2.1304088 0.42633295 0
4.5230002 -2.1358254 0.42631131 0
4.5180001 -2.1407192 0.42628425 0
4.5130005 -2.1455951 0.42625719 0
4.5090003 -2.1509647 0.42623556 0
4.5040002 -2.1558063 0.4262085 0
4.4990001 -2.1606295 0.42618144 0
4.4940004 -2.1654351 0.42615438 0
4.4900002 -2.1707418 0.42613274 0
4.4850001 -2.1755128 0.42610568 0
4.4810004 -2.180789 0.42608404 0
4.4760003 -2.1855259 0.42605698 0
4.4710002 -2.1902447 0.42602992 0
4.4670005 -2.1954739 0.42600828 0
4.4620004 -2.2001584 0.42598122 0
4.4580002 -2.2053568 0.42595959 0
4.4530001 -2.210007 0.42593253 0
4.4480004 -2.2146394 0.42590547 0
4.4440002 -2.2197909 0.42588383 0
4.4390001 -2.2243888 0.42585677 0
4.4350004 -2.2295101 0.4258351 0
4.4300003 -2.2340734 0.42580804 0
4.4260001 -2.2391639 0.42578641 0
4.4210005 -2.2436934 0.42575935 0
4.4170003 -2.2487531 0.42573771 0
4.4120002 -2.253248 0.42571065 0
4.4080005 -2.2582772 0.42568901 0
4.4030004 -2.2627378 0.42566195 0
4.3990002 -2.2677362 0.42564029 0
4.3940001 -2.2721629 0.42561325 0
4.3900003 -2.2771304 0.42559159 0
4.3860002 -2.2820837 0.42556995 0
4.381 -2.2864597 0.42554289 0
4.3770003 -2.2913823 0.42552125 0
4.3720002 -2.2957239 0.42549419 0
4.368 -2.300616 0.42547256 0
4.3640003 -2.3054934 0.42545089 0
4.3590002 -2.3097847 0.42542386 0
4.355 -2.3146317 0.42540219 0
5.0680003 -1.5532116 0.42084038 0
5.0620003 -1.5596837 0.42081872 0
5.0560002 -1.5661341 0.42079708 0
5.0500002 -1.5725628 0.42077544 0
5.0440001 -1.57897 0.42075378 0
5.0380001 -1.5853555 0.42073214 0
5.0320005 -1.5917195 0.4207105 0
5.0260005 -1.5980617 0.42068884 0
5.0200005 -1.6043822 0.4206672 0
5.0140004 -1.6106811 0.42064556 0
5.0090003 -1.6172991 0.4206275 0
5.0030003 -1.6235565 0.42060587 0
4.9970002 -1.6297923 0.42058423 0
4.9910002 -1.6360065 0.42056257 0
4.9850001 -1.6421989 0.42054093 0
4.9790001 -1.6483697 0.42051929 0
4.9730005 -1.6545191 0.42049766 0
4.9680004 -1.661 0.4204796 0
4.9620004 -1.6671077 0.42045796 0
4.9560003 -1.6731938 0.42043632 0
4.9500003 -1.6792581 0.42041466 0
4.9450002 -1.6856616 0.42039663 0
4.9390001 -1.6916845 0.42037499 0
4.9330001 -1.6976858 0.42035335 0
4.9270005 -1.7036656 0.42033169 0
4.9220004 -1.7099915 0.42031366 0
4.9160004 -1.7159295 0.42029202 0
4.9100003 -1.7218461 0.42027035 0
4.9050002 -1.7281142 0.42025232 0
4.8990002 -1.7339892 0.42023069 0
4.8930001 -1.7398425 0.42020902 0
4.8880005 -1.7460533 0.42019099 0
4.8820004 -1.7518651 0.42016935 0
4.8770003 -1.7580377 0.42015132 0
4.8710003 -1.7638081 0.42012966 0
4.8660002 -1.7699428 0.42011163 0
4.8600001 -1.7756717 0.42008999 0
4.8540001 -1.781379 0.42006832 0
4.8490005 -1.7874562 0.42005029 0
4.8430004 -1.7931218 0.42002866 0
4.8380003 -1.799161 0.42001063 0
4.8330002 -1.805182 0.41999257 0
4.8270001 -1.8107864 0.41997093 0
4.8220005 -1.8167697 0.4199529 0
4.8160005 -1.8223326 0.41993126 0
4.8110003 -1.8282781 0.4199132 0
4.8050003 -1.8337995 0.41989157 0
4.8000002 -1.8397069 0.41987354 0
4.7950001 -1.8455962 0.41985548 0
4.7890005 -1.8510566 0.41983384 0
4.7840004 -1.8569081 0.41981581 0
4.7790003 -1.8627416 0.41979778 0
4.7730002 -1.8681403 0.41977611 0
4.7680001 -1.8739358 0.41975808 0
4.7630005 -1.8797137 0.41974005 0
4.7570004 -1.8850511 0.41971838 0
4.7520003 -1.8907907 0.41970035 0
4.7470002 -1.8965125 0.41968232 0
4.7420001 -1.902216 0.41966429 0
4.7360005 -1.9074725 0.41964263 0
4.7310004 -1.9131383 0.4196246 0
4.7260003 -1.9187858 0.41960657 0
4.7210002 -1.9244156 0.41958854 0
4.7160001 -1.9300272 0.41957048 0
4.7100005 -1.9351826 0.41954884 0
4.7050004 -1.9407562 0.41953081 0
4.7000003 -1.9463118 0.41951278 0
4.6950002 -1.9518497 0.41949472 0
4.6900005 -1.9573694 0.41947669 0
4.6850004 -1.962871 0.41945866 0
4.6800003 -1.9683546 0.41944063 0
4.6750002 -1.97382 0.41942257 0
4.6690001 -1.9788148 0.41940093 0
4.6640005 -1.9842426 0.4193829 0
4.6590004 -1.9896522 0.41936484 0
4.6540003 -1.9950435 0.41934681 0
4.6490002 -2.000417 0.41932878 0
4.6440005 -2.0057728 0.41931075 0
4.6390004 -2.0111103 0.41929269 0
4.6340003 -2.0164297 0.41927466 0
4.6290002 -2.0217309 0.41925663 0
4.6240001 -2.0270143 0.4192386 0
4.6190004 -2.0322797 0.41922054 0
4.6140003 -2.0375271 0.41920251 0
4.6090002 -2.0427561 0.41918448 0
4.6050005 -2.0484438 0.41917005 0
4.6000004 -2.0536387 0.41915199 0
4.5950003 -2.0588155 0.41913396 0
4.5900002 -2.0639741 0.41911593 0
4.5850005 -2.0691154 0.4190979 0
4.5800004 -2.0742381 0.41907984 0
4.5750003 -2.0793428 0.41906181 0
4.5700002 -2.0844295 0.41904378 0
4.5660005 -2.0899889 0.41902936 0
4.5610003 -2.0950415 0.41901129 0
4.5560002 -2.1000757 0.41899326 0
4.5510001 -2.105092 0.41897523 0
4.5460005 -2.1100907 0.4189572 0
4.5420003 -2.1155705 0.41894275 0
4.5370002 -2.1205347 0.41892472 0
4.5320001 -2.1254807 0.41890669 0
4.5270004 -2.1304088 0.41888866 0
4.5230002 -2.1358254 0.4188742 0
4.5180001 -2.1407192 0.41885617 0
4.5130005 -2.1455951 0.41883814 0
4.5090003 -2.1509647 0.41882372 0
4.5040002 -2.1558063 0.41880566 0
4.4990001 -2.1606295 0.41878763 0
4.4940004 -2.1654351 0.4187696 0
4.4900002 -2.1707418 0.41875517 0
4.4850001 -2.1755128 0.41873711 0
4.4810004 -2.180789 0.41872269 0
4.4760003 -2.1855259 0.41870466 0
4.4710002 -2.1902447 0.41868663 0
4.4670005 -2.1954739 0.4186722 0
4.4620004 -2.2001584 0.41865414 0
4.4580002 -2.2053568 0.41863972 0
4.4530001 -2.210007 0.41862169 0
4.4480004 -2.2146394 0.41860366 0
4.4440002 -2.2197909 0.4185892 0
4.4390001 -2.2243888 0.41857117 0
4.4350004 -2.2295101 0.41855675 0
4.4300003 -2.2340734 0.41853872 0
4.4260001 -2.2391639 0.41852427 0
4.4210005 -2.2436934 0.41850623 0
4.4170003 -2.2487531 0.41849181 0
4.4120002 -2.253248 0.41847378 0
4.4080005 -2.2582772 0.41845936 0
4.4030004 -2.2627378 0.4184413 0
4.3990002 -2.2677362 0.41842687 0
4.3940001 -2.2721629 0.41840884 0
4.3900003 -2.2771304 0.41839442 0
4.3860002 -2.2820837 0.41837996 0
4.381 -2.2864597 0.41836193 0
4.3770003 -2.2913823 0.41834751 0
4.3720002 -2.2957239 0.41832948 0
4.368 -2.300616 0.41831502 0
4.3640003 -2.3054934 0.4183006 0
4.3590002 -2.3097847 0.41828257 0
4.355 -2.3146317 0.41826814 0
5.0680003 -1.5532116 0.41242018 0
5.0620003 -1.5596837 0.41240937 0
5.0560002 -1.5661341 0.41239855 0
5.0500002 -1.5725628 0.41238773 0
5.0440001 -1.57897 0.41237691 0
5.0380001 -1.5853555 0.41236606 0
5.0320005 -1.5917195 0.41235524 0
5.0260005 -1.5980617 0.41234443 0
5.0200005 -1.6043822 0.41233361 0
5.0140004 -1.6106811 0.41232279 0
5.0090003 -1.6172991 0.41231376 0
5.0030003 -1.6235565 0.41230294 0
4.9970002 -1.6297923 0.41229212 0
4.9910002 -1.6360065 0.4122813 0
4.9850001 -1.6421989 0.41227049 0
4.9790001 -1.6483697 0.41225964 0
4.9730005 -1.6545191 0.41224882 0
4.9680004 -1.661 0.41223982 0
4.9620004 -1.6671077 0.412229 0
4.9560003 -1.6731938 0.41221815 0
4.9500003 -1.6792581 0.41220734 0
4.9450002 -1.6856616 0.41219833 0
4.9390001 -1.6916845 0.41218749 0
4.9330001 -1.6976858 0.41217667 0
4.9270005 -1.7036656 0.41216585 0
4.9220004 -1.7099915 0.41215682 0
4.9160004 -1.7159295 0.412146 0
4.9100003 -1.7218461 0.41213518 0
4.9050002 -1.7281142 0.41212618 0
4.8990002 -1.7339892 0.41211534 0
4.8930001 -1.7398425 0.41210452 0
4.8880005 -1.7460533 0.41209552 0
4.8820004 -1.7518651 0.41208467 0
4.8770003 -1.7580377 0.41207567 0
4.8710003 -1.7638081 0.41206485 0
4.8660002 -1.7699428 0.41205582 0
4.8600001 -1.7756717 0.412045 0
4.8540001 -1.781379 0.41203418 0
4.8490005 -1.7874562 0.41202515 0
4.8430004 -1.7931218 0.41201434 0
4.8380003 -1.799161 0.41200531 0
4.8330002 -1.805182 0.4119963 0
4.8270001 -1.8107864 0.41198549 0
4.8220005 -1.8167697 0.41197646 0
4.8160005 -1.8223326 0.41196564 0
4.8110003 -1.8282781 0.41195661 0
4.8050003 -1.8337995 0.41194579 0
4.8000002 -1.8397069 0.41193676 0
4.7950001 -1.8455962 0.41192776 0
4.7890005 -1.8510566 0.41191694 0
4.7840004 -1.8569081 0.41190791 0
4.7790003 -1.8627416 0.41189888 0
4.7730002 -1.8681403 0.41188806 0
4.7680001 -1.8739358 0.41187906 0
4.7630005 -1.8797137 0.41187003 0
4.7570004 -1.8850511 0.41185921 0
4.7520003 -1.8907907 0.41185018 0
4.7470002 -1.8965125 0.41184115 0
4.7420001 -1.902216 0.41183215 0
4.7360005 -1.9074725 0.41182134 0
4.7310004 -1.9131383 0.41181231 0
4.7260003 -1.9187858 0.41180328 0
4.7210002 -1.9244156 0.41179428 0
4.7160001 -1.9300272 0.41178524 0
4.7100005 -1.9351826 0.41177443 0
4.7050004 -1.9407562 0.4117654 0
4.7000003 -1.9463118 0.4117564 0
4.6950002 -1.9518497 0.41174737 0
4.6900005 -1.9573694 0.41173837 0
4.6850004 -1.962871 0.41172934 0
4.6800003 -1.9683546 0.41172031 0
4.6750002 -1.97382 0.41171131 0
4.6690001 -1.9788148 0.41170046 0
4.6640005 -1.9842426 0.41169146 0
4.6590004 -1.9896522 0.41168243 0
4.6540003 -1.9950435 0.41167343 0
4.6490002 -2.000417 0.4116644 0
4.6440005 -2.0057728 0.41165537 0
4.6390004 -2.0111103 0.41164637 0
4.6340003 -2.0164297 0.41163734 0
4.6290002 -2.0217309 0.41162831 0
4.6240001 -2.0270143 0.41161931 0
4.6190004 -2.0322797 0.41161028 0
4.6140003 -2.0375271 0.41160128 0
4.6090002 -2.0427561 0.41159225 0
4.6050005 -2.0484438 0.41158503 0
4.6000004 -2.0536387 0.411576 0
4.5950003 -2.0588155 0.411567 0
4.5900002 -2.0639741 0.41155797 0
4.5850005 -2.0691154 0.41154894 0
4.5800004 -2.0742381 0.41153994 0
4.5750003 -2.0793428 0.41153091 0
4.5700002 -2.0844295 0.41152188 0
4.5660005 -2.0899889 0.41151467 0
