# .PCD v0.7 - Point Cloud Data file format
VERSION 0.7
FIELDS x y z intensity
SIZE 4 4 4 4
TYPE F F F F
COUNT 1 1 1 1
WIDTH 1374
HEIGHT 1
VIEWPOINT 0 0 0 1 0 0 0
POINTS 1374
DATA ascii
2.9620001 -0.77617437 0.48718444 0
2.9610002 -0.78050888 0.48715198 0
2.9610002 -0.78512847 0.48715198 0
2.9600003 -0.78945762 0.4871195 0
2.9330003 -0.7861855 0.48624286 0
2.6820002 -0.76223457 0.47809324 0
2.6720002 -0.76319414 0.47776854 0
2.6650002 -0.76507008 0.47754127 0
2.6600001 -0.76755929 0.47737893 0
2.6550002 -0.77003056 0.4772166 0
2.6510003 -0.77280664 0.47708672 0
2.6480002 -0.77589297 0.47698933 0
2.6450002 -0.77896845 0.47689191 0
2.6420002 -0.78203309 0.47679451 0
2.6400001 -0.78541708 0.47672957 0
2.6380002 -0.7887938 0.47666463 0
2.6360002 -0.79216331 0.47659969 0
2.6350002 -0.79586112 0.47656721 0
2.6340003 -0.79955536 0.47653475 0
2.6330001 -0.8032459 0.47650227 0
2.6320002 -0.80693293 0.47646981 0
2.6320002 -0.81095898 0.47646981 0
2.6320002 -0.8149851 0.47646981 0
2.6330001 -0.81935751 0.47650227 0
2.6330001 -0.82338536 0.47650227 0
2.6350002 -0.8281132 0.47656721 0
2.6370001 -0.83284819 0.47663215 0
2.6390002 -0.83759046 0.47669709 0
2.6430001 -0.84305054 0.47682697 0
2.6490002 -0.84923941 0.47702178 0
3.1970003 -0.53538942 0.48976928 0
3.1960003 -0.54025787 0.48973864 0
3.1950002 -0.54512274 0.48970795 0
3.1950002 -0.5501644 0.48970795 0
3.1940002 -0.55502385 0.48967731 0
3.1940002 -0.56006372 0.48967731 0
3.1930003 -0.56491774 0.48964664 0
3.1930003 -0.56995577 0.48964664 0
2.6970003 -0.51419824 0.47443694 0
2.6890001 -0.51669651 0.47419161 0
2.6820002 -0.51937336 0.47397697 0
2.6780002 -0.52265269 0.4738543 0
2.6730001 -0.52570653 0.47370097 0
2.6700003 -0.52916807 0.47360897 0
2.6670003 -0.53261876 0.47351697 0
2.6650002 -0.53627509 0.47345564 0
2.6620002 -0.53970587 0.47336367 0
2.6610003 -0.54356605 0.473333 0
2.6590002 -0.54720074 0.47327167 0
2.6580002 -0.55105186 0.473241 0
2.6570003 -0.55489945 0.47321033 0
2.6570003 -0.55897063 0.47321033 0
2.6570003 -0.56304181 0.47321033 0
2.6570003 -0.56711298 0.47321033 0
2.6570003 -0.57118416 0.47321033 0
2.6580002 -0.57548988 0.473241 0
2.6590002 -0.57979918 0.47327167 0
2.6610003 -0.58435023 0.473333 0
2.6640003 -0.58914834 0.47342497 0
2.6670003 -0.59395725 0.47351697 0
2.6720002 -0.59926403 0.4736703 0
2.6800003 -0.60532486 0.47391564 0
2.9710002 -0.68134999 0.48283905 0
2.9710002 -0.68598753 0.48283905 0
2.9700003 -0.69037443 0.48280841 0
2.9700003 -0.69501019 0.48280841 0
2.9690001 -0.6993916 0.48277771 0
2.9690001 -0.70402563 0.48277771 0
2.9680002 -0.70840162 0.48274708 0
2.9680002 -0.71303385 0.48274708 0
2.9670002 -0.71740448 0.48271641 0
2.9670002 -0.72203487 0.48271641 0
2.9670002 -0.72666526 0.48271641 0
2.9660003 -0.73102868 0.48268574 0
2.9660003 -0.73565727 0.48268574 0
2.9650002 -0.74001521 0.48265508 0
2.9650002 -0.74464196 0.48265508 0
2.9640002 -0.74899459 0.48262441 0
2.9640002 -0.75361955 0.48262441 0
2.9630003 -0.75796676 0.48259374 0
2.9630003 -0.76258993 0.48259374 0
2.9630003 -0.76721305 0.48259374 0
2.9620001 -0.77155298 0.48256308 0
2.9620001 -0.77617437 0.48256308 0
2.9610002 -0.78050888 0.48253241 0
2.9610002 -0.78512847 0.48253241 0
2.9600003 -0.78945762 0.48250175 0
2.9340003 -0.78647774 0.48170447 0
2.6820002 -0.76223457 0.47397697 0
2.6720002 -0.76319414 0.4736703 0
2.6650002 -0.76507008 0.47345564 0
2.6600001 -0.76755929 0.4733023 0
2.6550002 -0.77003056 0.473149 0
2.6510003 -0.77280664 0.47302634 0
2.6480002 -0.77589297 0.47293437 0
2.6450002 -0.77896845 0.47284234 0
2.6420002 -0.78203309 0.47275037 0
2.6400001 -0.78541708 0.47268903 0
2.6380002 -0.7887938 0.4726277 0
2.6360002 -0.79216331 0.47256637 0
2.6350002 -0.79586112 0.4725357 0
2.6340003 -0.79955536 0.47250503 0
2.6330001 -0.8032459 0.4724744 0
2.6320002 -0.80693293 0.4724437 0
2.6320002 -0.81095898 0.4724437 0
2.6320002 -0.8149851 0.4724437 0
2.6330001 -0.81935751 0.4724744 0
2.6330001 -0.82338536 0.4724744 0
2.6350002 -0.8281132 0.4725357 0
2.6370001 -0.83284819 0.47259703 0
2.6390002 -0.83759046 0.47265837 0
2.6430001 -0.84305054 0.47278103 0
2.6490002 -0.84923941 0.472965 0
3.1970003 -0.53538942 0.48472404 0
3.1960003 -0.54025787 0.4846952 0
3.1950002 -0.54512274 0.48466632 0
3.1950002 -0.5501644 0.48466632 0
3.1940002 -0.55502385 0.48463744 0
3.1940002 -0.56006372 0.48463744 0
3.1930003 -0.56491774 0.48460859 0
3.1930003 -0.56995577 0.48460859 0
2.6970003 -0.51419824 0.47029358 0
2.6890001 -0.51669651 0.47006267 0
2.6820002 -0.51937336 0.46986067 0
2.6780002 -0.52265269 0.46974522 0
2.6730001 -0.52570653 0.46960092 0
2.6700003 -0.52916807 0.46951434 0
2.6670003 -0.53261876 0.46942776 0
2.6650002 -0.53627509 0.46937001 0
2.6620002 -0.53970587 0.46928343 0
2.6610003 -0.54356605 0.46925458 0
2.6590002 -0.54720074 0.46919686 0
2.6580002 -0.55105186 0.46916801 0
2.6570003 -0.55489945 0.46913913 0
2.6570003 -0.55897063 0.46913913 0
2.6570003 -0.56304181 0.46913913 0
2.6570003 -0.56711298 0.46913913 0
2.6570003 -0.57118416 0.46913913 0
2.6580002 -0.57548988 0.46916801 0
2.6590002 -0.57979918 0.46919686 0
2.6610003 -0.58435023 0.46925458 0
2.6640003 -0.58914834 0.46934116 0
2.6670003 -0.59395725 0.46942776 0
2.6720002 -0.59926403 0.46957207 0
2.6800003 -0.60532486 0.46980295 0
2.9710002 -0.68134999 0.47820148 0
2.9710002 -0.68598753 0.47820148 0
2.9700003 -0.69037443 0.4781726 0
2.9700003 -0.69501019 0.4781726 0
2.9690001 -0.6993916 0.47814375 0
2.9690001 -0.70402563 0.47814375 0
2.9680002 -0.70840162 0.4781149 0
2.9680002 -0.71303385 0.4781149 0
2.9670002 -0.71740448 0.47808602 0
2.9670002 -0.72203487 0.47808602 0
2.9670002 -0.72666526 0.47808602 0
2.9660003 -0.73102868 0.47805718 0
2.9660003 -0.73565727 0.47805718 0
2.9650002 -0.74001521 0.4780283 0
2.9650002 -0.74464196 0.4780283 0
2.9640002 -0.74899459 0.47799945 0
2.9640002 -0.75361955 0.47799945 0
2.9630003 -0.75796676 0.4779706 0
2.9630003 -0.76258993 0.4779706 0
2.9630003 -0.76721305 0.4779706 0
2.9620001 -0.77155298 0.47794172 0
2.9620001 -0.77617437 0.47794172 0
2.9610002 -0.78050888 0.47791284 0
2.9610002 -0.78512847 0.47791284 0
2.9600003 -0.78945762 0.47788399 0
2.9600003 -0.79407537 0.47788399 0
2.6820002 -0.76223457 0.46986067 0
2.6720002 -0.76319414 0.46957207 0
2.6650002 -0.76507008 0.46937001 0
2.6600001 -0.76755929 0.4692257 0
2.6550002 -0.77003056 0.4690814 0
2.6510003 -0.77280664 0.46896598 0
2.6480002 -0.77589297 0.4688794 0
2.6450002 -0.77896845 0.4687928 0
2.6420002 -0.78203309 0.46870622 0
2.6400001 -0.78541708 0.46864849 0
2.6380002 -0.7887938 0.4685908 0
2.6360002 -0.79216331 0.46853304 0
2.6350002 -0.79586112 0.46850419 0
2.6340003 -0.79955536 0.46847534 0
2.6330001 -0.8032459 0.46844646 0
2.6320002 -0.80693293 0.46841761 0
2.6320002 -0.81095898 0.46841761 0
2.6320002 -0.8149851 0.46841761 0
2.6330001 -0.81935751 0.46844646 0
2.6330001 -0.82338536 0.46844646 0
2.6350002 -0.8281132 0.46850419 0
2.6370001 -0.83284819 0.46856192 0
2.6390002 -0.83759046 0.46861964 0
2.6430001 -0.84305054 0.4687351 0
2.6490002 -0.84923941 0.46890825 0
3.1980002 -0.53556436 0.47970584 0
3.1960003 -0.54025787 0.47965175 0
3.1950002 -0.54512274 0.47962469 0
3.1950002 -0.5501644 0.47962469 0
3.1940002 -0.55502385 0.47959763 0
3.1940002 -0.56006372 0.47959763 0
3.1930003 -0.56491774 0.47957057 0
3.1930003 -0.56995577 0.47957057 0
2.6970003 -0.51419824 0.46615022 0
2.6890001 -0.51669651 0.46593377 0
2.6820002 -0.51937336 0.46574438 0
2.6780002 -0.52265269 0.46563613 0
2.6730001 -0.52570653 0.46550086 0
2.6700003 -0.52916807 0.46541968 0
2.6670003 -0.53261876 0.46533853 0
2.6650002 -0.53627509 0.46528441 0
2.6620002 -0.53970587 0.46520323 0
2.6610003 -0.54356605 0.46517617 0
2.6590002 -0.54720074 0.46512204 0
2.6580002 -0.55105186 0.46509501 0
2.6570003 -0.55489945 0.46506795 0
2.6570003 -0.55897063 0.46506795 0
2.6570003 -0.56304181 0.46506795 0
2.6570003 -0.56711298 0.46506795 0
2.6570003 -0.57118416 0.46506795 0
2.6580002 -0.57548988 0.46509501 0
2.6590002 -0.57979918 0.46512204 0
2.6610003 -0.58435023 0.46517617 0
2.6640003 -0.58914834 0.46525735 0
2.6670003 -0.59395725 0.46533853 0
2.6720002 -0.59926403 0.4654738 0
2.6790001 -0.60507953 0.46566319 0
2.9710002 -0.68134999 0.47356388 0
2.9710002 -0.68598753 0.47356388 0
2.9700003 -0.69037443 0.47353682 0
2.9700003 -0.69501019 0.47353682 0
2.9690001 -0.6993916 0.47350976 0
2.9690001 -0.70402563 0.47350976 0
2.9680002 -0.70840162 0.4734827 0
2.9680002 -0.71303385 0.4734827 0
2.9670002 -0.71740448 0.47345564 0
2.9670002 -0.72203487 0.47345564 0
2.9670002 -0.72666526 0.47345564 0
2.9660003 -0.73102868 0.47342861 0
2.9660003 -0.73565727 0.47342861 0
2.9650002 -0.74001521 0.47340155 0
2.9650002 -0.74464196 0.47340155 0
2.9640002 -0.74899459 0.47337449 0
2.9640002 -0.75361955 0.47337449 0
2.9630003 -0.75796676 0.47334743 0
2.9630003 -0.76258993 0.47334743 0
2.9630003 -0.76721305 0.47334743 0
2.9620001 -0.77155298 0.47332036 0
2.9620001 -0.77617437 0.47332036 0
2.9610002 -0.78050888 0.4732933 0
2.9610002 -0.78512847 0.4732933 0
2.9600003 -0.78945762 0.47326624 0
2.9600003 -0.79407537 0.47326624 0
2.6820002 -0.76223457 0.46574438 0
2.6720002 -0.76319414 0.4654738 0
2.6650002 -0.76507008 0.46528441 0
2.6600001 -0.76755929 0.4651491 0
2.6550002 -0.77003056 0.46501383 0
2.6510003 -0.77280664 0.46490559 0
2.6480002 -0.77589297 0.46482444 0
2.6450002 -0.77896845 0.46474326 0
2.6420002 -0.78203309 0.46466208 0
2.6400001 -0.78541708 0.46460795 0
2.6380002 -0.7887938 0.46455386 0
2.6360002 -0.79216331 0.46449974 0
2.6350002 -0.79586112 0.46447268 0
2.6340003 -0.79955536 0.46444562 0
2.6330001 -0.8032459 0.46441856 0
2.6320002 -0.80693293 0.46439153 0
2.6320002 -0.81095898 0.46439153 0
2.6320002 -0.8149851 0.46439153 0
2.6330001 -0.81935751 0.46441856 0
2.6330001 -0.82338536 0.46441856 0
2.6350002 -0.8281132 0.46447268 0
2.6370001 -0.83284819 0.4645268 0
2.6390002 -0.83759046 0.46458092 0
2.6430001 -0.84305054 0.46468914 0
2.6490002 -0.84923941 0.4648515 0
3.1980002 -0.53556436 0.47465879 0
3.1960003 -0.54025787 0.4746083 0
3.1950002 -0.54512274 0.47458303 0
3.1950002 -0.5501644 0.47458303 0
3.1940002 -0.55502385 0.47455776 0
3.1940002 -0.56006372 0.47455776 0
3.1930003 -0.56491774 0.47453254 0
3.1930003 -0.56995577 0.47453254 0
2.6970003 -0.51419824 0.46200687 0
2.6890001 -0.51669651 0.46180487 0
2.6820002 -0.51937336 0.46162808 0
2.6780002 -0.52265269 0.46152708 0
2.6730001 -0.52570653 0.46140081 0
2.6700003 -0.52916807 0.46132505 0
2.6670003 -0.53261876 0.46124929 0
2.6650002 -0.53627509 0.46119878 0
2.6620002 -0.53970587 0.46112302 0
2.6610003 -0.54356605 0.46109778 0
2.6590002 -0.54720074 0.46104726 0
2.6580002 -0.55105186 0.46102199 0
2.6570003 -0.55489945 0.46099675 0
2.6570003 -0.55897063 0.46099675 0
2.6570003 -0.56304181 0.46099675 0
2.6570003 -0.56711298 0.46099675 0
2.6570003 -0.57118416 0.46099675 0
2.6580002 -0.57548988 0.46102199 0
2.6590002 -0.57979918 0.46104726 0
2.6610003 -0.58435023 0.46109778 0
2.6640003 -0.58914834 0.46117353 0
2.6670003 -0.59395725 0.46124929 0
2.6720002 -0.59926403 0.46137553 0
2.6790001 -0.60507953 0.46155232 0
2.9710002 -0.68134999 0.46892628 0
2.9710002 -0.68598753 0.46892628 0
2.9700003 -0.69037443 0.46890104 0
2.9700003 -0.69501019 0.46890104 0
2.9690001 -0.6993916 0.46887577 0
2.9690001 -0.70402563 0.46887577 0
2.9680002 -0.70840162 0.46885052 0
2.9680002 -0.71303385 0.46885052 0
2.9670002 -0.71740448 0.46882528 0
2.9670002 -0.72203487 0.46882528 0
2.9670002 -0.72666526 0.46882528 0
2.9660003 -0.73102868 0.46880001 0
2.9660003 -0.73565727 0.46880001 0
2.9650002 -0.74001521 0.46877477 0
2.9650002 -0.74464196 0.46877477 0
2.9640002 -0.74899459 0.46874952 0
2.9640002 -0.75361955 0.46874952 0
2.9630003 -0.75796676 0.46872425 0
2.9630003 -0.76258993 0.46872425 0
2.9630003 -0.76721305 0.46872425 0
2.9620001 -0.77155298 0.46869901 0
2.9620001 -0.77617437 0.46869901 0
2.9610002 -0.78050888 0.46867377 0
2.9610002 -0.78512847 0.46867377 0
2.9600003 -0.78945762 0.46864849 0
2.9600003 -0.79407537 0.46864849 0
2.6820002 -0.76223457 0.46162808 0
2.6720002 -0.76319414 0.46137553 0
2.6650002 -0.76507008 0.46119878 0
2.6600001 -0.76755929 0.4610725 0
2.6550002 -0.77003056 0.46094623 0
2.6510003 -0.77280664 0.46084523 0
2.6480002 -0.77589297 0.46076947 0
2.6450002 -0.77896845 0.46069372 0
2.6420002 -0.78203309 0.46061796 0
2.6400001 -0.78541708 0.46056744 0
2.6380002 -0.7887938 0.46051693 0
2.6360002 -0.79216331 0.46046641 0
2.6350002 -0.79586112 0.46044117 0
2.6340003 -0.79955536 0.46041593 0
2.6330001 -0.8032459 0.46039066 0
2.6320002 -0.80693293 0.46036541 0
2.6320002 -0.81095898 0.46036541 0
2.6320002 -0.8149851 0.46036541 0
2.6330001 -0.81935751 0.46039066 0
2.6330001 -0.82338536 0.46039066 0
2.6350002 -0.8281132 0.46044117 0
2.6370001 -0.83284819 0.46049169 0
2.6390002 -0.83759046 0.4605422 0
2.6430001 -0.84305054 0.4606432 0
2.6490002 -0.84923941 0.46079472 0
3.1980002 -0.53556436 0.46961173 0
3.1960003 -0.54025787 0.46956486 0
3.1950002 -0.54512274 0.46954137 0
3.1950002 -0.5501644 0.46954137 0
3.1940002 -0.55502385 0.46951795 0
3.1940002 -0.56006372 0.46951795 0
3.1930003 -0.56491774 0.46949449 0
3.1930003 -0.56995577 0.46949449 0
2.6980002 -0.51440209 0.45788699 0
2.6890001 -0.51669651 0.45767593 0
2.6820002 -0.51937336 0.45751178 0
2.6780002 -0.52265269 0.45741799 0
2.6730001 -0.52570653 0.45730075 0
2.6700003 -0.52916807 0.45723039 0
2.6670003 -0.53261876 0.45716006 0
2.6650002 -0.53627509 0.45711315 0
2.6620002 -0.53970587 0.45704281 0
2.6610003 -0.54356605 0.45701936 0
2.6590002 -0.54720074 0.45697245 0
2.6580002 -0.55105186 0.456949 0
2.6570003 -0.55489945 0.45692557 0
2.6570003 -0.55897063 0.45692557 0
2.6570003 -0.56304181 0.45692557 0
2.6570003 -0.56711298 0.45692557 0
2.6570003 -0.57118416 0.45692557 0
2.6580002 -0.57548988 0.456949 0
2.6590002 -0.57979918 0.45697245 0
2.6610003 -0.58435023 0.45701936 0
2.6640003 -0.58914834 0.45708969 0
2.6670003 -0.59395725 0.45716006 0
2.6720002 -0.59926403 0.4572773 0
2.6790001 -0.60507953 0.45744145 0
2.9710002 -0.68134999 0.46428868 0
2.9710002 -0.68598753 0.46428868 0
2.9700003 -0.69037443 0.46426526 0
2.9700003 -0.69501019 0.46426526 0
2.9690001 -0.6993916 0.4642418 0
2.9690001 -0.70402563 0.4642418 0
2.9680002 -0.70840162 0.46421835 0
2.9680002 -0.71303385 0.46421835 0
2.9670002 -0.71740448 0.46419489 0
2.9670002 -0.72203487 0.46419489 0
2.9670002 -0.72666526 0.46419489 0
2.9660003 -0.73102868 0.46417144 0
2.9660003 -0.73565727 0.46417144 0
2.9650002 -0.74001521 0.46414798 0
2.9650002 -0.74464196 0.46414798 0
2.9640002 -0.74899459 0.46412456 0
2.9640002 -0.75361955 0.46412456 0
2.9630003 -0.75796676 0.46410111 0
2.9630003 -0.76258993 0.46410111 0
2.9630003 -0.76721305 0.46410111 0
2.9620001 -0.77155298 0.46407765 0
2.9620001 -0.77617437 0.46407765 0
2.9610002 -0.78050888 0.4640542 0
2.9610002 -0.78512847 0.4640542 0
2.9600003 -0.78945762 0.46403074 0
2.9600003 -0.79407537 0.46403074 0
2.9600003 -0.79869312 0.46403074 0
2.6820002 -0.76223457 0.45751178 0
2.6720002 -0.76319414 0.4572773 0
2.6650002 -0.76507008 0.45711315 0
2.6600001 -0.76755929 0.4569959 0
2.6550002 -0.77003056 0.45687866 0
2.6510003 -0.77280664 0.45678484 0
2.6480002 -0.77589297 0.45671451 0
2.6450002 -0.77896845 0.45664415 0
2.6420002 -0.78203309 0.45657381 0
2.6400001 -0.78541708 0.45652691 0
2.6380002 -0.7887938 0.45648003 0
2.6360002 -0.79216331 0.45643312 0
2.6350002 -0.79586112 0.45640966 0
2.6340003 -0.79955536 0.45638621 0
2.6330001 -0.8032459 0.45636275 0
2.6320002 -0.80693293 0.4563393 0
2.6320002 -0.81095898 0.4563393 0
2.6320002 -0.8149851 0.4563393 0
2.6330001 -0.81935751 0.45636275 0
2.6330001 -0.82338536 0.45636275 0
2.6350002 -0.8281132 0.45640966 0
2.6370001 -0.83284819 0.45645654 0
2.6390002 -0.83759046 0.45650345 0
2.6430001 -0.84305054 0.45659727 0
2.6490002 -0.84923941 0.45673797 0
3.1990001 -0.5357393 0.46458632 0
3.1960003 -0.54025787 0.46452138 0
3.1950002 -0.54512274 0.46449974 0
3.1950002 -0.5501644 0.46449974 0
3.1940002 -0.55502385 0.46447811 0
3.1940002 -0.56006372 0.46447811 0
3.1930003 -0.56491774 0.46445644 0
3.1930003 -0.56995577 0.46445644 0
2.6980002 -0.51440209 0.45374182 0
2.6890001 -0.51669651 0.453547 0
2.6820002 -0.51937336 0.45339549 0
2.6780002 -0.52265269 0.45330891 0
2.6730001 -0.52570653 0.4532007 0
2.6700003 -0.52916807 0.45313576 0
2.6670003 -0.53261876 0.45307082 0
2.6650002 -0.53627509 0.45302752 0
2.6620002 -0.53970587 0.45296258 0
2.6610003 -0.54356605 0.45294094 0
2.6590002 -0.54720074 0.45289764 0
2.6580002 -0.55105186 0.452876 0
2.6570003 -0.55489945 0.45285437 0
2.6570003 -0.55897063 0.45285437 0
2.6570003 -0.56304181 0.45285437 0
2.6570003 -0.56711298 0.45285437 0
2.6570003 -0.57118416 0.45285437 0
2.6580002 -0.57548988 0.452876 0
2.6590002 -0.57979918 0.45289764 0
2.6610003 -0.58435023 0.45294094 0
2.6640003 -0.58914834 0.45300588 0
2.6670003 -0.59395725 0.45307082 0
2.6720002 -0.59926403 0.45317903 0
2.6790001 -0.60507953 0.45333055 0
2.9710002 -0.68134999 0.45965111 0
2.9710002 -0.68598753 0.45965111 0
2.9700003 -0.69037443 0.45962948 0
2.9700003 -0.69501019 0.45962948 0
2.9690001 -0.6993916 0.45960781 0
2.9690001 -0.70402563 0.45960781 0
2.9680002 -0.70840162 0.45958617 0
2.9680002 -0.71303385 0.45958617 0
2.9670002 -0.71740448 0.45956451 0
2.9670002 -0.72203487 0.45956451 0
2.9670002 -0.72666526 0.45956451 0
2.9660003 -0.73102868 0.45954287 0
2.9660003 -0.73565727 0.45954287 0
2.9650002 -0.74001521 0.45952123 0
2.9650002 -0.74464196 0.45952123 0
2.9640002 -0.74899459 0.4594996 0
2.9640002 -0.75361955 0.4594996 0
2.9630003 -0.75796676 0.45947793 0
2.9630003 -0.76258993 0.45947793 0
2.9630003 -0.76721305 0.45947793 0
2.9620001 -0.77155298 0.45945629 0
2.9620001 -0.77617437 0.45945629 0
2.9610002 -0.78050888 0.45943466 0
2.9610002 -0.78512847 0.45943466 0
2.9600003 -0.78945762 0.45941299 0
2.9600003 -0.79407537 0.45941299 0
2.9600003 -0.79869312 0.45941299 0
2.6820002 -0.76223457 0.45339549 0
2.6720002 -0.76319414 0.45317903 0
2.6650002 -0.76507008 0.45302752 0
2.6600001 -0.76755929 0.4529193 0
2.6550002 -0.77003056 0.45281106 0
2.6510003 -0.77280664 0.45272449 0
2.6480002 -0.77589297 0.45265955 0
2.6450002 -0.77896845 0.45259461 0
2.6420002 -0.78203309 0.45252967 0
2.6400001 -0.78541708 0.45248637 0
2.6380002 -0.7887938 0.45244309 0
2.6360002 -0.79216331 0.45239979 0
2.6350002 -0.79586112 0.45237815 0
2.6340003 -0.79955536 0.45235652 0
2.6330001 -0.8032459 0.45233485 0
2.6320002 -0.80693293 0.45231321 0
2.6320002 -0.81095898 0.45231321 0
2.6320002 -0.8149851 0.45231321 0
2.6330001 -0.81935751 0.45233485 0
2.6330001 -0.82338536 0.45233485 0
2.6350002 -0.8281132 0.45237815 0
2.6370001 -0.83284819 0.45242143 0
2.6390002 -0.83759046 0.45246473 0
2.6430001 -0.84305054 0.45255131 0
2.6480002 -0.84888226 0.45265955 0
3.1990001 -0.5357393 0.45953745 0
3.1960003 -0.54025787 0.45947793 0
3.1950002 -0.54512274 0.45945811 0
3.1950002 -0.5501644 0.45945811 0
3.1940002 -0.55502385 0.45943826 0
3.1940002 -0.56006372 0.45943826 0
3.1930003 -0.56491774 0.45941842 0
3.1930003 -0.56995577 0.45941842 0
2.6980002 -0.51440209 0.44959667 0
2.6890001 -0.51669651 0.4494181 0
2.6820002 -0.51937336 0.44927922 0
2.6780002 -0.52265269 0.44919986 0
2.6730001 -0.52570653 0.44910061 0
2.6700003 -0.52916807 0.4490411 0
2.6670003 -0.53261876 0.44898158 0
2.6650002 -0.53627509 0.44894189 0
2.6620002 -0.53970587 0.44888237 0
2.6610003 -0.54356605 0.44886252 0
2.6590002 -0.54720074 0.44882286 0
2.6580002 -0.55105186 0.44880301 0
2.6570003 -0.55489945 0.44878316 0
2.6570003 -0.55897063 0.44878316 0
2.6570003 -0.56304181 0.44878316 0
2.6570003 -0.56711298 0.44878316 0
2.6570003 -0.57118416 0.44878316 0
2.6580002 -0.57548988 0.44880301 0
2.6590002 -0.57979918 0.44882286 0
2.6610003 -0.58435023 0.44886252 0
2.6640003 -0.58914834 0.44892204 0
2.6670003 -0.59395725 0.44898158 0
2.6720002 -0.59926403 0.4490808 0
2.6790001 -0.60507953 0.44921967 0
2.9710002 -0.68134999 0.45501351 0
2.9710002 -0.68598753 0.45501351 0
2.9700003 -0.69037443 0.45499367 0
2.9700003 -0.69501019 0.45499367 0
2.9690001 -0.6993916 0.45497382 0
2.9690001 -0.70402563 0.45497382 0
2.9680002 -0.70840162 0.454954 0
2.9680002 -0.71303385 0.454954 0
2.9670002 -0.71740448 0.45493415 0
2.9670002 -0.72203487 0.45493415 0
2.9670002 -0.72666526 0.45493415 0
2.9660003 -0.73102868 0.4549143 0
2.9660003 -0.73565727 0.4549143 0
2.9650002 -0.74001521 0.45489445 0
2.9650002 -0.74464196 0.45489445 0
2.9640002 -0.74899459 0.45487463 0
2.9640002 -0.75361955 0.45487463 0
2.9630003 -0.75796676 0.45485479 0
2.9630003 -0.76258993 0.45485479 0
2.9630003 -0.76721305 0.45485479 0
2.9620001 -0.77155298 0.45483494 0
2.9620001 -0.77617437 0.45483494 0
2.9610002 -0.78050888 0.45481509 0
2.9610002 -0.78512847 0.45481509 0
2.9600003 -0.78945762 0.45479524 0
2.9600003 -0.79407537 0.45479524 0
2.9600003 -0.79869312 0.45479524 0
2.9590001 -0.80301499 0.45477542 0
2.6820002 -0.76223457 0.44927922 0
2.6720002 -0.76319414 0.4490808 0
2.6650002 -0.76507008 0.44894189 0
2.6600001 -0.76755929 0.44884267 0
2.6550002 -0.77003056 0.44874346 0
2.6510003 -0.77280664 0.4486641 0
2.6480002 -0.77589297 0.44860458 0
2.6450002 -0.77896845 0.44854507 0
2.6420002 -0.78203309 0.44848552 0
2.6400001 -0.78541708 0.44844586 0
2.6380002 -0.7887938 0.44840616 0
2.6360002 -0.79216331 0.44836649 0
2.6350002 -0.79586112 0.44834664 0
2.6340003 -0.79955536 0.4483268 0
2.6330001 -0.8032459 0.44830695 0
2.6320002 -0.80693293 0.44828713 0
2.6320002 -0.81095898 0.44828713 0
2.6320002 -0.8149851 0.44828713 0
2.6330001 -0.81935751 0.44830695 0
2.6330001 -0.82338536 0.44830695 0
2.6350002 -0.8281132 0.44834664 0
2.6370001 -0.83284819 0.44838631 0
2.6390002 -0.83759046 0.44842601 0
2.6430001 -0.84305054 0.44850537 0
2.6480002 -0.84888226 0.44860458 0
3.1990001 -0.5357393 0.45448861 0
3.1960003 -0.54025787 0.45443448 0
3.1950002 -0.54512274 0.45441645 0
3.1950002 -0.5501644 0.45441645 0
3.1940002 -0.55502385 0.45439842 0
3.1940002 -0.56006372 0.45439842 0
3.1930003 -0.56491774 0.45438039 0
3.1930003 -0.56995577 0.45438039 0
2.6980002 -0.51440209 0.44545153 0
2.6890001 -0.51669651 0.44528919 0
2.6820002 -0.51937336 0.44516292 0
2.6780002 -0.52265269 0.44509077 0
2.6730001 -0.52570653 0.44500059 0
2.6700003 -0.52916807 0.44494647 0
2.6670003 -0.53261876 0.44489235 0
2.6650002 -0.53627509 0.44485629 0
2.6620002 -0.53970587 0.44480217 0
2.6610003 -0.54356605 0.4447841 0
2.6590002 -0.54720074 0.44474804 0
2.6580002 -0.55105186 0.44473001 0
2.6570003 -0.55489945 0.44471198 0
2.6570003 -0.55897063 0.44471198 0
2.6570003 -0.56304181 0.44471198 0
2.6570003 -0.56711298 0.44471198 0
2.6570003 -0.57118416 0.44471198 0
2.6580002 -0.57548988 0.44473001 0
2.6590002 -0.57979918 0.44474804 0
2.6610003 -0.58435023 0.4447841 0
2.6640003 -0.58914834 0.44483823 0
2.6670003 -0.59395725 0.44489235 0
2.6720002 -0.59926403 0.44498253 0
2.6790001 -0.60507953 0.4451088 0
2.9710002 -0.68134999 0.45037591 0
2.9710002 -0.68598753 0.45037591 0
2.9700003 -0.69037443 0.45035788 0
2.9700003 -0.69501019 0.45035788 0
2.9690001 -0.6993916 0.45033985 0
2.9690001 -0.70402563 0.45033985 0
2.9680002 -0.70840162 0.45032179 0
2.9680002 -0.71303385 0.45032179 0
2.9670002 -0.71740448 0.45030376 0
2.9670002 -0.72203487 0.45030376 0
2.9670002 -0.72666526 0.45030376 0
2.9660003 -0.73102868 0.45028573 0
2.9660003 -0.73565727 0.45028573 0
2.9650002 -0.74001521 0.4502677 0
2.9650002 -0.74464196 0.4502677 0
2.9640002 -0.74899459 0.45024967 0
2.9640002 -0.75361955 0.45024967 0
2.9630003 -0.75796676 0.45023161 0
2.9630003 -0.76258993 0.45023161 0
2.9630003 -0.76721305 0.45023161 0
2.9620001 -0.77155298 0.45021358 0
2.9620001 -0.77617437 0.45021358 0
2.9610002 -0.78050888 0.45019555 0
2.9610002 -0.78512847 0.45019555 0
2.9600003 -0.78945762 0.45017749 0
2.9600003 -0.79407537 0.45017749 0
2.9600003 -0.79869312 0.45017749 0
2.9590001 -0.80301499 0.45015946 0
2.9590001 -0.80763096 0.45015946 0
2.6820002 -0.76223457 0.44516292 0
2.6720002 -0.76319414 0.44498253 0
2.6650002 -0.76507008 0.44485629 0
2.6600001 -0.76755929 0.44476607 0
2.6550002 -0.77003056 0.44467589 0
2.6510003 -0.77280664 0.44460374 0
2.6480002 -0.77589297 0.44454962 0
2.6450002 -0.77896845 0.4444955 0
2.6420002 -0.78203309 0.44444141 0
2.6400001 -0.78541708 0.44440532 0
2.6380002 -0.7887938 0.44436926 0
2.6360002 -0.79216331 0.44433317 0
2.6350002 -0.79586112 0.44431514 0
2.6340003 -0.79955536 0.44429708 0
2.6330001 -0.8032459 0.44427904 0
2.6320002 -0.80693293 0.44426101 0
2.6320002 -0.81095898 0.44426101 0
2.6320002 -0.8149851 0.44426101 0
2.6330001 -0.81935751 0.44427904 0
2.6330001 -0.82338536 0.44427904 0
2.6350002 -0.8281132 0.44431514 0
2.6370001 -0.83284819 0.4443512 0
2.6390002 -0.83759046 0.44438729 0
2.6430001 -0.84305054 0.44445944 0
2.6480002 -0.84888226 0.44454962 0
3.2000003 -0.5359143 0.44945598 0
3.1960003 -0.54025787 0.44939104 0
3.1950002 -0.54512274 0.44937479 0
3.1950002 -0.5501644 0.44937479 0
3.1940002 -0.55502385 0.44935858 0
3.1940002 -0.56006372 0.44935858 0
3.1930003 -0.56491774 0.44934234 0
3.1930003 -0.56995577 0.44934234 0
2.6980002 -0.51440209 0.44130638 0
2.6890001 -0.51669651 0.44116026 0
2.6820002 -0.51937336 0.44104663 0
2.6780002 -0.52265269 0.44098169 0
2.6730001 -0.52570653 0.4409005 0
2.6700003 -0.52916807 0.44085181 0
2.6670003 -0.53261876 0.44080311 0
2.6650002 -0.53627509 0.44077066 0
2.6620002 -0.53970587 0.44072193 0
2.6610003 -0.54356605 0.44070572 0
2.6590002 -0.54720074 0.44067323 0
2.6580002 -0.55105186 0.44065702 0
2.6570003 -0.55489945 0.44064078 0
2.6570003 -0.55897063 0.44064078 0
2.6570003 -0.56304181 0.44064078 0
2.6570003 -0.56711298 0.44064078 0
2.6570003 -0.57118416 0.44064078 0
2.6580002 -0.57548988 0.44065702 0
2.6590002 -0.57979918 0.44067323 0
2.6610003 -0.58435023 0.44070572 0
2.6640003 -0.58914834 0.44075441 0
2.6670003 -0.59395725 0.44080311 0
2.6720002 -0.59926403 0.44088429 0
2.6790001 -0.60507953 0.44099793 0
2.9710002 -0.68134999 0.44573832 0
2.9710002 -0.68598753 0.44573832 0
2.9700003 -0.69037443 0.4457221 0
2.9700003 -0.69501019 0.4457221 0
2.9690001 -0.6993916 0.44570586 0
2.9690001 -0.70402563 0.44570586 0
2.9680002 -0.70840162 0.44568962 0
2.9680002 -0.71303385 0.44568962 0
2.9670002 -0.71740448 0.44567341 0
2.9670002 -0.72203487 0.44567341 0
2.9670002 -0.72666526 0.44567341 0
2.9660003 -0.73102868 0.44565716 0
2.9660003 -0.73565727 0.44565716 0
2.9650002 -0.74001521 0.44564092 0
2.9650002 -0.74464196 0.44564092 0
2.9640002 -0.74899459 0.44562468 0
2.9640002 -0.75361955 0.44562468 0
2.9630003 -0.75796676 0.44560847 0
2.9630003 -0.76258993 0.44560847 0
2.9630003 -0.76721305 0.44560847 0
2.9620001 -0.77155298 0.44559222 0
2.9620001 -0.77617437 0.44559222 0
2.9610002 -0.78050888 0.44557598 0
2.9610002 -0.78512847 0.44557598 0
2.9600003 -0.78945762 0.44555974 0
2.9600003 -0.79407537 0.44555974 0
2.9600003 -0.79869312 0.44555974 0
2.9590001 -0.80301499 0.44554353 0
2.9590001 -0.80763096 0.44554353 0
2.9580002 -0.81194746 0.44552729 0
2.6830001 -0.76254839 0.44106287 0
2.6720002 -0.76319414 0.44088429 0
2.6650002 -0.76507008 0.44077066 0
2.6600001 -0.76755929 0.44068947 0
2.6550002 -0.77003056 0.44060829 0
2.6510003 -0.77280664 0.44054335 0
2.6480002 -0.77589297 0.44049466 0
2.6450002 -0.77896845 0.44044596 0
2.6420002 -0.78203309 0.44039726 0
2.6400001 -0.78541708 0.44036478 0
2.6380002 -0.7887938 0.44033232 0
2.6360002 -0.79216331 0.44029984 0
2.6350002 -0.79586112 0.44028363 0
2.6340003 -0.79955536 0.44026738 0
2.6330001 -0.8032459 0.44025114 0
2.6320002 -0.80693293 0.4402349 0
2.6320002 -0.81095898 0.4402349 0
2.6320002 -0.8149851 0.4402349 0
2.6330001 -0.81935751 0.44025114 0
2.6330001 -0.82338536 0.44025114 0
2.6350002 -0.8281132 0.44028363 0
2.6370001 -0.83284819 0.44031608 0
2.6390002 -0.83759046 0.44034857 0
2.6430001 -0.84305054 0.44041348 0
2.6480002 -0.84888226 0.44049466 0
3.2000003 -0.5359143 0.44440532 0
3.1960003 -0.54025787 0.44434759 0
3.1950002 -0.54512274 0.44433317 0
3.1950002 -0.5501644 0.44433317 0
3.1940002 -0.55502385 0.44431874 0
3.1940002 -0.56006372 0.44431874 0
3.1930003 -0.56491774 0.44430432 0
3.1930003 -0.56995577 0.44430432 0
2.6980002 -0.51440209 0.43716124 0
2.6890001 -0.51669651 0.43703136 0
2.6820002 -0.51937336 0.43693033 0
2.6780002 -0.52265269 0.4368726 0
2.6740003 -0.52591759 0.4368149 0
2.6700003 -0.52916807 0.43675718 0
2.6670003 -0.53261876 0.43671387 0
2.6650002 -0.53627509 0.43668503 0
2.6620002 -0.53970587 0.43664172 0
2.6610003 -0.54356605 0.4366273 0
2.6590002 -0.54720074 0.43659842 0
2.6580002 -0.55105186 0.436584 0
2.6570003 -0.55489945 0.43656957 0
2.6560001 -0.5587433 0.43655515 0
2.6570003 -0.56304181 0.43656957 0
2.6570003 -0.56711298 0.43656957 0
2.6570003 -0.57118416 0.43656957 0
2.6580002 -0.57548988 0.436584 0
2.6590002 -0.57979918 0.43659842 0
2.6610003 -0.58435023 0.4366273 0
2.6640003 -0.58914834 0.4366706 0
2.6670003 -0.59395725 0.43671387 0
2.6720002 -0.59926403 0.43678603 0
2.6790001 -0.60507953 0.43688706 0
2.9710002 -0.68134999 0.44110075 0
2.9710002 -0.68598753 0.44110075 0
2.9700003 -0.69037443 0.44108632 0
2.9700003 -0.69501019 0.44108632 0
2.9690001 -0.6993916 0.44107187 0
2.9690001 -0.70402563 0.44107187 0
2.9680002 -0.70840162 0.44105744 0
2.9680002 -0.71303385 0.44105744 0
2.9670002 -0.71740448 0.44104302 0
2.9670002 -0.72203487 0.44104302 0
2.9670002 -0.72666526 0.44104302 0
2.9660003 -0.73102868 0.44102859 0
2.9660003 -0.73565727 0.44102859 0
2.9650002 -0.74001521 0.44101417 0
2.9650002 -0.74464196 0.44101417 0
2.9640002 -0.74899459 0.44099972 0
2.9640002 -0.75361955 0.44099972 0
2.9630003 -0.75796676 0.44098529 0
2.9630003 -0.76258993 0.44098529 0
2.9630003 -0.76721305 0.44098529 0
2.9620001 -0.77155298 0.44097087 0
2.9620001 -0.77617437 0.44097087 0
2.9610002 -0.78050888 0.44095644 0
2.9610002 -0.78512847 0.44095644 0
2.9600003 -0.78945762 0.44094202 0
2.9600003 -0.79407537 0.44094202 0
2.9600003 -0.79869312 0.44094202 0
2.9590001 -0.80301499 0.44092757 0
2.9590001 -0.80763096 0.44092757 0
2.9580002 -0.81194746 0.44091314 0
2.9580002 -0.81656158 0.44091314 0
2.6830001 -0.76254839 0.43694475 0
2.6720002 -0.76319414 0.43678603 0
2.6650002 -0.76507008 0.43668503 0
2.6600001 -0.76755929 0.43661287 0
2.6550002 -0.77003056 0.43654072 0
2.6510003 -0.77280664 0.436483 0
2.6480002 -0.77589297 0.43643969 0
2.6450002 -0.77896845 0.43639642 0
2.6420002 -0.78203309 0.43635312 0
2.6400001 -0.78541708 0.43632427 0
2.6380002 -0.7887938 0.43629539 0
2.6360002 -0.79216331 0.43626654 0
2.6350002 -0.79586112 0.43625212 0
2.6340003 -0.79955536 0.43623769 0
2.6330001 -0.8032459 0.43622324 0
2.6320002 -0.80693293 0.43620881 0
2.6320002 -0.81095898 0.43620881 0
2.6320002 -0.8149851 0.43620881 0
2.6330001 -0.81935751 0.43622324 0
2.6330001 -0.82338536 0.43622324 0
2.6350002 -0.8281132 0.43625212 0
2.6370001 -0.83284819 0.43628097 0
2.6390002 -0.83759046 0.43630981 0
2.6430001 -0.84305054 0.43636754 0
2.6480002 -0.84888226 0.43643969 0
3.2000003 -0.5359143 0.43935466 0
3.1960003 -0.54025787 0.43930414 0
3.1950002 -0.54512274 0.43929154 0
3.1950002 -0.5501644 0.43929154 0
3.1940002 -0.55502385 0.4392789 0
3.1940002 -0.56006372 0.4392789 0
3.1930003 -0.56491774 0.43926626 0
3.1930003 -0.56995577 0.43926626 0
2.6980002 -0.51440209 0.43301606 0
2.6890001 -0.51669651 0.43290243 0
2.6820002 -0.51937336 0.43281406 0
2.6780002 -0.52265269 0.43276355 0
2.6740003 -0.52591759 0.43271303 0
2.6700003 -0.52916807 0.43266252 0
2.6670003 -0.53261876 0.43262464 0
2.6650002 -0.53627509 0.4325994 0
2.6620002 -0.53970587 0.43256152 0
2.6610003 -0.54356605 0.43254888 0
2.6590002 -0.54720074 0.43252364 0
2.6580002 -0.55105186 0.432511 0
2.6570003 -0.55489945 0.4324984 0
2.6560001 -0.5587433 0.43248576 0
2.6560001 -0.56281269 0.43248576 0
2.6570003 -0.56711298 0.4324984 0
2.6570003 -0.57118416 0.4324984 0
2.6580002 -0.57548988 0.432511 0
2.6590002 -0.57979918 0.43252364 0
2.6610003 -0.58435023 0.43254888 0
2.6640003 -0.58914834 0.43258676 0
2.6670003 -0.59395725 0.43262464 0
2.6720002 -0.59926403 0.43268779 0
2.6790001 -0.60507953 0.43277615 0
2.9710002 -0.68134999 0.43646315 0
2.9710002 -0.68598753 0.43646315 0
2.9700003 -0.69037443 0.43645054 0
2.9700003 -0.69501019 0.43645054 0
2.9690001 -0.6993916 0.4364379 0
2.9690001 -0.70402563 0.4364379 0
2.9680002 -0.70840162 0.43642527 0
2.9680002 -0.71303385 0.43642527 0
2.9670002 -0.71740448 0.43641263 0
2.9670002 -0.72203487 0.43641263 0
2.9670002 -0.72666526 0.43641263 0
2.9660003 -0.73102868 0.43640003 0
2.9660003 -0.73565727 0.43640003 0
2.9650002 -0.74001521 0.43638739 0
2.9650002 -0.74464196 0.43638739 0
2.9640002 -0.74899459 0.43637475 0
2.9640002 -0.75361955 0.43637475 0
2.9630003 -0.75796676 0.43636215 0
2.9630003 -0.76258993 0.43636215 0
2.9630003 -0.76721305 0.43636215 0
2.9620001 -0.77155298 0.43634951 0
2.9620001 -0.77617437 0.43634951 0
2.9610002 -0.78050888 0.43633687 0
2.9610002 -0.78512847 0.43633687 0
2.9600003 -0.78945762 0.43632427 0
2.9600003 -0.79407537 0.43632427 0
2.9600003 -0.79869312 0.43632427 0
2.9590001 -0.80301499 0.43631163 0
2.9590001 -0.80763096 0.43631163 0
2.9580002 -0.81194746 0.436299 0
2.9580002 -0.81656158 0.436299 0
2.6830001 -0.76254839 0.43282667 0
2.6720002 -0.76319414 0.43268779 0
2.6650002 -0.76507008 0.4325994 0
2.6600001 -0.76755929 0.43253624 0
2.6550002 -0.77003056 0.43247312 0
2.6510003 -0.77280664 0.43242261 0
2.6480002 -0.77589297 0.43238473 0
2.6450002 -0.77896845 0.43234685 0
2.6420002 -0.78203309 0.43230897 0
2.6400001 -0.78541708 0.43228373 0
2.6380002 -0.7887938 0.43225849 0
2.6360002 -0.79216331 0.43223321 0
2.6350002 -0.79586112 0.43222058 0
2.6340003 -0.79955536 0.43220797 0
2.6330001 -0.8032459 0.43219534 0
2.6320002 -0.80693293 0.43218273 0
2.6320002 -0.81095898 0.43218273 0
2.6320002 -0.8149851 0.43218273 0
2.6330001 -0.81935751 0.43219534 0
2.6330001 -0.82338536 0.43219534 0
2.6350002 -0.8281132 0.43222058 0
2.6370001 -0.83284819 0.43224585 0
2.6390002 -0.83759046 0.43227109 0
2.6430001 -0.84305054 0.43232161 0
2.6480002 -0.84888226 0.43238473 0
3.1960003 -0.54025787 0.4342607 0
3.1950002 -0.54512274 0.43424988 0
3.1950002 -0.5501644 0.43424988 0
3.1940002 -0.55502385 0.43423906 0
3.1940002 -0.56006372 0.43423906 0
3.1930003 -0.56491774 0.43422824 0
2.6980002 -0.51440209 0.42887092 0
2.6890001 -0.51669651 0.42877352 0
2.6830001 -0.51958084 0.42870858 0
2.6780002 -0.52265269 0.42865446 0
2.6740003 -0.52591759 0.42861116 0
2.6700003 -0.52916807 0.42856789 0
2.6670003 -0.53261876 0.4285354 0
2.6650002 -0.53627509 0.42851377 0
2.6620002 -0.53970587 0.42848131 0
2.6610003 -0.54356605 0.42847049 0
2.6590002 -0.54720074 0.42844883 0
2.6580002 -0.55105186 0.42843801 0
2.6570003 -0.55489945 0.42842719 0
2.6560001 -0.5587433 0.42841637 0
2.6560001 -0.56281269 0.42841637 0
2.6570003 -0.56711298 0.42842719 0
2.6570003 -0.57118416 0.42842719 0
2.6580002 -0.57548988 0.42843801 0
2.6590002 -0.57979918 0.42844883 0
2.6610003 -0.58435023 0.42847049 0
2.6630001 -0.58890837 0.42849213 0
2.6670003 -0.59395725 0.4285354 0
2.6720002 -0.59926403 0.42858952 0
2.6790001 -0.60507953 0.42866528 0
2.9710002 -0.68598753 0.43182555 0
2.9700003 -0.69037443 0.43181473 0
2.9700003 -0.69501019 0.43181473 0
2.9690001 -0.6993916 0.43180391 0
2.9690001 -0.70402563 0.43180391 0
2.9680002 -0.70840162 0.43179309 0
2.9680002 -0.71303385 0.43179309 0
2.9670002 -0.71740448 0.43178228 0
2.9670002 -0.72203487 0.43178228 0
2.9670002 -0.72666526 0.43178228 0
2.9660003 -0.73102868 0.43177146 0
2.9660003 -0.73565727 0.43177146 0
2.9650002 -0.74001521 0.43176061 0
2.9650002 -0.74464196 0.43176061 0
2.9640002 -0.74899459 0.43174979 0
2.9640002 -0.75361955 0.43174979 0
2.9630003 -0.75796676 0.43173897 0
2.9630003 -0.76258993 0.43173897 0
2.9630003 -0.76721305 0.43173897 0
2.9620001 -0.77155298 0.43172815 0
2.9620001 -0.77617437 0.43172815 0
2.9610002 -0.78050888 0.43171734 0
2.9610002 -0.78512847 0.43171734 0
2.9600003 -0.78945762 0.43170652 0
2.9600003 -0.79407537 0.43170652 0
2.9600003 -0.79869312 0.43170652 0
2.9590001 -0.80301499 0.4316957 0
2.9590001 -0.80763096 0.4316957 0
2.9580002 -0.81194746 0.43168485 0
2.6830001 -0.76254839 0.42870858 0
2.6730001 -0.76350975 0.42860034 0
2.6650002 -0.76507008 0.42851377 0
2.6600001 -0.76755929 0.42845964 0
2.6550002 -0.77003056 0.42840555 0
2.6510003 -0.77280664 0.42836225 0
2.6480002 -0.77589297 0.42832977 0
2.6450002 -0.77896845 0.42829731 0
2.6420002 -0.78203309 0.42826486 0
2.6400001 -0.78541708 0.42824319 0
2.6380002 -0.7887938 0.42822155 0
2.6360002 -0.79216331 0.42819992 0
2.6350002 -0.79586112 0.42818907 0
2.6340003 -0.79955536 0.42817825 0
2.6330001 -0.8032459 0.42816743 0
2.6320002 -0.80693293 0.42815661 0
2.6320002 -0.81095898 0.42815661 0
2.6320002 -0.8149851 0.42815661 0
2.6330001 -0.81935751 0.42816743 0
2.6330001 -0.82338536 0.42816743 0
2.6350002 -0.8281132 0.42818907 0
2.6370001 -0.83284819 0.42821074 0
2.6390002 -0.83759046 0.42823237 0
2.6430001 -0.84305054 0.42827567 0
2.6480002 -0.84888226 0.42832977 0
2.8380003 -0.5033592 0.42598844 0
2.8370001 -0.50756747 0.42597941 0
2.8370001 -0.51196331 0.42597941 0
2.8360002 -0.51616621 0.42597041 0
2.8360002 -0.52056026 0.42597041 0
2.8360002 -0.52495438 0.42597041 0
2.8350003 -0.52915001 0.42596138 0
2.8350003 -0.53354234 0.42596138 0
2.8340001 -0.53773254 0.42595237 0
2.6980002 -0.51440209 0.42472577 0
2.6890001 -0.51669651 0.42464459 0
2.6830001 -0.51958084 0.42459047 0
2.6780002 -0.52265269 0.42454538 0
2.6740003 -0.52591759 0.42450932 0
2.6700003 -0.52916807 0.42447323 0
2.6670003 -0.53261876 0.42444617 0
2.6650002 -0.53627509 0.42442814 0
2.6620002 -0.53970587 0.42440107 0
2.6610003 -0.54356605 0.42439207 0
2.6590002 -0.54720074 0.42437401 0
2.6580002 -0.55105186 0.42436501 0
2.6570003 -0.55489945 0.42435598 0
2.6560001 -0.5587433 0.42434698 0
2.6560001 -0.56281269 0.42434698 0
2.6560001 -0.56688207 0.42434698 0
2.6570003 -0.57118416 0.42435598 0
2.6580002 -0.57548988 0.42436501 0
2.6590002 -0.57979918 0.42437401 0
2.6610003 -0.58435023 0.42439207 0
2.6630001 -0.58890837 0.4244101 0
2.6670003 -0.59395725 0.42444617 0
2.6720002 -0.59926403 0.42449129 0
2.6790001 -0.60507953 0.42455441 0
2.8240001 -0.64502305 0.42586216 0
2.8230002 -0.64914662 0.42585316 0
2.8230002 -0.65351725 0.42585316 0
2.8230002 -0.65788782 0.42585316 0
2.8220003 -0.66200411 0.42584413 0
2.8220003 -0.66637295 0.42584413 0
2.8210001 -0.67048383 0.4258351 0
2.8210001 -0.67485082 0.4258351 0
2.8210001 -0.67921788 0.4258351 0
2.8200002 -0.68332154 0.4258261 0
2.8200002 -0.68768674 0.4258261 0
2.8190002 -0.69178504 0.42581707 0
2.8190002 -0.69614846 0.42581707 0
2.8180003 -0.70024127 0.42580807 0
2.8180003 -0.7046029 0.42580807 0
2.8180003 -0.70896453 0.42580807 0
2.8170002 -0.71305007 0.42579904 0
2.8170002 -0.71740991 0.42579904 0
2.8160002 -0.72149009 0.42579001 0
2.8160002 -0.72584814 0.42579001 0
2.8160002 -0.73020607 0.42579001 0
2.8150003 -0.73427916 0.42578101 0
2.8150003 -0.73863536 0.42578101 0
2.8140001 -0.74270284 0.42577198 0
2.8140001 -0.74705726 0.42577198 0
2.8130002 -0.75111943 0.42576295 0
2.8130002 -0.75547206 0.42576295 0
2.8130002 -0.75982463 0.42576295 0
2.8120003 -0.76387966 0.42575395 0
2.8120003 -0.76823038 0.42575395 0
2.8110001 -0.77227992 0.42574492 0
2.8110001 -0.77662891 0.42574492 0
2.8110001 -0.7809779 0.42574492 0
2.8100002 -0.78502023 0.42573589 0
2.8100002 -0.78936744 0.42573589 0
2.8090003 -0.79340434 0.42572689 0
2.8090003 -0.7977497 0.42572689 0
2.6830001 -0.76254839 0.42459047 0
2.6730001 -0.76350975 0.42450029 0
2.6650002 -0.76507008 0.42442814 0
2.6600001 -0.76755929 0.42438304 0
2.6550002 -0.77003056 0.42433795 0
2.6510003 -0.77280664 0.42430186 0
2.6480002 -0.77589297 0.42427483 0
2.6450002 -0.77896845 0.42424777 0
2.6420002 -0.78203309 0.42422071 0
2.6400001 -0.78541708 0.42420268 0
2.6380002 -0.7887938 0.42418462 0
2.6360002 -0.79216331 0.42416659 0
2.6350002 -0.79586112 0.42415756 0
2.6340003 -0.79955536 0.42414856 0
2.6330001 -0.8032459 0.42413953 0
2.6320002 -0.80693293 0.4241305 0
2.6320002 -0.81095898 0.4241305 0
2.6320002 -0.8149851 0.4241305 0
2.6330001 -0.81935751 0.42413953 0
2.6330001 -0.82338536 0.42413953 0
2.6350002 -0.8281132 0.42415756 0
2.6360002 -0.83249646 0.42416659 0
2.6390002 -0.83759046 0.42419365 0
2.6430001 -0.84305054 0.42422971 0
2.6480002 -0.84888226 0.42427483 0
2.8380003 -0.5033592 0.42159075 0
2.8370001 -0.50756747 0.42158353 0
2.8370001 -0.51196331 0.42158353 0
2.8360002 -0.51616621 0.42157632 0
2.8360002 -0.52056026 0.42157632 0
2.8360002 -0.52495438 0.42157632 0
2.8350003 -0.52915001 0.42156911 0
2.8350003 -0.53354234 0.42156911 0
2.8340001 -0.53773254 0.4215619 0
2.6980002 -0.51440209 0.42058063 0
2.6890001 -0.51669651 0.42051569 0
2.6830001 -0.51958084 0.42047238 0
2.6780002 -0.52265269 0.42043632 0
2.6740003 -0.52591759 0.42040744 0
2.6700003 -0.52916807 0.4203786 0
2.6670003 -0.53261876 0.42035696 0
2.6650002 -0.53627509 0.4203425 0
2.6620002 -0.53970587 0.42032087 0
2.6610003 -0.54356605 0.42031366 0
2.6590002 -0.54720074 0.42029923 0
2.6580002 -0.55105186 0.42029202 0
2.6570003 -0.55489945 0.42028481 0
2.6560001 -0.5587433 0.42027757 0
2.6560001 -0.56281269 0.42027757 0
2.6560001 -0.56688207 0.42027757 0
2.6570003 -0.57118416 0.42028481 0
2.6580002 -0.57548988 0.42029202 0
2.6590002 -0.57979918 0.42029923 0
2.6610003 -0.58435023 0.42031366 0
2.6630001 -0.58890837 0.42032808 0
2.6670003 -0.59395725 0.42035696 0
2.6720002 -0.59926403 0.42039302 0
2.6790001 -0.60507953 0.42044353 0
2.8240001 -0.64502305 0.42148975 0
2.8230002 -0.64914662 0.42148253 0
2.8230002 -0.65351725 0.42148253 0
2.8230002 -0.65788782 0.42148253 0
2.8220003 -0.66200411 0.42147532 0
2.8220003 -0.66637295 0.42147532 0
2.8210001 -0.67048383 0.42146808 0
2.8210001 -0.67485082 0.42146808 0
2.8210001 -0.67921788 0.42146808 0
2.8200002 -0.68332154 0.42146087 0
2.8200002 -0.68768674 0.42146087 0
2.8190002 -0.69178504 0.42145365 0
2.8190002 -0.69614846 0.42145365 0
2.8180003 -0.70024127 0.42144644 0
2.8180003 -0.7046029 0.42144644 0
2.8180003 -0.70896453 0.42144644 0
2.8170002 -0.71305007 0.42143923 0
2.8170002 -0.71740991 0.42143923 0
2.8160002 -0.72149009 0.42143202 0
2.8160002 -0.72584814 0.42143202 0
2.8160002 -0.73020607 0.42143202 0
2.8150003 -0.73427916 0.42142481 0
2.8150003 -0.73863536 0.42142481 0
2.8140001 -0.74270284 0.42141759 0
2.8140001 -0.74705726 0.42141759 0
2.8130002 -0.75111943 0.42141038 0
2.8130002 -0.75547206 0.42141038 0
2.8130002 -0.75982463 0.42141038 0
2.8120003 -0.76387966 0.42140317 0
2.8120003 -0.76823038 0.42140317 0
2.8110001 -0.77227992 0.42139593 0
2.8110001 -0.77662891 0.42139593 0
2.8110001 -0.7809779 0.42139593 0
2.8100002 -0.78502023 0.42138872 0
2.8100002 -0.78936744 0.42138872 0
2.8090003 -0.79340434 0.4213815 0
2.8090003 -0.7977497 0.4213815 0
2.6830001 -0.76254839 0.42047238 0
2.6730001 -0.76350975 0.42040023 0
2.6650002 -0.76507008 0.4203425 0
2.6600001 -0.76755929 0.42030644 0
2.6550002 -0.77003056 0.42027035 0
2.6510003 -0.77280664 0.4202415 0
2.6480002 -0.77589297 0.42021987 0
2.6450002 -0.77896845 0.4201982 0
2.6420002 -0.78203309 0.42017657 0
2.6400001 -0.78541708 0.42016214 0
2.6380002 -0.7887938 0.42014772 0
2.6360002 -0.79216331 0.42013326 0
2.6350002 -0.79586112 0.42012605 0
2.6340003 -0.79955536 0.42011884 0
2.6330001 -0.8032459 0.42011163 0
2.6320002 -0.80693293 0.42010441 0
2.6320002 -0.81095898 0.42010441 0
2.6320002 -0.8149851 0.42010441 0
2.6330001 -0.81935751 0.42011163 0
2.6330001 -0.82338536 0.42011163 0
2.6350002 -0.8281132 0.42012605 0
2.6360002 -0.83249646 0.42013326 0
2.6390002 -0.83759046 0.42015493 0
2.6420002 -0.84269518 0.42017657 0
2.6480002 -0.84888226 0.42021987 0
2.8380003 -0.5033592 0.41719306 0
2.8370001 -0.50756747 0.41718766 0
2.8370001 -0.51196331 0.41718766 0
2.8360002 -0.51616621 0.41718224 0
2.8360002 -0.52056026 0.41718224 0
2.8360002 -0.52495438 0.41718224 0
2.8350003 -0.52915001 0.41717684 0
2.8350003 -0.53354234 0.41717684 0
2.8340001 -0.53773254 0.41717142 0
2.6980002 -0.51440209 0.41643548 0
2.6890001 -0.51669651 0.41638675 0
2.6830001 -0.51958084 0.4163543 0
2.6780002 -0.52265269 0.41632724 0
2.6740003 -0.52591759 0.4163056 0
2.6700003 -0.52916807 0.41628394 0
2.6670003 -0.53261876 0.41626772 0
2.6650002 -0.53627509 0.4162569 0
2.6620002 -0.53970587 0.41624066 0
2.6610003 -0.54356605 0.41623524 0
2.6590002 -0.54720074 0.41622442 0
2.6580002 -0.55105186 0.416219 0
2.6570003 -0.55489945 0.4162136 0
2.6560001 -0.5587433 0.41620818 0
2.6560001 -0.56281269 0.41620818 0
2.6560001 -0.56688207 0.41620818 0
2.6570003 -0.57118416 0.4162136 0
2.6580002 -0.57548988 0.416219 0
2.6590002 -0.57979918 0.41622442 0
2.6610003 -0.58435023 0.41623524 0
2.6630001 -0.58890837 0.41624606 0
2.6670003 -0.59395725 0.41626772 0
2.6720002 -0.59926403 0.41629478 0
2.6790001 -0.60507953 0.41633266 0
2.8240001 -0.64502305 0.4171173 0
2.8230002 -0.64914662 0.4171119 0
2.8230002 -0.65351725 0.4171119 0
2.8230002 -0.65788782 0.4171119 0
2.8220003 -0.66200411 0.41710648 0
2.8220003 -0.66637295 0.41710648 0
2.8210001 -0.67048383 0.41710109 0
2.8210001 -0.67485082 0.41710109 0
2.8210001 -0.67921788 0.41710109 0
2.8200002 -0.68332154 0.41709566 0
2.8200002 -0.68768674 0.41709566 0
2.8190002 -0.69178504 0.41709024 0
2.8190002 -0.69614846 0.41709024 0
2.8180003 -0.70024127 0.41708484 0
2.8180003 -0.7046029 0.41708484 0
2.8180003 -0.70896453 0.41708484 0
2.8170002 -0.71305007 0.41707942 0
2.8170002 -0.71740991 0.41707942 0
2.8160002 -0.72149009 0.41707402 0
2.8160002 -0.72584814 0.41707402 0
2.8160002 -0.73020607 0.41707402 0
2.8150003 -0.73427916 0.4170686 0
2.8150003 -0.73863536 0.4170686 0
2.8140001 -0.74270284 0.41706321 0
2.8140001 -0.74705726 0.41706321 0
2.8130002 -0.75111943 0.41705778 0
2.8130002 -0.75547206 0.41705778 0
2.8130002 -0.75982463 0.41705778 0
2.8120003 -0.76387966 0.41705236 0
2.8120003 -0.76823038 0.41705236 0
2.8110001 -0.77227992 0.41704696 0
2.8110001 -0.77662891 0.41704696 0
2.8110001 -0.7809779 0.41704696 0
2.8100002 -0.78502023 0.41704154 0
2.8100002 -0.78936744 0.41704154 0
2.8090003 -0.79340434 0.41703615 0
2.8090003 -0.7977497 0.41703615 0
2.6830001 -0.76254839 0.4163543 0
2.6730001 -0.76350975 0.41630018 0
2.6660001 -0.76538759 0.4162623 0
2.6600001 -0.76755929 0.41622984 0
2.6550002 -0.77003056 0.41620278 0
2.6510003 -0.77280664 0.41618112 0
2.6480002 -0.77589297 0.4161649 0
2.6450002 -0.77896845 0.41614866 0
2.6420002 -0.78203309 0.41613242 0
2.6400001 -0.78541708 0.4161216 0
2.6380002 -0.7887938 0.41611078 0
2.6360002 -0.79216331 0.41609997 0
2.6350002 -0.79586112 0.41609454 0
2.6340003 -0.79955536 0.41608915 0
2.6330001 -0.8032459 0.41608372 0
2.6320002 -0.80693293 0.4160783 0
2.6320002 -0.81095898 0.4160783 0
2.6320002 -0.8149851 0.4160783 0
2.6330001 -0.81935751 0.41608372 0
2.6330001 -0.82338536 0.41608372 0
2.6350002 -0.8281132 0.41609454 0
2.6360002 -0.83249646 0.41609997 0
2.6390002 -0.83759046 0.41611621 0
2.6420002 -0.84269518 0.41613242 0
2.6480002 -0.84888226 0.4161649 0
2.8380003 -0.5033592 0.41279539 0
2.8370001 -0.50756747 0.41279179 0
2.8370001 -0.51196331 0.41279179 0
2.8360002 -0.51616621 0.41278815 0
2.8360002 -0.52056026 0.41278815 0
2.8360002 -0.52495438 0.41278815 0
2.8350003 -0.52915001 0.41278455 0
2.8350003 -0.53354234 0.41278455 0
2.8340001 -0.53773254 0.41278094 0
2.6980002 -0.51440209 0.4122903 0
2.6890001 -0.51669651 0.41225785 0
2.6830001 -0.51958084 0.41223621 0
2.6780002 -0.52265269 0.41221815 0
2.6740003 -0.52591759 0.41220373 0
2.6700003 -0.52916807 0.4121893 0
2.6670003 -0.53261876 0.41217849 0
2.6650002 -0.53627509 0.41217127 0
2.6620002 -0.53970587 0.41216046 0
2.6610003 -0.54356605 0.41215682 0
2.6590002 -0.54720074 0.41214961 0
2.6580002 -0.55105186 0.412146 0
2.6570003 -0.55489945 0.4121424 0
2.6560001 -0.5587433 0.41213879 0
2.6560001 -0.56281269 0.41213879 0
2.6560001 -0.56688207 0.41213879 0
2.6570003 -0.57118416 0.4121424 0
2.6580002 -0.57548988 0.412146 0
2.6590002 -0.57979918 0.41214961 0
2.6610003 -0.58435023 0.41215682 0
2.6630001 -0.58890837 0.41216406 0
2.6670003 -0.59395725 0.41217849 0
2.6710002 -0.59902054 0.41219291 0
2.6790001 -0.60507953 0.41222176 0
2.8240001 -0.64502305 0.41274488 0
2.8230002 -0.64914662 0.41274127 0
2.8230002 -0.65351725 0.41274127 0
2.8230002 -0.65788782 0.41274127 0
2.8220003 -0.66200411 0.41273767 0
2.8220003 -0.66637295 0.41273767 0
2.8210001 -0.67048383 0.41273406 0
2.8210001 -0.67485082 0.41273406 0
