# .PCD v0.7 - Point Cloud Data file format
VERSION 0.7
FIELDS x y z intensity
SIZE 4 4 4 4
TYPE F F F F
COUNT 1 1 1 1
WIDTH 1459
HEIGHT 1
VIEWPOINT 0 0 0 1 0 0 0
POINTS 1459
DATA ascii
6.2880006 -2.860518 1.6147739 0
6.2810001 -2.8677802 1.6133344 0
6.2740002 -2.8750169 1.6118948 0
6.2670002 -2.8822286 1.6104555 0
6.2600002 -2.889415 1.6090161 0
6.2530003 -2.8965762 1.6075766 0
6.2450004 -2.9032233 1.6059315 0
6.2380004 -2.910332 1.6044922 0
6.2310004 -2.9174156 1.6030526 0
6.2240005 -2.924474 1.6016133 0
6.2170005 -2.9315069 1.6001738 0
6.2100005 -2.9385147 1.5987344 0
6.2030005 -2.9454975 1.597295 0
6.1960006 -2.9524546 1.5958556 0
6.1890006 -2.9593866 1.5944161 0
6.1830006 -2.9667985 1.5931822 0
6.1760006 -2.9736819 1.5917429 0
6.1690001 -2.9805398 1.5903033 0
6.1620002 -2.9873726 1.5888638 0
6.1550002 -2.9941802 1.5874245 0
6.1480002 -3.0009625 1.5859851 0
6.1410003 -3.0077195 1.5845456 0
6.1350002 -3.0149691 1.5833118 0
6.1280003 -3.0216775 1.5818723 0
6.1210003 -3.0283606 1.5804329 0
6.1140003 -3.0350184 1.5789934 0
6.1070004 -3.041651 1.5775541 0
6.1010003 -3.048785 1.5763202 0
6.0940003 -3.0553689 1.5748808 0
6.0870004 -3.0619276 1.5734414 0
6.0810003 -3.0689931 1.5722076 0
6.0740004 -3.0755031 1.5707682 0
6.0670004 -3.0819879 1.5693287 0
6.0610003 -3.0889847 1.5680948 0
6.0540004 -3.0954208 1.5666555 0
6.0480003 -3.1023726 1.5654216 0
6.0410004 -3.1087599 1.5639822 0
6.0340004 -3.1151221 1.5625428 0
6.0280004 -3.1220052 1.561309 0
6.0210004 -3.1283185 1.5598695 0
6.0150003 -3.1351569 1.5586357 0
6.0080004 -3.1414216 1.5571963 0
6.0020003 -3.1482146 1.5559626 0
5.9950004 -3.1544306 1.554523 0
5.9890003 -3.1611786 1.5532892 0
5.9820004 -3.1673458 1.5518498 0
5.9760003 -3.1740489 1.5506159 0
5.9690003 -3.1801672 1.5491766 0
5.9630003 -3.1868253 1.5479428 0
5.9570003 -3.1934614 1.5467089 0
5.9500003 -3.1995077 1.5452695 0
5.9440002 -3.2060988 1.5440357 0
5.9380002 -3.2126682 1.5428019 0
6.3900003 -2.7580078 1.6249437 0
6.3830004 -2.7656305 1.6235169 0
6.3750005 -2.7727718 1.6218863 0
6.3680005 -2.7803423 1.6204594 0
6.3610005 -2.7878878 1.6190327 0
6.3530002 -2.794946 1.617402 0
6.3460002 -2.802439 1.6159751 0
6.3390002 -2.8099067 1.6145483 0
6.3310003 -2.8168821 1.6129177 0
6.3240004 -2.8242977 1.611491 0
6.3170004 -2.8316877 1.6100641 0
6.3100004 -2.8390527 1.6086372 0
6.3030005 -2.8463926 1.6072105 0
6.2950006 -2.8532307 1.6055799 0
6.2880006 -2.860518 1.604153 0
6.2810001 -2.8677802 1.6027261 0
6.2740002 -2.8750169 1.6012994 0
6.2670002 -2.8822286 1.5998726 0
6.2600002 -2.889415 1.5984457 0
6.2530003 -2.8965762 1.597019 0
6.2450004 -2.9032233 1.5953883 0
6.2380004 -2.910332 1.5939615 0
6.2310004 -2.9174156 1.5925347 0
6.2240005 -2.924474 1.591108 0
6.2170005 -2.9315069 1.5896811 0
6.2100005 -2.9385147 1.5882542 0
6.2030005 -2.9454975 1.5868275 0
6.1960006 -2.9524546 1.5854007 0
6.1890006 -2.9593866 1.5839739 0
6.1830006 -2.9667985 1.5827509 0
6.1760006 -2.9736819 1.5813241 0
6.1690001 -2.9805398 1.5798972 0
6.1620002 -2.9873726 1.5784703 0
6.1550002 -2.9941802 1.5770435 0
6.1480002 -3.0009625 1.5756167 0
6.1410003 -3.0077195 1.57419 0
6.1350002 -3.0149691 1.5729669 0
6.1280003 -3.0216775 1.5715402 0
6.1210003 -3.0283606 1.5701133 0
6.1140003 -3.0350184 1.5686865 0
6.1070004 -3.041651 1.5672598 0
6.1010003 -3.048785 1.5660367 0
6.0940003 -3.0553689 1.5646099 0
6.0870004 -3.0619276 1.5631832 0
6.0810003 -3.0689931 1.5619601 0
6.0740004 -3.0755031 1.5605334 0
6.0670004 -3.0819879 1.5591066 0
6.0610003 -3.0889847 1.5578836 0
6.0540004 -3.0954208 1.5564568 0
6.0480003 -3.1023726 1.5552337 0
6.0410004 -3.1087599 1.553807 0
6.0340004 -3.1151221 1.5523801 0
6.0280004 -3.1220052 1.5511572 0
6.0210004 -3.1283185 1.5497303 0
6.0150003 -3.1351569 1.5485075 0
6.0080004 -3.1414216 1.5470805 0
6.0020003 -3.1482146 1.5458575 0
5.9950004 -3.1544306 1.5444307 0
5.9890003 -3.1611786 1.5432078 0
5.9820004 -3.1673458 1.5417809 0
5.9760003 -3.1740489 1.540558 0
5.9690003 -3.1801672 1.539131 0
5.9630003 -3.1868253 1.5379082 0
5.9570003 -3.1934614 1.5366852 0
5.9500003 -3.1995077 1.5352584 0
5.9440002 -3.2060988 1.5340354 0
5.9380002 -3.2126682 1.5328124 0
6.3900003 -2.7580078 1.6141388 0
6.3830004 -2.7656305 1.6127247 0
6.3750005 -2.7727718 1.6111085 0
6.3680005 -2.7803423 1.6096942 0
6.3610005 -2.7878878 1.6082802 0
6.3530002 -2.794946 1.6066639 0
6.3460002 -2.802439 1.6052498 0
6.3390002 -2.8099067 1.6038356 0
6.3310003 -2.8168821 1.6022193 0
6.3240004 -2.8242977 1.6008052 0
6.3170004 -2.8316877 1.599391 0
6.3100004 -2.8390527 1.5979768 0
6.3030005 -2.8463926 1.5965626 0
6.2950006 -2.8532307 1.5949464 0
6.2880006 -2.860518 1.5935322 0
6.2810001 -2.8677802 1.5921179 0
6.2740002 -2.8750169 1.5907037 0
6.2670002 -2.8822286 1.5892895 0
6.2600002 -2.889415 1.5878754 0
6.2530003 -2.8965762 1.5864612 0
6.2450004 -2.9032233 1.5848451 0
6.2380004 -2.910332 1.5834309 0
6.2310004 -2.9174156 1.5820167 0
6.2240005 -2.924474 1.5806025 0
6.2170005 -2.9315069 1.5791883 0
6.2100005 -2.9385147 1.5777742 0
6.2030005 -2.9454975 1.57636 0
6.1960006 -2.9524546 1.5749458 0
6.1890006 -2.9593866 1.5735316 0
6.1830006 -2.9667985 1.5723194 0
6.1760006 -2.9736819 1.5709052 0
6.1690001 -2.9805398 1.569491 0
6.1620002 -2.9873726 1.5680768 0
6.1550002 -2.9941802 1.5666627 0
6.1480002 -3.0009625 1.5652485 0
6.1410003 -3.0077195 1.5638343 0
6.1350002 -3.0149691 1.5626221 0
6.1280003 -3.0216775 1.5612079 0
6.1210003 -3.0283606 1.5597937 0
6.1140003 -3.0350184 1.5583795 0
6.1070004 -3.041651 1.5569654 0
6.1010003 -3.048785 1.5557532 0
6.0940003 -3.0553689 1.5543391 0
6.0870004 -3.0619276 1.5529249 0
6.0810003 -3.0689931 1.5517128 0
6.0740004 -3.0755031 1.5502986 0
6.0670004 -3.0819879 1.5488844 0
6.0610003 -3.0889847 1.5476722 0
6.0540004 -3.0954208 1.546258 0
6.0480003 -3.1023726 1.5450459 0
6.0410004 -3.1087599 1.5436317 0
6.0340004 -3.1151221 1.5422175 0
6.0280004 -3.1220052 1.5410054 0
6.0210004 -3.1283185 1.5395911 0
6.0150003 -3.1351569 1.538379 0
6.0080004 -3.1414216 1.5369648 0
6.0020003 -3.1482146 1.5357525 0
5.9950004 -3.1544306 1.5343384 0
5.9890003 -3.1611786 1.5331262 0
5.9820004 -3.1673458 1.5317121 0
5.9760003 -3.1740489 1.5304999 0
5.9690003 -3.1801672 1.5290858 0
5.9630003 -3.1868253 1.5278736 0
5.9570003 -3.1934614 1.5266614 0
5.9500003 -3.1995077 1.5252472 0
5.9440002 -3.2060988 1.5240351 0
5.9380002 -3.2126682 1.5228229 0
6.3900003 -2.7580078 1.6033341 0
6.3830004 -2.7656305 1.6019325 0
6.3750005 -2.7727718 1.6003307 0
6.3680005 -2.7803423 1.5989293 0
6.3610005 -2.7878878 1.5975276 0
6.3530002 -2.794946 1.5959258 0
6.3460002 -2.802439 1.5945243 0
6.3390002 -2.8099067 1.5931227 0
6.3310003 -2.8168821 1.5915209 0
6.3240004 -2.8242977 1.5901194 0
6.3170004 -2.8316877 1.5887178 0
6.3100004 -2.8390527 1.5873163 0
6.3030005 -2.8463926 1.5859147 0
6.2950006 -2.8532307 1.5843129 0
6.2880006 -2.860518 1.5829114 0
6.2810001 -2.8677802 1.5815098 0
6.2740002 -2.8750169 1.5801083 0
6.2670002 -2.8822286 1.5787066 0
6.2600002 -2.889415 1.5773051 0
6.2530003 -2.8965762 1.5759037 0
6.2450004 -2.9032233 1.5743018 0
6.2380004 -2.910332 1.5729002 0
6.2310004 -2.9174156 1.5714986 0
6.2240005 -2.924474 1.5700972 0
6.2170005 -2.9315069 1.5686957 0
6.2100005 -2.9385147 1.567294 0
6.2030005 -2.9454975 1.5658925 0
6.1960006 -2.9524546 1.564491 0
6.1890006 -2.9593866 1.5630894 0
6.1830006 -2.9667985 1.561888 0
6.1760006 -2.9736819 1.5604864 0
6.1690001 -2.9805398 1.5590849 0
6.1620002 -2.9873726 1.5576833 0
6.1550002 -2.9941802 1.5562817 0
6.1480002 -3.0009625 1.5548801 0
6.1410003 -3.0077195 1.5534786 0
6.1350002 -3.0149691 1.5522773 0
6.1280003 -3.0216775 1.5508758 0
6.1210003 -3.0283606 1.5494741 0
6.1140003 -3.0350184 1.5480726 0
6.1070004 -3.041651 1.5466712 0
6.1010003 -3.048785 1.5454698 0
6.0940003 -3.0553689 1.5440682 0
6.0870004 -3.0619276 1.5426666 0
6.0810003 -3.0689931 1.5414653 0
6.0740004 -3.0755031 1.5400637 0
6.0670004 -3.0819879 1.5386622 0
6.0610003 -3.0889847 1.5374608 0
6.0540004 -3.0954208 1.5360593 0
6.0480003 -3.1023726 1.534858 0
6.0410004 -3.1087599 1.5334563 0
6.0340004 -3.1151221 1.5320548 0
6.0280004 -3.1220052 1.5308534 0
6.0210004 -3.1283185 1.529452 0
6.0150003 -3.1351569 1.5282506 0
6.0080004 -3.1414216 1.526849 0
6.0020003 -3.1482146 1.5256476 0
5.9950004 -3.1544306 1.5242461 0
5.9890003 -3.1611786 1.5230448 0
5.9820004 -3.1673458 1.5216433 0
5.9760003 -3.1740489 1.5204419 0
5.9690003 -3.1801672 1.5190403 0
5.9630003 -3.1868253 1.5178391 0
5.9570003 -3.1934614 1.5166377 0
5.9500003 -3.1995077 1.5152361 0
5.9440002 -3.2060988 1.5140347 0
5.9380002 -3.2126682 1.5128334 0
6.3900003 -2.7580078 1.5925293 0
6.3830004 -2.7656305 1.5911403 0
6.3750005 -2.7727718 1.5895531 0
6.3680005 -2.7803423 1.5881641 0
6.3610005 -2.7878878 1.5867751 0
6.3530002 -2.794946 1.5851878 0
6.3460002 -2.802439 1.5837988 0
6.3390002 -2.8099067 1.58241 0
6.3310003 -2.8168821 1.5808226 0
6.3240004 -2.8242977 1.5794336 0
6.3170004 -2.8316877 1.5780448 0
6.3100004 -2.8390527 1.5766557 0
6.3030005 -2.8463926 1.5752668 0
6.2950006 -2.8532307 1.5736796 0
6.2880006 -2.860518 1.5722907 0
6.2810001 -2.8677802 1.5709016 0
6.2740002 -2.8750169 1.5695127 0
6.2670002 -2.8822286 1.5681237 0
6.2600002 -2.889415 1.5667348 0
6.2530003 -2.8965762 1.5653459 0
6.2450004 -2.9032233 1.5637585 0
6.2380004 -2.910332 1.5623697 0
6.2310004 -2.9174156 1.5609807 0
6.2240005 -2.924474 1.5595918 0
6.2170005 -2.9315069 1.5582029 0
6.2100005 -2.9385147 1.556814 0
6.2030005 -2.9454975 1.555425 0
6.1960006 -2.9524546 1.554036 0
6.1890006 -2.9593866 1.5526471 0
6.1830006 -2.9667985 1.5514567 0
6.1760006 -2.9736819 1.5500677 0
6.1690001 -2.9805398 1.5486788 0
6.1620002 -2.9873726 1.5472897 0
6.1550002 -2.9941802 1.5459008 0
6.1480002 -3.0009625 1.5445119 0
6.1410003 -3.0077195 1.5431229 0
6.1350002 -3.0149691 1.5419325 0
6.1280003 -3.0216775 1.5405436 0
6.1210003 -3.0283606 1.5391545 0
6.1140003 -3.0350184 1.5377657 0
6.1070004 -3.041651 1.5363767 0
6.1010003 -3.048785 1.5351863 0
6.0940003 -3.0553689 1.5337973 0
6.0870004 -3.0619276 1.5324084 0
6.0810003 -3.0689931 1.5312178 0
6.0740004 -3.0755031 1.5298289 0
6.0670004 -3.0819879 1.52844 0
6.0610003 -3.0889847 1.5272495 0
6.0540004 -3.0954208 1.5258604 0
6.0480003 -3.1023726 1.52467 0
6.0410004 -3.1087599 1.5232811 0
6.0340004 -3.1151221 1.5218922 0
6.0280004 -3.1220052 1.5207016 0
6.0210004 -3.1283185 1.5193127 0
6.0150003 -3.1351569 1.5181222 0
6.0080004 -3.1414216 1.5167332 0
6.0020003 -3.1482146 1.5155427 0
5.9950004 -3.1544306 1.5141538 0
5.9890003 -3.1611786 1.5129633 0
5.9820004 -3.1673458 1.5115744 0
5.9760003 -3.1740489 1.5103838 0
5.9690003 -3.1801672 1.5089949 0
5.9630003 -3.1868253 1.5078044 0
5.9570003 -3.1934614 1.5066139 0
5.9500003 -3.1995077 1.5052249 0
5.9440002 -3.2060988 1.5040344 0
5.9380002 -3.2126682 1.5028439 0
6.3900003 -2.7580078 1.5817245 0
6.3830004 -2.7656305 1.5803481 0
6.3750005 -2.7727718 1.5787753 0
6.3680005 -2.7803423 1.5773989 0
6.3610005 -2.7878878 1.5760226 0
6.3530002 -2.794946 1.5744497 0
6.3460002 -2.802439 1.5730734 0
6.3390002 -2.8099067 1.5716971 0
6.3310003 -2.8168821 1.5701241 0
6.3240004 -2.8242977 1.5687479 0
6.3170004 -2.8316877 1.5673715 0
6.3100004 -2.8390527 1.5659953 0
6.3030005 -2.8463926 1.5646191 0
6.2950006 -2.8532307 1.5630461 0
6.2880006 -2.860518 1.5616698 0
6.2810001 -2.8677802 1.5602933 0
6.2740002 -2.8750169 1.558917 0
6.2670002 -2.8822286 1.5575408 0
6.2600002 -2.889415 1.5561644 0
6.2530003 -2.8965762 1.5547881 0
6.2450004 -2.9032233 1.5532153 0
6.2380004 -2.910332 1.551839 0
6.2310004 -2.9174156 1.5504627 0
6.2240005 -2.924474 1.5490863 0
6.2170005 -2.9315069 1.5477101 0
6.2100005 -2.9385147 1.5463338 0
6.2030005 -2.9454975 1.5449575 0
6.1960006 -2.9524546 1.5435811 0
6.1890006 -2.9593866 1.5422049 0
6.1830006 -2.9667985 1.5410252 0
6.1760006 -2.9736819 1.5396489 0
6.1690001 -2.9805398 1.5382725 0
6.1620002 -2.9873726 1.5368961 0
6.1550002 -2.9941802 1.5355198 0
6.1480002 -3.0009625 1.5341437 0
6.1410003 -3.0077195 1.5327673 0
6.1350002 -3.0149691 1.5315876 0
6.1280003 -3.0216775 1.5302112 0
6.1210003 -3.0283606 1.5288351 0
6.1140003 -3.0350184 1.5274588 0
6.1070004 -3.041651 1.5260824 0
6.1010003 -3.048785 1.5249027 0
6.0940003 -3.0553689 1.5235263 0
6.0870004 -3.0619276 1.5221502 0
6.0810003 -3.0689931 1.5209703 0
6.0740004 -3.0755031 1.5195941 0
6.0670004 -3.0819879 1.5182178 0
6.0610003 -3.0889847 1.5170381 0
6.0540004 -3.0954208 1.5156617 0
6.0480003 -3.1023726 1.5144821 0
6.0410004 -3.1087599 1.5131058 0
6.0340004 -3.1151221 1.5117295 0
6.0280004 -3.1220052 1.5105498 0
6.0210004 -3.1283185 1.5091735 0
6.0150003 -3.1351569 1.5079938 0
6.0080004 -3.1414216 1.5066175 0
6.0020003 -3.1482146 1.5054379 0
5.9950004 -3.1544306 1.5040616 0
5.9890003 -3.1611786 1.5028819 0
5.9820004 -3.1673458 1.5015056 0
5.9760003 -3.1740489 1.5003258 0
5.9690003 -3.1801672 1.4989494 0
5.9630003 -3.1868253 1.4977698 0
5.9570003 -3.1934614 1.4965901 0
5.9500003 -3.1995077 1.4952137 0
5.9440002 -3.2060988 1.4940342 0
5.9380002 -3.2126682 1.4928545 0
6.3900003 -2.7580078 1.5709196 0
6.3830004 -2.7656305 1.5695559 0
6.3750005 -2.7727718 1.5679976 0
6.3680005 -2.7803423 1.5666339 0
6.3610005 -2.7878878 1.5652702 0
6.3530002 -2.794946 1.5637116 0
6.3460002 -2.802439 1.562348 0
6.3390002 -2.8099067 1.5609843 0
6.3310003 -2.8168821 1.5594258 0
6.3240004 -2.8242977 1.5580622 0
6.3170004 -2.8316877 1.5566984 0
6.3100004 -2.8390527 1.5553348 0
6.3030005 -2.8463926 1.5539712 0
6.2950006 -2.8532307 1.5524126 0
6.2880006 -2.860518 1.551049 0
6.2810001 -2.8677802 1.5496852 0
6.2740002 -2.8750169 1.5483216 0
6.2670002 -2.8822286 1.5469579 0
6.2600002 -2.889415 1.5455941 0
6.2530003 -2.8965762 1.5442305 0
6.2450004 -2.9032233 1.542672 0
6.2380004 -2.910332 1.5413084 0
6.2310004 -2.9174156 1.5399446 0
6.2240005 -2.924474 1.538581 0
6.2170005 -2.9315069 1.5372173 0
6.2100005 -2.9385147 1.5358536 0
6.2030005 -2.9454975 1.53449 0
6.1960006 -2.9524546 1.5331264 0
6.1890006 -2.9593866 1.5317626 0
6.1830006 -2.9667985 1.5305938 0
6.1760006 -2.9736819 1.5292301 0
6.1690001 -2.9805398 1.5278664 0
6.1620002 -2.9873726 1.5265027 0
6.1550002 -2.9941802 1.525139 0
6.1480002 -3.0009625 1.5237752 0
6.1410003 -3.0077195 1.5224116 0
6.1350002 -3.0149691 1.5212427 0
6.1280003 -3.0216775 1.5198791 0
6.1210003 -3.0283606 1.5185155 0
6.1140003 -3.0350184 1.5171517 0
6.1070004 -3.041651 1.5157881 0
6.1010003 -3.048785 1.5146191 0
6.0940003 -3.0553689 1.5132555 0
6.0870004 -3.0619276 1.5118918 0
6.0810003 -3.0689931 1.510723 0
6.0740004 -3.0755031 1.5093594 0
6.0670004 -3.0819879 1.5079956 0
6.0610003 -3.0889847 1.5068268 0
6.0540004 -3.0954208 1.505463 0
6.0480003 -3.1023726 1.5042942 0
6.0410004 -3.1087599 1.5029305 0
6.0340004 -3.1151221 1.5015669 0
6.0280004 -3.1220052 1.500398 0
6.0210004 -3.1283185 1.4990344 0
6.0150003 -3.1351569 1.4978654 0
6.0080004 -3.1414216 1.4965017 0
6.0020003 -3.1482146 1.495333 0
5.9950004 -3.1544306 1.4939692 0
5.9890003 -3.1611786 1.4928002 0
5.9820004 -3.1673458 1.4914366 0
5.9760003 -3.1740489 1.4902678 0
5.9690003 -3.1801672 1.4889041 0
5.9630003 -3.1868253 1.4877353 0
5.9570003 -3.1934614 1.4865663 0
5.9500003 -3.1995077 1.4852027 0
5.9440002 -3.2060988 1.4840338 0
5.9380002 -3.2126682 1.482865 0
6.3900003 -2.7580078 1.5601149 0
6.3830004 -2.7656305 1.5587637 0
6.3750005 -2.7727718 1.5572197 0
6.3680005 -2.7803423 1.5558687 0
6.3610005 -2.7878878 1.5545176 0
6.3530002 -2.794946 1.5529735 0
6.3460002 -2.802439 1.5516224 0
6.3390002 -2.8099067 1.5502715 0
6.3310003 -2.8168821 1.5487274 0
6.3240004 -2.8242977 1.5473764 0
6.3170004 -2.8316877 1.5460253 0
6.3100004 -2.8390527 1.5446743 0
6.3030005 -2.8463926 1.5433232 0
6.2950006 -2.8532307 1.5417793 0
6.2880006 -2.860518 1.5404282 0
6.2810001 -2.8677802 1.539077 0
6.2740002 -2.8750169 1.5377259 0
6.2670002 -2.8822286 1.5363748 0
6.2600002 -2.889415 1.5350238 0
6.2530003 -2.8965762 1.5336728 0
6.2450004 -2.9032233 1.5321288 0
6.2380004 -2.910332 1.5307777 0
6.2310004 -2.9174156 1.5294267 0
6.2240005 -2.924474 1.5280756 0
6.2170005 -2.9315069 1.5267246 0
6.2100005 -2.9385147 1.5253736 0
6.2030005 -2.9454975 1.5240225 0
6.1960006 -2.9524546 1.5226715 0
6.1890006 -2.9593866 1.5213203 0
6.1830006 -2.9667985 1.5201623 0
6.1760006 -2.9736819 1.5188112 0
6.1690001 -2.9805398 1.5174602 0
6.1620002 -2.9873726 1.5161091 0
6.1550002 -2.9941802 1.5147581 0
6.1480002 -3.0009625 1.513407 0
6.1410003 -3.0077195 1.512056 0
6.1350002 -3.0149691 1.5108979 0
6.1280003 -3.0216775 1.5095469 0
6.1210003 -3.0283606 1.5081959 0
6.1140003 -3.0350184 1.5068448 0
6.1070004 -3.041651 1.5054938 0
6.1010003 -3.048785 1.5043356 0
6.0940003 -3.0553689 1.5029846 0
6.0870004 -3.0619276 1.5016336 0
6.0810003 -3.0689931 1.5004755 0
6.0740004 -3.0755031 1.4991245 0
6.0670004 -3.0819879 1.4977734 0
6.0610003 -3.0889847 1.4966154 0
6.0540004 -3.0954208 1.4952643 0
6.0480003 -3.1023726 1.4941063 0
6.0410004 -3.1087599 1.4927553 0
6.0340004 -3.1151221 1.4914042 0
6.0280004 -3.1220052 1.4902462 0
6.0210004 -3.1283185 1.4888951 0
6.0150003 -3.1351569 1.4877371 0
6.0080004 -3.1414216 1.4863859 0
6.0020003 -3.1482146 1.4852279 0
5.9950004 -3.1544306 1.4838769 0
5.9890003 -3.1611786 1.4827188 0
5.9820004 -3.1673458 1.4813678 0
5.9760003 -3.1740489 1.4802097 0
5.9690003 -3.1801672 1.4788587 0
5.9630003 -3.1868253 1.4777007 0
5.9570003 -3.1934614 1.4765426 0
5.9500003 -3.1995077 1.4751916 0
5.9440002 -3.2060988 1.4740335 0
5.9380002 -3.2126682 1.4728755 0
6.3900003 -2.7580078 1.54931 0
6.3830004 -2.7656305 1.5479717 0
6.3750005 -2.7727718 1.546442 0
6.3680005 -2.7803423 1.5451035 0
6.3610005 -2.7878878 1.5437652 0
6.3530002 -2.794946 1.5422355 0
6.3460002 -2.802439 1.540897 0
6.3390002 -2.8099067 1.5395586 0
6.3310003 -2.8168821 1.5380291 0
6.3240004 -2.8242977 1.5366906 0
6.3170004 -2.8316877 1.5353521 0
6.3100004 -2.8390527 1.5340137 0
6.3030005 -2.8463926 1.5326753 0
6.2950006 -2.8532307 1.5311457 0
6.2880006 -2.860518 1.5298073 0
6.2810001 -2.8677802 1.5284687 0
6.2740002 -2.8750169 1.5271304 0
6.2670002 -2.8822286 1.525792 0
6.2600002 -2.889415 1.5244535 0
6.2530003 -2.8965762 1.5231152 0
6.2450004 -2.9032233 1.5215855 0
6.2380004 -2.910332 1.520247 0
6.2310004 -2.9174156 1.5189087 0
6.2240005 -2.924474 1.5175703 0
6.2170005 -2.9315069 1.5162319 0
6.2100005 -2.9385147 1.5148934 0
6.2030005 -2.9454975 1.5135549 0
6.1960006 -2.9524546 1.5122166 0
6.1890006 -2.9593866 1.5108781 0
6.1830006 -2.9667985 1.5097309 0
6.1760006 -2.9736819 1.5083925 0
6.1690001 -2.9805398 1.507054 0
6.1620002 -2.9873726 1.5057156 0
6.1550002 -2.9941802 1.5043771 0
6.1480002 -3.0009625 1.5030388 0
6.1410003 -3.0077195 1.5017003 0
6.1350002 -3.0149691 1.5005531 0
6.1280003 -3.0216775 1.4992146 0
6.1210003 -3.0283606 1.4978763 0
6.1140003 -3.0350184 1.4965378 0
6.1070004 -3.041651 1.4951993 0
6.1010003 -3.048785 1.4940522 0
6.0940003 -3.0553689 1.4927138 0
6.0870004 -3.0619276 1.4913753 0
6.0810003 -3.0689931 1.4902282 0
6.0740004 -3.0755031 1.4888897 0
6.0670004 -3.0819879 1.4875512 0
6.0610003 -3.0889847 1.4864041 0
6.0540004 -3.0954208 1.4850656 0
6.0480003 -3.1023726 1.4839184 0
6.0410004 -3.1087599 1.4825799 0
6.0340004 -3.1151221 1.4812416 0
6.0280004 -3.1220052 1.4800943 0
6.0210004 -3.1283185 1.478756 0
6.0150003 -3.1351569 1.4776086 0
6.0080004 -3.1414216 1.4762703 0
6.0020003 -3.1482146 1.475123 0
5.9950004 -3.1544306 1.4737846 0
5.9890003 -3.1611786 1.4726374 0
5.9820004 -3.1673458 1.4712989 0
5.9760003 -3.1740489 1.4701518 0
5.9690003 -3.1801672 1.4688133 0
5.9630003 -3.1868253 1.4676661 0
5.9570003 -3.1934614 1.4665188 0
5.9500003 -3.1995077 1.4651805 0
5.9440002 -3.2060988 1.4640331 0
5.9380002 -3.2126682 1.462886 0
6.3900003 -2.7580078 1.5385052 0
6.3830004 -2.7656305 1.5371795 0
6.3750005 -2.7727718 1.5356643 0
6.3680005 -2.7803423 1.5343384 0
6.3610005 -2.7878878 1.5330126 0
6.3530002 -2.794946 1.5314974 0
6.3460002 -2.802439 1.5301716 0
6.3390002 -2.8099067 1.5288458 0
6.3310003 -2.8168821 1.5273306 0
6.3240004 -2.8242977 1.5260048 0
6.3170004 -2.8316877 1.5246791 0
6.3100004 -2.8390527 1.5233532 0
6.3030005 -2.8463926 1.5220275 0
6.2950006 -2.8532307 1.5205122 0
6.2880006 -2.860518 1.5191865 0
6.2810001 -2.8677802 1.5178607 0
6.2740002 -2.8750169 1.5165348 0
6.2670002 -2.8822286 1.5152091 0
6.2600002 -2.889415 1.5138832 0
6.2530003 -2.8965762 1.5125574 0
6.2450004 -2.9032233 1.5110422 0
6.2380004 -2.910332 1.5097165 0
6.2310004 -2.9174156 1.5083907 0
6.2240005 -2.924474 1.5070648 0
6.2170005 -2.9315069 1.5057391 0
6.2100005 -2.9385147 1.5044132 0
6.2030005 -2.9454975 1.5030875 0
6.1960006 -2.9524546 1.5017618 0
6.1890006 -2.9593866 1.5004358 0
6.1830006 -2.9667985 1.4992994 0
6.1760006 -2.9736819 1.4979737 0
6.1690001 -2.9805398 1.4966478 0
6.1620002 -2.9873726 1.495322 0
6.1550002 -2.9941802 1.4939963 0
6.1480002 -3.0009625 1.4926705 0
6.1410003 -3.0077195 1.4913446 0
6.1350002 -3.0149691 1.4902081 0
6.1280003 -3.0216775 1.4888824 0
6.1210003 -3.0283606 1.4875567 0
6.1140003 -3.0350184 1.4862309 0
6.1070004 -3.041651 1.4849051 0
6.1010003 -3.048785 1.4837687 0
6.0940003 -3.0553689 1.4824429 0
6.0870004 -3.0619276 1.481117 0
6.0810003 -3.0689931 1.4799806 0
6.0740004 -3.0755031 1.4786549 0
6.0670004 -3.0819879 1.4773291 0
6.0610003 -3.0889847 1.4761927 0
6.0540004 -3.0954208 1.4748669 0
6.0480003 -3.1023726 1.4737304 0
6.0410004 -3.1087599 1.4724047 0
6.0340004 -3.1151221 1.4710789 0
6.0280004 -3.1220052 1.4699425 0
6.0210004 -3.1283185 1.4686166 0
6.0150003 -3.1351569 1.4674803 0
6.0080004 -3.1414216 1.4661545 0
6.0020003 -3.1482146 1.465018 0
5.9950004 -3.1544306 1.4636923 0
5.9890003 -3.1611786 1.4625559 0
5.9820004 -3.1673458 1.4612302 0
5.9760003 -3.1740489 1.4600937 0
5.9690003 -3.1801672 1.4587678 0
5.9630003 -3.1868253 1.4576316 0
5.9570003 -3.1934614 1.4564952 0
5.9500003 -3.1995077 1.4551692 0
5.9440002 -3.2060988 1.4540328 0
5.9380002 -3.2126682 1.4528965 0
6.3900003 -2.7580078 1.5277004 0
6.3830004 -2.7656305 1.5263873 0
6.3750005 -2.7727718 1.5248865 0
6.3680005 -2.7803423 1.5235734 0
6.3610005 -2.7878878 1.5222602 0
6.3530002 -2.794946 1.5207593 0
6.3460002 -2.802439 1.5194463 0
6.3390002 -2.8099067 1.5181329 0
6.3310003 -2.8168821 1.5166323 0
6.3240004 -2.8242977 1.515319 0
6.3170004 -2.8316877 1.5140059 0
6.3100004 -2.8390527 1.5126927 0
6.3030005 -2.8463926 1.5113796 0
6.2950006 -2.8532307 1.5098789 0
6.2880006 -2.860518 1.5085657 0
6.2810001 -2.8677802 1.5072525 0
6.2740002 -2.8750169 1.5059392 0
6.2670002 -2.8822286 1.5046262 0
6.2600002 -2.889415 1.5033128 0
6.2530003 -2.8965762 1.5019997 0
6.2450004 -2.9032233 1.5004989 0
6.2380004 -2.910332 1.4991858 0
6.2310004 -2.9174156 1.4978726 0
6.2240005 -2.924474 1.4965595 0
6.2170005 -2.9315069 1.4952463 0
6.2100005 -2.9385147 1.4939332 0
6.2030005 -2.9454975 1.49262 0
6.1960006 -2.9524546 1.4913068 0
6.1890006 -2.9593866 1.4899936 0
6.1830006 -2.9667985 1.4888681 0
6.1760006 -2.9736819 1.4875549 0
6.1690001 -2.9805398 1.4862417 0
6.1620002 -2.9873726 1.4849285 0
6.1550002 -2.9941802 1.4836153 0
6.1480002 -3.0009625 1.4823021 0
6.1410003 -3.0077195 1.480989 0
6.1350002 -3.0149691 1.4798634 0
6.1280003 -3.0216775 1.4785503 0
6.1210003 -3.0283606 1.4772371 0
6.1140003 -3.0350184 1.4759239 0
6.1070004 -3.041651 1.4746107 0
6.1010003 -3.048785 1.4734852 0
6.0940003 -3.0553689 1.472172 0
6.0870004 -3.0619276 1.4708588 0
6.0810003 -3.0689931 1.4697332 0
6.0740004 -3.0755031 1.46842 0
6.0670004 -3.0819879 1.4671069 0
6.0610003 -3.0889847 1.4659812 0
6.0540004 -3.0954208 1.4646682 0
6.0480003 -3.1023726 1.4635426 0
6.0410004 -3.1087599 1.4622294 0
6.0340004 -3.1151221 1.4609163 0
6.0280004 -3.1220052 1.4597906 0
6.0210004 -3.1283185 1.4584775 0
6.0150003 -3.1351569 1.4573519 0
6.0080004 -3.1414216 1.4560388 0
6.0020003 -3.1482146 1.4549131 0
5.9950004 -3.1544306 1.4535999 0
5.9890003 -3.1611786 1.4524745 0
5.9820004 -3.1673458 1.4511613 0
5.9760003 -3.1740489 1.4500357 0
5.9690003 -3.1801672 1.4487225 0
5.9630003 -3.1868253 1.4475969 0
5.9570003 -3.1934614 1.4464713 0
5.9500003 -3.1995077 1.4451581 0
5.9440002 -3.2060988 1.4440325 0
5.9380002 -3.2126682 1.442907 0
6.3900003 -2.7580078 1.5168957 0
6.3830004 -2.7656305 1.5155951 0
6.3750005 -2.7727718 1.5141088 0
6.3680005 -2.7803423 1.5128082 0
6.3610005 -2.7878878 1.5115076 0
6.3530002 -2.794946 1.5100212 0
6.3460002 -2.802439 1.5087206 0
6.3390002 -2.8099067 1.5074202 0
6.3310003 -2.8168821 1.5059339 0
6.3240004 -2.8242977 1.5046333 0
6.3170004 -2.8316877 1.5033329 0
6.3100004 -2.8390527 1.5020323 0
6.3030005 -2.8463926 1.5007317 0
6.2950006 -2.8532307 1.4992454 0
6.2880006 -2.860518 1.4979448 0
6.2810001 -2.8677802 1.4966441 0
6.2740002 -2.8750169 1.4953437 0
6.2670002 -2.8822286 1.4940431 0
6.2600002 -2.889415 1.4927425 0
6.2530003 -2.8965762 1.4914421 0
6.2450004 -2.9032233 1.4899558 0
6.2380004 -2.910332 1.4886552 0
6.2310004 -2.9174156 1.4873546 0
6.2240005 -2.924474 1.4860541 0
6.2170005 -2.9315069 1.4847536 0
6.2100005 -2.9385147 1.483453 0
6.2030005 -2.9454975 1.4821525 0
6.1960006 -2.9524546 1.4808519 0
6.1890006 -2.9593866 1.4795513 0
6.1830006 -2.9667985 1.4784367 0
6.1760006 -2.9736819 1.4771361 0
6.1690001 -2.9805398 1.4758356 0
6.1620002 -2.9873726 1.474535 0
6.1550002 -2.9941802 1.4732344 0
6.1480002 -3.0009625 1.4719338 0
6.1410003 -3.0077195 1.4706333 0
6.1350002 -3.0149691 1.4695185 0
6.1280003 -3.0216775 1.468218 0
6.1210003 -3.0283606 1.4669174 0
6.1140003 -3.0350184 1.4656169 0
6.1070004 -3.041651 1.4643165 0
6.1010003 -3.048785 1.4632016 0
6.0940003 -3.0553689 1.4619012 0
6.0870004 -3.0619276 1.4606006 0
6.0810003 -3.0689931 1.4594858 0
6.0740004 -3.0755031 1.4581852 0
6.0670004 -3.0819879 1.4568847 0
6.0610003 -3.0889847 1.4557699 0
6.0540004 -3.0954208 1.4544693 0
6.0480003 -3.1023726 1.4533546 0
6.0410004 -3.1087599 1.4520541 0
6.0340004 -3.1151221 1.4507536 0
6.0280004 -3.1220052 1.4496388 0
6.0210004 -3.1283185 1.4483383 0
6.0150003 -3.1351569 1.4472235 0
6.0080004 -3.1414216 1.445923 0
6.0020003 -3.1482146 1.4448082 0
5.9950004 -3.1544306 1.4435077 0
5.9890003 -3.1611786 1.4423929 0
5.9820004 -3.1673458 1.4410924 0
5.9760003 -3.1740489 1.4399775 0
5.9690003 -3.1801672 1.4386771 0
5.9630003 -3.1868253 1.4375623 0
5.9570003 -3.1934614 1.4364476 0
5.9500003 -3.1995077 1.435147 0
5.9440002 -3.2060988 1.4340323 0
5.9380002 -3.2126682 1.4329175 0
6.3900003 -2.7580078 1.5060909 0
6.3830004 -2.7656305 1.5048029 0
6.3750005 -2.7727718 1.5033309 0
6.3680005 -2.7803423 1.502043 0
6.3610005 -2.7878878 1.5007552 0
6.3530002 -2.794946 1.4992832 0
6.3460002 -2.802439 1.4979953 0
6.3390002 -2.8099067 1.4967073 0
6.3310003 -2.8168821 1.4952354 0
6.3240004 -2.8242977 1.4939476 0
6.3170004 -2.8316877 1.4926597 0
6.3100004 -2.8390527 1.4913716 0
6.3030005 -2.8463926 1.4900838 0
6.2950006 -2.8532307 1.4886119 0
6.2880006 -2.860518 1.487324 0
6.2810001 -2.8677802 1.4860361 0
6.2740002 -2.8750169 1.4847481 0
6.2670002 -2.8822286 1.4834602 0
6.2600002 -2.889415 1.4821723 0
6.2530003 -2.8965762 1.4808844 0
6.2450004 -2.9032233 1.4794124 0
6.2380004 -2.910332 1.4781245 0
6.2310004 -2.9174156 1.4768367 0
6.2240005 -2.924474 1.4755487 0
6.2170005 -2.9315069 1.4742608 0
6.2100005 -2.9385147 1.4729729 0
6.2030005 -2.9454975 1.4716851 0
6.1960006 -2.9524546 1.4703971 0
6.1890006 -2.9593866 1.4691092 0
6.1830006 -2.9667985 1.4680052 0
6.1760006 -2.9736819 1.4667172 0
6.1690001 -2.9805398 1.4654293 0
6.1620002 -2.9873726 1.4641414 0
6.1550002 -2.9941802 1.4628534 0
6.1480002 -3.0009625 1.4615656 0
6.1410003 -3.0077195 1.4602777 0
6.1350002 -3.0149691 1.4591738 0
6.1280003 -3.0216775 1.4578859 0
6.1210003 -3.0283606 1.4565978 0
6.1140003 -3.0350184 1.45531 0
6.1070004 -3.041651 1.454022 0
6.1010003 -3.048785 1.4529182 0
6.0940003 -3.0553689 1.4516302 0
6.0870004 -3.0619276 1.4503423 0
6.0810003 -3.0689931 1.4492384 0
6.0740004 -3.0755031 1.4479505 0
6.0670004 -3.0819879 1.4466625 0
6.0610003 -3.0889847 1.4455585 0
6.0540004 -3.0954208 1.4442706 0
6.0480003 -3.1023726 1.4431667 0
6.0410004 -3.1087599 1.4418788 0
6.0340004 -3.1151221 1.4405909 0
6.0280004 -3.1220052 1.439487 0
6.0210004 -3.1283185 1.438199 0
6.0150003 -3.1351569 1.4370952 0
6.0080004 -3.1414216 1.4358072 0
6.0020003 -3.1482146 1.4347034 0
5.9950004 -3.1544306 1.4334153 0
5.9890003 -3.1611786 1.4323114 0
5.9820004 -3.1673458 1.4310235 0
5.9760003 -3.1740489 1.4299196 0
5.9690003 -3.1801672 1.4286317 0
5.9630003 -3.1868253 1.4275278 0
5.9570003 -3.1934614 1.4264238 0
5.9500003 -3.1995077 1.4251359 0
5.9440002 -3.2060988 1.424032 0
5.9380002 -3.2126682 1.4229281 0
6.3900003 -2.7580078 1.495286 0
6.3830004 -2.7656305 1.4940107 0
6.3750005 -2.7727718 1.4925532 0
6.3680005 -2.7803423 1.4912781 0
6.3610005 -2.7878878 1.4900026 0
6.3530002 -2.794946 1.4885451 0
6.3460002 -2.802439 1.4872699 0
6.3390002 -2.8099067 1.4859945 0
6.3310003 -2.8168821 1.484537 0
6.3240004 -2.8242977 1.4832618 0
6.3170004 -2.8316877 1.4819865 0
6.3100004 -2.8390527 1.4807112 0
6.3030005 -2.8463926 1.479436 0
6.2950006 -2.8532307 1.4779785 0
6.2880006 -2.860518 1.4767032 0
6.2810001 -2.8677802 1.4754279 0
6.2740002 -2.8750169 1.4741524 0
6.2670002 -2.8822286 1.4728773 0
6.2600002 -2.889415 1.471602 0
6.2530003 -2.8965762 1.4703267 0
6.2450004 -2.9032233 1.4688692 0
6.2380004 -2.910332 1.4675939 0
6.2310004 -2.9174156 1.4663186 0
6.2240005 -2.924474 1.4650434 0
6.2170005 -2.9315069 1.463768 0
6.2100005 -2.9385147 1.4624928 0
6.2030005 -2.9454975 1.4612174 0
6.1960006 -2.9524546 1.4599422 0
6.1890006 -2.9593866 1.4586669 0
6.1830006 -2.9667985 1.4575739 0
6.1760006 -2.9736819 1.4562985 0
6.1690001 -2.9805398 1.4550232 0
6.1620002 -2.9873726 1.4537479 0
6.1550002 -2.9941802 1.4524726 0
6.1480002 -3.0009625 1.4511973 0
6.1410003 -3.0077195 1.449922 0
6.1350002 -3.0149691 1.4488288 0
6.1280003 -3.0216775 1.4475536 0
6.1210003 -3.0283606 1.4462783 0
6.1140003 -3.0350184 1.445003 0
6.1070004 -3.041651 1.4437277 0
6.1010003 -3.048785 1.4426346 0
6.0940003 -3.0553689 1.4413593 0
6.0870004 -3.0619276 1.440084 0
6.0810003 -3.0689931 1.438991 0
6.0740004 -3.0755031 1.4377156 0
6.0670004 -3.0819879 1.4364403 0
6.0610003 -3.0889847 1.4353473 0
6.0540004 -3.0954208 1.4340719 0
6.0480003 -3.1023726 1.4329787 0
6.0410004 -3.1087599 1.4317036 0
6.0340004 -3.1151221 1.4304283 0
6.0280004 -3.1220052 1.4293351 0
6.0210004 -3.1283185 1.4280598 0
6.0150003 -3.1351569 1.4269668 0
6.0080004 -3.1414216 1.4256915 0
6.0020003 -3.1482146 1.4245983 0
5.9950004 -3.1544306 1.423323 0
5.9890003 -3.1611786 1.4222299 0
5.9820004 -3.1673458 1.4209547 0
5.9760003 -3.1740489 1.4198616 0
5.9690003 -3.1801672 1.4185863 0
5.9630003 -3.1868253 1.4174932 0
5.9570003 -3.1934614 1.4164001 0
5.9500003 -3.1995077 1.4151248 0
5.9440002 -3.2060988 1.4140316 0
5.9380002 -3.2126682 1.4129385 0
6.3900003 -2.7580078 1.4844811 0
6.3830004 -2.7656305 1.4832186 0
6.3750005 -2.7727718 1.4817755 0
6.3680005 -2.7803423 1.4805129 0
6.3610005 -2.7878878 1.4792502 0
6.3530002 -2.794946 1.477807 0
6.3460002 -2.802439 1.4765444 0
6.3390002 -2.8099067 1.4752817 0
6.3310003 -2.8168821 1.4738387 0
6.3240004 -2.8242977 1.472576 0
6.3170004 -2.8316877 1.4713134 0
6.3100004 -2.8390527 1.4700508 0
6.3030005 -2.8463926 1.468788 0
6.2950006 -2.8532307 1.467345 0
6.2880006 -2.860518 1.4660823 0
6.2810001 -2.8677802 1.4648196 0
6.2740002 -2.8750169 1.463557 0
6.2670002 -2.8822286 1.4622943 0
6.2600002 -2.889415 1.4610317 0
6.2530003 -2.8965762 1.4597689 0
6.2450004 -2.9032233 1.4583259 0
6.2380004 -2.910332 1.4570633 0
6.2310004 -2.9174156 1.4558007 0
6.2240005 -2.924474 1.454538 0
6.2170005 -2.9315069 1.4532753 0
6.2100005 -2.9385147 1.4520127 0
6.2030005 -2.9454975 1.45075 0
6.1960006 -2.9524546 1.4494873 0
6.1890006 -2.9593866 1.4482247 0
6.1830006 -2.9667985 1.4471424 0
6.1760006 -2.9736819 1.4458797 0
6.1690001 -2.9805398 1.444617 0
6.1620002 -2.9873726 1.4433544 0
6.1550002 -2.9941802 1.4420916 0
6.1480002 -3.0009625 1.4408289 0
6.1410003 -3.0077195 1.4395664 0
6.1350002 -3.0149691 1.4384841 0
6.1280003 -3.0216775 1.4372213 0
6.1210003 -3.0283606 1.4359587 0
6.1140003 -3.0350184 1.4346961 0
6.1070004 -3.041651 1.4334334 0
6.1010003 -3.048785 1.4323511 0
6.0940003 -3.0553689 1.4310884 0
6.0870004 -3.0619276 1.4298258 0
6.0810003 -3.0689931 1.4287435 0
6.0740004 -3.0755031 1.4274808 0
6.0670004 -3.0819879 1.4262182 0
6.0610003 -3.0889847 1.4251359 0
6.0540004 -3.0954208 1.4238732 0
6.0480003 -3.1023726 1.422791 0
6.0410004 -3.1087599 1.4215283 0
6.0340004 -3.1151221 1.4202656 0
6.0280004 -3.1220052 1.4191834 0
6.0210004 -3.1283185 1.4179207 0
6.0150003 -3.1351569 1.4168383 0
6.0080004 -3.1414216 1.4155757 0
6.0020003 -3.1482146 1.4144934 0
5.9950004 -3.1544306 1.4132307 0
5.9890003 -3.1611786 1.4121485 0
5.9820004 -3.1673458 1.4108858 0
5.9760003 -3.1740489 1.4098035 0
5.9690003 -3.1801672 1.4085408 0
5.9630003 -3.1868253 1.4074587 0
5.9570003 -3.1934614 1.4063762 0
5.9500003 -3.1995077 1.4051136 0
5.9440002 -3.2060988 1.4040313 0
5.9380002 -3.2126682 1.402949 0
6.3900003 -2.7580078 1.4736763 0
6.3830004 -2.7656305 1.4724263 0
6.3750005 -2.7727718 1.4709977 0
6.3680005 -2.7803423 1.4697477 0
6.3610005 -2.7878878 1.4684976 0
6.3530002 -2.794946 1.4670689 0
6.3460002 -2.802439 1.4658189 0
6.3390002 -2.8099067 1.4645689 0
6.3310003 -2.8168821 1.4631402 0
6.3240004 -2.8242977 1.4618902 0
6.3170004 -2.8316877 1.4606402 0
6.3100004 -2.8390527 1.4593902 0
6.3030005 -2.8463926 1.4581401 0
6.2950006 -2.8532307 1.4567115 0
6.2880006 -2.860518 1.4554615 0
6.2810001 -2.8677802 1.4542114 0
6.2740002 -2.8750169 1.4529613 0
6.2670002 -2.8822286 1.4517113 0
6.2600002 -2.889415 1.4504614 0
6.2530003 -2.8965762 1.4492114 0
6.2450004 -2.9032233 1.4477828 0
6.2380004 -2.910332 1.4465327 0
6.2310004 -2.9174156 1.4452827 0
6.2240005 -2.924474 1.4440327 0
6.2170005 -2.9315069 1.4427826 0
6.2100005 -2.9385147 1.4415326 0
6.2030005 -2.9454975 1.4402826 0
6.1960006 -2.9524546 1.4390326 0
6.1890006 -2.9593866 1.4377824 0
6.1830006 -2.9667985 1.436711 0
6.1760006 -2.9736819 1.4354609 0
6.1690001 -2.9805398 1.4342108 0
6.1620002 -2.9873726 1.4329607 0
6.1550002 -2.9941802 1.4317107 0
6.1480002 -3.0009625 1.4304607 0
6.1410003 -3.0077195 1.4292107 0
6.1350002 -3.0149691 1.4281392 0
6.1280003 -3.0216775 1.4268892 0
6.1210003 -3.0283606 1.4256392 0
6.1140003 -3.0350184 1.4243891 0
6.1070004 -3.041651 1.4231391 0
6.1010003 -3.048785 1.4220676 0
6.0940003 -3.0553689 1.4208176 0
6.0870004 -3.0619276 1.4195675 0
6.0810003 -3.0689931 1.418496 0
6.0740004 -3.0755031 1.417246 0
6.0670004 -3.0819879 1.415996 0
6.0610003 -3.0889847 1.4149245 0
6.0540004 -3.0954208 1.4136745 0
6.0480003 -3.1023726 1.412603 0
6.0410004 -3.1087599 1.411353 0
6.0340004 -3.1151221 1.410103 0
6.0280004 -3.1220052 1.4090314 0
6.0210004 -3.1283185 1.4077814 0
6.0150003 -3.1351569 1.4067099 0
6.0080004 -3.1414216 1.4054599 0
6.0020003 -3.1482146 1.4043884 0
5.9950004 -3.1544306 1.4031384 0
5.9890003 -3.1611786 1.4020669 0
5.9820004 -3.1673458 1.4008169 0
5.9760003 -3.1740489 1.3997455 0
5.9690003 -3.1801672 1.3984954 0
5.9630003 -3.1868253 1.3974239 0
5.9570003 -3.1934614 1.3963524 0
5.9500003 -3.1995077 1.3951024 0
5.9440002 -3.2060988 1.3940309 0
5.9380002 -3.2126682 1.3929595 0
6.3900003 -2.7580078 1.4628716 0
6.3830004 -2.7656305 1.4616342 0
6.3750005 -2.7727718 1.46022 0
6.3680005 -2.7803423 1.4589825 0
6.3610005 -2.7878878 1.4577452 0
6.3530002 -2.794946 1.4563309 0
6.3460002 -2.802439 1.4550935 0
6.3390002 -2.8099067 1.4538561 0
6.3310003 -2.8168821 1.4524419 0
6.3240004 -2.8242977 1.4512044 0
6.3170004 -2.8316877 1.4499671 0
6.3100004 -2.8390527 1.4487298 0
6.3030005 -2.8463926 1.4474922 0
6.2950006 -2.8532307 1.4460781 0
6.2880006 -2.860518 1.4448407 0
6.2810001 -2.8677802 1.4436033 0
6.2740002 -2.8750169 1.4423658 0
6.2670002 -2.8822286 1.4411284 0
6.2600002 -2.889415 1.439891 0
6.2530003 -2.8965762 1.4386536 0
6.2450004 -2.9032233 1.4372394 0
6.2380004 -2.910332 1.436002 0
6.2310004 -2.9174156 1.4347646 0
6.2240005 -2.924474 1.4335272 0
6.2170005 -2.9315069 1.4322898 0
6.2100005 -2.9385147 1.4310524 0
6.2030005 -2.9454975 1.4298149 0
6.1960006 -2.9524546 1.4285777 0
6.1890006 -2.9593866 1.4273401 0
6.1830006 -2.9667985 1.4262795 0
6.1760006 -2.9736819 1.4250422 0
6.1690001 -2.9805398 1.4238046 0
6.1620002 -2.9873726 1.4225672 0
6.1550002 -2.9941802 1.4213297 0
6.1480002 -3.0009625 1.4200925 0
6.1410003 -3.0077195 1.4188551 0
6.1350002 -3.0149691 1.4177943 0
6.1280003 -3.0216775 1.416557 0
6.1210003 -3.0283606 1.4153196 0
6.1140003 -3.0350184 1.4140822 0
6.1070004 -3.041651 1.4128447 0
6.1010003 -3.048785 1.4117841 0
6.0940003 -3.0553689 1.4105467 0
6.0870004 -3.0619276 1.4093093 0
6.0810003 -3.0689931 1.4082487 0
6.0740004 -3.0755031 1.4070112 0
6.0670004 -3.0819879 1.4057738 0
6.0610003 -3.0889847 1.4047132 0
6.0540004 -3.0954208 1.4034758 0
6.0480003 -3.1023726 1.402415 0
6.0410004 -3.1087599 1.4011778 0
6.0340004 -3.1151221 1.3999403 0
6.0280004 -3.1220052 1.3988795 0
6.0210004 -3.1283185 1.3976423 0
6.0150003 -3.1351569 1.3965815 0
6.0080004 -3.1414216 1.3953441 0
6.0020003 -3.1482146 1.3942835 0
5.9950004 -3.1544306 1.393046 0
5.9890003 -3.1611786 1.3919855 0
5.9820004 -3.1673458 1.390748 0
5.9760003 -3.1740489 1.3896874 0
5.9690003 -3.1801672 1.38845 0
5.9630003 -3.1868253 1.3873893 0
5.9570003 -3.1934614 1.3863287 0
5.9500003 -3.1995077 1.3850913 0
5.9440002 -3.2060988 1.3840307 0
5.9380002 -3.2126682 1.38297 0
6.3900003 -2.7580078 1.4520668 0
6.3830004 -2.7656305 1.4508419 0
6.3750005 -2.7727718 1.4494421 0
6.3680005 -2.7803423 1.4482175 0
6.3610005 -2.7878878 1.4469926 0
6.3530002 -2.794946 1.4455928 0
6.3460002 -2.802439 1.4443681 0
6.3390002 -2.8099067 1.4431432 0
6.3310003 -2.8168821 1.4417435 0
6.3240004 -2.8242977 1.4405189 0
6.3170004 -2.8316877 1.439294 0
6.3100004 -2.8390527 1.4380692 0
6.3030005 -2.8463926 1.4368445 0
6.2950006 -2.8532307 1.4354447 0
6.2880006 -2.860518 1.43422 0
6.2810001 -2.8677802 1.4329951 0
6.2740002 -2.8750169 1.4317703 0
6.2670002 -2.8822286 1.4305454 0
6.2600002 -2.889415 1.4293207 0
6.2530003 -2.8965762 1.4280959 0
6.2450004 -2.9032233 1.4266962 0
6.2380004 -2.910332 1.4254713 0
6.2310004 -2.9174156 1.4242467 0
6.2240005 -2.924474 1.4230218 0
6.2170005 -2.9315069 1.421797 0
6.2100005 -2.9385147 1.4205723 0
6.2030005 -2.9454975 1.4193475 0
6.1960006 -2.9524546 1.4181226 0
6.1890006 -2.9593866 1.4168979 0
6.1830006 -2.9667985 1.4158481 0
6.1760006 -2.9736819 1.4146233 0
6.1690001 -2.9805398 1.4133985 0
6.1620002 -2.9873726 1.4121736 0
6.1550002 -2.9941802 1.4109489 0
6.1480002 -3.0009625 1.4097241 0
6.1410003 -3.0077195 1.4084994 0
6.1350002 -3.0149691 1.4074495 0
6.1280003 -3.0216775 1.4062247 0
6.1210003 -3.0283606 1.405 0
6.1140003 -3.0350184 1.4037751 0
6.1070004 -3.041651 1.4025503 0
6.1010003 -3.048785 1.4015006 0
6.0940003 -3.0553689 1.4002757 0
6.0870004 -3.0619276 1.399051 0
6.0810003 -3.0689931 1.3980011 0
6.0740004 -3.0755031 1.3967764 0
6.0670004 -3.0819879 1.3955516 0
6.0610003 -3.0889847 1.3945017 0
6.0540004 -3.0954208 1.393277 0
6.0480003 -3.1023726 1.3922272 0
6.0410004 -3.1087599 1.3910023 0
6.0340004 -3.1151221 1.3897777 0
6.0280004 -3.1220052 1.3887278 0
6.0210004 -3.1283185 1.3875029 0
6.0150003 -3.1351569 1.3864532 0
6.0080004 -3.1414216 1.3852284 0
6.0020003 -3.1482146 1.3841786 0
5.9950004 -3.1544306 1.3829538 0
5.9890003 -3.1611786 1.3819039 0
5.9820004 -3.1673458 1.3806792 0
5.9760003 -3.1740489 1.3796294 0
5.9690003 -3.1801672 1.3784045 0
5.9630003 -3.1868253 1.3773547 0
5.9570003 -3.1934614 1.3763049 0
5.9500003 -3.1995077 1.3750802 0
5.9440002 -3.2060988 1.3740304 0
5.9380002 -3.2126682 1.3729806 0
6.3900003 -2.7580078 1.441262 0
6.3830004 -2.7656305 1.4400498 0
6.3750005 -2.7727718 1.4386644 0
6.3680005 -2.7803423 1.4374523 0
6.3610005 -2.7878878 1.4362402 0
6.3530002 -2.794946 1.4348549 0
6.3460002 -2.802439 1.4336426 0
6.3390002 -2.8099067 1.4324305 0
6.3310003 -2.8168821 1.4310452 0
6.3240004 -2.8242977 1.4298331 0
6.3170004 -2.8316877 1.4286208 0
6.3100004 -2.8390527 1.4274087 0
6.3030005 -2.8463926 1.4261966 0
6.2950006 -2.8532307 1.4248112 0
6.2880006 -2.860518 1.4235991 0
6.2810001 -2.8677802 1.4223868 0
6.2740002 -2.8750169 1.4211746 0
6.2670002 -2.8822286 1.4199625 0
6.2600002 -2.889415 1.4187504 0
6.2530003 -2.8965762 1.4175382 0
6.2450004 -2.9032233 1.4161528 0
6.2380004 -2.910332 1.4149407 0
6.2310004 -2.9174156 1.4137286 0
6.2240005 -2.924474 1.4125164 0
6.2170005 -2.9315069 1.4113042 0
6.2100005 -2.9385147 1.4100921 0
6.2030005 -2.9454975 1.40888 0
6.1960006 -2.9524546 1.4076678 0
6.1890006 -2.9593866 1.4064556 0
6.1830006 -2.9667985 1.4054166 0
6.1760006 -2.9736819 1.4042045 0
6.1690001 -2.9805398 1.4029922 0
6.1620002 -2.9873726 1.40178 0
6.1550002 -2.9941802 1.4005679 0
6.1480002 -3.0009625 1.3993558 0
6.1410003 -3.0077195 1.3981436 0
6.1350002 -3.0149691 1.3971046 0
6.1280003 -3.0216775 1.3958925 0
6.1210003 -3.0283606 1.3946803 0
6.1140003 -3.0350184 1.3934681 0
6.1070004 -3.041651 1.392256 0
6.1010003 -3.048785 1.391217 0
6.0940003 -3.0553689 1.3900049 0
6.0870004 -3.0619276 1.3887928 0
6.0810003 -3.0689931 1.3877537 0
6.0740004 -3.0755031 1.3865416 0
6.0670004 -3.0819879 1.3853295 0
6.0610003 -3.0889847 1.3842905 0
6.0540004 -3.0954208 1.3830783 0
6.0480003 -3.1023726 1.3820392 0
6.0410004 -3.1087599 1.3808271 0
6.0340004 -3.1151221 1.3796149 0
6.0280004 -3.1220052 1.3785759 0
6.0210004 -3.1283185 1.3773638 0
6.0150003 -3.1351569 1.3763248 0
6.0080004 -3.1414216 1.3751127 0
6.0020003 -3.1482146 1.3740736 0
5.9950004 -3.1544306 1.3728614 0
5.9890003 -3.1611786 1.3718225 0
5.9820004 -3.1673458 1.3706104 0
5.9760003 -3.1740489 1.3695713 0
5.9690003 -3.1801672 1.3683592 0
5.9630003 -3.1868253 1.3673202 0
5.9570003 -3.1934614 1.3662813 0
5.9500003 -3.1995077 1.365069 0
5.9440002 -3.2060988 1.36403 0
5.9380002 -3.2126682 1.362991 0
6.3900003 -2.7580078 1.4304571 0
6.3830004 -2.7656305 1.4292575 0
6.3750005 -2.7727718 1.4278867 0
6.3680005 -2.7803423 1.4266871 0
6.3610005 -2.7878878 1.4254876 0
6.3530002 -2.794946 1.4241167 0
6.3460002 -2.802439 1.4229171 0
6.3390002 -2.8099067 1.4217176 0
6.3310003 -2.8168821 1.4203467 0
6.3240004 -2.8242977 1.4191473 0
6.3170004 -2.8316877 1.4179478 0
6.3100004 -2.8390527 1.4167482 0
6.3030005 -2.8463926 1.4155487 0
6.2950006 -2.8532307 1.4141778 0
6.2880006 -2.860518 1.4129783 0
6.2810001 -2.8677802 1.4117787 0
6.2740002 -2.8750169 1.4105792 0
6.2670002 -2.8822286 1.4093796 0
6.2600002 -2.889415 1.4081801 0
6.2530003 -2.8965762 1.4069805 0
6.2450004 -2.9032233 1.4056096 0
6.2380004 -2.910332 1.4044101 0
6.2310004 -2.9174156 1.4032105 0
6.2240005 -2.924474 1.402011 0
6.2170005 -2.9315069 1.4008116 0
6.2100005 -2.9385147 1.3996119 0
6.2030005 -2.9454975 1.3984125 0
6.1960006 -2.9524546 1.397213 0
6.1890006 -2.9593866 1.3960135 0
6.1830006 -2.9667985 1.3949853 0
6.1760006 -2.9736819 1.3937857 0
6.1690001 -2.9805398 1.3925861 0
6.1620002 -2.9873726 1.3913866 0
6.1550002 -2.9941802 1.3901871 0
6.1480002 -3.0009625 1.3889875 0
6.1410003 -3.0077195 1.3877879 0
6.1350002 -3.0149691 1.3867598 0
6.1280003 -3.0216775 1.3855603 0
6.1210003 -3.0283606 1.3843607 0
6.1140003 -3.0350184 1.3831612 0
6.1070004 -3.041651 1.3819617 0
6.1010003 -3.048785 1.3809335 0
6.0940003 -3.0553689 1.379734 0
6.0870004 -3.0619276 1.3785344 0
6.0810003 -3.0689931 1.3775063 0
6.0740004 -3.0755031 1.3763068 0
6.0670004 -3.0819879 1.3751073 0
6.0610003 -3.0889847 1.3740791 0
6.0540004 -3.0954208 1.3728795 0
6.0480003 -3.1023726 1.3718513 0
6.0410004 -3.1087599 1.3706518 0
6.0340004 -3.1151221 1.3694524 0
6.0280004 -3.1220052 1.3684242 0
6.0210004 -3.1283185 1.3672247 0
6.0150003 -3.1351569 1.3661965 0
6.0080004 -3.1414216 1.3649969 0
6.0020003 -3.1482146 1.3639687 0
5.9950004 -3.1544306 1.3627691 0
5.9890003 -3.1611786 1.3617409 0
5.9820004 -3.1673458 1.3605415 0
5.9760003 -3.1740489 1.3595133 0
5.9690003 -3.1801672 1.3583138 0
5.9630003 -3.1868253 1.3572856 0
5.9570003 -3.1934614 1.3562574 0
5.9500003 -3.1995077 1.3550578 0
5.9440002 -3.2060988 1.3540297 0
5.9380002 -3.2126682 1.3530015 0
6.3900003 -2.7580078 1.4196522 0
6.3830004 -2.7656305 1.4184654 0
6.3750005 -2.7727718 1.4171089 0
6.3680005 -2.7803423 1.415922 0
6.3610005 -2.7878878 1.4147352 0
6.3530002 -2.794946 1.4133787 0
6.3460002 -2.802439 1.4121917 0
6.3390002 -2.8099067 1.4110048 0
6.3310003 -2.8168821 1.4096484 0
6.3240004 -2.8242977 1.4084615 0
6.3170004 -2.8316877 1.4072745 0
6.3100004 -2.8390527 1.4060876 0
6.3030005 -2.8463926 1.4049008 0
6.2950006 -2.8532307 1.4035443 0
6.2880006 -2.860518 1.4023575 0
6.2810001 -2.8677802 1.4011705 0
6.2740002 -2.8750169 1.3999835 0
6.2670002 -2.8822286 1.3987966 0
6.2600002 -2.889415 1.3976097 0
6.2530003 -2.8965762 1.3964227 0
6.2450004 -2.9032233 1.3950664 0
6.2380004 -2.910332 1.3938795 0
6.2310004 -2.9174156 1.3926926 0
6.2240005 -2.924474 1.3915057 0
6.2170005 -2.9315069 1.3903188 0
6.2100005 -2.9385147 1.3891318 0
6.2030005 -2.9454975 1.3879449 0
6.1960006 -2.9524546 1.3867581 0
6.1890006 -2.9593866 1.3855712 0
6.1830006 -2.9667985 1.3845538 0
6.1760006 -2.9736819 1.3833668 0
6.1690001 -2.9805398 1.38218 0
6.1620002 -2.9873726 1.380993 0
6.1550002 -2.9941802 1.3798062 0
6.1480002 -3.0009625 1.3786192 0
6.1410003 -3.0077195 1.3774322 0
6.1350002 -3.0149691 1.376415 0
6.1280003 -3.0216775 1.375228 0
6.1210003 -3.0283606 1.3740412 0
6.1140003 -3.0350184 1.3728542 0
6.1070004 -3.041651 1.3716674 0
6.1010003 -3.048785 1.3706501 0
6.0940003 -3.0553689 1.3694631 0
6.0870004 -3.0619276 1.3682761 0
6.0810003 -3.0689931 1.3672589 0
6.0740004 -3.0755031 1.3660719 0
6.0670004 -3.0819879 1.364885 0
6.0610003 -3.0889847 1.3638678 0
6.0540004 -3.0954208 1.3626808 0
6.0480003 -3.1023726 1.3616635 0
6.0410004 -3.1087599 1.3604765 0
6.0340004 -3.1151221 1.3592896 0
6.0280004 -3.1220052 1.3582723 0
6.0210004 -3.1283185 1.3570853 0
6.0150003 -3.1351569 1.356068 0
6.0080004 -3.1414216 1.3548812 0
6.0020003 -3.1482146 1.3538637 0
5.9950004 -3.1544306 1.352677 0
5.9890003 -3.1611786 1.3516595 0
5.9820004 -3.1673458 1.3504726 0
5.9760003 -3.1740489 1.3494554 0
5.9690003 -3.1801672 1.3482684 0
5.9630003 -3.1868253 1.3472509 0
5.9570003 -3.1934614 1.3462337 0
5.9500003 -3.1995077 1.3450468 0
5.9440002 -3.2060988 1.3440293 0
5.9380002 -3.2126682 1.3430121 0
6.3900003 -2.7580078 1.4088475 0
6.3830004 -2.7656305 1.4076732 0
6.3750005 -2.7727718 1.4063312 0
6.3680005 -2.7803423 1.405157 0
6.3610005 -2.7878878 1.4039826 0
6.3530002 -2.794946 1.4026406 0
6.3460002 -2.802439 1.4014663 0
6.3390002 -2.8099067 1.400292 0
6.3310003 -2.8168821 1.39895 0
6.3240004 -2.8242977 1.3977757 0
6.3170004 -2.8316877 1.3966013 0
6.3100004 -2.8390527 1.3954271 0
6.3030005 -2.8463926 1.3942528 0
6.2950006 -2.8532307 1.3929108 0
6.2880006 -2.860518 1.3917366 0
6.2810001 -2.8677802 1.3905622 0
6.2740002 -2.8750169 1.3893878 0
6.2670002 -2.8822286 1.3882136 0
6.2600002 -2.889415 1.3870394 0
6.2530003 -2.8965762 1.3858652 0
6.2450004 -2.9032233 1.3845232 0
6.2380004 -2.910332 1.3833488 0
6.2310004 -2.9174156 1.3821745 0
6.2240005 -2.924474 1.3810003 0
6.2170005 -2.9315069 1.3798259 0
6.2100005 -2.9385147 1.3786517 0
6.2030005 -2.9454975 1.3774774 0
6.1960006 -2.9524546 1.3763032 0
6.1890006 -2.9593866 1.375129 0
6.1830006 -2.9667985 1.3741224 0
6.1760006 -2.9736819 1.3729481 0
6.1690001 -2.9805398 1.3717738 0
6.1620002 -2.9873726 1.3705995 0
6.1550002 -2.9941802 1.3694253 0
6.1480002 -3.0009625 1.368251 0
6.1410003 -3.0077195 1.3670766 0
6.1350002 -3.0149691 1.3660702 0
6.1280003 -3.0216775 1.3648959 0
6.1210003 -3.0283606 1.3637216 0
6.1140003 -3.0350184 1.3625474 0
6.1070004 -3.041651 1.3613731 0
6.1010003 -3.048785 1.3603665 0
6.0940003 -3.0553689 1.3591921 0
6.0870004 -3.0619276 1.358018 0
6.0810003 -3.0689931 1.3570114 0
6.0740004 -3.0755031 1.3558371 0
6.0670004 -3.0819879 1.3546629 0
6.0610003 -3.0889847 1.3536563 0
6.0540004 -3.0954208 1.3524821 0
6.0480003 -3.1023726 1.3514756 0
6.0410004 -3.1087599 1.3503013 0
6.0340004 -3.1151221 1.3491271 0
6.0280004 -3.1220052 1.3481205 0
6.0210004 -3.1283185 1.3469462 0
6.0150003 -3.1351569 1.3459396 0
6.0080004 -3.1414216 1.3447653 0
6.0020003 -3.1482146 1.3437588 0
5.9950004 -3.1544306 1.3425846 0
5.9890003 -3.1611786 1.3415781 0
5.9820004 -3.1673458 1.3404038 0
5.9760003 -3.1740489 1.3393972 0
5.9690003 -3.1801672 1.3382229 0
5.9630003 -3.1868253 1.3372164 0
5.9570003 -3.1934614 1.3362099 0
5.9500003 -3.1995077 1.3350357 0
5.9440002 -3.2060988 1.3340292 0
