# .PCD v0.7 - Point Cloud Data file format
VERSION 0.7
FIELDS x y z intensity
SIZE 4 4 4 4
TYPE F F F F
COUNT 1 1 1 1
WIDTH 1397
HEIGHT 1
VIEWPOINT 0 0 0 1 0 0 0
POINTS 1397
DATA ascii
4.2710004 -0.43702236 0.59951121 0
4.2780004 -0.44472462 0.59986472 0
4.085 -0.4647631 0.59011698 0
4.079 -0.47071746 0.58981389 0
4.0740004 -0.47676745 0.5895614 0
4.0700002 -0.48291841 0.58935934 0
4.0680003 -0.4892967 0.58925831 0
4.066 -0.49566776 0.58915734 0
4.0650001 -0.50215602 0.5891068 0
4.0650001 -0.50876701 0.5891068 0
4.066 -0.51550603 0.58915734 0
4.0680003 -0.5223785 0.58925831 0
4.072 -0.52952158 0.58946037 0
4.0770001 -0.5368126 0.58971292 0
4.0840001 -0.54439223 0.59006643 0
4.0910001 -0.55199707 0.59042001 0
4.098 -0.55962718 0.59077352 0
4.105 -0.56728256 0.5911271 0
4.112 -0.57496315 0.59148061 0
4.119 -0.58266902 0.59183419 0
4.1259999 -0.5904001 0.5921877 0
4.1340003 -0.59830445 0.59259176 0
4.1410003 -0.60608786 0.59294534 0
4.1480002 -0.61389655 0.59329885 0
4.1560001 -0.62188381 0.59370291 0
3.8590002 -0.6636979 0.57870245 0
3.8480003 -0.66795307 0.57814687 0
3.8400002 -0.67271513 0.57774282 0
3.8330002 -0.67763233 0.57738924 0
3.8280003 -0.68289584 0.57713675 0
3.8240004 -0.68832892 0.5769347 0
3.8200002 -0.69374752 0.5767327 0
3.8170002 -0.69934291 0.57658118 0
3.8150003 -0.70512056 0.57648015 0
3.8130002 -0.71089089 0.57637912 0
3.8120003 -0.7168507 0.57632864 0
3.8120003 -0.72300529 0.57632864 0
3.8120003 -0.72915989 0.57632864 0
3.8120003 -0.73531449 0.57632864 0
3.8140004 -0.74187678 0.57642967 0
3.8160002 -0.74844623 0.57653069 0
3.8190002 -0.75523037 0.57668221 0
3.8230002 -0.76223457 0.57688421 0
3.8280003 -0.76946419 0.57713675 0
4.0360003 -0.84615487 0.58764213 0
4.0230002 -0.84982926 0.58698553 0
4.013 -0.85412776 0.5864805 0
4.006 -0.85906661 0.58612692 0
4.0009999 -0.86443466 0.58587438 0
3.9960003 -0.86978477 0.58562183 0
3.9920003 -0.87534773 0.58541983 0
3.9890003 -0.88112891 0.58526832 0
3.9860003 -0.88689935 0.5851168 0
3.9840002 -0.89289522 0.58501577 0
3.9830003 -0.89912194 0.58496529 0
3.9820004 -0.90534508 0.58491474 0
3.9820004 -0.91180634 0.58491474 0
3.9830003 -0.91851103 0.58496529 0
3.9840002 -0.92521942 0.58501577 0
3.9870002 -0.93242562 0.58516729 0
3.9900002 -0.93964267 0.5853188 0
3.9950004 -0.94737202 0.58557135 0
4.2030001 -0.32039532 0.58921683 0
4.1960001 -0.32673752 0.58887589 0
4.1900001 -0.33313021 0.58858371 0
4.1830001 -0.33942369 0.58824277 0
4.1870003 -0.34656495 0.58843762 0
4.1940002 -0.35396418 0.5887785 0
4.2000003 -0.36130568 0.58907074 0
4.2070003 -0.36875358 0.58941162 0
4.2140002 -0.37622678 0.58975255 0
4.2210002 -0.3837252 0.59009349 0
4.2280002 -0.39124891 0.59043443 0
4.2350001 -0.39879784 0.59077537 0
4.2420001 -0.40637204 0.59111625 0
4.2490001 -0.41397148 0.59145719 0
4.256 -0.42159617 0.59179807 0
4.2639999 -0.42934531 0.5921877 0
4.2710004 -0.43702236 0.59252864 0
4.2780004 -0.44472462 0.59286958 0
4.085 -0.4647631 0.58346993 0
4.079 -0.47071746 0.58317769 0
4.0740004 -0.47676745 0.5829342 0
4.0700002 -0.48291841 0.58273935 0
4.0680003 -0.4892967 0.58264196 0
4.066 -0.49566776 0.58254457 0
4.0650001 -0.50215602 0.58249587 0
4.0650001 -0.50876701 0.58249587 0
4.066 -0.51550603 0.58254457 0
4.0680003 -0.5223785 0.58264196 0
4.072 -0.52952158 0.58283675 0
4.0770001 -0.5368126 0.58308029 0
4.0840001 -0.54439223 0.58342123 0
4.0910001 -0.55199707 0.58376217 0
4.098 -0.55962718 0.58410305 0
4.105 -0.56728256 0.58444399 0
4.112 -0.57496315 0.58478487 0
4.119 -0.58266902 0.5851258 0
4.1259999 -0.5904001 0.58546674 0
4.1340003 -0.59830445 0.58585638 0
4.1410003 -0.60608786 0.58619726 0
4.1480002 -0.61389655 0.5865382 0
4.1560001 -0.62188381 0.58692783 0
4.1630001 -0.62974483 0.58726871 0
4.1700001 -0.63763106 0.58760965 0
3.8480003 -0.66795307 0.57192737 0
3.8400002 -0.67271513 0.57153773 0
3.8330002 -0.67763233 0.57119679 0
3.8280003 -0.68289584 0.57095331 0
3.8240004 -0.68832892 0.57075846 0
3.8200002 -0.69374752 0.57056367 0
3.8180003 -0.69953418 0.57046628 0
3.8150003 -0.70512056 0.57032013 0
3.8140004 -0.7110858 0.57027149 0
3.8120003 -0.7168507 0.57017404 0
3.8120003 -0.72300529 0.57017404 0
3.8120003 -0.72915989 0.57017404 0
3.8120003 -0.73531449 0.57017404 0
3.8140004 -0.74187678 0.57027149 0
3.8160002 -0.74844623 0.57036889 0
3.8190002 -0.75523037 0.57051498 0
3.8230002 -0.76223457 0.57070976 0
3.8290002 -0.76967525 0.57100201 0
4.0210004 -0.84938556 0.5803529 0
4.0120001 -0.85390407 0.57991463 0
4.0050001 -0.85884112 0.57957369 0
4 -0.86420739 0.57933021 0
3.9950004 -0.86955571 0.57908666 0
3.9910002 -0.87511683 0.57889187 0
3.9880002 -0.88089627 0.57874572 0
3.9860003 -0.88689935 0.57864833 0
3.9840002 -0.89289522 0.57855093 0
3.9820004 -0.89888388 0.57845354 0
3.9820004 -0.90534508 0.57845354 0
3.9820004 -0.91180634 0.57845354 0
3.9820004 -0.91826755 0.57845354 0
3.9840002 -0.92521942 0.57855093 0
3.9860003 -0.9321785 0.57864833 0
3.9890003 -0.93939382 0.57879448 0
3.9940002 -0.94712126 0.57903796 0
4.2030001 -0.32039532 0.58235693 0
4.1960001 -0.32673752 0.58202869 0
4.1900001 -0.33313021 0.58174729 0
4.1830001 -0.33942369 0.58141899 0
4.1870003 -0.34656495 0.58160657 0
4.1940002 -0.35396418 0.58193487 0
4.2000003 -0.36130568 0.58221626 0
4.2070003 -0.36875358 0.58254457 0
4.2140002 -0.37622678 0.58287287 0
4.2210002 -0.3837252 0.58320117 0
4.2280002 -0.39124891 0.58352941 0
4.2350001 -0.39879784 0.58385772 0
4.2420001 -0.40637204 0.58418602 0
4.2490001 -0.41397148 0.58451432 0
4.256 -0.42159617 0.58484262 0
4.2639999 -0.42934531 0.58521783 0
4.2710004 -0.43702236 0.58554614 0
4.2780004 -0.44472462 0.58587438 0
4.085 -0.4647631 0.57682288 0
4.079 -0.47071746 0.57654148 0
4.0740004 -0.47676745 0.576307 0
4.0700002 -0.48291841 0.57611936 0
4.0680003 -0.4892967 0.57602561 0
4.066 -0.49566776 0.57593179 0
4.0650001 -0.50215602 0.57588494 0
4.0650001 -0.50876701 0.57588494 0
4.066 -0.51550603 0.57593179 0
4.0680003 -0.5223785 0.57602561 0
4.072 -0.52952158 0.57621318 0
4.0770001 -0.5368126 0.57644773 0
4.0840001 -0.54439223 0.57677597 0
4.0910001 -0.55199707 0.57710427 0
4.098 -0.55962718 0.57743257 0
4.105 -0.56728256 0.57776088 0
4.112 -0.57496315 0.57808912 0
4.119 -0.58266902 0.57841742 0
4.1259999 -0.5904001 0.57874572 0
4.1340003 -0.59830445 0.57912093 0
4.1410003 -0.60608786 0.57944924 0
4.1480002 -0.61389655 0.57977754 0
4.1560001 -0.62188381 0.58015275 0
4.1630001 -0.62974483 0.58048099 0
4.1700001 -0.63763106 0.5808093 0
4.178 -0.64570129 0.58118451 0
3.8490002 -0.6681335 0.56575471 0
3.8410003 -0.67289734 0.5653795 0
3.8340003 -0.67781633 0.5650512 0
3.8290002 -0.68308163 0.56481671 0
3.8250003 -0.6885165 0.56462914 0
3.8210003 -0.69393694 0.56444156 0
3.8180003 -0.69953418 0.56430084 0
3.8160002 -0.70531356 0.56420708 0
3.8140004 -0.7110858 0.56411326 0
3.8130002 -0.71704727 0.56406635 0
3.8130002 -0.72320372 0.56406635 0
3.8130002 -0.7293601 0.56406635 0
3.8140004 -0.73571861 0.56411326 0
3.8150003 -0.74208057 0.56416017 0
3.8170002 -0.7486518 0.56425393 0
3.8200002 -0.75543779 0.56439465 0
3.8240004 -0.76244378 0.56458223 0
3.8300002 -0.76988626 0.56486362 0
4.0210004 -0.84938556 0.57382137 0
4.0120001 -0.85390407 0.57339925 0
4.0050001 -0.85884112 0.57307094 0
4 -0.86420739 0.57283646 0
3.9950004 -0.86955571 0.57260197 0
3.9910002 -0.87511683 0.5724144 0
3.9880002 -0.88089627 0.57227367 0
3.9860003 -0.88689935 0.57217991 0
3.9840002 -0.89289522 0.5720861 0
3.9830003 -0.89912194 0.57203919 0
3.9820004 -0.90534508 0.57199228 0
3.9820004 -0.91180634 0.57199228 0
3.9820004 -0.91826755 0.57199228 0
3.9840002 -0.92521942 0.5720861 0
3.9860003 -0.9321785 0.57217991 0
3.9890003 -0.93939382 0.57232058 0
3.9940002 -0.94712126 0.57255507 0
4.2030001 -0.32039532 0.57549709 0
4.1960001 -0.32673752 0.57518142 0
4.1900001 -0.33313021 0.57491088 0
4.1830001 -0.33942369 0.57459521 0
4.1870003 -0.34656495 0.57477558 0
4.1940002 -0.35396418 0.57509124 0
4.2000003 -0.36130568 0.57536179 0
4.2070003 -0.36875358 0.57567745 0
4.2140002 -0.37622678 0.57599312 0
4.2210002 -0.3837252 0.57630879 0
4.2280002 -0.39124891 0.57662445 0
4.2350001 -0.39879784 0.57694012 0
4.2420001 -0.40637204 0.57725579 0
4.2490001 -0.41397148 0.57757145 0
4.256 -0.42159617 0.57788712 0
4.2639999 -0.42934531 0.5782479 0
4.2710004 -0.43702236 0.57856357 0
4.2780004 -0.44472462 0.57887924 0
4.085 -0.4647631 0.57017589 0
4.079 -0.47071746 0.56990528 0
4.0740004 -0.47676745 0.5696798 0
4.0700002 -0.48291841 0.56949943 0
4.0680003 -0.4892967 0.56940925 0
4.066 -0.49566776 0.56931901 0
4.0650001 -0.50215602 0.56927395 0
4.0650001 -0.50876701 0.56927395 0
4.066 -0.51550603 0.56931901 0
4.0680003 -0.5223785 0.56940925 0
4.072 -0.52952158 0.56958961 0
4.0770001 -0.5368126 0.5698151 0
4.0840001 -0.54439223 0.57013077 0
4.0910001 -0.55199707 0.57044643 0
4.098 -0.55962718 0.5707621 0
4.105 -0.56728256 0.57107776 0
4.112 -0.57496315 0.57139343 0
4.119 -0.58266902 0.5717091 0
4.1259999 -0.5904001 0.57202476 0
4.1340003 -0.59830445 0.57238555 0
4.1410003 -0.60608786 0.57270116 0
4.1480002 -0.61389655 0.57301688 0
4.1560001 -0.62188381 0.57337761 0
4.1630001 -0.62974483 0.57369328 0
4.1700001 -0.63763106 0.57400894 0
4.178 -0.64570129 0.57436967 0
3.8510003 -0.66849428 0.5596236 0
3.8430002 -0.6732617 0.55926281 0
3.8360002 -0.67818427 0.55894715 0
3.8310003 -0.68345326 0.55872166 0
3.8260002 -0.68870407 0.55849618 0
3.8230002 -0.69431573 0.55836093 0
3.8200002 -0.69991654 0.55822563 0
3.8180003 -0.70569956 0.55813545 0
3.8160002 -0.71147537 0.55804527 0
3.8150003 -0.71744055 0.55800015 0
3.8140004 -0.7234022 0.55795503 0
3.8140004 -0.72956038 0.55795503 0
3.8150003 -0.73592055 0.55800015 0
3.8160002 -0.74228442 0.55804527 0
3.8190002 -0.74906313 0.55818051 0
3.8220003 -0.7558527 0.55831581 0
3.8260002 -0.76286227 0.55849618 0
4.0220003 -0.84960735 0.56733483 0
4.013 -0.85412776 0.56692898 0
4.006 -0.85906661 0.56661332 0
4.0009999 -0.86443466 0.56638783 0
3.9960003 -0.86978477 0.56616235 0
3.9920003 -0.87534773 0.56598198 0
3.9890003 -0.88112891 0.56584668 0
3.9860003 -0.88689935 0.56571144 0
3.9840002 -0.89289522 0.56562126 0
3.9830003 -0.89912194 0.56557614 0
3.9830003 -0.90558499 0.56557614 0
3.9830003 -0.91204798 0.56557614 0
3.9830003 -0.91851103 0.56557614 0
3.9850004 -0.92546475 0.56566632 0
3.9870002 -0.93242562 0.5657565 0
3.9900002 -0.93964267 0.5658918 0
3.9950004 -0.94737202 0.56611729 0
4.2030001 -0.32039532 0.56863719 0
4.1960001 -0.32673752 0.56833416 0
4.1900001 -0.33313021 0.56807441 0
4.1830001 -0.33942369 0.56777138 0
4.1870003 -0.34656495 0.56794453 0
4.1940002 -0.35396418 0.56824756 0
4.2000003 -0.36130568 0.56850731 0
4.2070003 -0.36875358 0.56881034 0
4.2140002 -0.37622678 0.56911337 0
4.2210002 -0.3837252 0.5694164 0
4.2280002 -0.39124891 0.56971949 0
4.2350001 -0.39879784 0.57002252 0
4.2420001 -0.40637204 0.57032555 0
4.2490001 -0.41397148 0.57062864 0
4.256 -0.42159617 0.57093167 0
4.2639999 -0.42934531 0.57127798 0
4.2710004 -0.43702236 0.57158101 0
4.2780004 -0.44472462 0.57188404 0
4.085 -0.4647631 0.56352878 0
4.079 -0.47071746 0.56326908 0
4.0740004 -0.47676745 0.56305265 0
4.0700002 -0.48291841 0.56287944 0
4.0680003 -0.4892967 0.5627929 0
4.066 -0.49566776 0.56270629 0
4.0650001 -0.50215602 0.56266296 0
4.0650001 -0.50876701 0.56266296 0
4.066 -0.51550603 0.56270629 0
4.0680003 -0.5223785 0.5627929 0
4.072 -0.52952158 0.56296605 0
4.0770001 -0.5368126 0.56318247 0
4.0840001 -0.54439223 0.5634855 0
4.0910001 -0.55199707 0.56378853 0
4.098 -0.55962718 0.56409162 0
4.105 -0.56728256 0.56439465 0
4.112 -0.57496315 0.56469768 0
4.119 -0.58266902 0.56500071 0
4.1259999 -0.5904001 0.56530374 0
4.1340003 -0.59830445 0.56565011 0
4.1410003 -0.60608786 0.56595314 0
3.8460002 -0.67380828 0.55318218 0
3.8390002 -0.67873627 0.5528791 0
3.8330002 -0.68382478 0.55261934 0
3.8290002 -0.68926692 0.55244625 0
3.8250003 -0.69469458 0.55227304 0
3.8220003 -0.70029896 0.55214322 0
3.8200002 -0.70608556 0.55205661 0
3.8180003 -0.71186501 0.55197001 0
3.8170002 -0.71783376 0.55192673 0
3.8160002 -0.72379899 0.55188346 0
3.8170002 -0.73016101 0.55192673 0
3.8170002 -0.73632461 0.55192673 0
3.8190002 -0.7428959 0.55201328 0
3.8210003 -0.74947441 0.55209988 0
3.8240004 -0.75626755 0.55222976 0
3.8290002 -0.76348996 0.55244625 0
4.0150003 -0.8545751 0.56049842 0
4.0080004 -0.85951751 0.56019539 0
4.0020003 -0.86466199 0.55993563 0
3.9970002 -0.87001389 0.5597192 0
3.9930003 -0.87557864 0.55954599 0
3.9900002 -0.8813616 0.55941612 0
3.9880002 -0.88736826 0.55932951 0
3.9860003 -0.89336777 0.55924296 0
3.9850004 -0.89959818 0.55919969 0
3.9840002 -0.9058249 0.55915642 0
3.9840002 -0.91228974 0.55915642 0
3.9850004 -0.91899812 0.55919969 0
3.9860003 -0.92571002 0.55924296 0
3.9890003 -0.93291986 0.55937284 0
3.9920003 -0.94014055 0.55950272 0
3.9970002 -0.94787347 0.5597192 0
4.2030001 -0.32039532 0.56177729 0
4.1960001 -0.32673752 0.5614869 0
4.1900001 -0.33313021 0.56123799 0
4.1830001 -0.33942369 0.56094754 0
4.1870003 -0.34656495 0.56111354 0
4.1940002 -0.35396418 0.56140393 0
4.2000003 -0.36130568 0.56165284 0
4.2070003 -0.36875358 0.56194329 0
4.2140002 -0.37622678 0.56223369 0
4.2210002 -0.3837252 0.56252408 0
4.2280002 -0.39124891 0.56281447 0
4.2350001 -0.39879784 0.56310493 0
4.2420001 -0.40637204 0.56339532 0
4.2490001 -0.41397148 0.56368577 0
4.256 -0.42159617 0.56397617 0
4.2639999 -0.42934531 0.56430805 0
4.2710004 -0.43702236 0.56459844 0
4.2780004 -0.44472462 0.56488889 0
4.085 -0.4647631 0.55688179 0
4.079 -0.47071746 0.55663288 0
4.0740004 -0.47676745 0.55642545 0
4.0700002 -0.48291841 0.55625945 0
4.0680003 -0.4892967 0.55617648 0
4.066 -0.49566776 0.55609351 0
4.0650001 -0.50215602 0.55605203 0
4.0650001 -0.50876701 0.55605203 0
4.066 -0.51550603 0.55609351 0
4.0680003 -0.5223785 0.55617648 0
4.072 -0.52952158 0.55634242 0
4.0770001 -0.5368126 0.55654991 0
4.0840001 -0.54439223 0.5568403 0
4.0910001 -0.55199707 0.55713069 0
4.098 -0.55962718 0.55742109 0
3.8500001 -0.674537 0.54713219 0
3.8420002 -0.67928821 0.54680026 0
3.8360002 -0.6843822 0.54655135 0
3.8320003 -0.68982965 0.54638541 0
3.8280003 -0.69526279 0.54621947 0
3.8250003 -0.7008726 0.54609501 0
3.8220003 -0.70647162 0.54597056 0
3.8210003 -0.71244943 0.54592907 0
3.8200002 -0.7184236 0.54588759 0
3.8190002 -0.72439426 0.5458461 0
3.8190002 -0.73056144 0.5458461 0
3.8200002 -0.73693067 0.54588759 0
3.8220003 -0.74350739 0.54597056 0
3.8240004 -0.75009131 0.54605353 0
3.8280003 -0.7570973 0.54621947 0
3.8340003 -0.7645362 0.54646838 0
4.0180001 -0.85524607 0.55410212 0
4.0100002 -0.85996848 0.55377018 0
4.0050001 -0.86534387 0.55356276 0
4 -0.87070113 0.55335534 0
3.9960003 -0.87627131 0.5531894 0
3.9920003 -0.88182706 0.55302346 0
3.9900002 -0.88783729 0.55294049 0
3.9880002 -0.89384037 0.55285752 0
3.9870002 -0.9000743 0.55281597 0
3.9860003 -0.90630472 0.55277449 0
3.9860003 -0.91277313 0.55277449 0
3.9870002 -0.91948515 0.55281597 0
3.9890003 -0.92644602 0.552899 0
3.9910002 -0.9334141 0.55298197 0
3.9950004 -0.94088733 0.55314791 0
4.2030001 -0.32039532 0.55491745 0
4.1960001 -0.32673752 0.55463964 0
4.1900001 -0.33313021 0.55440152 0
4.1830001 -0.33942369 0.55412376 0
4.1870003 -0.34656495 0.55428249 0
4.1940002 -0.35396418 0.5545603 0
4.2000003 -0.36130568 0.55479836 0
4.2070003 -0.36875358 0.55507618 0
4.2140002 -0.37622678 0.55535394 0
4.2210002 -0.3837252 0.55563176 0
4.2280002 -0.39124891 0.55590951 0
4.2350001 -0.39879784 0.55618733 0
4.2420001 -0.40637204 0.55646509 0
4.2490001 -0.41397148 0.55674291 0
4.256 -0.42159617 0.55702066 0
4.2639999 -0.42934531 0.55733812 0
4.2710004 -0.43702236 0.55761594 0
4.2780004 -0.44472462 0.55789375 0
4.085 -0.4647631 0.55023474 0
4.079 -0.47071746 0.54999661 0
4.0740004 -0.47676745 0.54979825 0
4.0700002 -0.48291841 0.54963946 0
4.0680003 -0.4892967 0.54956013 0
4.066 -0.49566776 0.54948074 0
4.0650001 -0.50215602 0.5494411 0
4.0650001 -0.50876701 0.5494411 0
4.066 -0.51550603 0.54948074 0
4.0680003 -0.5223785 0.54956013 0
4.072 -0.52952158 0.54971886 0
4.0770001 -0.5368126 0.54991728 0
4.0840001 -0.54439223 0.5501951 0
3.8560002 -0.67563003 0.54114717 0
3.8470004 -0.68020815 0.54079002 0
3.8410003 -0.68531114 0.5405519 0
3.8360002 -0.69058007 0.54035348 0
3.8320003 -0.69602036 0.54019475 0
3.8280003 -0.70144618 0.54003602 0
3.8260002 -0.70724362 0.53995663 0
3.8240004 -0.71303385 0.5398773 0
3.8230002 -0.71901351 0.5398376 0
3.8230002 -0.7251879 0.5398376 0
3.8230002 -0.73136234 0.5398376 0
3.8240004 -0.73773885 0.5398773 0
3.8260002 -0.74432266 0.53995663 0
3.8290002 -0.75111943 0.54007572 0
3.8330002 -0.75813448 0.54023445 0
4.0220003 -0.85614079 0.54773468 0
4.0139999 -0.86087036 0.54741716 0
4.0080004 -0.86602569 0.5471791 0
4.0030003 -0.87138838 0.54698068 0
3.9990003 -0.87696397 0.54682195 0
3.9950004 -0.88252509 0.54666322 0
3.9930003 -0.8885408 0.54658383 0
3.9910002 -0.89454925 0.5465045 0
3.9900002 -0.90078861 0.5464648 0
3.9890003 -0.90702444 0.5464251 0
3.9890003 -0.91349828 0.5464251 0
3.9900002 -0.92021567 0.5464648 0
3.9920003 -0.92718196 0.54654413 0
3.9950004 -0.93440264 0.54666322 0
3.9990003 -0.94188303 0.54682195 0
4.2030001 -0.32039532 0.54805756 0
4.1960001 -0.32673752 0.54779238 0
4.1900001 -0.33313021 0.5475651 0
4.1830001 -0.33942369 0.54729998 0
4.1870003 -0.34656495 0.5474515 0
4.1940002 -0.35396418 0.54771662 0
4.2000003 -0.36130568 0.54794389 0
4.2070003 -0.36875358 0.54820907 0
4.2140002 -0.37622678 0.54847419 0
4.2210002 -0.3837252 0.54873937 0
4.2280002 -0.39124891 0.54900455 0
4.2350001 -0.39879784 0.54926968 0
4.2420001 -0.40637204 0.54953486 0
4.2490001 -0.41397148 0.54980004 0
4.256 -0.42159617 0.55006516 0
4.2639999 -0.42934531 0.55036825 0
4.2710004 -0.43702236 0.55063343 0
4.2780004 -0.44472462 0.55089855 0
4.085 -0.4647631 0.54358768 0
4.079 -0.47071746 0.54336041 0
4.0740004 -0.47676745 0.54317105 0
4.0700002 -0.48291841 0.54301953 0
4.0680003 -0.4892967 0.54294378 0
4.066 -0.49566776 0.54286802 0
4.0650001 -0.50215602 0.54283011 0
4.0650001 -0.50876701 0.54283011 0
4.066 -0.51550603 0.54286802 0
4.0680003 -0.5223785 0.54294378 0
4.072 -0.52952158 0.54309529 0
4.0770001 -0.5368126 0.54328465 0
4.0840001 -0.54439223 0.54354984 0
3.8650002 -0.67726976 0.53525412 0
3.8540003 -0.68149608 0.53483742 0
3.8460002 -0.68624008 0.53453439 0
3.8410003 -0.69151801 0.53434503 0
3.8370004 -0.69696736 0.53419346 0
3.8330002 -0.70240217 0.53404194 0
3.8310003 -0.70820868 0.53396618 0
3.8290002 -0.71400785 0.53389043 0
3.8280003 -0.71999651 0.53385258 0
3.8270001 -0.72598153 0.53381467 0
3.8280003 -0.73236346 0.53385258 0
3.8290002 -0.73874891 0.53389043 0
3.8310003 -0.7453419 0.53396618 0
3.8350003 -0.75235331 0.5341177 0
3.8400002 -0.75958651 0.53430712 0
4.0190001 -0.86199778 0.54108763 0
4.0120001 -0.86693478 0.54082251 0
4.007 -0.87230474 0.54063308 0
4.0030003 -0.87788749 0.54048157 0
3.9990003 -0.88345587 0.54033005 0
3.9960003 -0.88924426 0.54021639 0
3.9940002 -0.89525819 0.54014063 0
3.9930003 -0.90150297 0.54010272 0
3.9930003 -0.90798402 0.54010272 0
3.9930003 -0.91446513 0.54010272 0
3.9940002 -0.92118967 0.54014063 0
3.9960003 -0.92816323 0.54021639 0
4 -0.93563819 0.5403679 0
4.2030001 -0.32039532 0.54119766 0
4.1960001 -0.32673752 0.54094517 0
4.1900001 -0.33313021 0.54072869 0
4.1830001 -0.33942369 0.54047614 0
4.1870003 -0.34656495 0.54062045 0
4.1940002 -0.35396418 0.54087299 0
4.2000003 -0.36130568 0.54108942 0
4.2070003 -0.36875358 0.54134196 0
4.2140002 -0.37622678 0.54159451 0
4.2210002 -0.3837252 0.54184705 0
4.2280002 -0.39124891 0.5420996 0
4.2350001 -0.39879784 0.54235208 0
4.2420001 -0.40637204 0.54260463 0
4.2490001 -0.41397148 0.54285717 0
4.256 -0.42159617 0.54310971 0
4.2639999 -0.42934531 0.54339832 0
4.2710004 -0.43702236 0.54365087 0
4.2780004 -0.44472462 0.54390335 0
4.085 -0.4647631 0.53694069 0
4.079 -0.47071746 0.53672421 0
4.0740004 -0.47676745 0.53654385 0
4.0700002 -0.48291841 0.53639954 0
4.0680003 -0.4892967 0.53632736 0
4.066 -0.49566776 0.53625524 0
4.0650001 -0.50215602 0.53621912 0
4.0650001 -0.50876701 0.53621912 0
4.066 -0.51550603 0.53625524 0
4.0680003 -0.5223785 0.53632736 0
4.072 -0.52952158 0.53647172 0
4.0770001 -0.5368126 0.53665209 0
3.8650002 -0.68351996 0.52900392 0
3.8550003 -0.68791223 0.52864319 0
3.8480003 -0.69283122 0.52839065 0
3.8430002 -0.69810373 0.52821022 0
3.8390002 -0.70354944 0.52806592 0
3.8370004 -0.70936674 0.5279938 0
3.8340003 -0.71498203 0.52788556 0
3.8340003 -0.72117627 0.52788556 0
3.8330002 -0.72717208 0.5278495 0
3.8340003 -0.73356485 0.52788556 0
3.8360002 -0.74016309 0.52795774 0
3.8390002 -0.7469725 0.52806592 0
3.8430002 -0.75399834 0.52821022 0
4.026 -0.86357611 0.53481221 0
4.0180001 -0.86829847 0.53452361 0
4.0120001 -0.87345016 0.53430712 0
4.0080004 -0.87904197 0.53416282 0
4.0040002 -0.8846193 0.53401852 0
4.0009999 -0.89041674 0.53391027 0
3.9990003 -0.89643967 0.53383815 0
3.9980004 -0.90269351 0.53380203 0
3.9980004 -0.90918356 0.53380203 0
3.9980004 -0.91567373 0.53380203 0
4 -0.92265081 0.53387421 0
4.0020003 -0.92963517 0.53394639 0
4.006 -0.93712097 0.53409064 0
4.2030001 -0.32039532 0.53433776 0
4.1960001 -0.32673752 0.53409791 0
4.1900001 -0.33313021 0.53389227 0
4.1830001 -0.33942369 0.53365237 0
4.1870003 -0.34656495 0.5337894 0
4.1940002 -0.35396418 0.53402936 0
4.2000003 -0.36130568 0.534235 0
4.2070003 -0.36875358 0.53447485 0
4.2140002 -0.37622678 0.53471482 0
4.2210002 -0.3837252 0.53495467 0
4.2280002 -0.39124891 0.53519458 0
4.2350001 -0.39879784 0.53543448 0
4.2420001 -0.40637204 0.53567439 0
4.2490001 -0.41397148 0.5359143 0
4.256 -0.42159617 0.53615421 0
4.2639999 -0.42934531 0.53642839 0
4.2710004 -0.43702236 0.5366683 0
4.2780004 -0.44472462 0.53690821 0
4.085 -0.4647631 0.53029364 0
4.079 -0.47071746 0.53008801 0
4.0740004 -0.47676745 0.52991664 0
4.0700002 -0.48291841 0.52977955 0
4.0680003 -0.4892967 0.52971101 0
4.066 -0.49566776 0.52964246 0
4.0650001 -0.50215602 0.52960819 0
4.0650001 -0.50876701 0.52960819 0
4.066 -0.51550603 0.52964246 0
4.0680003 -0.5223785 0.52971101 0
4.072 -0.52952158 0.5298481 0
4.0770001 -0.5368126 0.53001946 0
3.8680003 -0.69032753 0.52285653 0
3.8580003 -0.69470716 0.52251381 0
3.8520002 -0.69980836 0.52230817 0
3.8480003 -0.70527023 0.52217108 0
3.8440003 -0.7107178 0.52203399 0
3.8420002 -0.71654046 0.52196544 0
3.8410003 -0.7225526 0.52193117 0
3.8410003 -0.72875947 0.52193117 0
3.8420002 -0.73516655 0.52196544 0
3.8450003 -0.74198139 0.52206826 0
3.8490002 -0.7490108 0.52220535 0
4.0380001 -0.86628181 0.52868283 0
4.027 -0.87034398 0.52830583 0
4.02 -0.87528282 0.52806592 0
4.0139999 -0.88042724 0.52786028 0
4.0100002 -0.88601542 0.52772319 0
4.007 -0.89182371 0.52762043 0
4.0050001 -0.89785749 0.52755189 0
4.0040002 -0.90412211 0.52751756 0
4.0040002 -0.91062295 0.52751756 0
4.0050001 -0.91736567 0.52755189 0
4.007 -0.92435539 0.52762043 0
4.0100002 -0.93159771 0.52772319 0
4.2030001 -0.32039532 0.52747792 0
4.1960001 -0.32673752 0.52725065 0
4.1900001 -0.33313021 0.5270558 0
4.1830001 -0.33942369 0.52682853 0
4.1870003 -0.34656495 0.52695841 0
4.1940002 -0.35396418 0.52718568 0
4.2000003 -0.36130568 0.52738047 0
4.2070003 -0.36875358 0.5276078 0
4.2140002 -0.37622678 0.52783507 0
4.2210002 -0.3837252 0.52806234 0
4.2280002 -0.39124891 0.52828962 0
4.2350001 -0.39879784 0.52851689 0
4.2420001 -0.40637204 0.52874416 0
4.2490001 -0.41397148 0.52897143 0
4.256 -0.42159617 0.52919877 0
4.2639999 -0.42934531 0.52945846 0
4.2710004 -0.43702236 0.5296858 0
4.2780004 -0.44472462 0.52991307 0
4.085 -0.4647631 0.52364659 0
4.079 -0.47071746 0.52345181 0
4.0740004 -0.47676745 0.52328944 0
4.0700002 -0.48291841 0.52315956 0
4.0680003 -0.4892967 0.52309465 0
4.066 -0.49566776 0.52302969 0
4.0650001 -0.50215602 0.52299726 0
4.0650001 -0.50876701 0.52299726 0
4.066 -0.51550603 0.52302969 0
4.0680003 -0.5223785 0.52309465 0
4.072 -0.52952158 0.52322453 0
3.9100003 -0.64747983 0.5179646 0
3.9040003 -0.65277225 0.51776981 0
3.8980002 -0.65804291 0.51757503 0
3.8920002 -0.66329199 0.51738018 0
3.8860002 -0.6685195 0.51718539 0
3.8800004 -0.67372531 0.51699054 0
3.8740003 -0.67890942 0.51679575 0
3.8680003 -0.6840719 0.51660097 0
3.8630002 -0.68939853 0.5164386 0
3.8570004 -0.69451958 0.51624382 0
3.8510003 -0.69961894 0.51604897 0
3.8460002 -0.70488781 0.5158866 0
3.8430002 -0.71052474 0.51578921 0
3.8410003 -0.71634567 0.5157243 0
3.8400002 -0.7223559 0.51569182 0
3.8400002 -0.72856098 0.51569182 0
3.8410003 -0.73496634 0.5157243 0
3.8430002 -0.74157727 0.51578921 0
3.8480003 -0.74880701 0.51595157 0
4.0410004 -0.87352592 0.52221799 0
4.0310001 -0.87780273 0.52189332 0
4.0240002 -0.88273609 0.52166605 0
4.0190001 -0.88810968 0.52150369 0
4.0160003 -0.89393419 0.52140629 0
4.0139999 -0.89998412 0.52134132 0
4.013 -0.90626502 0.5213089 0
4.0120001 -0.91254228 0.52127641 0
4.0139999 -0.919541 0.52134132 0
4.0170002 -0.92679054 0.52143878 0
4.2030001 -0.32039532 0.52061802 0
4.1960001 -0.32673752 0.52040339 0
4.1900001 -0.33313021 0.52021939 0
4.1830001 -0.33942369 0.52000475 0
4.1870003 -0.34656495 0.52012742 0
4.1940002 -0.35396418 0.52034205 0
4.2000003 -0.36130568 0.52052605 0
4.2070003 -0.36875358 0.52074069 0
4.2140002 -0.37622678 0.52095532 0
4.2210002 -0.3837252 0.52116996 0
4.2280002 -0.39124891 0.52138466 0
4.2350001 -0.39879784 0.52159929 0
4.2420001 -0.40637204 0.52181393 0
4.2490001 -0.41397148 0.52202863 0
4.256 -0.42159617 0.52224326 0
4.2639999 -0.42934531 0.52248859 0
4.2710004 -0.43702236 0.52270323 0
4.2780004 -0.44472462 0.52291787 0
4.085 -0.4647631 0.5169996 0
4.079 -0.47071746 0.5168156 0
4.0740004 -0.47676745 0.51666224 0
4.0700002 -0.48291841 0.51653957 0
4.0680003 -0.4892967 0.5164783 0
4.066 -0.49566776 0.51641697 0
4.0650001 -0.50215602 0.51638627 0
4.0650001 -0.50876701 0.51638627 0
4.066 -0.51550603 0.51641697 0
4.0680003 -0.5223785 0.5164783 0
4.072 -0.52952158 0.51660097 0
4 -0.55900306 0.51439309 0
3.9940002 -0.56463099 0.51420909 0
3.9880002 -0.57023716 0.51402509 0
3.9820004 -0.57582182 0.51384109 0
3.9760003 -0.58138472 0.51365709 0
3.9690003 -0.58677453 0.51344246 0
3.9630003 -0.59229237 0.51325846 0
3.9570003 -0.59778851 0.51307452 0
3.9510002 -0.60326308 0.51289052 0
3.9450002 -0.60871601 0.51270652 0
3.9390004 -0.61414731 0.51252252 0
3.9330003 -0.61955696 0.51233852 0
3.9270003 -0.62494493 0.51215458 0
3.9210002 -0.63031119 0.51197058 0
3.9150002 -0.63565588 0.51178658 0
3.9090002 -0.64097893 0.51160258 0
3.9030004 -0.64628035 0.51141858 0
3.8970003 -0.65156013 0.51123464 0
3.8910003 -0.65681815 0.51105064 0
3.8850002 -0.6620546 0.51086664 0
3.8790002 -0.66726947 0.51068264 0
3.8740003 -0.67264301 0.51052934 0
3.8680003 -0.67781627 0.51034534 0
3.8620002 -0.68296802 0.51016134 0
3.8560002 -0.68809801 0.50997734 0
3.8500001 -0.69320643 0.50979334 0
3.8450003 -0.69848251 0.50964004 0
3.8410003 -0.70393187 0.50951737 0
3.8380003 -0.70955974 0.5094254 0
3.8360002 -0.71537161 0.50936407 0
3.8350003 -0.72137284 0.50933337 0
3.8350003 -0.72756892 0.50933337 0
3.8360002 -0.73396528 0.50936407 0
3.8380003 -0.74056721 0.5094254 0
3.8410003 -0.7473802 0.50951737 0
3.8470004 -0.75482094 0.50970137 0
4.0560002 -0.85055619 0.5161103 0
4.0500002 -0.8558197 0.5159263 0
4.0440001 -0.86106163 0.5157423 0
4.0380001 -0.86628181 0.51555836 0
4.0320001 -0.87148035 0.51537436 0
4.026 -0.87665731 0.51519036 0
4.02 -0.88181257 0.51500636 0
4.0160003 -0.88741159 0.5148837 0
4.0120001 -0.89299619 0.51476103 0
4.0100002 -0.89903891 0.5146997 0
4.0090003 -0.9053126 0.51466906 0
4.0090003 -0.91182256 0.51466906 0
4.0100002 -0.91857421 0.5146997 0
4.013 -0.92581654 0.51479173 0
4.0180001 -0.93356025 0.51494503 0
4.2030001 -0.32039532 0.51375812 0
4.1960001 -0.32673752 0.51355612 0
4.1900001 -0.33313021 0.51338297 0
4.1830001 -0.33942369 0.51318091 0
4.1870003 -0.34656495 0.51329637 0
4.1940002 -0.35396418 0.51349837 0
4.2000003 -0.36130568 0.51367158 0
4.2070003 -0.36875358 0.51387358 0
4.2140002 -0.37622678 0.51407564 0
4.2210002 -0.3837252 0.51427764 0
4.2280002 -0.39124891 0.51447964 0
4.2350001 -0.39879784 0.5146817 0
4.2420001 -0.40637204 0.5148837 0
4.2490001 -0.41397148 0.51508576 0
4.256 -0.42159617 0.51528776 0
4.2639999 -0.42934531 0.51551867 0
4.2710004 -0.43702236 0.51572067 0
4.2780004 -0.44472462 0.51592273 0
4.085 -0.4647631 0.51035255 0
4.079 -0.47071746 0.5101794 0
4.0740004 -0.47676745 0.5100351 0
4.0700002 -0.48291841 0.50991964 0
4.0680003 -0.4892967 0.50986195 0
4.066 -0.49566776 0.50980419 0
4.0650001 -0.50215602 0.50977534 0
4.0650001 -0.50876701 0.50977534 0
4.066 -0.51550603 0.50980419 0
4.0680003 -0.5223785 0.50986195 0
4.007 -0.54698789 0.5081014 0
4 -0.55250937 0.50789934 0
3.9940002 -0.55814803 0.50772619 0
3.9880002 -0.56376511 0.50755304 0
3.9820004 -0.56936055 0.50737989 0
3.9760003 -0.5749343 0.50720668 0
3.9700003 -0.58048642 0.50703353 0
3.9640002 -0.58601689 0.50686038 0
3.9580002 -0.59152567 0.50668722 0
3.9520004 -0.59701294 0.50651407 0
3.9460003 -0.60247844 0.50634086 0
3.9400003 -0.60792238 0.50616771 0
3.9340003 -0.61334455 0.50599456 0
3.9280002 -0.61874521 0.50582135 0
3.9220002 -0.62412417 0.5056482 0
3.9160004 -0.62948143 0.50547504 0
3.9100003 -0.63481712 0.50530189 0
3.9040003 -0.64013112 0.50512874 0
3.8980002 -0.64542353 0.50495553 0
3.8920002 -0.65069419 0.50478238 0
3.8870003 -0.65611827 0.50463808 0
3.8810003 -0.66134757 0.50446492 0
3.8750002 -0.66655517 0.50429177 0
3.8690002 -0.67174107 0.50411856 0
3.8630002 -0.67690533 0.50394541 0
3.8580003 -0.68223202 0.50380111 0
3.8520002 -0.6873548 0.50362796 0
3.8460002 -0.69245601 0.5034548 0
3.8410003 -0.69772494 0.5033105 0
3.8370004 -0.70316702 0.50319505 0
3.8350003 -0.70898068 0.50313729 0
3.8330002 -0.71478713 0.50307959 0
3.8320003 -0.720783 0.50305074 0
3.8310003 -0.72677529 0.5030219 0
3.8320003 -0.73316437 0.50305074 0
3.8340003 -0.73975909 0.50310844 0
3.8370004 -0.74656487 0.50319505 0
3.8410003 -0.75358707 0.5033105 0
4.0610003 -0.83844906 0.50965989 0
4.0550003 -0.84374326 0.50948673 0
4.0490003 -0.84901571 0.50931358 0
4.0440001 -0.85448855 0.50916922 0
4.0380001 -0.85971957 0.50899607 0
4.0320001 -0.86492896 0.50882292 0
4.026 -0.87011665 0.50864977 0
4.02 -0.87528282 0.50847661 0
4.0150003 -0.88065815 0.50833225 0
4.0110002 -0.88624811 0.50821686 0
4.007 -0.89182371 0.5081014 0
4.0050001 -0.89785749 0.50804365 0
4.0040002 -0.90412211 0.5080148 0
4.0040002 -0.91062295 0.5080148 0
4.0050001 -0.91736567 0.50804365 0
4.007 -0.92435539 0.5081014 0
4.0110002 -0.93184298 0.50821686 0
4.2030001 -0.32039532 0.50689828 0
4.1960001 -0.32673752 0.50670886 0
4.1900001 -0.33313021 0.5065465 0
4.1830001 -0.33942369 0.50635713 0
4.1870003 -0.34656495 0.50646532 0
4.1940002 -0.35396418 0.50665474 0
4.2000003 -0.36130568 0.5068171 0
4.2070003 -0.36875358 0.50700647 0
4.2140002 -0.37622678 0.50719589 0
4.2210002 -0.3837252 0.50738525 0
4.2280002 -0.39124891 0.50757468 0
4.2350001 -0.39879784 0.5077641 0
4.2420001 -0.40637204 0.50795346 0
4.2490001 -0.41397148 0.50814289 0
4.256 -0.42159617 0.50833225 0
4.2639999 -0.42934531 0.50854874 0
4.2710004 -0.43702236 0.50873816 0
4.2780004 -0.44472462 0.50892752 0
4.085 -0.4647631 0.5037055 0
4.079 -0.47071746 0.50354314 0
4.0740004 -0.47676745 0.5034079 0
4.0700002 -0.48291841 0.50329965 0
4.0680003 -0.4892967 0.50324553 0
4.066 -0.49566776 0.50319141 0
4.0650001 -0.50215602 0.50316435 0
4.0650001 -0.50876701 0.50316435 0
4.066 -0.51550603 0.50319141 0
4.0680003 -0.5223785 0.50324553 0
4.0080004 -0.5406186 0.50162214 0
4.0020003 -0.54629344 0.50145978 0
3.9960003 -0.55194658 0.50129741 0
3.9900002 -0.55757809 0.50113511 0
3.9840002 -0.5631879 0.50097275 0
3.9780002 -0.56877607 0.50081038 0
3.9720004 -0.57434267 0.50064808 0
3.9660003 -0.57988757 0.50048572 0
3.9600003 -0.58541083 0.50032336 0
3.9540002 -0.59091246 0.50016105 0
3.9480002 -0.59639239 0.49999869 0
3.9420002 -0.60185069 0.49983633 0
3.9360003 -0.60728741 0.49967402 0
3.9300003 -0.61270243 0.49951166 0
3.9240003 -0.61809582 0.4993493 0
3.9180002 -0.62346756 0.49918696 0
3.9120002 -0.62881762 0.49902463 0
3.9060004 -0.63414609 0.4988623 0
3.9010003 -0.63962251 0.49872699 0
3.8950002 -0.64490944 0.49856466 0
3.8890002 -0.65017474 0.49840233 0
3.8830004 -0.6554184 0.49823999 0
3.8770003 -0.66064048 0.49807763 0
3.8720002 -0.66601944 0.49794233 0
3.8660002 -0.67119992 0.49778 0
3.8600004 -0.67635882 0.49761766 0
3.8550003 -0.68168002 0.49748236 0
3.8490002 -0.68679744 0.49732003 0
3.8430002 -0.69189322 0.49715769 0
3.8390002 -0.69734609 0.49704945 0
3.8350003 -0.7027846 0.49694124 0
3.8320003 -0.70840168 0.49686006 0
3.8300002 -0.7142027 0.49680594 0
3.8290002 -0.72019315 0.49677891 0
3.8290002 -0.72637838 0.49677891 0
3.8300002 -0.73276389 0.49680594 0
3.8310003 -0.73915303 0.496833 0
3.8340003 -0.74595338 0.49691418 0
3.8380003 -0.75297022 0.49702239 0
3.8440003 -0.76041633 0.49718475 0
4.0630002 -0.83227456 0.50311023 0
4.0570002 -0.83758318 0.50294793 0
4.0510001 -0.84287018 0.50278556 0
4.0450001 -0.84813553 0.5026232 0
4.039 -0.85337913 0.5024609 0
4.0339999 -0.85882479 0.50232559 0
4.0280004 -0.86402708 0.50216329 0
4.0220003 -0.86920762 0.50200093 0
4.0160003 -0.87436646 0.50183856 0
4.0110002 -0.87973458 0.50170326 0
4.007 -0.88531739 0.50159508 0
4.0040002 -0.89112025 0.5015139 0
4.0020003 -0.89714855 0.50145978 0
4.0009999 -0.90340775 0.50143272 0
4.0009999 -0.90990329 0.50143272 0
4.0009999 -0.91639876 0.50143272 0
4.0030003 -0.92338139 0.50148684 0
4.006 -0.93061638 0.50156802 0
4.0110002 -0.93835652 0.50170326 0
4.2030001 -0.32039532 0.50003839 0
4.1960001 -0.32673752 0.4998616 0
4.1900001 -0.33313021 0.49971008 0
4.1830001 -0.33942369 0.4995333 0
4.1870003 -0.34656495 0.49963433 0
4.1940002 -0.35396418 0.49981108 0
4.2000003 -0.36130568 0.49996263 0
4.2070003 -0.36875358 0.50013936 0
4.2140002 -0.37622678 0.50031614 0
4.2210002 -0.3837252 0.50049293 0
4.2280002 -0.39124891 0.50066972 0
4.2350001 -0.39879784 0.50084651 0
4.2420001 -0.40637204 0.50102323 0
4.2490001 -0.41397148 0.50120002 0
4.256 -0.42159617 0.50137681 0
4.2639999 -0.42934531 0.50157881 0
4.2710004 -0.43702236 0.5017556 0
4.2780004 -0.44472462 0.50193238 0
4.085 -0.4647631 0.49705848 0
4.079 -0.47071746 0.49690697 0
4.0740004 -0.47676745 0.49678069 0
4.0700002 -0.48291841 0.49667966 0
4.0680003 -0.4892967 0.49662918 0
4.066 -0.49566776 0.49657866 0
4.0650001 -0.50215602 0.49655342 0
4.0650001 -0.50876701 0.49655342 0
4.066 -0.51550603 0.49657866 0
4.0680003 -0.5223785 0.49662918 0
4.0120001 -0.53465164 0.495215 0
4.006 -0.54034442 0.49506348 0
4 -0.54601562 0.49491194 0
3.9930003 -0.55152452 0.49473518 0
3.9870002 -0.55715054 0.49458367 0
3.9810002 -0.56275499 0.49443215 0
3.9750004 -0.5683378 0.49428061 0
3.9690003 -0.57389891 0.49412909 0
3.9630003 -0.57943839 0.49397758 0
3.9570003 -0.58495629 0.49382606 0
3.9510002 -0.59045249 0.49367452 0
3.9450002 -0.595927 0.493523 0
3.9390004 -0.60137999 0.49337149 0
3.9330003 -0.60681123 0.49321997 0
3.9270003 -0.61222082 0.49306846 0
3.9220002 -0.61777115 0.49294218 0
3.9160004 -0.62313926 0.49279067 0
3.9100003 -0.62848574 0.49263915 0
3.9040003 -0.63381058 0.49248764 0
3.8980002 -0.63911378 0.49233609 0
3.8920002 -0.64439535 0.49218458 0
3.8870003 -0.64982843 0.49205834 0
3.8810003 -0.65506846 0.49190679 0
3.8750002 -0.6602869 0.49175528 0
3.8690002 -0.66548365 0.49160376 0
3.8640003 -0.67083919 0.49147749 0
3.8580003 -0.67599446 0.49132597 0
3.8530002 -0.68131202 0.4911997 0
3.8470004 -0.68642586 0.49104819 0
3.8410003 -0.69151801 0.49089667 0
3.8370004 -0.69696736 0.49079567 0
3.8330002 -0.70240217 0.49069464 0
3.8310003 -0.70820868 0.49064416 0
3.8290002 -0.71400785 0.49059361 0
3.8280003 -0.71999651 0.4905684 0
3.8280003 -0.72618002 0.4905684 0
3.8280003 -0.73236346 0.4905684 0
3.8290002 -0.73874891 0.49059361 0
3.8320003 -0.74554569 0.4906694 0
3.8350003 -0.75235331 0.49074516 0
3.8410003 -0.759794 0.49089667 0
4.0599999 -0.83163065 0.49642715 0
4.0540004 -0.83693385 0.49627563 0
4.0480003 -0.84221536 0.49612412 0
4.0420003 -0.84747529 0.49597257 0
4.0370002 -0.85293543 0.49584633 0
4.0310001 -0.85815388 0.49569482 0
4.0250001 -0.86335063 0.4955433 0
4.02 -0.86875302 0.495417 0
4.0139999 -0.87390828 0.49526548 0
4.0090003 -0.87927282 0.49513924 0
4.0050001 -0.88485205 0.49503821 0
4.0020003 -0.89065129 0.49496245 0
4 -0.89667594 0.49491194 0
3.9990003 -0.90293157 0.4948867 0
3.9980004 -0.90918356 0.49486145 0
3.9990003 -0.91591537 0.4948867 0
4.0009999 -0.9228943 0.49493721 0
4.0030003 -0.9298805 0.4949877 0
4.0080004 -0.93761528 0.49511397 0
4.2030001 -0.32039532 0.49317849 0
4.1960001 -0.32673752 0.49301434 0
4.1900001 -0.33313021 0.49287364 0
4.1830001 -0.33942369 0.49270952 0
4.1870003 -0.34656495 0.49280331 0
4.1940002 -0.35396418 0.49296743 0
4.2000003 -0.36130568 0.49310815 0
4.2070003 -0.36875358 0.49327227 0
4.2140002 -0.37622678 0.49343643 0
4.2210002 -0.3837252 0.49360058 0
4.2280002 -0.39124891 0.49376473 0
4.2350001 -0.39879784 0.49392888 0
4.2420001 -0.40637204 0.49409303 0
4.2490001 -0.41397148 0.49425715 0
4.256 -0.42159617 0.4944213 0
4.2639999 -0.42934531 0.49460891 0
4.2710004 -0.43702236 0.49477306 0
4.2780004 -0.44472462 0.49493721 0
4.085 -0.4647631 0.49041146 0
4.079 -0.47071746 0.49027076 0
4.0740004 -0.47676745 0.49015349 0
4.0700002 -0.48291841 0.4900597 0
4.0680003 -0.4892967 0.49001279 0
4.066 -0.49566776 0.48996592 0
4.0650001 -0.50215602 0.48994246 0
4.0650001 -0.50876701 0.48994246 0
4.066 -0.51550603 0.48996592 0
4.0680003 -0.5223785 0.49001279 0
4.0100002 -0.53438103 0.48865274 0
4.0040002 -0.54007024 0.48851204 0
3.9980004 -0.54573786 0.48837134 0
3.9920003 -0.55138379 0.48823065 0
3.9860003 -0.55700803 0.48808995 0
3.9800003 -0.56261069 0.48794925 0
3.9740002 -0.56819165 0.48780856 0
3.9680002 -0.57375103 0.48766786 0
3.9620004 -0.57928872 0.48752716 0
3.9560003 -0.58480471 0.48738647 0
3.9500003 -0.59029919 0.48724577 0
3.9440002 -0.59577191 0.48710507 0
3.9380002 -0.60122299 0.48696437 0
3.9320002 -0.60665244 0.48682368 0
3.9260004 -0.61206031 0.48668298 0
3.9210002 -0.61760879 0.48656574 0
3.9150002 -0.62297511 0.48642504 0
3.9090002 -0.6283198 0.48628432 0
3.9030004 -0.63364285 0.48614365 0
3.8970003 -0.63894427 0.48600292 0
3.8920002 -0.64439535 0.48588568 0
3.8860002 -0.64965522 0.48574498 0
3.8800004 -0.65489352 0.48560429 0
3.8740003 -0.66011012 0.48546362 0
3.8690002 -0.66548365 0.48534635 0
3.8630002 -0.67065883 0.48520565 0
3.8570004 -0.67581224 0.48506495 0
3.8520002 -0.68112808 0.48494771 0
3.8460002 -0.68624008 0.48480701 0
3.8410003 -0.69151801 0.48468977 0
3.8360002 -0.69677788 0.48457253 0
3.8330002 -0.70240217 0.48450217 0
3.8300002 -0.70801562 0.4844318 0
3.8280003 -0.71381313 0.48438492 0
3.8270001 -0.71979994 0.48436147 0
3.8270001 -0.72598153 0.48436147 0
3.8270001 -0.73216319 0.48436147 0
3.8290002 -0.73874891 0.48440838 0
3.8310003 -0.7453419 0.48445529 0
3.8350003 -0.75235331 0.48454908 0
3.8400002 -0.75958651 0.48466632 0
4.0640001 -0.82588011 0.48991901 0
4.0580001 -0.83120137 0.48977831 0
4.052 -0.83650094 0.48963761 0
4.0469999 -0.84199715 0.48952037 0
4.0410004 -0.84725523 0.48937967 0
4.0350003 -0.85249174 0.48923898 0
4.0290003 -0.85770649 0.48909828 0
4.0240002 -0.86312509 0.48898101 0
4.0180001 -0.86829847 0.48884034 0
4.0120001 -0.87345016 0.48869962 0
4.007 -0.87881106 0.48858237 0
4.0040002 -0.8846193 0.48851204 0
4.0009999 -0.89041674 0.48844168 0
3.9990003 -0.89643967 0.4883948 0
3.9980004 -0.90269351 0.48837134 0
3.9970002 -0.90894365 0.48834789 0
3.9980004 -0.91567373 0.48837134 0
3.9990003 -0.92240727 0.4883948 0
4.0020003 -0.92963517 0.48846513 0
4.006 -0.93712097 0.48855895 0
4.2030001 -0.32039532 0.48631859 0
4.1960001 -0.32673752 0.48616707 0
4.1900001 -0.33313021 0.48603722 0
4.1830001 -0.33942369 0.48588568 0
4.1870003 -0.34656495 0.48597229 0
4.1940002 -0.35396418 0.4861238 0
4.2000003 -0.36130568 0.48625368 0
4.2070003 -0.36875358 0.48640519 0
4.2140002 -0.37622678 0.48655671 0
4.2210002 -0.3837252 0.48670822 0
4.2280002 -0.39124891 0.48685974 0
4.2350001 -0.39879784 0.48701128 0
4.2420001 -0.40637204 0.4871628 0
4.2490001 -0.41397148 0.48731431 0
4.256 -0.42159617 0.48746583 0
4.2639999 -0.42934531 0.48763898 0
4.2710004 -0.43702236 0.48779052 0
4.2780004 -0.44472462 0.48794204 0
4.085 -0.4647631 0.48376441 0
4.079 -0.47071746 0.48363453 0
4.0740004 -0.47676745 0.48352632 0
4.0700002 -0.48291841 0.48343974 0
4.0680003 -0.4892967 0.48339644 0
4.066 -0.49566776 0.48335314 0
4.0650001 -0.50215602 0.4833315 0
4.0650001 -0.50876701 0.4833315 0
4.066 -0.51550603 0.48335314 0
4.0680003 -0.5223785 0.48339644 0
4.0100002 -0.53438103 0.48214099 0
4.0030003 -0.53993315 0.48198947 0
3.9970002 -0.54559892 0.48185959 0
3.9910002 -0.55124307 0.48172972 0
3.9850004 -0.55686557 0.48159984 0
3.9790003 -0.56246638 0.48146996 0
3.9730003 -0.56804556 0.48134011 0
3.9670002 -0.57360309 0.48121023 0
3.9610002 -0.57913899 0.48108035 0
3.9550002 -0.5846532 0.48095047 0
3.9500003 -0.59029919 0.48084223 0
3.9440002 -0.59577191 0.48071235 0
3.9380002 -0.60122299 0.48058251 0
3.9320002 -0.60665244 0.48045263 0
3.9260004 -0.61206031 0.48032275 0
3.9200003 -0.61744648 0.48019287 0
3.9140003 -0.62281096 0.48006299 0
3.9090002 -0.6283198 0.47995478 0
3.9030004 -0.63364285 0.4798249 0
3.8970003 -0.63894427 0.47969502 0
3.8910003 -0.64422399 0.47956514 0
3.8860002 -0.64965522 0.4794569 0
3.8800004 -0.65489352 0.47932705 0
3.8740003 -0.66011012 0.47919717 0
3.8690002 -0.66548365 0.47908896 0
3.8630002 -0.67065883 0.47895908 0
3.8580003 -0.67599446 0.47885084 0
3.8520002 -0.68112808 0.47872096 0
3.8460002 -0.68624008 0.47859108 0
3.8410003 -0.69151801 0.47848287 0
3.8360002 -0.69677788 0.47837463 0
3.8330002 -0.70240217 0.47830969 0
3.8300002 -0.70801562 0.47824475 0
3.8280003 -0.71381313 0.47820148 0
3.8270001 -0.71979994 0.47817981 0
3.8270001 -0.72598153 0.47817981 0
3.8270001 -0.73216319 0.47817981 0
3.8290002 -0.73874891 0.47822312 0
3.8310003 -0.7453419 0.47826642 0
3.8340003 -0.75214767 0.47833136 0
3.8400002 -0.75958651 0.47846121 0
4.0630002 -0.8256672 0.4832882 0
4.0570002 -0.83098668 0.48315835 0
4.0510001 -0.83628446 0.48302847 0
4.046 -0.84177887 0.48292023 0
4.04 -0.84703517 0.48279035 0
4.0339999 -0.85226977 0.48266047 0
4.0290003 -0.85770649 0.48255226 0
4.0230002 -0.86289966 0.48242238 0
4.0170002 -0.86807114 0.4822925 0
4.0120001 -0.87345016 0.48218429 0
4.007 -0.87881106 0.48207605 0
4.0030003 -0.8843866 0.48198947 0
4 -0.89018226 0.48192453 0
3.9980004 -0.8962034 0.48188123 0
3.9970002 -0.90245533 0.48185959 0
3.9970002 -0.90894365 0.48185959 0
3.9970002 -0.91543198 0.48185959 0
3.9990003 -0.92240727 0.4819029 0
4.0009999 -0.92938983 0.48194617 0
4.0050001 -0.93687385 0.48203278 0
4.2030001 -0.32039532 0.47945872 0
4.1960001 -0.32673752 0.47931984 0
4.1900001 -0.33313021 0.47920078 0
4.1830001 -0.33942369 0.4790619 0
4.1870003 -0.34656495 0.47914124 0
4.1940002 -0.35396418 0.47928014 0
4.2000003 -0.36130568 0.4793992 0
4.2070003 -0.36875358 0.47953808 0
4.2140002 -0.37622678 0.47967699 0
4.2210002 -0.3837252 0.47981587 0
4.2280002 -0.39124891 0.47995478 0
4.2350001 -0.39879784 0.48009366 0
4.2420001 -0.40637204 0.48023257 0
4.2490001 -0.41397148 0.48037145 0
4.256 -0.42159617 0.48051035 0
4.2639999 -0.42934531 0.48066908 0
4.2710004 -0.43702236 0.48080796 0
4.2780004 -0.44472462 0.48094687 0
4.085 -0.4647631 0.47711739 0
4.079 -0.47071746 0.47699833 0
4.0740004 -0.47676745 0.47689912 0
4.0700002 -0.48291841 0.47681975 0
4.0680003 -0.4892967 0.47678006 0
4.066 -0.49566776 0.47674039 0
4.0650001 -0.50215602 0.47672054 0
4.0650001 -0.50876701 0.47672054 0
4.066 -0.51550603 0.47674039 0
4.0680003 -0.5223785 0.47678006 0
4.0100002 -0.53438103 0.47562924 0
4.0040002 -0.54007024 0.47551018 0
3.9980004 -0.54573786 0.47539115 0
3.9920003 -0.55138379 0.47527209 0
3.9860003 -0.55700803 0.47515303 0
3.9800003 -0.56261069 0.475034 0
3.9740002 -0.56819165 0.47491494 0
3.9680002 -0.57375103 0.47479588 0
3.9620004 -0.57928872 0.47467685 0
3.9560003 -0.58480471 0.47455776 0
3.9500003 -0.59029919 0.47443873 0
3.9440002 -0.59577191 0.47431967 0
3.9390004 -0.60137999 0.47422045 0
3.9330003 -0.60681123 0.47410142 0
3.9270003 -0.61222082 0.47398236 0
3.9210002 -0.61760879 0.4738633 0
3.9150002 -0.62297511 0.47374427 0
3.9090002 -0.6283198 0.47362521 0
3.9040003 -0.63381058 0.473526 0
3.8980002 -0.63911378 0.47340694 0
3.8920002 -0.64439535 0.47328788 0
3.8870003 -0.64982843 0.4731887 0
3.8810003 -0.65506846 0.47306964 0
3.8750002 -0.6602869 0.47295058 0
3.8700004 -0.66566229 0.47285137 0
3.8640003 -0.67083919 0.47273234 0
3.8580003 -0.67599446 0.47261328 0
3.8530002 -0.68131202 0.47251406 0
3.8460002 -0.68624008 0.47237515 0
3.8410003 -0.69151801 0.47227597 0
3.8360002 -0.69677788 0.47217676 0
3.8330002 -0.70240217 0.47211722 0
3.8300002 -0.70801562 0.4720577 0
3.8280003 -0.71381313 0.472018 0
3.8270001 -0.71979994 0.47199816 0
3.8270001 -0.72598153 0.47199816 0
3.8270001 -0.73216319 0.47199816 0
3.8290002 -0.73874891 0.47203785 0
3.8310003 -0.7453419 0.47207755 0
3.8340003 -0.75214767 0.47213706 0
3.8400002 -0.75958651 0.47225612 0
4.0640001 -0.82588011 0.47670072 0
4.0580001 -0.83120137 0.47658163 0
4.052 -0.83650094 0.4764626 0
4.046 -0.84177887 0.47634354 0
4.0410004 -0.84725523 0.47624433 0
4.0350003 -0.85249174 0.4761253 0
4.0290003 -0.85770649 0.47600624 0
4.0240002 -0.86312509 0.47590703 0
4.0180001 -0.86829847 0.47578797 0
4.0120001 -0.87345016 0.47566891 0
4.007 -0.87881106 0.47556973 0
4.0030003 -0.8843866 0.47549033 0
4.0009999 -0.89041674 0.47545066 0
3.9980004 -0.8962034 0.47539115 0
3.9970002 -0.90245533 0.4753713 0
3.9970002 -0.90894365 0.4753713 0
3.9970002 -0.91543198 0.4753713 0
3.9990003 -0.92240727 0.47541097 0
4.0009999 -0.92938983 0.47545066 0
4.006 -0.93712097 0.47554988 0
4.2030001 -0.32039532 0.47259885 0
4.1960001 -0.32673752 0.47247258 0
4.1900001 -0.33313021 0.47236434 0
4.1830001 -0.33942369 0.47223806 0
4.1870003 -0.34656495 0.47231025 0
4.1940002 -0.35396418 0.47243649 0
4.2000003 -0.36130568 0.47254473 0
4.2070003 -0.36875358 0.47267097 0
4.2140002 -0.37622678 0.47279724 0
4.2210002 -0.3837252 0.47292352 0
4.2280002 -0.39124891 0.47304979 0
4.2350001 -0.39879784 0.47317606 0
4.2420001 -0.40637204 0.47330233 0
4.2490001 -0.41397148 0.47342861 0
4.256 -0.42159617 0.47355485 0
4.2639999 -0.42934531 0.47369915 0
4.2710004 -0.43702236 0.47382542 0
4.2780004 -0.44472462 0.4739517 0
4.085 -0.4647631 0.47047034 0
4.079 -0.47071746 0.47036213 0
4.0740004 -0.47676745 0.47027194 0
4.0700002 -0.48291841 0.47019976 0
4.0680003 -0.4892967 0.4701637 0
4.066 -0.49566776 0.47012761 0
4.0650001 -0.50215602 0.47010958 0
4.0650001 -0.50876701 0.47010958 0
4.066 -0.51550603 0.47012761 0
4.0680003 -0.5223785 0.4701637 0
4.0120001 -0.53465164 0.46915358 0
4.006 -0.54034442 0.46904534 0
4 -0.54601562 0.4689371 0
3.9940002 -0.55166513 0.46882889 0
3.9880002 -0.557293 0.46872064 0
3.9820004 -0.56289929 0.46861243 0
3.9760003 -0.56848389 0.46850419 0
3.9700003 -0.57404685 0.46839595 0
3.9640002 -0.57958812 0.46828774 0
3.9580002 -0.58510774 0.46817952 0
3.9520004 -0.5906058 0.46807128 0
3.9460003 -0.59608215 0.46796304 0
3.9410002 -0.60169381 0.46787286 0
3.9350002 -0.60712868 0.46776465 0
3.9290004 -0.61254191 0.4676564 0
3.9230003 -0.61793345 0.46754819 0
3.9170003 -0.62330341 0.46743995 0
3.9120002 -0.62881762 0.46734977 0
3.9060004 -0.63414609 0.46724153 0
3.9000003 -0.63945293 0.46713331 0
3.8940003 -0.64473808 0.46702507 0
3.8890002 -0.65017474 0.46693489 0
3.8830004 -0.6554184 0.46682665 0
3.8770003 -0.66064048 0.46671844 0
3.8720002 -0.66601944 0.46662825 0
3.8660002 -0.67119992 0.46652001 0
3.8610003 -0.67654103 0.46642983 0
3.8540003 -0.68149608 0.46630356 0
3.8460002 -0.68624008 0.46615922 0
3.8410003 -0.69151801 0.46606904 0
3.8360002 -0.69677788 0.46597886 0
3.8330002 -0.70240217 0.46592474 0
3.8300002 -0.70801562 0.46587062 0
3.8280003 -0.71381313 0.46583456 0
3.8270001 -0.71979994 0.46581653 0
3.8270001 -0.72598153 0.46581653 0
3.8270001 -0.73216319 0.46581653 0
3.8290002 -0.73874891 0.46585259 0
3.8310003 -0.7453419 0.46588868 0
3.8340003 -0.75214767 0.4659428 0
3.8400002 -0.75958651 0.46605101 0
4.0650001 -0.82609296 0.47010958 0
4.059 -0.83141601 0.47000134 0
4.0540004 -0.83693385 0.46991116 0
4.0480003 -0.84221536 0.46980295 0
