# .PCD v0.7 - Point Cloud Data file format
VERSION 0.7
FIELDS x y z intensity
SIZE 4 4 4 4
TYPE F F F F
COUNT 1 1 1 1
WIDTH 1378
HEIGHT 1
VIEWPOINT 0 0 0 1 0 0 0
POINTS 1378
DATA ascii
2.5900002 -0.93087614 0.77533197 0
2.5890002 -0.93442065 0.7751624 0
2.5890002 -0.93836915 0.7751624 0
2.5880003 -0.9419083 0.77499282 0
2.5880003 -0.94585502 0.77499282 0
2.5870001 -0.94938862 0.77482331 0
2.5860002 -0.95291871 0.77465373 0
2.5860002 -0.95686185 0.77465373 0
2.5850003 -0.96038651 0.77448416 0
2.5850003 -0.96432781 0.77448416 0
2.5840001 -0.96784699 0.77431464 0
2.5830002 -0.97136259 0.77414507 0
2.5830002 -0.97530043 0.77414507 0
2.5820003 -0.97881061 0.77397549 0
2.5820003 -0.98274648 0.77397549 0
2.5810001 -0.98625118 0.77380592 0
2.5800002 -0.98975247 0.7736364 0
2.5800002 -0.99368471 0.7736364 0
2.5790002 -0.99718058 0.77346683 0
2.5790002 -1.001111 0.77346683 0
2.5780003 -1.0046015 0.77329731 0
2.5770001 -1.0080881 0.77312768 0
2.5770001 -1.012015 0.77312768 0
2.5760002 -1.0154964 0.77295816 0
2.5760002 -1.0194215 0.77295816 0
2.5750003 -1.0228975 0.77278864 0
2.6730001 -0.63640809 0.78530526 0
2.6380002 -0.6313538 0.77943385 0
2.6380002 -0.63539076 0.77943385 0
2.6370001 -0.63916248 0.77926606 0
2.6360002 -0.64293063 0.77909827 0
2.6360002 -0.64696395 0.77909827 0
2.6350002 -0.65072674 0.77893054 0
2.6350002 -0.65475821 0.77893054 0
2.6340003 -0.65851557 0.77876282 0
2.6330001 -0.66226929 0.77859509 0
2.6330001 -0.6662972 0.77859509 0
2.6320002 -0.6700455 0.7784273 0
2.6310003 -0.67379028 0.77825958 0
2.6310003 -0.67781454 0.77825958 0
2.6300001 -0.68155378 0.77809179 0
2.6300001 -0.68557626 0.77809179 0
2.6290002 -0.68931019 0.77792406 0
2.6280003 -0.69304049 0.77775633 0
2.6280003 -0.69705939 0.77775633 0
2.6270001 -0.70078421 0.77758849 0
2.6260002 -0.70450544 0.77742076 0
2.6260002 -0.70852071 0.77742076 0
2.6250002 -0.71223658 0.77725303 0
2.6250002 -0.71625006 0.77725303 0
2.6240003 -0.71996051 0.7770853 0
2.6230001 -0.72366732 0.77691752 0
2.6230001 -0.72767717 0.77691752 0
2.6220002 -0.73137861 0.77674973 0
2.6220002 -0.73538667 0.77674973 0
2.6210003 -0.73908269 0.776582 0
2.6200001 -0.74277502 0.77641428 0
2.6200001 -0.74677944 0.77641428 0
2.6190002 -0.75046647 0.77624649 0
2.6180003 -0.75414985 0.77607876 0
2.6180003 -0.7581507 0.77607876 0
2.6170001 -0.7618286 0.77591097 0
2.6170001 -0.76582766 0.77591097 0
2.6160002 -0.76950026 0.77574325 0
2.6150002 -0.77316922 0.77557552 0
2.6150002 -0.7771647 0.77557552 0
2.6140001 -0.78082818 0.77540767 0
2.6140001 -0.78482175 0.77540767 0
2.6130002 -0.78847992 0.77523994 0
2.6120002 -0.79213446 0.77507222 0
2.6120002 -0.79612446 0.77507222 0
2.6110003 -0.79977357 0.77490449 0
2.6100001 -0.80341905 0.7747367 0
2.6100001 -0.80740547 0.7747367 0
2.6090002 -0.81104559 0.77456897 0
2.6090002 -0.81503022 0.77456897 0
2.6080003 -0.81866491 0.77440125 0
2.6070001 -0.8222959 0.77423346 0
2.6070001 -0.8262769 0.77423346 0
2.6060002 -0.82990259 0.77406573 0
2.6060002 -0.8338818 0.77406573 0
2.6050003 -0.83750206 0.77389801 0
2.6040001 -0.84111863 0.77373016 0
2.6040001 -0.8450942 0.77373016 0
2.6030002 -0.84870547 0.77356243 0
2.6030002 -0.85267925 0.77356243 0
2.6020002 -0.8562851 0.7733947 0
2.6010003 -0.85988736 0.77322698 0
2.6010003 -0.86385751 0.77322698 0
2.6000001 -0.86745429 0.77305913 0
2.6000001 -0.87142265 0.77305913 0
2.5990002 -0.87501407 0.7728914 0
2.5980003 -0.87860185 0.77272367 0
2.5980003 -0.88256663 0.77272367 0
2.5970001 -0.88614893 0.77255589 0
2.5970001 -0.89011186 0.77255589 0
2.5960002 -0.89368886 0.77238816 0
2.5950003 -0.89726228 0.77222037 0
2.5950003 -0.90122157 0.77222037 0
2.5940001 -0.90478945 0.77205265 0
2.5940001 -0.90874702 0.77205265 0
2.5930002 -0.91230959 0.77188492 0
2.5920002 -0.91586846 0.77171719 0
2.5920002 -0.91982245 0.77171719 0
2.5910003 -0.92337596 0.7715494 0
2.5900002 -0.92692584 0.77138162 0
2.5900002 -0.93087614 0.77138162 0
2.5890002 -0.93442065 0.77121389 0
2.5890002 -0.93836915 0.77121389 0
2.5880003 -0.9419083 0.77104616 0
2.5880003 -0.94585502 0.77104616 0
2.5870001 -0.94938862 0.77087837 0
2.5860002 -0.95291871 0.77071059 0
2.5860002 -0.95686185 0.77071059 0
2.5850003 -0.96038651 0.77054286 0
2.5850003 -0.96432781 0.77054286 0
2.5840001 -0.96784699 0.77037513 0
2.5830002 -0.97136259 0.77020741 0
2.5830002 -0.97530043 0.77020741 0
2.5820003 -0.97881061 0.77003962 0
2.5820003 -0.98274648 0.77003962 0
2.5810001 -0.98625118 0.76987183 0
2.5800002 -0.98975247 0.7697041 0
2.5800002 -0.99368471 0.7697041 0
2.5790002 -0.99718058 0.76953638 0
2.5790002 -1.001111 0.76953638 0
2.5780003 -1.0046015 0.76936859 0
2.5770001 -1.0080881 0.7692008 0
2.5770001 -1.012015 0.7692008 0
2.5760002 -1.0154964 0.76903307 0
2.5760002 -1.0194215 0.76903307 0
2.5750003 -1.0228975 0.76886535 0
2.6730001 -0.63640809 0.78120518 0
2.6380002 -0.6313538 0.77539694 0
2.6380002 -0.63539076 0.77539694 0
2.6370001 -0.63916248 0.77523094 0
2.6360002 -0.64293063 0.775065 0
2.6360002 -0.64696395 0.775065 0
2.6350002 -0.65072674 0.77489907 0
2.6350002 -0.65475821 0.77489907 0
2.6340003 -0.65851557 0.77473313 0
2.6330001 -0.66226929 0.77456713 0
2.6330001 -0.6662972 0.77456713 0
2.6320002 -0.6700455 0.77440119 0
2.6310003 -0.67379028 0.77423525 0
2.6310003 -0.67781454 0.77423525 0
2.6300001 -0.68155378 0.77406931 0
2.6300001 -0.68557626 0.77406931 0
2.6290002 -0.68931019 0.77390337 0
2.6280003 -0.69304049 0.77373743 0
2.6280003 -0.69705939 0.77373743 0
2.6270001 -0.70078421 0.77357149 0
2.6260002 -0.70450544 0.77340549 0
2.6260002 -0.70852071 0.77340549 0
2.6250002 -0.71223658 0.77323955 0
2.6250002 -0.71625006 0.77323955 0
2.6240003 -0.71996051 0.77307361 0
2.6230001 -0.72366732 0.77290761 0
2.6230001 -0.72767717 0.77290761 0
2.6220002 -0.73137861 0.77274168 0
2.6220002 -0.73538667 0.77274168 0
2.6210003 -0.73908269 0.77257574 0
2.6200001 -0.74277502 0.7724098 0
2.6200001 -0.74677944 0.7724098 0
2.6190002 -0.75046647 0.77224386 0
2.6180003 -0.75414985 0.77207792 0
2.6180003 -0.7581507 0.77207792 0
2.6170001 -0.7618286 0.77191198 0
2.6170001 -0.76582766 0.77191198 0
2.6160002 -0.76950026 0.77174604 0
2.6150002 -0.77316922 0.7715801 0
2.6150002 -0.7771647 0.7715801 0
2.6140001 -0.78082818 0.7714141 0
2.6140001 -0.78482175 0.7714141 0
2.6130002 -0.78847992 0.77124816 0
2.6120002 -0.79213446 0.77108222 0
2.6120002 -0.79612446 0.77108222 0
2.6110003 -0.79977357 0.77091628 0
2.6100001 -0.80341905 0.77075028 0
2.6100001 -0.80740547 0.77075028 0
2.6090002 -0.81104559 0.77058434 0
2.6090002 -0.81503022 0.77058434 0
2.6080003 -0.81866491 0.77041841 0
2.6070001 -0.8222959 0.77025247 0
2.6070001 -0.8262769 0.77025247 0
2.6060002 -0.82990259 0.77008653 0
2.6060002 -0.8338818 0.77008653 0
2.6050003 -0.83750206 0.76992059 0
2.6040001 -0.84111863 0.76975459 0
2.6040001 -0.8450942 0.76975459 0
2.6030002 -0.84870547 0.76958865 0
2.6030002 -0.85267925 0.76958865 0
2.6020002 -0.8562851 0.76942271 0
2.6010003 -0.85988736 0.76925677 0
2.6010003 -0.86385751 0.76925677 0
2.6000001 -0.86745429 0.76909077 0
2.6000001 -0.87142265 0.76909077 0
2.5990002 -0.87501407 0.76892483 0
2.5980003 -0.87860185 0.76875889 0
2.5980003 -0.88256663 0.76875889 0
2.5970001 -0.88614893 0.76859295 0
2.5970001 -0.89011186 0.76859295 0
2.5960002 -0.89368886 0.76842701 0
2.5950003 -0.89726228 0.76826108 0
2.5950003 -0.90122157 0.76826108 0
2.5940001 -0.90478945 0.76809514 0
2.5940001 -0.90874702 0.76809514 0
2.5930002 -0.91230959 0.7679292 0
2.5920002 -0.91586846 0.7677632 0
2.5920002 -0.91982245 0.7677632 0
2.5910003 -0.92337596 0.76759726 0
2.5900002 -0.92692584 0.76743126 0
2.5900002 -0.93087614 0.76743126 0
2.5890002 -0.93442065 0.76726532 0
2.5890002 -0.93836915 0.76726532 0
2.5880003 -0.9419083 0.76709938 0
2.5880003 -0.94585502 0.76709938 0
2.5870001 -0.94938862 0.76693344 0
2.5860002 -0.95291871 0.7667675 0
2.5860002 -0.95686185 0.7667675 0
2.5850003 -0.96038651 0.76660156 0
2.5850003 -0.96432781 0.76660156 0
2.5840001 -0.96784699 0.76643562 0
2.5830002 -0.97136259 0.76626968 0
2.5830002 -0.97530043 0.76626968 0
2.5820003 -0.97881061 0.76610374 0
2.5820003 -0.98274648 0.76610374 0
2.5810001 -0.98625118 0.76593769 0
2.5800002 -0.98975247 0.76577181 0
2.5800002 -0.99368471 0.76577181 0
2.5790002 -0.99718058 0.76560587 0
2.5790002 -1.001111 0.76560587 0
2.5780003 -1.0046015 0.76543993 0
2.5770001 -1.0080881 0.76527393 0
2.5770001 -1.012015 0.76527393 0
2.5760002 -1.0154964 0.76510799 0
2.5760002 -1.0194215 0.76510799 0
2.5750003 -1.0228975 0.76494205 0
2.6730001 -0.63640809 0.77710509 0
2.6380002 -0.6313538 0.77136004 0
2.6380002 -0.63539076 0.77136004 0
2.6370001 -0.63916248 0.77119583 0
2.6360002 -0.64293063 0.77103174 0
2.6360002 -0.64696395 0.77103174 0
2.6350002 -0.65072674 0.77086759 0
2.6350002 -0.65475821 0.77086759 0
2.6340003 -0.65851557 0.77070343 0
2.6330001 -0.66226929 0.77053928 0
2.6330001 -0.6662972 0.77053928 0
2.6320002 -0.6700455 0.77037513 0
2.6310003 -0.67379028 0.77021098 0
2.6310003 -0.67781454 0.77021098 0
2.6300001 -0.68155378 0.77004683 0
2.6300001 -0.68557626 0.77004683 0
2.6290002 -0.68931019 0.76988268 0
2.6280003 -0.69304049 0.76971853 0
2.6280003 -0.69705939 0.76971853 0
2.6270001 -0.70078421 0.76955438 0
2.6260002 -0.70450544 0.76939023 0
2.6260002 -0.70852071 0.76939023 0
2.6250002 -0.71223658 0.76922607 0
2.6250002 -0.71625006 0.76922607 0
2.6240003 -0.71996051 0.76906192 0
2.6230001 -0.72366732 0.76889777 0
2.6230001 -0.72767717 0.76889777 0
2.6220002 -0.73137861 0.76873362 0
2.6220002 -0.73538667 0.76873362 0
2.6210003 -0.73908269 0.76856953 0
2.6200001 -0.74277502 0.76840532 0
2.6200001 -0.74677944 0.76840532 0
2.6190002 -0.75046647 0.76824123 0
2.6180003 -0.75414985 0.76807708 0
2.6180003 -0.7581507 0.76807708 0
2.6170001 -0.7618286 0.76791286 0
2.6170001 -0.76582766 0.76791286 0
2.6160002 -0.76950026 0.76774877 0
2.6150002 -0.77316922 0.76758462 0
2.6150002 -0.7771647 0.76758462 0
2.6140001 -0.78082818 0.76742041 0
2.6140001 -0.78482175 0.76742041 0
2.6130002 -0.78847992 0.76725632 0
2.6120002 -0.79213446 0.76709217 0
2.6120002 -0.79612446 0.76709217 0
2.6110003 -0.79977357 0.76692808 0
2.6100001 -0.80341905 0.76676387 0
2.6100001 -0.80740547 0.76676387 0
2.6090002 -0.81104559 0.76659977 0
2.6090002 -0.81503022 0.76659977 0
2.6080003 -0.81866491 0.76643562 0
2.6070001 -0.8222959 0.76627147 0
2.6070001 -0.8262769 0.76627147 0
2.6060002 -0.82990259 0.76610732 0
2.6060002 -0.8338818 0.76610732 0
2.6050003 -0.83750206 0.76594317 0
2.6040001 -0.84111863 0.76577902 0
2.6040001 -0.8450942 0.76577902 0
2.6030002 -0.84870547 0.76561487 0
2.6030002 -0.85267925 0.76561487 0
2.6020002 -0.8562851 0.76545072 0
2.6010003 -0.85988736 0.76528656 0
2.6010003 -0.86385751 0.76528656 0
2.6000001 -0.86745429 0.76512241 0
2.6000001 -0.87142265 0.76512241 0
2.5990002 -0.87501407 0.76495826 0
2.5980003 -0.87860185 0.76479411 0
2.5980003 -0.88256663 0.76479411 0
2.5970001 -0.88614893 0.76462996 0
2.5970001 -0.89011186 0.76462996 0
2.5960002 -0.89368886 0.76446581 0
2.5950003 -0.89726228 0.76430166 0
2.5950003 -0.90122157 0.76430166 0
2.5940001 -0.90478945 0.76413751 0
2.5940001 -0.90874702 0.76413751 0
2.5930002 -0.91230959 0.76397336 0
2.5920002 -0.91586846 0.76380926 0
2.5920002 -0.91982245 0.76380926 0
2.5910003 -0.92337596 0.76364517 0
2.5900002 -0.92692584 0.76348096 0
2.5900002 -0.93087614 0.76348096 0
2.5890002 -0.93442065 0.76331681 0
2.5890002 -0.93836915 0.76331681 0
2.5880003 -0.9419083 0.76315272 0
2.5880003 -0.94585502 0.76315272 0
2.5870001 -0.94938862 0.76298851 0
2.5860002 -0.95291871 0.76282442 0
2.5860002 -0.95686185 0.76282442 0
2.5850003 -0.96038651 0.76266026 0
2.5850003 -0.96432781 0.76266026 0
2.5840001 -0.96784699 0.76249605 0
2.5830002 -0.97136259 0.76233196 0
2.5830002 -0.97530043 0.76233196 0
2.5820003 -0.97881061 0.76216781 0
2.5820003 -0.98274648 0.76216781 0
2.5810001 -0.98625118 0.7620036 0
2.5800002 -0.98975247 0.76183951 0
2.5800002 -0.99368471 0.76183951 0
2.5790002 -0.99718058 0.76167536 0
2.5790002 -1.001111 0.76167536 0
2.5780003 -1.0046015 0.76151121 0
2.5770001 -1.0080881 0.76134706 0
2.5770001 -1.012015 0.76134706 0
2.5760002 -1.0154964 0.7611829 0
2.5760002 -1.0194215 0.7611829 0
2.5750003 -1.0228975 0.76101875 0
2.6730001 -0.63640809 0.77300507 0
2.6380002 -0.6313538 0.76732308 0
2.6380002 -0.63539076 0.76732308 0
2.6370001 -0.63916248 0.76716071 0
2.6360002 -0.64293063 0.76699841 0
2.6360002 -0.64696395 0.76699841 0
2.6350002 -0.65072674 0.76683605 0
2.6350002 -0.65475821 0.76683605 0
2.6340003 -0.65851557 0.76667368 0
2.6330001 -0.66226929 0.76651132 0
2.6330001 -0.6662972 0.76651132 0
2.6320002 -0.6700455 0.76634902 0
2.6310003 -0.67379028 0.76618671 0
2.6310003 -0.67781454 0.76618671 0
2.6300001 -0.68155378 0.76602429 0
2.6300001 -0.68557626 0.76602429 0
2.6290002 -0.68931019 0.76586199 0
2.6280003 -0.69304049 0.76569963 0
2.6280003 -0.69705939 0.76569963 0
2.6270001 -0.70078421 0.76553726 0
2.6260002 -0.70450544 0.76537496 0
2.6260002 -0.70852071 0.76537496 0
2.6250002 -0.71223658 0.76521266 0
2.6250002 -0.71625006 0.76521266 0
2.6240003 -0.71996051 0.76505029 0
2.6230001 -0.72366732 0.76488793 0
2.6230001 -0.72767717 0.76488793 0
2.6220002 -0.73137861 0.76472557 0
2.6220002 -0.73538667 0.76472557 0
2.6210003 -0.73908269 0.76456326 0
2.6200001 -0.74277502 0.7644009 0
2.6200001 -0.74677944 0.7644009 0
2.6190002 -0.75046647 0.76423854 0
2.6180003 -0.75414985 0.76407623 0
2.6180003 -0.7581507 0.76407623 0
2.6170001 -0.7618286 0.76391387 0
2.6170001 -0.76582766 0.76391387 0
2.6160002 -0.76950026 0.76375151 0
2.6150002 -0.77316922 0.76358914 0
2.6150002 -0.7771647 0.76358914 0
2.6140001 -0.78082818 0.76342678 0
2.6140001 -0.78482175 0.76342678 0
2.6130002 -0.78847992 0.76326448 0
2.6120002 -0.79213446 0.76310217 0
2.6120002 -0.79612446 0.76310217 0
2.6110003 -0.79977357 0.76293981 0
2.6100001 -0.80341905 0.76277745 0
2.6100001 -0.80740547 0.76277745 0
2.6090002 -0.81104559 0.76261514 0
2.6090002 -0.81503022 0.76261514 0
2.6080003 -0.81866491 0.76245284 0
2.6070001 -0.8222959 0.76229048 0
2.6070001 -0.8262769 0.76229048 0
2.6060002 -0.82990259 0.76212811 0
2.6060002 -0.8338818 0.76212811 0
2.6050003 -0.83750206 0.76196575 0
2.6040001 -0.84111863 0.76180339 0
2.6040001 -0.8450942 0.76180339 0
2.6030002 -0.84870547 0.76164103 0
2.6030002 -0.85267925 0.76164103 0
2.6020002 -0.8562851 0.76147872 0
2.6010003 -0.85988736 0.76131642 0
2.6010003 -0.86385751 0.76131642 0
2.6000001 -0.86745429 0.76115406 0
2.6000001 -0.87142265 0.76115406 0
2.5990002 -0.87501407 0.76099169 0
2.5980003 -0.87860185 0.76082939 0
2.5980003 -0.88256663 0.76082939 0
2.5970001 -0.88614893 0.76066697 0
2.5970001 -0.89011186 0.76066697 0
2.5960002 -0.89368886 0.76050472 0
2.5950003 -0.89726228 0.76034236 0
2.5950003 -0.90122157 0.76034236 0
2.5940001 -0.90478945 0.76018 0
2.5940001 -0.90874702 0.76018 0
2.5930002 -0.91230959 0.76001763 0
2.5920002 -0.91586846 0.75985527 0
2.5920002 -0.91982245 0.75985527 0
2.5910003 -0.92337596 0.75969297 0
2.5900002 -0.92692584 0.7595306 0
2.5900002 -0.93087614 0.7595306 0
2.5890002 -0.93442065 0.7593683 0
2.5890002 -0.93836915 0.7593683 0
2.5880003 -0.9419083 0.75920594 0
2.5880003 -0.94585502 0.75920594 0
2.5870001 -0.94938862 0.75904357 0
2.5860002 -0.95291871 0.75888121 0
2.5860002 -0.95686185 0.75888121 0
2.5850003 -0.96038651 0.75871891 0
2.5850003 -0.96432781 0.75871891 0
2.5840001 -0.96784699 0.75855654 0
2.5830002 -0.97136259 0.75839424 0
2.5830002 -0.97530043 0.75839424 0
2.5820003 -0.97881061 0.75823188 0
2.5820003 -0.98274648 0.75823188 0
2.5810001 -0.98625118 0.75806952 0
2.5800002 -0.98975247 0.75790715 0
2.5800002 -0.99368471 0.75790715 0
2.5790002 -0.99718058 0.75774485 0
2.5790002 -1.001111 0.75774485 0
2.5780003 -1.0046015 0.75758255 0
2.5770001 -1.0080881 0.75742018 0
2.5770001 -1.012015 0.75742018 0
2.5760002 -1.0154964 0.75725782 0
2.5760002 -1.0194215 0.75725782 0
2.5750003 -1.0228975 0.75709546 0
2.6730001 -0.63640809 0.76890498 0
2.6380002 -0.6313538 0.76328611 0
2.6380002 -0.63539076 0.76328611 0
2.6370001 -0.63916248 0.7631256 0
2.6360002 -0.64293063 0.76296508 0
2.6360002 -0.64696395 0.76296508 0
2.6350002 -0.65072674 0.76280451 0
2.6350002 -0.65475821 0.76280451 0
2.6340003 -0.65851557 0.76264399 0
2.6330001 -0.66226929 0.76248348 0
2.6330001 -0.6662972 0.76248348 0
2.6320002 -0.6700455 0.7623229 0
2.6310003 -0.67379028 0.76216239 0
2.6310003 -0.67781454 0.76216239 0
2.6300001 -0.68155378 0.76200181 0
2.6300001 -0.68557626 0.76200181 0
2.6290002 -0.68931019 0.7618413 0
2.6280003 -0.69304049 0.76168072 0
2.6280003 -0.69705939 0.76168072 0
2.6270001 -0.70078421 0.76152021 0
2.6260002 -0.70450544 0.76135969 0
2.6260002 -0.70852071 0.76135969 0
2.6250002 -0.71223658 0.76119912 0
2.6250002 -0.71625006 0.76119912 0
2.6240003 -0.71996051 0.76103866 0
2.6230001 -0.72366732 0.76087809 0
2.6230001 -0.72767717 0.76087809 0
2.6220002 -0.73137861 0.76071751 0
2.6220002 -0.73538667 0.76071751 0
2.6210003 -0.73908269 0.760557 0
2.6200001 -0.74277502 0.76039642 0
2.6200001 -0.74677944 0.76039642 0
2.6190002 -0.75046647 0.76023591 0
2.6180003 -0.75414985 0.76007533 0
2.6180003 -0.7581507 0.76007533 0
2.6170001 -0.7618286 0.75991482 0
2.6170001 -0.76582766 0.75991482 0
2.6160002 -0.76950026 0.7597543 0
2.6150002 -0.77316922 0.75959373 0
2.6150002 -0.7771647 0.75959373 0
2.6140001 -0.78082818 0.75943321 0
2.6140001 -0.78482175 0.75943321 0
2.6130002 -0.78847992 0.75927269 0
2.6120002 -0.79213446 0.75911212 0
2.6120002 -0.79612446 0.75911212 0
2.6110003 -0.79977357 0.7589516 0
2.6100001 -0.80341905 0.75879103 0
2.6100001 -0.80740547 0.75879103 0
2.6090002 -0.81104559 0.75863051 0
2.6090002 -0.81503022 0.75863051 0
2.6080003 -0.81866491 0.75847 0
2.6070001 -0.8222959 0.75830942 0
2.6070001 -0.8262769 0.75830942 0
2.6060002 -0.82990259 0.75814891 0
2.6060002 -0.8338818 0.75814891 0
2.6050003 -0.83750206 0.75798833 0
2.6040001 -0.84111863 0.75782782 0
2.6040001 -0.8450942 0.75782782 0
2.6030002 -0.84870547 0.7576673 0
2.6030002 -0.85267925 0.7576673 0
2.6020002 -0.8562851 0.75750673 0
2.6010003 -0.85988736 0.75734627 0
2.6010003 -0.86385751 0.75734627 0
2.6000001 -0.86745429 0.7571857 0
2.6000001 -0.87142265 0.7571857 0
2.5990002 -0.87501407 0.75702512 0
2.5980003 -0.87860185 0.75686461 0
2.5980003 -0.88256663 0.75686461 0
2.5970001 -0.88614893 0.75670403 0
2.5970001 -0.89011186 0.75670403 0
2.5960002 -0.89368886 0.75654352 0
2.5950003 -0.89726228 0.75638294 0
2.5950003 -0.90122157 0.75638294 0
2.5940001 -0.90478945 0.75622243 0
2.5940001 -0.90874702 0.75622243 0
2.5930002 -0.91230959 0.75606191 0
2.5920002 -0.91586846 0.75590134 0
2.5920002 -0.91982245 0.75590134 0
2.5910003 -0.92337596 0.75574088 0
2.5900002 -0.92692584 0.75558031 0
2.5900002 -0.93087614 0.75558031 0
2.5890002 -0.93442065 0.75541973 0
2.5890002 -0.93836915 0.75541973 0
2.5880003 -0.9419083 0.75525922 0
2.5880003 -0.94585502 0.75525922 0
2.5870001 -0.94938862 0.75509864 0
2.5860002 -0.95291871 0.75493813 0
2.5860002 -0.95686185 0.75493813 0
2.5850003 -0.96038651 0.75477755 0
2.5850003 -0.96432781 0.75477755 0
2.5840001 -0.96784699 0.75461704 0
2.5830002 -0.97136259 0.75445652 0
2.5830002 -0.97530043 0.75445652 0
2.5820003 -0.97881061 0.75429595 0
2.5820003 -0.98274648 0.75429595 0
2.5810001 -0.98625118 0.75413537 0
2.5800002 -0.98975247 0.75397491 0
2.5800002 -0.99368471 0.75397491 0
2.5790002 -0.99718058 0.75381434 0
2.5790002 -1.001111 0.75381434 0
2.5780003 -1.0046015 0.75365388 0
2.5770001 -1.0080881 0.75349331 0
2.5770001 -1.012015 0.75349331 0
2.5760002 -1.0154964 0.75333273 0
2.5760002 -1.0194215 0.75333273 0
2.5750003 -1.0228975 0.75317216 0
2.6730001 -0.63640809 0.76480496 0
2.6380002 -0.6313538 0.75924921 0
2.6380002 -0.63539076 0.75924921 0
2.6370001 -0.63916248 0.75909048 0
2.6360002 -0.64293063 0.75893176 0
2.6360002 -0.64696395 0.75893176 0
2.6350002 -0.65072674 0.75877303 0
2.6350002 -0.65475821 0.75877303 0
2.6340003 -0.65851557 0.7586143 0
2.6330001 -0.66226929 0.75845551 0
2.6330001 -0.6662972 0.75845551 0
2.6320002 -0.6700455 0.75829685 0
2.6310003 -0.67379028 0.75813806 0
2.6310003 -0.67781454 0.75813806 0
2.6300001 -0.68155378 0.75797933 0
2.6300001 -0.68557626 0.75797933 0
2.6290002 -0.68931019 0.75782061 0
2.6280003 -0.69304049 0.75766188 0
2.6280003 -0.69705939 0.75766188 0
2.6270001 -0.70078421 0.75750315 0
2.6260002 -0.70450544 0.75734437 0
2.6260002 -0.70852071 0.75734437 0
2.6250002 -0.71223658 0.7571857 0
2.6250002 -0.71625006 0.7571857 0
2.6240003 -0.71996051 0.75702691 0
2.6230001 -0.72366732 0.75686818 0
2.6230001 -0.72767717 0.75686818 0
2.6220002 -0.73137861 0.75670946 0
2.6220002 -0.73538667 0.75670946 0
2.6210003 -0.73908269 0.75655073 0
2.6200001 -0.74277502 0.756392 0
2.6200001 -0.74677944 0.756392 0
2.6190002 -0.75046647 0.75623322 0
2.6180003 -0.75414985 0.75607455 0
2.6180003 -0.7581507 0.75607455 0
2.6170001 -0.7618286 0.75591576 0
2.6170001 -0.76582766 0.75591576 0
2.6160002 -0.76950026 0.75575709 0
2.6150002 -0.77316922 0.75559831 0
2.6150002 -0.7771647 0.75559831 0
2.6140001 -0.78082818 0.75543952 0
2.6140001 -0.78482175 0.75543952 0
2.6130002 -0.78847992 0.75528085 0
2.6120002 -0.79213446 0.75512207 0
2.6120002 -0.79612446 0.75512207 0
2.6110003 -0.79977357 0.7549634 0
2.6100001 -0.80341905 0.75480461 0
2.6100001 -0.80740547 0.75480461 0
2.6090002 -0.81104559 0.75464594 0
2.6090002 -0.81503022 0.75464594 0
2.6080003 -0.81866491 0.75448716 0
2.6070001 -0.8222959 0.75432843 0
2.6070001 -0.8262769 0.75432843 0
2.6060002 -0.82990259 0.7541697 0
2.6060002 -0.8338818 0.7541697 0
2.6050003 -0.83750206 0.75401098 0
2.6040001 -0.84111863 0.75385225 0
2.6040001 -0.8450942 0.75385225 0
2.6030002 -0.84870547 0.75369346 0
2.6030002 -0.85267925 0.75369346 0
2.6020002 -0.8562851 0.75353479 0
2.6010003 -0.85988736 0.75337601 0
2.6010003 -0.86385751 0.75337601 0
2.6000001 -0.86745429 0.75321728 0
2.6000001 -0.87142265 0.75321728 0
2.5990002 -0.87501407 0.75305855 0
2.5980003 -0.87860185 0.75289983 0
2.5980003 -0.88256663 0.75289983 0
2.5970001 -0.88614893 0.7527411 0
2.5970001 -0.89011186 0.7527411 0
2.5960002 -0.89368886 0.75258237 0
2.5950003 -0.89726228 0.75242364 0
2.5950003 -0.90122157 0.75242364 0
2.5940001 -0.90478945 0.75226486 0
2.5940001 -0.90874702 0.75226486 0
2.5930002 -0.91230959 0.75210613 0
2.5920002 -0.91586846 0.7519474 0
2.5920002 -0.91982245 0.7519474 0
2.5910003 -0.92337596 0.75178868 0
2.5900002 -0.92692584 0.75162995 0
2.5900002 -0.93087614 0.75162995 0
2.5890002 -0.93442065 0.75147122 0
2.5890002 -0.93836915 0.75147122 0
2.5880003 -0.9419083 0.75131249 0
2.5880003 -0.94585502 0.75131249 0
2.5870001 -0.94938862 0.75115371 0
2.5860002 -0.95291871 0.75099504 0
2.5860002 -0.95686185 0.75099504 0
2.5850003 -0.96038651 0.75083625 0
2.5850003 -0.96432781 0.75083625 0
2.5840001 -0.96784699 0.75067753 0
2.5830002 -0.97136259 0.7505188 0
2.5830002 -0.97530043 0.7505188 0
2.5820003 -0.97881061 0.75036007 0
2.5820003 -0.98274648 0.75036007 0
2.5810001 -0.98625118 0.75020128 0
2.5800002 -0.98975247 0.75004256 0
2.5800002 -0.99368471 0.75004256 0
2.5790002 -0.99718058 0.74988389 0
2.5790002 -1.001111 0.74988389 0
2.5780003 -1.0046015 0.7497251 0
2.5770001 -1.0080881 0.74956638 0
2.5770001 -1.012015 0.74956638 0
2.5760002 -1.0154964 0.74940765 0
2.5760002 -1.0194215 0.74940765 0
2.5750003 -1.0228975 0.74924898 0
2.6730001 -0.63640809 0.76070487 0
2.6380002 -0.6313538 0.75521231 0
2.6380002 -0.63539076 0.75521231 0
2.6370001 -0.63916248 0.75505537 0
2.6360002 -0.64293063 0.75489843 0
2.6360002 -0.64696395 0.75489843 0
2.6350002 -0.65072674 0.75474149 0
2.6350002 -0.65475821 0.75474149 0
2.6340003 -0.65851557 0.75458455 0
2.6330001 -0.66226929 0.75442761 0
2.6330001 -0.6662972 0.75442761 0
2.6320002 -0.6700455 0.75427067 0
2.6310003 -0.67379028 0.75411379 0
2.6310003 -0.67781454 0.75411379 0
2.6300001 -0.68155378 0.75395679 0
2.6300001 -0.68557626 0.75395679 0
2.6290002 -0.68931019 0.75379992 0
2.6280003 -0.69304049 0.75364304 0
2.6280003 -0.69705939 0.75364304 0
2.6270001 -0.70078421 0.75348604 0
2.6260002 -0.70450544 0.7533291 0
2.6260002 -0.70852071 0.7533291 0
2.6250002 -0.71223658 0.75317216 0
2.6250002 -0.71625006 0.75317216 0
2.6240003 -0.71996051 0.75301528 0
2.6230001 -0.72366732 0.75285828 0
2.6230001 -0.72767717 0.75285828 0
2.6220002 -0.73137861 0.7527014 0
2.6220002 -0.73538667 0.7527014 0
2.6210003 -0.73908269 0.75254452 0
2.6200001 -0.74277502 0.75238752 0
2.6200001 -0.74677944 0.75238752 0
2.6190002 -0.75046647 0.75223064 0
2.6180003 -0.75414985 0.75207371 0
2.6180003 -0.7581507 0.75207371 0
2.6170001 -0.7618286 0.75191677 0
2.6170001 -0.76582766 0.75191677 0
2.6160002 -0.76950026 0.75175977 0
2.6150002 -0.77316922 0.75160289 0
2.6150002 -0.7771647 0.75160289 0
2.6140001 -0.78082818 0.75144589 0
2.6140001 -0.78482175 0.75144589 0
2.6130002 -0.78847992 0.75128901 0
2.6120002 -0.79213446 0.75113213 0
2.6120002 -0.79612446 0.75113213 0
2.6110003 -0.79977357 0.75097519 0
2.6100001 -0.80341905 0.75081825 0
2.6100001 -0.80740547 0.75081825 0
2.6090002 -0.81104559 0.75066131 0
2.6090002 -0.81503022 0.75066131 0
2.6080003 -0.81866491 0.75050437 0
2.6070001 -0.8222959 0.75034738 0
2.6070001 -0.8262769 0.75034738 0
2.6060002 -0.82990259 0.7501905 0
2.6060002 -0.8338818 0.7501905 0
2.6050003 -0.83750206 0.75003356 0
2.6040001 -0.84111863 0.74987662 0
2.6040001 -0.8450942 0.74987662 0
2.6030002 -0.84870547 0.74971974 0
2.6030002 -0.85267925 0.74971974 0
2.6020002 -0.8562851 0.74956274 0
2.6010003 -0.85988736 0.74940586 0
2.6010003 -0.86385751 0.74940586 0
2.6000001 -0.86745429 0.74924892 0
2.6000001 -0.87142265 0.74924892 0
2.5990002 -0.87501407 0.74909198 0
2.5980003 -0.87860185 0.74893504 0
2.5980003 -0.88256663 0.74893504 0
2.5970001 -0.88614893 0.7487781 0
2.5970001 -0.89011186 0.7487781 0
2.5960002 -0.89368886 0.74862117 0
2.5950003 -0.89726228 0.74846423 0
2.5950003 -0.90122157 0.74846423 0
2.5940001 -0.90478945 0.74830735 0
2.5940001 -0.90874702 0.74830735 0
2.5930002 -0.91230959 0.74815035 0
2.5920002 -0.91586846 0.74799347 0
2.5920002 -0.91982245 0.74799347 0
2.5910003 -0.92337596 0.74783659 0
2.5900002 -0.92692584 0.74767959 0
2.5900002 -0.93087614 0.74767959 0
2.5890002 -0.93442065 0.74752265 0
2.5890002 -0.93836915 0.74752265 0
2.5880003 -0.9419083 0.74736571 0
2.5880003 -0.94585502 0.74736571 0
2.5870001 -0.94938862 0.74720877 0
2.5860002 -0.95291871 0.74705184 0
2.5860002 -0.95686185 0.74705184 0
2.5850003 -0.96038651 0.74689496 0
2.5850003 -0.96432781 0.74689496 0
2.5840001 -0.96784699 0.74673796 0
2.5830002 -0.97136259 0.74658108 0
2.5830002 -0.97530043 0.74658108 0
2.5820003 -0.97881061 0.7464242 0
2.5820003 -0.98274648 0.7464242 0
2.5810001 -0.98625118 0.7462672 0
2.5800002 -0.98975247 0.74611026 0
2.5800002 -0.99368471 0.74611026 0
2.5790002 -0.99718058 0.74595332 0
2.5790002 -1.001111 0.74595332 0
2.5780003 -1.0046015 0.74579644 0
2.5770001 -1.0080881 0.74563944 0
2.5770001 -1.012015 0.74563944 0
2.5760002 -1.0154964 0.74548256 0
2.5760002 -1.0194215 0.74548256 0
2.5750003 -1.0228975 0.74532568 0
2.6730001 -0.63640809 0.75660479 0
2.6380002 -0.6313538 0.7511754 0
2.6380002 -0.63539076 0.7511754 0
2.6370001 -0.63916248 0.75102025 0
2.6360002 -0.64293063 0.7508651 0
2.6360002 -0.64696395 0.7508651 0
2.6350002 -0.65072674 0.75071001 0
2.6350002 -0.65475821 0.75071001 0
2.6340003 -0.65851557 0.75055492 0
2.6330001 -0.66226929 0.75039971 0
2.6330001 -0.6662972 0.75039971 0
2.6320002 -0.6700455 0.75024462 0
2.6310003 -0.67379028 0.75008953 0
2.6310003 -0.67781454 0.75008953 0
2.6300001 -0.68155378 0.74993432 0
2.6300001 -0.68557626 0.74993432 0
2.6290002 -0.68931019 0.74977922 0
2.6280003 -0.69304049 0.74962413 0
2.6280003 -0.69705939 0.74962413 0
2.6270001 -0.70078421 0.74946892 0
2.6260002 -0.70450544 0.74931383 0
2.6260002 -0.70852071 0.74931383 0
2.6250002 -0.71223658 0.74915874 0
2.6250002 -0.71625006 0.74915874 0
2.6240003 -0.71996051 0.74900365 0
2.6230001 -0.72366732 0.74884844 0
2.6230001 -0.72767717 0.74884844 0
2.6220002 -0.73137861 0.74869335 0
2.6220002 -0.73538667 0.74869335 0
2.6210003 -0.73908269 0.74853826 0
2.6200001 -0.74277502 0.74838305 0
2.6200001 -0.74677944 0.74838305 0
2.6190002 -0.75046647 0.74822795 0
2.6180003 -0.75414985 0.74807286 0
2.6180003 -0.7581507 0.74807286 0
2.6170001 -0.7618286 0.74791765 0
2.6170001 -0.76582766 0.74791765 0
2.6160002 -0.76950026 0.74776256 0
2.6150002 -0.77316922 0.74760747 0
2.6150002 -0.7771647 0.74760747 0
2.6140001 -0.78082818 0.74745226 0
2.6140001 -0.78482175 0.74745226 0
2.6130002 -0.78847992 0.74729717 0
2.6120002 -0.79213446 0.74714208 0
2.6120002 -0.79612446 0.74714208 0
2.6110003 -0.79977357 0.74698693 0
2.6100001 -0.80341905 0.74683177 0
2.6100001 -0.80740547 0.74683177 0
2.6090002 -0.81104559 0.74667668 0
2.6090002 -0.81503022 0.74667668 0
2.6080003 -0.81866491 0.74652159 0
2.6070001 -0.8222959 0.74636638 0
2.6070001 -0.8262769 0.74636638 0
2.6060002 -0.82990259 0.74621129 0
2.6060002 -0.8338818 0.74621129 0
2.6050003 -0.83750206 0.7460562 0
2.6040001 -0.84111863 0.74590105 0
2.6040001 -0.8450942 0.74590105 0
2.6030002 -0.84870547 0.7457459 0
2.6030002 -0.85267925 0.7457459 0
2.6020002 -0.8562851 0.74559081 0
2.6010003 -0.85988736 0.74543566 0
2.6010003 -0.86385751 0.74543566 0
2.6000001 -0.86745429 0.7452805 0
2.6000001 -0.87142265 0.7452805 0
2.5990002 -0.87501407 0.74512541 0
2.5980003 -0.87860185 0.74497032 0
2.5980003 -0.88256663 0.74497032 0
2.5970001 -0.88614893 0.74481511 0
2.5970001 -0.89011186 0.74481511 0
2.5960002 -0.89368886 0.74466002 0
2.5950003 -0.89726228 0.74450493 0
2.5950003 -0.90122157 0.74450493 0
2.5940001 -0.90478945 0.74434972 0
2.5940001 -0.90874702 0.74434972 0
2.5930002 -0.91230959 0.74419463 0
2.5920002 -0.91586846 0.74403954 0
2.5920002 -0.91982245 0.74403954 0
2.5910003 -0.92337596 0.74388444 0
2.5910003 -0.92732811 0.74388444 0
2.5900002 -0.93087614 0.74372923 0
2.5890002 -0.93442065 0.74357414 0
2.5890002 -0.93836915 0.74357414 0
2.5880003 -0.9419083 0.74341905 0
2.5880003 -0.94585502 0.74341905 0
2.5870001 -0.94938862 0.74326384 0
2.5860002 -0.95291871 0.74310875 0
2.5860002 -0.95686185 0.74310875 0
2.5850003 -0.96038651 0.74295366 0
2.5850003 -0.96432781 0.74295366 0
2.5840001 -0.96784699 0.74279845 0
2.5830002 -0.97136259 0.74264336 0
2.5830002 -0.97530043 0.74264336 0
2.5820003 -0.97881061 0.74248827 0
2.5820003 -0.98274648 0.74248827 0
2.5810001 -0.98625118 0.74233305 0
2.5800002 -0.98975247 0.74217796 0
2.5800002 -0.99368471 0.74217796 0
2.5790002 -0.99718058 0.74202287 0
2.5790002 -1.001111 0.74202287 0
2.5780003 -1.0046015 0.74186772 0
2.5770001 -1.0080881 0.74171257 0
2.5770001 -1.012015 0.74171257 0
2.5760002 -1.0154964 0.74155748 0
2.5760002 -1.0194215 0.74155748 0
2.5750003 -1.0228975 0.74140239 0
2.6730001 -0.63640809 0.75250477 0
2.6380002 -0.6313538 0.7471385 0
2.6380002 -0.63539076 0.7471385 0
2.6370001 -0.63916248 0.74698508 0
2.6360002 -0.64293063 0.74683177 0
2.6360002 -0.64696395 0.74683177 0
2.6350002 -0.65072674 0.74667847 0
2.6350002 -0.65475821 0.74667847 0
2.6340003 -0.65851557 0.74652517 0
2.6330001 -0.66226929 0.74637187 0
2.6330001 -0.6662972 0.74637187 0
2.6320002 -0.6700455 0.74621856 0
2.6310003 -0.67379028 0.7460652 0
2.6310003 -0.67781454 0.7460652 0
2.6300001 -0.68155378 0.74591184 0
2.6300001 -0.68557626 0.74591184 0
2.6290002 -0.68931019 0.74575853 0
2.6280003 -0.69304049 0.74560523 0
2.6280003 -0.69705939 0.74560523 0
2.6270001 -0.70078421 0.74545187 0
2.6260002 -0.70450544 0.74529856 0
2.6260002 -0.70852071 0.74529856 0
2.6250002 -0.71223658 0.74514526 0
2.6250002 -0.71625006 0.74514526 0
2.6240003 -0.71996051 0.74499196 0
2.6230001 -0.72366732 0.7448386 0
2.6230001 -0.72767717 0.7448386 0
2.6220002 -0.73137861 0.74468529 0
2.6220002 -0.73538667 0.74468529 0
2.6210003 -0.73908269 0.74453199 0
2.6200001 -0.74277502 0.74437857 0
2.6200001 -0.74677944 0.74437857 0
2.6190002 -0.75046647 0.74422526 0
2.6180003 -0.75414985 0.74407196 0
2.6180003 -0.7581507 0.74407196 0
2.6170001 -0.7618286 0.74391866 0
2.6170001 -0.76582766 0.74391866 0
2.6160002 -0.76950026 0.74376535 0
2.6150002 -0.77316922 0.74361205 0
2.6150002 -0.7771647 0.74361205 0
2.6140001 -0.78082818 0.74345869 0
2.6140001 -0.78482175 0.74345869 0
2.6130002 -0.78847992 0.74330533 0
2.6120002 -0.79213446 0.74315202 0
2.6120002 -0.79612446 0.74315202 0
2.6110003 -0.79977357 0.74299872 0
2.6100001 -0.80341905 0.74284542 0
2.6100001 -0.80740547 0.74284542 0
2.6090002 -0.81104559 0.74269211 0
2.6090002 -0.81503022 0.74269211 0
2.6080003 -0.81866491 0.74253881 0
2.6070001 -0.8222959 0.74238539 0
2.6070001 -0.8262769 0.74238539 0
2.6060002 -0.82990259 0.74223208 0
2.6060002 -0.8338818 0.74223208 0
2.6050003 -0.83750206 0.74207878 0
2.6040001 -0.84111863 0.74192542 0
2.6040001 -0.8450942 0.74192542 0
2.6030002 -0.84870547 0.74177212 0
2.6030002 -0.85267925 0.74177212 0
2.6020002 -0.8562851 0.74161881 0
2.6010003 -0.85988736 0.74146551 0
2.6010003 -0.86385751 0.74146551 0
2.6000001 -0.86745429 0.74131215 0
2.6000001 -0.87142265 0.74131215 0
2.5990002 -0.87501407 0.74115884 0
2.5980003 -0.87860185 0.74100554 0
2.5980003 -0.88256663 0.74100554 0
2.5970001 -0.88614893 0.74085212 0
2.5970001 -0.89011186 0.74085212 0
2.5960002 -0.89368886 0.74069881 0
2.5950003 -0.89726228 0.74054551 0
2.5950003 -0.90122157 0.74054551 0
2.5940001 -0.90478945 0.74039221 0
2.5940001 -0.90874702 0.74039221 0
2.5930002 -0.91230959 0.7402389 0
2.5920002 -0.91586846 0.7400856 0
2.5920002 -0.91982245 0.7400856 0
2.5910003 -0.92337596 0.73993224 0
2.5910003 -0.92732811 0.73993224 0
2.5900002 -0.93087614 0.73977888 0
2.5890002 -0.93442065 0.73962557 0
2.5890002 -0.93836915 0.73962557 0
2.5880003 -0.9419083 0.73947227 0
2.5880003 -0.94585502 0.73947227 0
2.5870001 -0.94938862 0.73931897 0
2.5860002 -0.95291871 0.73916566 0
2.5860002 -0.95686185 0.73916566 0
2.5850003 -0.96038651 0.73901236 0
2.5850003 -0.96432781 0.73901236 0
2.5840001 -0.96784699 0.73885894 0
2.5830002 -0.97136259 0.73870564 0
2.5830002 -0.97530043 0.73870564 0
2.5820003 -0.97881061 0.73855233 0
2.5820003 -0.98274648 0.73855233 0
2.5810001 -0.98625118 0.73839897 0
2.5800002 -0.98975247 0.73824567 0
2.5800002 -0.99368471 0.73824567 0
2.5790002 -0.99718058 0.73809236 0
2.5790002 -1.001111 0.73809236 0
2.5780003 -1.0046015 0.73793906 0
2.5770001 -1.0080881 0.7377857 0
2.5770001 -1.012015 0.7377857 0
2.5760002 -1.0154964 0.73763239 0
2.5760002 -1.0194215 0.73763239 0
2.5750003 -1.0228975 0.73747909 0
2.6730001 -0.63640809 0.74840474 0
2.6380002 -0.6313538 0.74310154 0
2.6380002 -0.63539076 0.74310154 0
2.6370001 -0.63916248 0.74294996 0
2.6360002 -0.64293063 0.74279845 0
2.6360002 -0.64696395 0.74279845 0
2.6350002 -0.65072674 0.74264693 0
2.6350002 -0.65475821 0.74264693 0
2.6340003 -0.65851557 0.74249548 0
2.6330001 -0.66226929 0.7423439 0
2.6330001 -0.6662972 0.7423439 0
2.6320002 -0.6700455 0.74219239 0
2.6310003 -0.67379028 0.74204087 0
2.6310003 -0.67781454 0.74204087 0
2.6300001 -0.68155378 0.74188936 0
2.6300001 -0.68557626 0.74188936 0
2.6290002 -0.68931019 0.74173784 0
2.6280003 -0.69304049 0.74158633 0
2.6280003 -0.69705939 0.74158633 0
2.6270001 -0.70078421 0.74143481 0
2.6260002 -0.70450544 0.7412833 0
2.6260002 -0.70852071 0.7412833 0
2.6250002 -0.71223658 0.74113178 0
2.6250002 -0.71625006 0.74113178 0
2.6240003 -0.71996051 0.74098027 0
2.6230001 -0.72366732 0.74082875 0
2.6230001 -0.72767717 0.74082875 0
2.6220002 -0.73137861 0.74067724 0
2.6220002 -0.73538667 0.74067724 0
2.6210003 -0.73908269 0.74052572 0
2.6200001 -0.74277502 0.74037415 0
2.6200001 -0.74677944 0.74037415 0
2.6190002 -0.75046647 0.74022269 0
2.6180003 -0.75414985 0.74007118 0
2.6180003 -0.7581507 0.74007118 0
2.6170001 -0.7618286 0.7399196 0
2.6170001 -0.76582766 0.7399196 0
2.6160002 -0.76950026 0.73976809 0
2.6150002 -0.77316922 0.73961657 0
2.6150002 -0.7771647 0.73961657 0
2.6140001 -0.78082818 0.739465 0
2.6140001 -0.78482175 0.739465 0
2.6130002 -0.78847992 0.73931348 0
2.6120002 -0.79213446 0.73916203 0
2.6120002 -0.79612446 0.73916203 0
2.6110003 -0.79977357 0.73901051 0
2.6100001 -0.80341905 0.73885894 0
2.6100001 -0.80740547 0.73885894 0
2.6090002 -0.81104559 0.73870742 0
2.6090002 -0.81503022 0.73870742 0
2.6080003 -0.81866491 0.73855591 0
2.6070001 -0.8222959 0.73840439 0
2.6070001 -0.8262769 0.73840439 0
2.6060002 -0.82990259 0.73825288 0
2.6060002 -0.8338818 0.73825288 0
2.6050003 -0.83750206 0.73810136 0
2.6040001 -0.84111863 0.73794985 0
2.6040001 -0.8450942 0.73794985 0
2.6030002 -0.84870547 0.73779833 0
2.6030002 -0.85267925 0.73779833 0
2.6020002 -0.8562851 0.73764682 0
2.6010003 -0.85988736 0.7374953 0
2.6010003 -0.86385751 0.7374953 0
2.6000001 -0.86745429 0.73734379 0
2.6000001 -0.87142265 0.73734379 0
2.5990002 -0.87501407 0.73719227 0
2.5980003 -0.87860185 0.73704076 0
2.5980003 -0.88256663 0.73704076 0
2.5970001 -0.88614893 0.73688924 0
2.5970001 -0.89011186 0.73688924 0
2.5960002 -0.89368886 0.73673773 0
2.5950003 -0.89726228 0.73658621 0
2.5950003 -0.90122157 0.73658621 0
2.5940001 -0.90478945 0.73643464 0
2.5940001 -0.90874702 0.73643464 0
2.5930002 -0.91230959 0.73628312 0
2.5920002 -0.91586846 0.73613161 0
2.5920002 -0.91982245 0.73613161 0
2.5910003 -0.92337596 0.73598015 0
2.5910003 -0.92732811 0.73598015 0
2.5900002 -0.93087614 0.73582858 0
2.5890002 -0.93442065 0.73567706 0
2.5890002 -0.93836915 0.73567706 0
2.5880003 -0.9419083 0.73552555 0
2.5880003 -0.94585502 0.73552555 0
2.5870001 -0.94938862 0.73537397 0
2.5860002 -0.95291871 0.73522246 0
2.5860002 -0.95686185 0.73522246 0
2.5850003 -0.96038651 0.73507094 0
2.5850003 -0.96432781 0.73507094 0
2.5840001 -0.96784699 0.73491943 0
2.5830002 -0.97136259 0.73476791 0
2.5830002 -0.97530043 0.73476791 0
2.5820003 -0.97881061 0.7346164 0
2.5820003 -0.98274648 0.7346164 0
2.5810001 -0.98625118 0.73446488 0
2.5800002 -0.98975247 0.73431337 0
2.5800002 -0.99368471 0.73431337 0
2.5790002 -0.99718058 0.73416185 0
2.5790002 -1.001111 0.73416185 0
2.5780003 -1.0046015 0.73401034 0
2.5770001 -1.0080881 0.73385882 0
2.5770001 -1.012015 0.73385882 0
2.5760002 -1.0154964 0.73370731 0
2.5760002 -1.0194215 0.73370731 0
2.5750003 -1.0228975 0.73355579 0
2.6730001 -0.63640809 0.74430466 0
2.6380002 -0.6313538 0.73906457 0
2.6380002 -0.63539076 0.73906457 0
2.6370001 -0.63916248 0.73891485 0
2.6360002 -0.64293063 0.73876518 0
2.6360002 -0.64696395 0.73876518 0
2.6350002 -0.65072674 0.73861545 0
2.6350002 -0.65475821 0.73861545 0
2.6340003 -0.65851557 0.73846579 0
2.6330001 -0.66226929 0.73831606 0
2.6330001 -0.6662972 0.73831606 0
2.6320002 -0.6700455 0.73816633 0
2.6310003 -0.67379028 0.73801661 0
2.6310003 -0.67781454 0.73801661 0
2.6300001 -0.68155378 0.73786688 0
2.6300001 -0.68557626 0.73786688 0
2.6290002 -0.68931019 0.73771715 0
2.6280003 -0.69304049 0.73756742 0
2.6280003 -0.69705939 0.73756742 0
2.6270001 -0.70078421 0.7374177 0
2.6260002 -0.70450544 0.73726803 0
2.6260002 -0.70852071 0.73726803 0
2.6250002 -0.71223658 0.7371183 0
2.6250002 -0.71625006 0.7371183 0
2.6240003 -0.71996051 0.73696858 0
2.6230001 -0.72366732 0.73681885 0
2.6230001 -0.72767717 0.73681885 0
2.6220002 -0.73137861 0.73666918 0
2.6220002 -0.73538667 0.73666918 0
2.6210003 -0.73908269 0.73651946 0
2.6200001 -0.74277502 0.73636973 0
2.6200001 -0.74677944 0.73636973 0
2.6190002 -0.75046647 0.73622 0
2.6180003 -0.75414985 0.73607028 0
2.6180003 -0.7581507 0.73607028 0
2.6170001 -0.7618286 0.73592055 0
2.6170001 -0.76582766 0.73592055 0
2.6160002 -0.76950026 0.73577082 0
2.6150002 -0.77316922 0.73562115 0
2.6150002 -0.7771647 0.73562115 0
2.6140001 -0.78082818 0.73547137 0
2.6140001 -0.78482175 0.73547137 0
2.6130002 -0.78847992 0.7353217 0
2.6120002 -0.79213446 0.73517203 0
2.6120002 -0.79612446 0.73517203 0
2.6110003 -0.79977357 0.73502231 0
2.6100001 -0.80341905 0.73487258 0
2.6100001 -0.80740547 0.73487258 0
2.6090002 -0.81104559 0.73472285 0
2.6090002 -0.81503022 0.73472285 0
2.6080003 -0.81866491 0.73457313 0
2.6070001 -0.8222959 0.7344234 0
2.6070001 -0.8262769 0.7344234 0
2.6060002 -0.82990259 0.73427367 0
2.6060002 -0.8338818 0.73427367 0
2.6050003 -0.83750206 0.73412395 0
2.6040001 -0.84111863 0.73397422 0
2.6040001 -0.8450942 0.73397422 0
2.6030002 -0.84870547 0.73382449 0
2.6030002 -0.85267925 0.73382449 0
2.6020002 -0.8562851 0.73367482 0
2.6010003 -0.85988736 0.73352516 0
2.6010003 -0.86385751 0.73352516 0
2.6000001 -0.86745429 0.73337543 0
2.6000001 -0.87142265 0.73337543 0
2.5990002 -0.87501407 0.7332257 0
2.5980003 -0.87860185 0.73307598 0
2.5980003 -0.88256663 0.73307598 0
2.5970001 -0.88614893 0.73292625 0
2.5970001 -0.89011186 0.73292625 0
2.5960002 -0.89368886 0.73277652 0
2.5950003 -0.89726228 0.7326268 0
2.5950003 -0.90122157 0.7326268 0
2.5940001 -0.90478945 0.73247707 0
2.5940001 -0.90874702 0.73247707 0
2.5930002 -0.91230959 0.7323274 0
2.5920002 -0.91586846 0.73217767 0
2.5920002 -0.91982245 0.73217767 0
2.5910003 -0.92337596 0.73202795 0
2.5910003 -0.92732811 0.73202795 0
2.5900002 -0.93087614 0.73187822 0
2.5890002 -0.93442065 0.73172855 0
2.5890002 -0.93836915 0.73172855 0
2.5880003 -0.9419083 0.73157883 0
2.5880003 -0.94585502 0.73157883 0
2.5870001 -0.94938862 0.7314291 0
2.5860002 -0.95291871 0.73127937 0
2.5860002 -0.95686185 0.73127937 0
2.5850003 -0.96038651 0.73112965 0
2.5850003 -0.96432781 0.73112965 0
2.5840001 -0.96784699 0.73097992 0
2.5830002 -0.97136259 0.73083019 0
2.5830002 -0.97530043 0.73083019 0
2.5820003 -0.97881061 0.73068053 0
2.5820003 -0.98274648 0.73068053 0
2.5810001 -0.98625118 0.73053074 0
2.5800002 -0.98975247 0.73038107 0
2.5800002 -0.99368471 0.73038107 0
2.5790002 -0.99718058 0.7302314 0
2.5790002 -1.001111 0.7302314 0
2.5780003 -1.0046015 0.73008168 0
2.5770001 -1.0080881 0.72993195 0
2.5770001 -1.012015 0.72993195 0
2.5760002 -1.0154964 0.72978222 0
2.5760002 -1.0194215 0.72978222 0
2.5750003 -1.0228975 0.7296325 0
2.6730001 -0.63640809 0.74020457 0
2.6380002 -0.6313538 0.73502767 0
2.6380002 -0.63539076 0.73502767 0
2.6370001 -0.63916248 0.73487973 0
2.6360002 -0.64293063 0.73473185 0
2.6360002 -0.64696395 0.73473185 0
2.6350002 -0.65072674 0.73458397 0
2.6350002 -0.65475821 0.73458397 0
2.6340003 -0.65851557 0.73443604 0
2.6330001 -0.66226929 0.7342881 0
2.6330001 -0.6662972 0.7342881 0
2.6320002 -0.6700455 0.73414016 0
2.6310003 -0.67379028 0.73399234 0
2.6310003 -0.67781454 0.73399234 0
2.6300001 -0.68155378 0.7338444 0
2.6300001 -0.68557626 0.7338444 0
2.6290002 -0.68931019 0.73369646 0
2.6280003 -0.69304049 0.73354858 0
2.6280003 -0.69705939 0.73354858 0
2.6270001 -0.70078421 0.73340064 0
2.6260002 -0.70450544 0.73325276 0
2.6260002 -0.70852071 0.73325276 0
2.6250002 -0.71223658 0.73310483 0
2.6250002 -0.71625006 0.73310483 0
2.6240003 -0.71996051 0.73295689 0
2.6230001 -0.72366732 0.73280901 0
2.6230001 -0.72767717 0.73280901 0
2.6220002 -0.73137861 0.73266113 0
2.6220002 -0.73538667 0.73266113 0
2.6210003 -0.73908269 0.73251319 0
2.6200001 -0.74277502 0.73236525 0
2.6200001 -0.74677944 0.73236525 0
2.6190002 -0.75046647 0.73221731 0
2.6180003 -0.75414985 0.73206943 0
2.6180003 -0.7581507 0.73206943 0
2.6170001 -0.7618286 0.73192155 0
2.6170001 -0.76582766 0.73192155 0
2.6160002 -0.76950026 0.73177361 0
2.6150002 -0.77316922 0.73162568 0
2.6150002 -0.7771647 0.73162568 0
2.6140001 -0.78082818 0.7314778 0
2.6140001 -0.78482175 0.7314778 0
2.6130002 -0.78847992 0.73132986 0
2.6120002 -0.79213446 0.73118198 0
2.6120002 -0.79612446 0.73118198 0
2.6110003 -0.79977357 0.73103404 0
2.6100001 -0.80341905 0.7308861 0
2.6100001 -0.80740547 0.7308861 0
2.6090002 -0.81104559 0.73073828 0
2.6090002 -0.81503022 0.73073828 0
2.6080003 -0.81866491 0.73059034 0
2.6070001 -0.8222959 0.7304424 0
2.6070001 -0.8262769 0.7304424 0
2.6060002 -0.82990259 0.73029447 0
2.6060002 -0.8338818 0.73029447 0
2.6050003 -0.83750206 0.73014659 0
2.6040001 -0.84111863 0.72999865 0
2.6040001 -0.8450942 0.72999865 0
2.6030002 -0.84870547 0.72985077 0
2.6030002 -0.85267925 0.72985077 0
2.6020002 -0.8562851 0.72970283 0
2.6010003 -0.85988736 0.72955495 0
2.6010003 -0.86385751 0.72955495 0
2.6000001 -0.86745429 0.72940701 0
2.6000001 -0.87142265 0.72940701 0
2.5990002 -0.87501407 0.72925913 0
2.5980003 -0.87860185 0.72911119 0
2.5980003 -0.88256663 0.72911119 0
2.5970001 -0.88614893 0.72896326 0
2.5970001 -0.89011186 0.72896326 0
2.5960002 -0.89368886 0.72881538 0
2.5950003 -0.89726228 0.7286675 0
2.5950003 -0.90122157 0.7286675 0
2.5940001 -0.90478945 0.72851956 0
2.5940001 -0.90874702 0.72851956 0
2.5930002 -0.91230959 0.72837162 0
2.5920002 -0.91586846 0.72822374 0
2.5920002 -0.91982245 0.72822374 0
2.5910003 -0.92337596 0.72807586 0
2.5910003 -0.92732811 0.72807586 0
2.5900002 -0.93087614 0.72792792 0
2.5890002 -0.93442065 0.72777998 0
2.5890002 -0.93836915 0.72777998 0
2.5880003 -0.9419083 0.72763205 0
2.5880003 -0.94585502 0.72763205 0
2.5870001 -0.94938862 0.72748411 0
2.5860002 -0.95291871 0.72733629 0
2.5860002 -0.95686185 0.72733629 0
2.5850003 -0.96038651 0.72718835 0
2.5850003 -0.96432781 0.72718835 0
2.5840001 -0.96784699 0.72704041 0
2.5830002 -0.97136259 0.72689253 0
2.5830002 -0.97530043 0.72689253 0
2.5820003 -0.97881061 0.72674459 0
2.5820003 -0.98274648 0.72674459 0
2.5810001 -0.98625118 0.72659665 0
2.5800002 -0.98975247 0.72644877 0
2.5800002 -0.99368471 0.72644877 0
2.5790002 -0.99718058 0.72630084 0
2.5790002 -1.001111 0.72630084 0
2.5780003 -1.0046015 0.72615302 0
2.5770001 -1.0080881 0.72600508 0
2.5770001 -1.012015 0.72600508 0
2.5760002 -1.0154964 0.72585714 0
2.5760002 -1.0194215 0.72585714 0
2.5750003 -1.0228975 0.7257092 0
2.6730001 -0.63640809 0.73610455 0
2.6380002 -0.6313538 0.73099077 0
2.6380002 -0.63539076 0.73099077 0
2.6370001 -0.63916248 0.73084462 0
2.6360002 -0.64293063 0.73069853 0
2.6360002 -0.64696395 0.73069853 0
2.6350002 -0.65072674 0.73055243 0
2.6350002 -0.65475821 0.73055243 0
2.6340003 -0.65851557 0.73040634 0
2.6330001 -0.66226929 0.73026019 0
2.6330001 -0.6662972 0.73026019 0
2.6320002 -0.6700455 0.7301141 0
2.6310003 -0.67379028 0.72996801 0
2.6310003 -0.67781454 0.72996801 0
2.6300001 -0.68155378 0.72982192 0
2.6300001 -0.68557626 0.72982192 0
2.6290002 -0.68931019 0.72967577 0
2.6280003 -0.69304049 0.72952974 0
2.6280003 -0.69705939 0.72952974 0
2.6270001 -0.70078421 0.72938353 0
2.6260002 -0.70450544 0.72923744 0
2.6260002 -0.70852071 0.72923744 0
2.6250002 -0.71223658 0.72909135 0
2.6250002 -0.71625006 0.72909135 0
2.6240003 -0.71996051 0.72894526 0
2.6230001 -0.72366732 0.7287991 0
2.6230001 -0.72767717 0.7287991 0
2.6220002 -0.73137861 0.72865307 0
2.6220002 -0.73538667 0.72865307 0
2.6210003 -0.73908269 0.72850692 0
2.6200001 -0.74277502 0.72836077 0
2.6200001 -0.74677944 0.72836077 0
2.6190002 -0.75046647 0.72821474 0
2.6180003 -0.75414985 0.72806859 0
2.6180003 -0.7581507 0.72806859 0
2.6170001 -0.7618286 0.72792244 0
2.6170001 -0.76582766 0.72792244 0
2.6160002 -0.76950026 0.72777641 0
2.6150002 -0.77316922 0.72763026 0
2.6150002 -0.7771647 0.72763026 0
2.6140001 -0.78082818 0.72748411 0
2.6140001 -0.78482175 0.72748411 0
2.6130002 -0.78847992 0.72733808 0
2.6120002 -0.79213446 0.72719193 0
2.6120002 -0.79612446 0.72719193 0
2.6110003 -0.79977357 0.72704589 0
2.6100001 -0.80341905 0.72689974 0
2.6100001 -0.80740547 0.72689974 0
2.6090002 -0.81104559 0.72675359 0
2.6090002 -0.81503022 0.72675359 0
2.6080003 -0.81866491 0.72660756 0
2.6070001 -0.8222959 0.72646141 0
2.6070001 -0.8262769 0.72646141 0
2.6060002 -0.82990259 0.72631526 0
2.6060002 -0.8338818 0.72631526 0
2.6050003 -0.83750206 0.72616923 0
2.6040001 -0.84111863 0.72602308 0
2.6040001 -0.8450942 0.72602308 0
2.6030002 -0.84870547 0.72587693 0
2.6030002 -0.85267925 0.72587693 0
2.6020002 -0.8562851 0.7257309 0
2.6010003 -0.85988736 0.72558475 0
2.6010003 -0.86385751 0.72558475 0
2.6000001 -0.86745429 0.72543859 0
2.6000001 -0.87142265 0.72543859 0
2.5990002 -0.87501407 0.72529256 0
2.5980003 -0.87860185 0.72514641 0
2.5980003 -0.88256663 0.72514641 0
2.5970001 -0.88614893 0.72500026 0
2.5970001 -0.89011186 0.72500026 0
2.5960002 -0.89368886 0.72485423 0
2.5950003 -0.89726228 0.72470808 0
2.5950003 -0.90122157 0.72470808 0
2.5940001 -0.90478945 0.72456199 0
2.5940001 -0.90874702 0.72456199 0
2.5930002 -0.91230959 0.7244159 0
2.5920002 -0.91586846 0.72426975 0
2.5920002 -0.91982245 0.72426975 0
2.5910003 -0.92337596 0.72412372 0
2.5910003 -0.92732811 0.72412372 0
