# .PCD v0.7 - Point Cloud Data file format
VERSION 0.7
FIELDS x y z intensity
SIZE 4 4 4 4
TYPE F F F F
COUNT 1 1 1 1
WIDTH 1370
HEIGHT 1
VIEWPOINT 0 0 0 1 0 0 0
POINTS 1370
DATA ascii
2.8480003 -0.037168555 1.0045383 0
2.8500001 -0.04158067 1.005029 0
2.8530002 -0.046 1.0057648 0
2.8560002 -0.050430153 1.0065008 0
2.8600001 -0.054874737 1.0074821 0
2.8630002 -0.05932834 1.0082181 0
2.8670001 -0.063799977 1.0091993 0
2.8720002 -0.068295069 1.0104259 0
2.8770003 -0.072808199 1.0116526 0
2.8830001 -0.077351987 1.0131245 0
2.8890002 -0.081917427 1.0145962 0
2.8970003 -0.086536989 1.0165589 0
2.9080002 -0.091239512 1.0192573 0
2.9220002 -0.096041247 1.0226917 0
2.9160001 0.13553524 1.0166816 0
2.9020002 0.13001199 1.0132723 0
2.8920002 0.12481342 1.0108372 0
2.8850002 0.11985114 1.0091325 0
2.8790002 0.11497906 1.0076715 0
2.8740003 0.11019175 1.006454 0
2.8690002 0.10542248 1.0052364 0
2.8650002 0.10073078 1.0042623 0
2.8610003 0.096053511 1.0032883 0
2.8570001 0.091390654 1.0023142 0
2.8540003 0.086796373 1.0015837 0
2.8520002 0.082265183 1.0010966 0
2.8490002 0.07769075 1.0003661 0
2.8470001 0.073175803 0.999879 0
2.8450003 0.068668097 0.99939203 0
2.8430002 0.064167589 0.99890494 0
2.8410003 0.059674311 0.99841797 0
2.8400002 0.05522972 0.99817443 0
2.8390002 0.050788749 0.99793088 0
2.8380003 0.046351377 0.99768746 0
2.8370001 0.041917611 0.99744391 0
2.8370001 0.037521731 0.99744391 0
2.8360002 0.033093389 0.99720037 0
2.8360002 0.028699305 0.99720037 0
2.8350003 0.024276372 0.99695694 0
2.8350003 0.019884098 0.99695694 0
2.8350003 0.015491828 0.99695694 0
2.8360002 0.011122998 0.99720037 0
2.8360002 0.0067289248 0.99720037 0
2.8370001 0.0023546852 0.99744391 0
2.8380003 -0.0020231567 0.99768746 0
2.8380003 -0.0064208396 0.99768746 0
2.8400002 -0.010789663 0.99817443 0
2.8410003 -0.015178327 0.99841797 0
2.8420002 -0.019570602 0.99866152 0
2.8440001 -0.023957465 0.99914849 0
2.8460002 -0.02835154 0.99963558 0
2.8480003 -0.032752831 1.0001225 0
2.8500001 -0.037161339 1.0006095 0
2.8530002 -0.04157526 1.0013402 0
2.8550003 -0.046 1.0018271 0
2.8580003 -0.050433762 1.0025578 0
2.8620002 -0.054881953 1.0035318 0
2.8660002 -0.059344575 1.0045058 0
2.8700001 -0.063821629 1.0054798 0
2.8740003 -0.068313107 1.006454 0
2.8800001 -0.072840668 1.0079149 0
2.8860002 -0.077389866 1.009376 0
2.8930001 -0.081975147 1.0110806 0
2.9000001 -0.086585686 1.0127853 0
2.9110003 -0.091293626 1.0154639 0
2.9060001 0.13029338 1.009726 0
2.8970003 0.12515615 1.0075506 0
2.8890002 0.12011811 1.0056169 0
2.8820002 0.11517388 1.003925 0
2.8770003 0.11038116 1.0027164 0
2.8720002 0.10560647 1.0015079 0
2.8670001 0.10084982 1.0002993 0
2.8630002 0.096168935 0.99933255 0
2.8600001 0.091558412 0.9986074 0
2.8570001 0.086958691 0.99788225 0
2.8540003 0.082369819 0.9971571 0
2.8520002 0.077842265 0.9966737 0
2.8490002 0.073273212 0.99594855 0
2.8470001 0.068761885 0.99546516 0
2.8450003 0.064257786 0.99498177 0
2.8440001 0.059804168 0.99474001 0
2.8420002 0.055312697 0.99425662 0
2.8410003 0.050868113 0.99401486 0
2.8400002 0.046427134 0.99377322 0
2.8390002 0.041989762 0.99353147 0
2.8390002 0.037590276 0.99353147 0
2.8380003 0.033158321 0.99328971 0
2.8380003 0.028760638 0.99328971 0
2.8380003 0.024362955 0.99328971 0
2.8380003 0.019965272 0.99328971 0
2.8380003 0.015567586 0.99328971 0
2.8380003 0.011169899 0.99328971 0
2.8380003 0.0067722164 0.99328971 0
2.8390002 0.0023943745 0.99353147 0
2.8400002 -0.0019870773 0.99377322 0
2.8410003 -0.0063721351 0.99401486 0
2.8420002 -0.010760803 0.99425662 0
2.8430002 -0.015153076 0.99449825 0
2.8450003 -0.019538132 0.99498177 0
2.8460002 -0.023939425 0.9952234 0
2.8480003 -0.02833711 0.9957068 0
2.8500001 -0.032742009 0.99619031 0
2.8530002 -0.037150517 0.99691534 0
2.8550003 -0.041571651 0.99739885 0
2.8580003 -0.046 0.99812388 0
2.8610003 -0.050439171 0.99884903 0
2.8650002 -0.054892775 0.99981594 0
2.8680003 -0.059355397 1.0005411 0
2.8730001 -0.063843273 1.0017496 0
2.8770003 -0.068340167 1.0027164 0
2.8830001 -0.072873138 1.0041667 0
2.8890002 -0.077427745 1.0056169 0
2.8960001 -0.082018442 1.007309 0
2.9050002 -0.08666686 1.0094843 0
2.9150002 -0.091365777 1.0119014 0
2.9120002 0.13071547 1.0066451 0
2.9020002 0.12549886 1.0042461 0
2.8930001 0.12038507 1.0020869 0
2.8860002 0.11543362 1.0004076 0
2.8800001 0.11057055 0.99896812 0
2.8750002 0.10579045 0.99776864 0
2.8700001 0.1010284 0.99656904 0
2.8660002 0.096342117 0.9956094 0
2.8630002 0.091726169 0.99488974 0
2.8600001 0.08712104 0.99416995 0
2.8570001 0.082526729 0.99345028 0
2.8540003 0.07794328 0.99273062 0
2.8520002 0.073419318 0.9922508 0
2.8500001 0.068902582 0.99177086 0
2.8480003 0.064393073 0.99129117 0
2.8460002 0.059890758 0.99081135 0
2.8450003 0.055437159 0.99057138 0
2.8430002 0.050947476 0.99009156 0
2.8430002 0.046540771 0.99009156 0
2.8420002 0.042097997 0.98985171 0
2.8410003 0.037658829 0.98961174 0
2.8400002 0.03322326 0.9893719 0
2.8400002 0.028821964 0.9893719 0
2.8400002 0.024420675 0.9893719 0
2.8400002 0.020019379 0.9893719 0
2.8400002 0.015618086 0.9893719 0
2.8400002 0.011216797 0.9893719 0
2.8410003 0.0068371557 0.98961174 0
2.8410003 0.0024340563 0.98961174 0
2.8420002 -0.0019510016 0.98985171 0
2.8430002 -0.0063396692 0.99009156 0
2.8440001 -0.010731943 0.99033141 0
2.8460002 -0.015115194 0.99081135 0
2.8470001 -0.019516489 0.9910512 0
2.8490002 -0.023912368 0.99153101 0
2.8510003 -0.028315464 0.99201083 0
2.8530002 -0.032725774 0.99249065 0
2.8550003 -0.037143301 0.99297047 0
2.8580003 -0.041566238 0.99369025 0
2.8610003 -0.046 0.99440992 0
2.8640003 -0.050444584 0.9951297 0
2.8670001 -0.054899991 0.99584925 0
2.8710003 -0.059371632 0.99680901 0
2.8760002 -0.063864917 0.99800849 0
2.8800001 -0.06836722 0.99896812 0
2.8860002 -0.0729056 1.0004076 0
2.8930001 -0.07747826 1.0020869 0
2.9000001 -0.082076162 1.0037662 0
2.9100003 -0.086748034 1.0061653 0
2.9220002 -0.091492042 1.0090442 0
2.9200003 0.13127828 1.0040188 0
2.9070003 0.12584159 1.0009235 0
2.8980002 0.12071878 0.99878049 0
2.8900001 0.11569336 0.99687564 0
2.8830001 0.11075994 0.99520898 0
2.8780003 0.10597445 0.99401844 0
2.8740003 0.10126652 0.99306607 0
2.8700001 0.096572995 0.99211359 0
2.8660002 0.091893911 0.99116123 0
2.8630002 0.087283373 0.99044693 0
2.8600001 0.082683682 0.98973262 0
2.8570001 0.07809478 0.98901832 0
2.8550003 0.073565423 0.98854208 0
2.8530002 0.069043279 0.98806596 0
2.8510003 0.064528361 0.98758972 0
2.8490002 0.060020629 0.98711348 0
2.8470001 0.055520128 0.98663723 0
2.8460002 0.051066529 0.98639917 0
2.8450003 0.046616536 0.98616111 0
2.8440001 0.042170141 0.98592293 0
2.8440001 0.03776164 0.98592293 0
2.8430002 0.033320662 0.98568487 0
2.8430002 0.028913956 0.98568487 0
2.8430002 0.024507258 0.98568487 0
2.8420002 0.020073492 0.98544681 0
2.8430002 0.015693847 0.98568487 0
2.8430002 0.011287145 0.98568487 0
2.8430002 0.0068804435 0.98568487 0
2.8440001 0.0024935789 0.98592293 0
2.8450003 -0.001896888 0.98616111 0
2.8460002 -0.0062909685 0.98639917 0
2.8470001 -0.010688651 0.98663723 0
2.8480003 -0.01508994 0.98687541 0
2.8500001 -0.019484019 0.98735154 0
2.8510003 -0.023894329 0.98758972 0
2.8530002 -0.028301034 0.98806596 0
2.8550003 -0.032714952 0.98854208 0
2.8580003 -0.037132479 0.98925638 0
2.8610003 -0.041560829 0.98997068 0
2.8640003 -0.046 0.99068499 0
2.8670001 -0.050449993 0.99139929 0
2.8700001 -0.054910813 0.99211359 0
2.8740003 -0.059387866 0.99306607 0
2.8790002 -0.06388656 0.99425662 0
2.8840003 -0.068403304 0.99544716 0
2.8890002 -0.07293807 0.99663758 0
2.8960001 -0.077516139 0.99830437 0
2.9050002 -0.082148314 1.0004473 0
2.9160001 -0.086845435 1.0030663 0
2.9140003 0.12632141 0.99805534 0
2.9030001 0.12105247 0.9954561 0
2.8940003 0.11595312 0.99332941 0
2.8870003 0.11101249 0.99167538 0
2.8820002 0.10621975 0.99049389 0
2.8780003 0.10150461 0.98954868 0
2.8730001 0.096746162 0.98836708 0
2.8700001 0.092117593 0.98765826 0
2.8660002 0.087445736 0.98671305 0
2.8630002 0.082840607 0.98600411 0
2.8600001 0.07824631 0.9852953 0
2.8580003 0.073711544 0.98482263 0
2.8560002 0.069183975 0.98435009 0
2.8540003 0.064663634 0.98387754 0
2.8520002 0.060150508 0.98340487 0
2.8500001 0.05564459 0.98293221 0
2.8490002 0.051185582 0.98269594 0
2.8480003 0.046730179 0.98245966 0
2.8470001 0.042278375 0.98222339 0
2.8460002 0.037830185 0.98198712 0
2.8460002 0.033418063 0.98198712 0
2.8460002 0.029005948 0.98198712 0
2.8450003 0.024564978 0.98175073 0
2.8450003 0.020154666 0.98175073 0
2.8450003 0.015744358 0.98175073 0
2.8460002 0.011357494 0.98198712 0
2.8460002 0.0069453791 0.98198712 0
2.8470001 0.0025531016 0.98222339 0
2.8480003 -0.0018427745 0.98245966 0
2.8480003 -0.0062584952 0.98245966 0
2.8500001 -0.01064536 0.98293221 0
2.8510003 -0.015052062 0.9831686 0
2.8520002 -0.019462373 0.98340487 0
2.8540003 -0.023867272 0.98387754 0
2.8560002 -0.028279388 0.98435009 0
2.8590002 -0.032693308 0.98505902 0
2.8610003 -0.037121654 0.98553157 0
2.8640003 -0.041555416 0.98624051 0
2.8670001 -0.046 0.98694932 0
2.8700001 -0.050455406 0.98765826 0
2.8740003 -0.054925244 0.98860347 0
2.8780003 -0.05940951 0.98954868 0
2.8830001 -0.063915424 0.99073017 0
2.8880002 -0.068439372 0.99191165 0
2.8940003 -0.072992191 0.99332941 0
2.9000001 -0.077566639 0.99474716 0
2.9100003 -0.082220472 0.99711025 0
2.9220002 -0.086942837 0.99994576 0
2.9210002 0.12680122 0.99516213 0
2.9080002 0.12138619 0.99211359 0
2.8990002 0.1162778 0.99000311 0
2.8920002 0.11132814 0.98836172 0
2.8870003 0.10652642 0.98718929 0
2.8820002 0.10174271 0.98601675 0
2.8770003 0.096977055 0.98484433 0
2.8730001 0.09228535 0.98390639 0
2.8690002 0.087608069 0.98296833 0
2.8660002 0.082997531 0.98226488 0
2.8640003 0.07844834 0.98179591 0
2.8610003 0.07385765 0.98109245 0
2.8590002 0.069324672 0.98062336 0
2.8570001 0.064798921 0.9801544 0
2.8550003 0.060280386 0.97968543 0
2.8530002 0.05576906 0.97921646 0
2.8520002 0.051304635 0.97898197 0
2.8510003 0.046843816 0.97874749 0
2.8500001 0.042386603 0.97851288 0
2.8490002 0.037933003 0.97827852 0
2.8490002 0.033515472 0.97827852 0
2.8480003 0.029067289 0.97804391 0
2.8480003 0.024651561 0.97804391 0
2.8480003 0.02023584 0.97804391 0
2.8480003 0.01582012 0.97804391 0
2.8480003 0.011404395 0.97804391 0
2.8490002 0.0070103146 0.97827852 0
2.8500001 0.0026126318 0.97851288 0
2.8500001 -0.0018066987 0.97851288 0
2.8510003 -0.0062097944 0.97874749 0
2.8530002 -0.010602068 0.97921646 0
2.8540003 -0.015014181 0.97945094 0
2.8560002 -0.019419083 0.97991991 0
2.8570001 -0.023840217 0.9801544 0
2.8600001 -0.028250528 0.98085785 0
2.8620002 -0.032677073 0.98132694 0
2.8640003 -0.037110832 0.98179591 0
2.8670001 -0.041550007 0.98249936 0
2.8700001 -0.046 0.98320282 0
2.8740003 -0.050462622 0.98414087 0
2.8770003 -0.054936066 0.98484433 0
2.8810003 -0.059425745 0.98578227 0
2.8870003 -0.063944288 0.98718929 0
2.8930001 -0.06848447 0.9885962 0
2.8990002 -0.073046297 0.99000311 0
2.9060001 -0.077642404 0.99164462 0
2.9160001 -0.082307056 0.99398959 0
2.9310002 -0.087088943 0.9975071 0
2.9150002 0.12185337 0.98921859 0
2.9050002 0.11666743 0.98689163 0
2.8980002 0.11170696 0.98526275 0
2.8920002 0.10683306 0.98386669 0
2.8860002 0.10198081 0.98247051 0
2.8810003 0.097207949 0.98130703 0
2.8770003 0.092509031 0.98037624 0
2.8730001 0.087824523 0.97944546 0
2.8700001 0.083206773 0.97874737 0
2.8670001 0.078599855 0.9780494 0
2.8650002 0.074052468 0.977584 0
2.8620002 0.069465369 0.97688591 0
2.8600001 0.064934194 0.97642052 0
2.8580003 0.060410257 0.97595513 0
2.8570001 0.055935007 0.97572243 0
2.8560002 0.051463362 0.97548974 0
2.8540003 0.046957459 0.97502446 0
2.8530002 0.04249483 0.97479165 0
2.8520002 0.038035814 0.97455895 0
2.8520002 0.033612881 0.97455895 0
2.8520002 0.029189941 0.97455895 0
2.8510003 0.024738144 0.97432625 0
2.8510003 0.020317014 0.97432625 0
2.8520002 0.015921131 0.97455895 0
2.8520002 0.01149819 0.97455895 0
2.8520002 0.0070752539 0.97455895 0
2.8530002 0.0026721582 0.97479165 0
2.8540003 -0.0017345436 0.97502446 0
2.8550003 -0.0061448552 0.97525704 0
2.8560002 -0.010558777 0.97548974 0
2.8570001 -0.014976304 0.97572243 0
2.8590002 -0.019386614 0.97618783 0
2.8610003 -0.023804139 0.97665322 0
2.8630002 -0.028228883 0.97711861 0
2.8650002 -0.032660838 0.977584 0
2.8680003 -0.037096404 0.97828209 0
2.8700001 -0.041544594 0.97874737 0
2.8740003 -0.046 0.97967827 0
2.8780003 -0.050469838 0.98060894 0
2.8820002 -0.054954104 0.98153973 0
2.8860002 -0.059452802 0.98247051 0
2.8910003 -0.063973144 0.983634 0
2.8970003 -0.068520546 0.98503017 0
2.9040003 -0.073100418 0.98665893 0
2.9120002 -0.077718161 0.9885205 0
2.9230001 -0.082408063 0.99108005 0
2.9240003 0.12245405 0.9867599 0
2.9130001 0.11718692 0.98422015 0
2.9040003 0.11208576 0.98214221 0
2.8970003 0.10713972 0.98052597 0
2.8910003 0.10227844 0.97914064 0
2.8850002 0.097438827 0.97775531 0
2.8810003 0.092732683 0.97683179 0
2.8770003 0.088040993 0.97590828 0
2.8740003 0.08341603 0.97521555 0
2.8710003 0.078801885 0.97452295 0
2.8680003 0.074198559 0.97383022 0
2.8660002 0.069652975 0.97336853 0
2.8640003 0.065114588 0.97290671 0
2.8620002 0.060583424 0.97244489 0
2.8600001 0.056059469 0.97198308 0
2.8590002 0.051582422 0.97175229 0
2.8580003 0.047108974 0.97152138 0
2.8570001 0.042639133 0.97129047 0
2.8560002 0.038172904 0.97105956 0
2.8550003 0.03371029 0.97082877 0
2.8550003 0.02928194 0.97082877 0
2.8540003 0.024824727 0.97059786 0
2.8550003 0.020425234 0.97082877 0
2.8550003 0.015996892 0.97082877 0
2.8550003 0.011568543 0.97082877 0
2.8550003 0.0071401931 0.97082877 0
2.8560002 0.0027316809 0.97105956 0
2.8570001 -0.0016804338 0.97129047 0
2.8580003 -0.0060961545 0.97152138 0
2.8590002 -0.010515485 0.97175229 0
2.8610003 -0.014925795 0.9722141 0
2.8620002 -0.019354144 0.97244489 0
2.8640003 -0.023777081 0.97290671 0
2.8660002 -0.028207235 0.97336853 0
2.8690002 -0.032639191 0.97406113 0
2.8720002 -0.037081972 0.97475386 0
2.8740003 -0.041537378 0.97521555 0
2.8780003 -0.046 0.97613919 0
2.8820002 -0.05047705 0.9770627 0
2.8860002 -0.054968536 0.97798622 0
2.8910003 -0.059479859 0.97914064 0
2.8960001 -0.064009219 0.98029506 0
2.9030001 -0.06857466 0.9819113 0
2.9100003 -0.073165357 0.98352754 0
2.9200003 -0.077819183 0.98583639 0
2.9320002 -0.082537934 0.98860705 0
2.9210002 0.11770642 0.98151994 0
2.9110003 0.11252768 0.97922909 0
2.9030001 0.10750768 0.97739637 0
2.8960001 0.10257608 0.97579277 0
2.8900001 0.097727433 0.97441828 0
2.8860002 0.093012273 0.97350192 0
2.8820002 0.088311568 0.97258568 0
2.8790002 0.083677575 0.97189832 0
2.8750002 0.0790039 0.97098207 0
2.8720002 0.074393377 0.97029483 0
2.8700001 0.069840565 0.96983659 0
2.8680003 0.065294966 0.96937847 0
2.8660002 0.060756583 0.96892023 0
2.8640003 0.056225423 0.96846211 0
2.8630002 0.051741149 0.96823299 0
2.8610003 0.047222618 0.96777487 0
2.8600001 0.04274736 0.96754575 0
2.8600001 0.038309995 0.96754575 0
2.8590002 0.033840161 0.96731663 0
2.8580003 0.029373933 0.96708763 0
2.8580003 0.024940174 0.96708763 0
2.8580003 0.020506408 0.96708763 0
2.8580003 0.01607265 0.96708763 0
2.8590002 0.011662338 0.96731663 0
2.8590002 0.0072267726 0.96731663 0
2.8600001 0.0028110519 0.96754575 0
2.8610003 -0.0016082786 0.96777487 0
2.8620002 -0.0060312189 0.96800399 0
2.8630002 -0.010457765 0.96823299 0
2.8650002 -0.014875289 0.96869123 0
2.8660002 -0.019310854 0.96892023 0
2.8680003 -0.023741005 0.96937847 0
2.8700001 -0.028178375 0.96983659 0
2.8730001 -0.032617547 0.97052383 0
2.8760002 -0.03706754 0.97121108 0
2.8790002 -0.041528359 0.97189832 0
2.8820002 -0.046 0.97258568 0
2.8860002 -0.050484266 0.97350192 0
2.8910003 -0.054986574 0.9746474 0
2.8960001 -0.059506916 0.97579277 0
2.9010003 -0.064045295 0.97693825 0
2.9080002 -0.068619758 0.97854185 0
2.9180002 -0.073251933 0.98083258 0
2.9300003 -0.077945441 0.98358166 0
2.9190001 0.11303274 0.97651792 0
2.9100003 0.10793701 0.9744724 0
2.9020002 0.10293323 0.97265422 0
2.8960001 0.098073766 0.97129047 0
2.8920002 0.093347788 0.97038138 0
2.8870003 0.088582143 0.96924496 0
2.8840003 0.08393912 0.9685632 0
2.8800001 0.079256445 0.96765399 0
2.8770003 0.074636891 0.96697223 0
2.8740003 0.070028171 0.96629035 0
2.8720002 0.065475345 0.96583581 0
2.8700001 0.060929742 0.96538115 0
2.8680003 0.05639137 0.9649266 0
2.8670001 0.051899884 0.96469939 0
2.8650002 0.047374133 0.96424484 0
2.8640003 0.042891677 0.96401751 0
2.8640003 0.038447093 0.96401751 0
2.8630002 0.033970032 0.9637903 0
2.8620002 0.029496592 0.96356297 0
2.8620002 0.025055613 0.96356297 0
2.8620002 0.020614635 0.96356297 0
2.8620002 0.016173664 0.96356297 0
2.8620002 0.011732683 0.96356297 0
2.8630002 0.0073133521 0.9637903 0
2.8640003 0.0028904192 0.96401751 0
2.8650002 -0.0015361272 0.96424484 0
2.8660002 -0.0059662834 0.96447206 0
2.8670001 -0.010400042 0.96469939 0
2.8690002 -0.014824782 0.96515393 0
2.8700001 -0.019267565 0.96538115 0
2.8720002 -0.023704931 0.96583581 0
2.8740003 -0.028149514 0.96629035 0
2.8770003 -0.032595903 0.96697223 0
2.8800001 -0.037053112 0.96765399 0
2.8830001 -0.041521143 0.96833587 0
2.8870003 -0.046 0.96924496 0
2.8910003 -0.050493285 0.97015417 0
2.8960001 -0.055004612 0.97129047 0
2.9020002 -0.059539385 0.97265422 0
2.9080002 -0.064095803 0.97401786 0
2.9160001 -0.068691909 0.97583604 0
2.9270003 -0.073349342 0.97833622 0
2.9310002 0.11379035 0.97467983 0
2.9180002 0.10842763 0.97174871 0
2.9090002 0.10334991 0.96971929 0
2.9030001 0.098477811 0.9683665 0
2.8980002 0.093683302 0.96723914 0
2.8930001 0.08890681 0.96611178 0
2.8890002 0.084200665 0.96520984 0
2.8850002 0.079508975 0.96430802 0
2.8810003 0.074831709 0.96340609 0
2.8790002 0.070262656 0.96295512 0
2.8770003 0.065700829 0.96250415 0
2.8750002 0.061146203 0.96205318 0
2.8730001 0.056598809 0.96160221 0
2.8710003 0.052058626 0.96115136 0
2.8700001 0.047563527 0.96092582 0
2.8690002 0.043072049 0.96070027 0
2.8680003 0.038584176 0.96047485 0
2.8670001 0.034099903 0.9602493 0
2.8660002 0.029619243 0.96002388 0
2.8660002 0.02517106 0.96002388 0
2.8660002 0.02072287 0.96002388 0
2.8660002 0.016274676 0.96002388 0
2.8660002 0.011826485 0.96002388 0
2.8670001 0.0073999353 0.9602493 0
2.8680003 0.0029697865 0.96047485 0
2.8690002 -0.0014639758 0.96070027 0
2.8700001 -0.0059013441 0.96092582 0
2.8710003 -0.010342319 0.96115136 0
2.8730001 -0.014774276 0.96160221 0
2.8750002 -0.019213449 0.96205318 0
2.8770003 -0.023659835 0.96250415 0
2.8790002 -0.028113438 0.96295512 0
2.8820002 -0.032568842 0.96363151 0
2.8850002 -0.037035074 0.96430802 0
2.8890002 -0.041510321 0.96520984 0
2.8920002 -0.046 0.96588624 0
2.8970003 -0.050504111 0.96701372 0
2.9020002 -0.055026256 0.96814096 0
2.9080002 -0.059571855 0.96949387 0
2.9150002 -0.06414631 0.9710722 0
2.9240003 -0.068764061 0.9731015 0
2.9400003 -0.073490039 0.97670913 0
2.9280002 0.10904092 0.96944344 0
2.9180002 0.10388564 0.96720672 0
2.9110003 0.098939598 0.9656409 0
2.9050002 0.094074726 0.96429896 0
2.8990002 0.089231491 0.96295691 0
2.8950002 0.084514543 0.96206224 0
2.8900001 0.079761505 0.96094382 0
2.8870003 0.075123936 0.96027291 0
2.8840003 0.070497155 0.95960188 0
2.8820002 0.065926298 0.95915449 0
2.8790002 0.06131937 0.95848346 0
2.8770003 0.056764763 0.95803618 0
2.8750002 0.052217361 0.95758879 0
2.8740003 0.047715057 0.95736516 0
2.8730001 0.043216351 0.9571414 0
2.8720002 0.038721267 0.95691776 0
2.8710003 0.034229789 0.95669413 0
2.8710003 0.029772576 0.95669413 0
2.8710003 0.025315363 0.95669413 0
2.8710003 0.02085815 0.95669413 0
2.8710003 0.016400941 0.95669413 0
2.8710003 0.011943731 0.95669413 0
2.8720002 0.0075081661 0.95691776 0
2.8730001 0.0030689947 0.9571414 0
2.8740003 -0.0013737828 0.95736516 0
2.8750002 -0.00582017 0.95758879 0
2.8760002 -0.010270167 0.95781243 0
2.8780003 -0.014711142 0.95825982 0
2.8800001 -0.019159334 0.95870709 0
2.8820002 -0.02361474 0.95915449 0
2.8840003 -0.02807736 0.95960188 0
2.8870003 -0.032541785 0.96027291 0
2.8910003 -0.037013426 0.96116757 0
2.8940003 -0.041501302 0.96183848 0
2.8980002 -0.046 0.96273327 0
2.9030001 -0.050514933 0.96385157 0
2.9090002 -0.055051509 0.96519363 0
2.9160001 -0.059615143 0.96675932 0
2.9240003 -0.064211249 0.96854866 0
2.9350002 -0.068863273 0.97100902 0
2.9300003 0.10459995 0.96532714 0
2.9200003 0.099459097 0.96310842 0
2.9130001 0.094522059 0.96155536 0
2.9060001 0.089610294 0.96000218 0
2.9010003 0.084828407 0.95889294 0
2.8960001 0.080064535 0.95778358 0
2.8930001 0.075416133 0.95711792 0
2.8900001 0.070778534 0.95645237 0
2.8870003 0.066151783 0.95578682 0
2.8850002 0.061579127 0.95534301 0
2.8820002 0.056972194 0.95467746 0
2.8810003 0.052455466 0.95445561 0
2.8800001 0.047942329 0.95423365 0
2.8780003 0.043396737 0.95378995 0
2.8770003 0.03889263 0.9535681 0
2.8760002 0.034392122 0.95334613 0
2.8760002 0.029925894 0.95334613 0
2.8760002 0.025459666 0.95334613 0
2.8760002 0.02099343 0.95334613 0
2.8760002 0.016527209 0.95334613 0
2.8760002 0.012060978 0.95334613 0
2.8760002 0.0075947493 0.95334613 0
2.8770003 0.003148362 0.9535681 0
2.8780003 -0.0013016313 0.95378995 0
2.8790002 -0.0057552345 0.9540118 0
2.8810003 -0.010198012 0.95445561 0
2.8830001 -0.014648009 0.95489919 0
2.8850002 -0.019105218 0.95534301 0
2.8870003 -0.023569643 0.95578682 0
2.8890002 -0.028041286 0.95623052 0
2.8930001 -0.032509319 0.95711792 0
2.8970003 -0.036991782 0.95800543 0
2.9010003 -0.041488677 0.95889294 0
2.9050002 -0.046 0.95978045 0
2.9100003 -0.050527558 0.96088982 0
2.9170003 -0.055080369 0.96244287 0
2.9260001 -0.059669256 0.96443963 0
2.9360001 -0.064297833 0.96665835 0
2.9320002 0.10015175 0.96120358 0
2.9220002 0.095025316 0.95900297 0
2.9150002 0.090097323 0.95746255 0
2.9080002 0.085194573 0.95592201 0
2.9040003 0.08046861 0.95504177 0
2.9000001 0.075757056 0.95416152 0
2.8970003 0.071106836 0.95350134 0
2.8940003 0.066467449 0.95284116 0
2.8910003 0.061838876 0.95218098 0
2.8880002 0.057221126 0.9515208 0
2.8870003 0.052693564 0.95130074 0
2.8850002 0.04813173 0.9508605 0
2.8840003 0.043613199 0.95064056 0
2.8820002 0.039063986 0.95020032 0
2.8810003 0.03455447 0.94998038 0
2.8810003 0.030079219 0.94998038 0
2.8810003 0.025603976 0.94998038 0
2.8810003 0.021128725 0.94998038 0
2.8810003 0.016653474 0.94998038 0
2.8810003 0.012178227 0.94998038 0
2.8820002 0.0077246241 0.95020032 0
2.8830001 0.0032674111 0.95042038 0
2.8840003 -0.0011934005 0.95064056 0
2.8850002 -0.0056578293 0.9508605 0
2.8860002 -0.010125864 0.95108056 0
2.8890002 -0.014572252 0.95174086 0
2.8910003 -0.019040281 0.95218098 0
2.8930001 -0.023515532 0.95262098 0
2.8960001 -0.027990779 0.95328128 0
2.8990002 -0.03247685 0.95394146 0
2.9030001 -0.036970139 0.95482171 0
2.9080002 -0.041476049 0.95592201 0
2.9130001 -0.046 0.95702231 0
2.9180002 -0.05054199 0.95812273 0
2.9270003 -0.055116445 0.96010327 0
2.9390001 -0.059739608 0.962744 0
2.9060001 0.15289509 0.95096159 0
2.9050002 0.14829719 0.95074332 0
2.9040003 0.14370291 0.95052505 0
2.9050002 0.13926011 0.95074332 0
2.9060001 0.13481374 0.95096159 0
2.9070003 0.13036375 0.95117986 0
2.9080002 0.12591015 0.95139813 0
2.9090002 0.12145291 0.95161641 0
2.9100003 0.11699212 0.95183468 0
2.9120002 0.11259082 0.9522711 0
2.9130001 0.10812098 0.95248938 0
2.9140003 0.10364754 0.95270765 0
2.9150002 0.099170476 0.95292592 0
2.9170003 0.094745755 0.95336246 0
2.9200003 0.090367898 0.95401716 0
2.9170003 0.085665375 0.95336246 0
2.9120002 0.08087264 0.9522711 0
2.9080002 0.076146677 0.95139813 0
2.9040003 0.071435139 0.95052505 0
2.9000001 0.066738009 0.94965196 0
2.8970003 0.062098626 0.94899726 0
2.8950002 0.057511535 0.94856071 0
2.8930001 0.052931663 0.94812417 0
2.8910003 0.048359018 0.94768763 0
2.8900001 0.043829646 0.94746935 0
2.8880002 0.039269622 0.94703281 0
2.8870003 0.034749281 0.94681466 0
2.8870003 0.030263212 0.94681466 0
2.8870003 0.025777142 0.94681466 0
2.8870003 0.021291073 0.94681466 0
2.8860002 0.016779739 0.94659638 0
2.8860002 0.012295473 0.94659638 0
2.8870003 0.007832855 0.94681466 0
2.8890002 0.0033864677 0.94725108 0
2.8900001 -0.0010851771 0.94746935 0
2.8910003 -0.0055604205 0.94768763 0
2.8920002 -0.010039281 0.9479059 0
2.8950002 -0.01449649 0.94856071 0
2.8970003 -0.018975344 0.94899726 0
2.9000001 -0.023452397 0.94965196 0
2.9020002 -0.027947487 0.9500885 0
2.9060001 -0.032438971 0.95096159 0
2.9110003 -0.036941275 0.95205283 0
2.9160001 -0.041461617 0.95314419 0
2.9220002 -0.046 0.95445371 0
2.9290001 -0.05056183 0.95598149 0
2.9420002 -0.055170562 0.95881891 0
2.9070003 0.16654092 0.94665766 0
2.9000001 0.16143793 0.94514251 0
2.8970003 0.15668492 0.94449306 0
2.8960001 0.15210143 0.94427669 0
2.8950002 0.14752156 0.94406021 0
2.8950002 0.14302106 0.94406021 0
2.8950002 0.13852055 0.94406021 0
2.8960001 0.13409221 0.94427669 0
2.8970003 0.12966026 0.94449306 0
2.8980002 0.12522469 0.94470954 0
2.8990002 0.12078552 0.94492602 0
2.9000001 0.11634272 0.94514251 0
2.9010003 0.11189635 0.94535899 0
2.9010003 0.10738502 0.94535899 0
2.9020002 0.10293323 0.94557536 0
2.9030001 0.098477811 0.94579184 0
2.9040003 0.094018817 0.94600832 0
2.9050002 0.089556187 0.94622481 0
2.9060001 0.085089952 0.94644117 0
2.9070003 0.080620125 0.94665766 0
2.9070003 0.07609798 0.94665766 0
2.9080002 0.071622729 0.94687414 0
2.9080002 0.067098781 0.94687414 0
2.9040003 0.062401664 0.94600832 0
2.9020002 0.057801943 0.94557536 0
2.9000001 0.05320945 0.94514251 0
2.8980002 0.048624177 0.94470954 0
2.8960001 0.044046108 0.94427669 0
2.8950002 0.039509531 0.94406021 0
2.8940003 0.034976561 0.94384372 0
2.8930001 0.030447196 0.94362724 0
2.8930001 0.025950301 0.94362724 0
2.8930001 0.021453407 0.94362724 0
2.8930001 0.016956512 0.94362724 0
2.8930001 0.012459617 0.94362724 0
2.8940003 0.0079843737 0.94384372 0
2.8950002 0.0035055168 0.94406021 0
2.8960001 -0.0009769462 0.94427669 0
2.8970003 -0.0054630153 0.94449306 0
2.8990002 -0.0099382661 0.94492602 0
2.9020002 -0.014408104 0.94557536 0
2.9050002 -0.018888762 0.94622481 0
2.9070003 -0.023389263 0.94665766 0
2.9100003 -0.027889764 0.94730699 0
2.9150002 -0.032390267 0.94838929 0
2.9210002 -0.036905199 0.94968808 0
2.9270003 -0.041441776 0.95098686 0
2.9340003 -0.046 0.95250201 0
2.9370003 -0.050576262 0.95315146 0
2.9400003 -0.055163346 0.9538008 0
2.9420002 -0.059755843 0.95423365 0
2.9440002 -0.064355552 0.95466661 0
2.9470003 -0.0689715 0.95531595 0
2.9020002 0.17063016 0.94106221 0
2.8970003 0.16569313 0.93998909 0
2.8930001 0.16085711 0.93913031 0
2.8910003 0.15619789 0.93870103 0
2.8900001 0.15162522 0.93848646 0
2.8890002 0.14705618 0.93827176 0
2.8890002 0.1425665 0.93827176 0
2.8900001 0.13815078 0.93848646 0
2.8910003 0.13373145 0.93870103 0
2.8910003 0.12923817 0.93870103 0
2.8920002 0.12481342 0.93891573 0
2.8930001 0.12038507 0.93913031 0
2.8940003 0.11595312 0.939345 0
2.8940003 0.11145443 0.939345 0
2.8950002 0.10701704 0.9395597 0
2.8960001 0.10257608 0.93977439 0
2.8970003 0.098131493 0.93998909 0
2.8980002 0.093683302 0.94020367 0
2.8980002 0.089177385 0.94020367 0
2.8990002 0.084723771 0.94041836 0
2.9000001 0.080266565 0.94063294 0
2.9010003 0.075805768 0.94084764 0
2.9010003 0.071294427 0.94084764 0
2.9020002 0.066828206 0.94106221 0
2.9030001 0.062358361 0.94127691 0
2.9040003 0.05788492 0.9414916 0
2.9050002 0.053407867 0.94170618 0
2.9050002 0.048889335 0.94170618 0
2.9040003 0.044334713 0.9414916 0
2.9020002 0.039749432 0.94106221 0
2.9010003 0.035203841 0.94084764 0
2.9010003 0.030692514 0.94084764 0
2.9000001 0.026152324 0.94063294 0
2.9000001 0.021642808 0.94063294 0
2.9000001 0.017133284 0.94063294 0
2.9000001 0.012623765 0.94063294 0
2.9010003 0.0081358925 0.94084764 0
2.9020002 0.0036444105 0.94106221 0
2.9040003 -0.00083264336 0.9414916 0
2.9050002 -0.0053331405 0.94170618 0
2.9070003 -0.0098228194 0.94213557 0
2.9100003 -0.014307089 0.94277954 0
2.9130001 -0.018802181 0.94342339 0
2.9160001 -0.023308095 0.94406736 0
2.9200003 -0.027817613 0.94492602 0
2.9210002 -0.032357797 0.94514072 0
2.9220002 -0.036901593 0.9453553 0
2.9230001 -0.041448992 0.94556999 0
2.9240003 -0.046 0.94578469 0
2.9240003 -0.050552811 0.94578469 0
2.9250002 -0.055109233 0.94599926 0
2.9260001 -0.059669256 0.94621396 0
2.9270003 -0.064232893 0.94642854 0
2.9280002 -0.068800136 0.94664323 0
2.9290001 -0.073370986 0.94685793 0
2.9300003 -0.077945441 0.94707263 0
2.9310002 -0.08252351 0.9472872 0
2.9310002 -0.087088943 0.9472872 0
2.9320002 -0.091672421 0.9475019 0
2.9330003 -0.096259512 0.94771659 0
2.9340003 -0.10085019 0.94793117 0
2.9350002 -0.10544451 0.94814587 0
2.9370003 -0.11006767 0.94857514 0
2.9400003 -0.1147251 0.94921911 0
2.9460001 -0.11947992 0.95050693 0
2.9010003 0.17505491 0.93633628 0
2.8950002 0.17002408 0.93505919 0
2.8910003 0.16518447 0.9342078 0
2.8890002 0.16052522 0.9337821 0
2.8870003 0.15587319 0.9333564 0
2.8860002 0.15130775 0.93314362 0
2.8850002 0.14674592 0.93293071 0
2.8850002 0.14226346 0.93293071 0
2.8860002 0.13785495 0.93314362 0
2.8870003 0.13344285 0.9333564 0
2.8870003 0.12895678 0.9333564 0
2.8880002 0.12453924 0.93356919 0
2.8890002 0.12011811 0.9337821 0
2.8890002 0.11562842 0.9337821 0
2.8900001 0.11120188 0.93399489 0
2.8910003 0.10677174 0.9342078 0
2.8920002 0.10233796 0.93442059 0
2.8920002 0.097842872 0.93442059 0
2.8930001 0.093403712 0.93463349 0
2.8940003 0.088960931 0.9348464 0
2.8950002 0.084514543 0.93505919 0
2.8950002 0.080014035 0.93505919 0
2.8960001 0.075562239 0.9352721 0
2.8970003 0.071106836 0.93548489 0
2.8980002 0.066647828 0.93569767 0
2.8980002 0.062141914 0.93569767 0
2.8990002 0.057677481 0.93591058 0
2.9000001 0.05320945 0.93612337 0
2.9010003 0.048737813 0.93633628 0
2.9020002 0.044262562 0.93654919 0
2.9020002 0.039749432 0.93654919 0
2.9030001 0.035268772 0.93676198 0
2.9040003 0.030784514 0.93697488 0
2.9050002 0.026296634 0.93718767 0
2.9050002 0.021778096 0.93718767 0
2.9060001 0.017284807 0.93740058 0
2.9070003 0.012787916 0.93761337 0
2.9080002 0.0082874112 0.93782628 0
2.9090002 0.0037833042 0.93803906 0
2.9090002 -0.00074245408 0.93803906 0
2.9100003 -0.0052519701 0.93825197 0
2.9110003 -0.0097650997 0.93846476 0
2.9120002 -0.014281839 0.93867767 0
2.9120002 -0.018813003 0.93867767 0
2.9130001 -0.02333515 0.93889046 0
2.9140003 -0.027860904 0.93910336 0
2.9150002 -0.032390267 0.93931615 0
2.9160001 -0.036923237 0.93952906 0
2.9160001 -0.041461617 0.93952906 0
2.9170003 -0.046 0.93974185 0
2.9180002 -0.05054199 0.93995476 0
2.9190001 -0.055087585 0.94016755 0
2.9190001 -0.059631377 0.94016755 0
2.9200003 -0.064182386 0.94038045 0
2.9210002 -0.068737 0.94059336 0
2.9220002 -0.073295221 0.94080615 0
2.9230001 -0.077857055 0.94101894 0
2.9230001 -0.082408063 0.94101894 0
2.9240003 -0.086975306 0.94123185 0
2.9250002 -0.091546156 0.94144464 0
2.9260001 -0.096120611 0.94165754 0
2.9270003 -0.10069868 0.94187045 0
2.9270003 -0.1052569 0.94187045 0
2.9290001 -0.10986564 0.94229603 0
2.9300003 -0.11445452 0.94250894 0
2.9340003 -0.11913361 0.94336033 0
2.9380002 -0.12382711 0.94421172 0
2.9020002 0.1796564 0.93203604 0
2.8950002 0.17452458 0.93055868 0
2.8910003 0.16967775 0.92971456 0
2.8880002 0.16493012 0.92908132 0
2.8850002 0.16019331 0.92844832 0
2.8840003 0.15562968 0.9282372 0
2.8830001 0.15106964 0.9280262 0
2.8830001 0.1465908 0.9280262 0
2.8830001 0.14211194 0.9280262 0
2.8830001 0.13763309 0.9280262 0
2.8840003 0.13322639 0.9282372 0
2.8850002 0.12881608 0.92844832 0
2.8850002 0.12433362 0.92844832 0
2.8860002 0.11991788 0.9286592 0
2.8870003 0.11549856 0.92887032 0
2.8870003 0.11101249 0.92887032 0
2.8880002 0.10658774 0.92908132 0
2.8890002 0.10215938 0.92929244 0
2.8900001 0.097727433 0.92950344 0
2.8900001 0.093235955 0.92950344 0
2.8910003 0.088798583 0.92971456 0
2.8920002 0.084357619 0.92992556 0
2.8920002 0.07986252 0.92992556 0
2.8930001 0.075416133 0.93013656 0
2.8940003 0.070966139 0.93034768 0
2.8950002 0.06651254 0.93055868 0
2.8950002 0.062012043 0.93055868 0
2.8960001 0.057553019 0.93076968 0
2.8970003 0.053090405 0.9309808 0
2.8970003 0.048586298 0.9309808 0
2.8980002 0.044118259 0.9311918 0
2.8990002 0.039646622 0.9314028 0
2.9000001 0.035171364 0.93161392 0
2.9000001 0.030661847 0.93161392 0
2.9010003 0.026181195 0.93182492 0
2.9020002 0.021696921 0.93203604 0
2.9020002 0.017183792 0.93203604 0
2.9030001 0.012694117 0.93224704 0
2.9040003 0.0082008317 0.93245816 0
2.9050002 0.0037039332 0.93266916 0
2.9050002 -0.0008146055 0.93266916 0
2.9060001 -0.0053169094 0.93288016 0
2.9070003 -0.0098228194 0.93309128 0
2.9080002 -0.014332343 0.93330228 0
2.9080002 -0.018856294 0.93330228 0
2.9090002 -0.023371227 0.93351328 0
2.9100003 -0.027889764 0.9337244 0
2.9100003 -0.032417323 0.9337244 0
2.9110003 -0.036941275 0.9339354 0
2.9120002 -0.041468833 0.93414652 0
2.9130001 -0.046 0.93435752 0
2.9130001 -0.050532971 0.93435752 0
2.9140003 -0.055069547 0.93456864 0
2.9150002 -0.059609734 0.93477964 0
2.9160001 -0.064153522 0.93499064 0
2.9160001 -0.068691909 0.93499064 0
2.9170003 -0.073241115 0.93520164 0
2.9180002 -0.077793926 0.93541276 0
2.9190001 -0.082350343 0.93562376 0
2.9200003 -0.086910374 0.93583488 0
2.9200003 -0.091455966 0.93583488 0
2.9210002 -0.096021406 0.93604589 0
2.9220002 -0.10059045 0.93625689 0
2.9230001 -0.1051631 0.93646801 0
2.9240003 -0.10973936 0.93667901 0
2.9250002 -0.11431924 0.93689013 0
2.9270003 -0.11893158 0.93731213 0
2.9310002 -0.12361245 0.93815637 0
2.9350002 -0.12830777 0.93900049 0
2.9430003 -0.1331546 0.94068897 0
2.9060001 0.1845375 0.92835987 0
2.8970003 0.17920546 0.92647672 0
2.8920002 0.17425941 0.92543054 0
2.8880002 0.16941801 0.92459357 0
2.8850002 0.16467577 0.92396581 0
2.8830001 0.16002735 0.92354727 0
2.8820002 0.15546733 0.92333806 0
2.8810003 0.15091093 0.92312884 0
2.8810003 0.14643568 0.92312884 0
2.8810003 0.14196043 0.92312884 0
2.8810003 0.13748518 0.92312884 0
2.8820002 0.13308208 0.92333806 0
2.8830001 0.12867536 0.92354727 0
2.8830001 0.12419651 0.92354727 0
2.8840003 0.1197844 0.92375648 0
2.8850002 0.11536868 0.92396581 0
2.8850002 0.11088622 0.92396581 0
2.8860002 0.10646509 0.92417502 0
2.8870003 0.10204035 0.92438436 0
2.8870003 0.097554281 0.92438436 0
2.8880002 0.093124121 0.92459357 0
2.8890002 0.088690355 0.92480266 0
2.8890002 0.084200665 0.92480266 0
2.8900001 0.079761505 0.92501199 0
2.8910003 0.075318724 0.9252212 0
2.8910003 0.070825443 0.9252212 0
2.8920002 0.066377252 0.92543054 0
2.8930001 0.061925452 0.92563963 0
2.8930001 0.057428557 0.92563963 0
2.8940003 0.052971352 0.92584896 0
2.8950002 0.048510533 0.92605817 0
2.8950002 0.044010032 0.92605817 0
2.8960001 0.039543796 0.92626739 0
2.8970003 0.03507397 0.92647672 0
2.8980002 0.030600522 0.92668593 0
2.8980002 0.026094612 0.92668593 0
2.8990002 0.021615747 0.92689514 0
2.9000001 0.017133284 0.92710435 0
2.9000001 0.012623765 0.92710435 0
2.9010003 0.0081358925 0.92731369 0
2.9020002 0.0036444105 0.9275229 0
2.9030001 -0.00085068122 0.92773211 0
2.9030001 -0.0053656138 0.92773211 0
2.9040003 -0.009866111 0.92794132 0
2.9050002 -0.014370225 0.92815065 0
2.9060001 -0.01887794 0.92835987 0
2.9060001 -0.023398282 0.92835987 0
2.9070003 -0.02791141 0.92856908 0
2.9080002 -0.032428145 0.92877829 0
2.9080002 -0.036952097 0.92877829 0
2.9090002 -0.041474245 0.92898762 0
2.9100003 -0.046 0.92919683 0
2.9110003 -0.050529361 0.92940605 0
2.9110003 -0.055058725 0.92940605 0
2.9120002 -0.059593499 0.92961526 0
2.9130001 -0.064131878 0.92982447 0
2.9130001 -0.068664849 0.92982447 0
2.9140003 -0.073208645 0.9300338 0
2.9150002 -0.077756047 0.93024302 0
2.9160001 -0.082307056 0.93045223 0
2.9160001 -0.086845435 0.93045223 0
2.9170003 -0.09140186 0.93066156 0
2.9180002 -0.095961884 0.93087077 0
2.9190001 -0.10052551 0.93107998 0
2.9190001 -0.10506931 0.93107998 0
2.9200003 -0.10963836 0.93128932 0
2.9210002 -0.11421101 0.93149841 0
2.9230001 -0.11881612 0.93191695 0
2.9260001 -0.12345913 0.93254459 0
2.9290001 -0.12811296 0.93317246 0
2.9350002 -0.13288042 0.93442786 0
2.9440002 -0.13777776 0.93631101 0
2.9010003 0.18407755 0.92280233 0
2.8940003 0.17893489 0.92135024 0
2.8890002 0.17399426 0.92031312 0
2.8860002 0.16924483 0.91969073 0
2.8830001 0.16450621 0.91906846 0
2.8820002 0.15994439 0.91886103 0
2.8800001 0.15530498 0.91844606 0
2.8790002 0.15075219 0.91823864 0
2.8790002 0.14628053 0.91823864 0
2.8790002 0.1418089 0.91823864 0
2.8800001 0.13741121 0.91844606 0
2.8800001 0.13293776 0.91844606 0
2.8810003 0.12853469 0.91865361 0
2.8820002 0.12412797 0.91886103 0
2.8820002 0.11965093 0.91886103 0
2.8830001 0.1152388 0.91906846 0
2.8840003 0.11082309 0.91927588 0
2.8840003 0.10634243 0.91927588 0
2.8850002 0.10192129 0.9194833 0
2.8860002 0.097496539 0.91969073 0
2.8860002 0.093012273 0.91969073 0
2.8870003 0.088582143 0.91989827 0
2.8880002 0.084148377 0.9201057 0
2.8880002 0.07966049 0.9201057 0
2.8890002 0.07522133 0.92031312 0
2.8900001 0.070778534 0.92052054 0
2.8900001 0.066287056 0.92052054 0
2.8910003 0.061838876 0.92072797 0
2.8920002 0.057387073 0.92093539 0
2.8930001 0.052931663 0.92114282 0
2.8930001 0.048434768 0.92114282 0
2.8940003 0.043973956 0.92135024 0
2.8950002 0.039509531 0.92155766 0
2.8950002 0.03500903 0.92155766 0
2.8960001 0.030539189 0.92176509 0
2.8970003 0.026065748 0.92197263 0
2.8970003 0.021561634 0.92197263 0
2.8980002 0.017082777 0.92218006 0
2.8990002 0.012600314 0.92238748 0
2.8990002 0.0080926009 0.92238748 0
2.9000001 0.003604725 0.9225949 0
2.9010003 -0.0008867532 0.92280233 0
2.9010003 -0.0053980798 0.92280233 0
2.9020002 -0.0098949745 0.92300975 0
2.9030001 -0.014395479 0.92321718 0
2.9030001 -0.01891041 0.92321718 0
2.9040003 -0.023416322 0.9234246 0
2.9050002 -0.027925842 0.92363203 0
2.9050002 -0.03244438 0.92363203 0
2.9060001 -0.036959313 0.92383945 0
2.9070003 -0.041477852 0.92404699 0
2.9080002 -0.046 0.92425442 0
2.9080002 -0.050523952 0.92425442 0
2.9090002 -0.055051509 0.92446184 0
2.9100003 -0.059582677 0.92466927 0
2.9100003 -0.064110234 0.92466927 0
2.9110003 -0.068646811 0.92487669 0
2.9120002 -0.073186994 0.92508411 0
2.9120002 -0.077718161 0.92508411 0
2.9130001 -0.08226376 0.92529154 0
2.9140003 -0.086812966 0.92549896 0
2.9140003 -0.091347739 0.92549896 0
2.9150002 -0.095902354 0.92570639 0
2.9160001 -0.10046057 0.92591381 0
2.9170003 -0.10502241 0.92612135 0
2.9170003 -0.10956259 0.92612135 0
2.9180002 -0.11412984 0.92632878 0
2.9200003 -0.11872955 0.92674363 0
2.9230001 -0.12336713 0.9273659 0
2.9260001 -0.12801555 0.92798817 0
2.9300003 -0.13270907 0.92881799 0
2.9360001 -0.13748915 0.93006265 0
2.9490001 -0.14255604 0.93275928 0
2.9080002 0.18924545 0.91973042 0
2.8980002 0.18380156 0.91767406 0
2.8920002 0.17875451 0.91644025 0
2.8880002 0.17390588 0.9156177 0
2.8850002 0.16915825 0.9150008 0
2.8820002 0.16442144 0.91438389 0
2.8800001 0.15977843 0.91397262 0
2.8790002 0.15522383 0.9137671 0
2.8790002 0.15075219 0.9137671 0
2.8780003 0.14620298 0.91356134 0
2.8780003 0.14173314 0.91356134 0
2.8790002 0.13733727 0.9137671 0
2.8790002 0.13286562 0.9137671 0
2.8800001 0.12846433 0.91397262 0
2.8810003 0.12405944 0.91417837 0
2.8810003 0.11958419 0.91417837 0
2.8820002 0.11517388 0.91438389 0
2.8830001 0.11075994 0.91458952 0
2.8830001 0.1062811 0.91458952 0
2.8840003 0.10186177 0.91479528 0
2.8850002 0.097438827 0.9150008 0
2.8850002 0.092956364 0.9150008 0
2.8860002 0.088528007 0.91520643 0
2.8870003 0.084096074 0.91541219 0
2.8870003 0.07960999 0.91541219 0
2.8880002 0.075172618 0.9156177 0
2.8890002 0.070731655 0.91582334 0
2.8890002 0.066241965 0.91582334 0
2.8900001 0.061795581 0.91602898 0
2.8900001 0.057304095 0.91602898 0
2.8910003 0.052852299 0.91623473 0
2.8920002 0.048396889 0.91644025 0
2.8920002 0.043901805 0.91644025 0
2.8930001 0.039440978 0.91664588 0
2.8940003 0.034976561 0.91685152 0
2.8940003 0.030477863 0.91685152 0
2.8950002 0.026008021 0.91705716 0
2.8960001 0.021534581 0.91726279 0
2.8960001 0.017032269 0.91726279 0
2.8970003 0.01255342 0.91746843 0
2.8980002 0.0080709569 0.91767406 0
2.8990002 0.0035848841 0.9178797 0
2.8990002 -0.00092283264 0.9178797 0
2.9000001 -0.0054143183 0.91808534 0
2.9010003 -0.0099094026 0.91829097 0
2.9010003 -0.014420729 0.91829097 0
2.9020002 -0.01892123 0.91849661 0
2.9030001 -0.023425341 0.91870224 0
2.9030001 -0.027940273 0.91870224 0
2.9040003 -0.032449793 0.91890788 0
2.9050002 -0.036962919 0.91911352 0
2.9050002 -0.041481461 0.91911352 0
2.9060001 -0.046 0.91931915 0
2.9070003 -0.050522149 0.91952479 0
2.9070003 -0.055044293 0.91952479 0
2.9080002 -0.059571855 0.91973042 0
2.9090002 -0.064103022 0.91993606 0
2.9090002 -0.068628773 0.91993606 0
2.9100003 -0.073165357 0.9201417 0
2.9110003 -0.07770554 0.92034733 0
2.9120002 -0.082249328 0.92055297 0
2.9120002 -0.086780496 0.92055297 0
2.9130001 -0.091329701 0.92075861 0
2.9140003 -0.095882513 0.92096424 0
2.9140003 -0.10041729 0.92096424 0
2.9150002 -0.10497551 0.92116988 0
2.9160001 -0.10953733 0.92137551 0
2.9170003 -0.11410278 0.92158115 0
2.9180002 -0.11867182 0.92178679 0
2.9200003 -0.12327515 0.92219806 0
2.9230001 -0.12791814 0.92281497 0
2.9270003 -0.13260625 0.92363751 0
2.9320002 -0.13734484 0.92466569 0
2.9400003 -0.14221513 0.92631078 0
2.9050002 0.18896407 0.91459501 0
2.8960001 0.18361756 0.9127605 0
2.8910003 0.17866433 0.91174138 0
2.8870003 0.1738175 0.9109261 0
2.8840003 0.16907167 0.91031456 0
2.8820002 0.16442144 0.90990686 0
2.8800001 0.15977843 0.90949917 0
2.8790002 0.15522383 0.90929544 0
2.8780003 0.15067281 0.90909159 0
2.8780003 0.14620298 0.90909159 0
2.8780003 0.14173314 0.90909159 0
2.8780003 0.13726331 0.90909159 0
2.8790002 0.13286562 0.90929544 0
2.8800001 0.12846433 0.90949917 0
2.8800001 0.12399088 0.90949917 0
2.8810003 0.11958419 0.90970314 0
2.8820002 0.11517388 0.90990686 0
2.8820002 0.11069681 0.90990686 0
2.8830001 0.1062811 0.91011071 0
2.8840003 0.10186177 0.91031456 0
2.8840003 0.097381115 0.91031456 0
2.8850002 0.092956364 0.91051841 0
2.8850002 0.088473901 0.91051841 0
2.8860002 0.084043741 0.91072214 0
2.8870003 0.07960999 0.9109261 0
2.8870003 0.075123936 0.9109261 0
2.8880002 0.070684746 0.91112983 0
2.8890002 0.066241965 0.91133368 0
2.8890002 0.061752286 0.91133368 0
2.8900001 0.057304095 0.91153753 0
2.8910003 0.052852299 0.91174138 0
2.8910003 0.048359018 0.91174138 0
2.8920002 0.043901805 0.91194522 0
2.8930001 0.039440978 0.91214907 0
2.8930001 0.034944091 0.91214907 0
2.8940003 0.030477863 0.91235292 0
2.8950002 0.026008021 0.91255677 0
2.8950002 0.021507528 0.91255677 0
2.8960001 0.017032269 0.9127605 0
2.8960001 0.012529969 0.9127605 0
2.8970003 0.008049313 0.91296434 0
2.8980002 0.0035650395 0.91316819 0
2.8980002 -0.00094087049 0.91316819 0
2.8990002 -0.0054305494 0.91337192 0
2.9000001 -0.0099238381 0.91357577 0
2.9000001 -0.014433358 0.91357577 0
2.9010003 -0.018932054 0.91377962 0
2.9020002 -0.02343436 0.91398346 0
2.9020002 -0.027947487 0.91398346 0
2.9030001 -0.032455206 0.91418731 0
2.9040003 -0.036966529 0.91439116 0
2.9040003 -0.041483264 0.91439116 0
2.9050002 -0.046 0.91459501 0
2.9060001 -0.050520342 0.91479886 0
2.9060001 -0.055040687 0.91479886 0
2.9070003 -0.059566442 0.9150027 0
2.9080002 -0.064095803 0.91520655 0
2.9080002 -0.068619758 0.91520655 0
2.9090002 -0.073154531 0.91541028 0
2.9100003 -0.077692911 0.91561413 0
2.9100003 -0.082220472 0.91561413 0
2.9110003 -0.086764261 0.91581798 0
2.9120002 -0.091311663 0.91602182 0
2.9120002 -0.095842823 0.91602182 0
2.9130001 -0.10039563 0.91622555 0
2.9140003 -0.10495207 0.91642952 0
2.9140003 -0.10948683 0.91642952 0
2.9150002 -0.11404866 0.91663325 0
2.9170003 -0.11864297 0.91704094 0
2.9190001 -0.12324448 0.91744864 0
2.9210002 -0.12785321 0.91785634 0
2.9250002 -0.13253769 0.91867161 0
2.9300003 -0.1372727 0.91969073 0
2.9360001 -0.1420636 0.9209137 0
2.9490001 -0.14715396 0.92356348 0
2.9040003 0.18887027 0.90987444 0
2.8960001 0.18361756 0.9082582 0
2.8900001 0.17857412 0.90704608 0
2.8870003 0.1738175 0.90644002 0
2.8840003 0.16907167 0.90583384 0
2.8820002 0.16442144 0.90542984 0
2.8800001 0.15977843 0.90502584 0
2.8790002 0.15522383 0.90482378 0
2.8780003 0.15067281 0.90462172 0
2.8780003 0.14620298 0.90462172 0
2.8780003 0.14173314 0.90462172 0
2.8780003 0.13726331 0.90462172 0
2.8790002 0.13286562 0.90482378 0
2.8790002 0.12839398 0.90482378 0
2.8800001 0.12399088 0.90502584 0
2.8810003 0.11958419 0.90522778 0
2.8810003 0.11510894 0.90522778 0
2.8820002 0.11069681 0.90542984 0
2.8830001 0.1062811 0.9056319 0
2.8830001 0.10180224 0.9056319 0
2.8840003 0.097381115 0.90583384 0
2.8840003 0.092900455 0.90583384 0
2.8850002 0.088473901 0.9060359 0
2.8860002 0.084043741 0.90623796 0
2.8860002 0.079559475 0.90623796 0
2.8870003 0.075123936 0.90644002 0
2.8880002 0.070684746 0.90664196 0
2.8880002 0.066196874 0.90664196 0
2.8890002 0.061752286 0.90684402 0
2.8900001 0.057304095 0.90704608 0
2.8900001 0.05281261 0.90704608 0
2.8910003 0.048359018 0.90724802 0
2.8910003 0.043865729 0.90724802 0
2.8920002 0.039406713 0.90745008 0
2.8930001 0.034944091 0.90765214 0
2.8930001 0.030447196 0.90765214 0
2.8940003 0.025979165 0.9078542 0
2.8950002 0.021507528 0.90805614 0
2.8950002 0.017007019 0.90805614 0
2.8960001 0.012529969 0.9082582 0
2.8970003 0.008049313 0.90846026 0
2.8970003 0.0035452023 0.90846026 0
2.8980002 -0.00094087049 0.9086622 0
2.8990002 -0.0054305494 0.90886426 0
2.8990002 -0.0099382661 0.90886426 0
2.9000001 -0.014433358 0.90906632 0
2.9010003 -0.018932054 0.90926838 0
2.9010003 -0.023443377 0.90926838 0
2.9020002 -0.027947487 0.90947032 0
2.9030001 -0.032455206 0.90967238 0
2.9030001 -0.036970139 0.90967238 0
2.9040003 -0.041483264 0.90987444 0
2.9050002 -0.046 0.91007638 0
2.9050002 -0.050518539 0.91007638 0
2.9060001 -0.055040687 0.91027844 0
2.9060001 -0.059561029 0.91027844 0
2.9070003 -0.06408859 0.9104805 0
2.9080002 -0.068619758 0.91068256 0
2.9080002 -0.073143706 0.91068256 0
2.9090002 -0.077680282 0.9108845 0
2.9100003 -0.082220472 0.91108656 0
2.9100003 -0.086748034 0.91108656 0
2.9110003 -0.091293626 0.91128862 0
2.9120002 -0.095842823 0.91149056 0
2.9120002 -0.100374 0.91149056 0
2.9130001 -0.10492861 0.91169262 0
2.9140003 -0.10948683 0.91189468 0
2.9150002 -0.11404866 0.91209674 0
2.9160001 -0.11861411 0.91229868 0
2.9180002 -0.12321381 0.9127028 0
2.9200003 -0.12782075 0.91310692 0
2.9240003 -0.13250342 0.91391492 0
2.9280002 -0.13720055 0.91472304 0
2.9340003 -0.14198786 0.91593528 0
2.9430003 -0.14691587 0.91775346 0
2.9030001 0.18877646 0.90515745 0
2.8960001 0.18361756 0.9037559 0
2.8910003 0.17866433 0.90275478 0
2.8870003 0.1738175 0.90195394 0
2.8840003 0.16907167 0.90135324 0
2.8820002 0.16442144 0.90095282 0
2.8800001 0.15977843 0.90055233 0
2.8790002 0.15522383 0.90035212 0
2.8780003 0.15067281 0.90015191 0
2.8780003 0.14620298 0.90015191 0
2.8780003 0.14173314 0.90015191 0
2.8780003 0.13726331 0.90015191 0
2.8790002 0.13286562 0.90035212 0
2.8790002 0.12839398 0.90035212 0
2.8800001 0.12399088 0.90055233 0
2.8810003 0.11958419 0.90075254 0
2.8810003 0.11510894 0.90075254 0
2.8820002 0.11069681 0.90095282 0
2.8830001 0.1062811 0.90115297 0
2.8830001 0.10180224 0.90115297 0
2.8840003 0.097381115 0.90135324 0
2.8840003 0.092900455 0.90135324 0
2.8850002 0.088473901 0.90155351 0
2.8860002 0.084043741 0.90175366 0
2.8860002 0.079559475 0.90175366 0
2.8870003 0.075123936 0.90195394 0
2.8880002 0.070684746 0.90215415 0
2.8880002 0.066196874 0.90215415 0
2.8890002 0.061752286 0.90235436 0
2.8900001 0.057304095 0.90255457 0
2.8900001 0.05281261 0.90255457 0
2.8910003 0.048359018 0.90275478 0
2.8910003 0.043865729 0.90275478 0
2.8920002 0.039406713 0.902955 0
2.8930001 0.034944091 0.90315521 0
2.8930001 0.030447196 0.90315521 0
2.8940003 0.025979165 0.90335548 0
2.8950002 0.021507528 0.90355563 0
2.8950002 0.017007019 0.90355563 0
2.8960001 0.012529969 0.9037559 0
2.8960001 0.0080276616 0.9037559 0
2.8970003 0.0035452023 0.90395617 0
2.8980002 -0.00094087049 0.90415633 0
2.8980002 -0.0054467805 0.90415633 0
2.8990002 -0.0099382661 0.9043566 0
2.9000001 -0.014433358 0.90455675 0
2.9000001 -0.018942878 0.90455675 0
2.9010003 -0.023443377 0.90475702 0
2.9020002 -0.027947487 0.90495729 0
2.9020002 -0.032460615 0.90495729 0
2.9030001 -0.036970139 0.90515745 0
2.9040003 -0.041483264 0.90535772 0
2.9040003 -0.046 0.90535772 0
2.9050002 -0.050518539 0.90555787 0
2.9050002 -0.055037081 0.90555787 0
