# .PCD v0.7 - Point Cloud Data file format
VERSION 0.7
FIELDS x y z intensity
SIZE 4 4 4 4
TYPE F F F F
COUNT 1 1 1 1
WIDTH 1459
HEIGHT 1
VIEWPOINT 0 0 0 1 0 0 0
POINTS 1459
DATA ascii
5.8280005 2.6465445 0.74668753 0
5.8370004 2.6412015 0.74725568 0
5.8470001 2.6363187 0.74788702 0
5.8560004 2.6309092 0.74845523 0
5.8660002 2.6259558 0.74908656 0
5.8750005 2.6204796 0.74965477 0
5.8850002 2.6154559 0.7502861 0
5.8940005 2.6099129 0.75085425 0
5.9040003 2.6048188 0.75148559 0
5.9140005 2.599689 0.75211698 0
5.9230003 2.5940447 0.75268519 0
5.9330006 2.5888445 0.75331652 0
5.9430003 2.5836079 0.75394785 0
6.0330005 2.5348563 0.75962985 0
6.0430002 2.5292592 0.76026118 0
6.0530005 2.5236259 0.76089251 0
5.4520001 2.8518827 0.71383655 0
5.4600005 2.8473446 0.71432722 0
5.4680004 2.8427775 0.71481782 0
5.4770002 2.8387492 0.71536982 0
5.4850001 2.8341227 0.71586037 0
5.4930005 2.8294671 0.71635103 0
5.5010004 2.8247824 0.7168417 0
5.5100002 2.8206301 0.71739364 0
5.5180001 2.8158858 0.7178843 0
5.5260005 2.8111131 0.71837497 0
5.5350003 2.8068671 0.71892691 0
5.5430002 2.8020344 0.71941751 0
5.5520005 2.7977254 0.71996951 0
5.5600004 2.7928333 0.72046018 0
5.5690002 2.788461 0.72101212 0
5.5770001 2.7835093 0.72150272 0
5.5860004 2.779074 0.72205472 0
5.5940003 2.7740629 0.72254533 0
5.6030002 2.7695642 0.72309732 0
5.6120005 2.765033 0.72364926 0
5.6200004 2.7599318 0.72413993 0
5.6290002 2.7553377 0.72469187 0
5.6380005 2.750711 0.72524381 0
5.6460004 2.7455194 0.72573447 0
5.6550002 2.7408297 0.72628641 0
5.6640005 2.7361073 0.72683841 0
5.6730003 2.7313523 0.72739041 0
5.6820002 2.7265649 0.72794235 0
5.6910005 2.7217455 0.72849429 0
5.7000003 2.716893 0.72904623 0
5.7090001 2.7120082 0.72959816 0
5.7180004 2.7070913 0.73015022 0
5.7270002 2.7021415 0.73070216 0
5.7360005 2.6971595 0.7312541 0
5.7450004 2.6921449 0.7318061 0
5.7540002 2.6870975 0.73235804 0
5.7630005 2.6820183 0.73291004 0
5.7720003 2.6769063 0.73346198 0
5.7810001 2.6717618 0.73401392 0
5.7910004 2.6670883 0.73462725 0
5.8000002 2.6618769 0.73517919 0
5.8090005 2.6566334 0.73573112 0
5.8190002 2.651855 0.73634446 0
5.8280005 2.6465445 0.73689646 0
5.8370004 2.6412015 0.73744839 0
5.8470001 2.6363187 0.73806167 0
5.8560004 2.6309092 0.73861367 0
5.8660002 2.6259558 0.73922694 0
5.8750005 2.6204796 0.73977888 0
5.8850002 2.6154559 0.74039221 0
5.8940005 2.6099129 0.74094421 0
5.9040003 2.6048188 0.74155748 0
5.9140005 2.599689 0.74217081 0
5.9230003 2.5940447 0.74272275 0
5.9330006 2.5888445 0.74333602 0
5.9430003 2.5836079 0.74394929 0
6.0330005 2.5348563 0.74946898 0
6.0430002 2.5292592 0.75008225 0
6.0530005 2.5236259 0.75069559 0
5.4520001 2.8518827 0.70472372 0
5.4600005 2.8473446 0.70519996 0
5.4680004 2.8427775 0.70567608 0
5.4770002 2.8387492 0.70621181 0
5.4850001 2.8341227 0.70668805 0
5.4930005 2.8294671 0.70716429 0
5.5010004 2.8247824 0.70764047 0
5.5100002 2.8206301 0.7081762 0
5.5180001 2.8158858 0.70865238 0
5.5260005 2.8111131 0.70912862 0
5.5350003 2.8068671 0.70966434 0
5.5430002 2.8020344 0.71014059 0
5.5520005 2.7977254 0.71067631 0
5.5600004 2.7928333 0.71115249 0
5.5690002 2.788461 0.71168822 0
5.5770001 2.7835093 0.7121644 0
5.5860004 2.779074 0.71270013 0
5.5940003 2.7740629 0.71317637 0
5.6030002 2.7695642 0.7137121 0
5.6120005 2.765033 0.71424782 0
5.6200004 2.7599318 0.71472406 0
5.6290002 2.7553377 0.71525979 0
5.6380005 2.750711 0.71579552 0
5.6460004 2.7455194 0.7162717 0
5.6550002 2.7408297 0.71680743 0
5.6640005 2.7361073 0.71734321 0
5.6730003 2.7313523 0.71787888 0
5.6820002 2.7265649 0.7184146 0
5.6910005 2.7217455 0.71895039 0
5.7000003 2.716893 0.71948612 0
5.7090001 2.7120082 0.72002184 0
5.7180004 2.7070913 0.72055757 0
5.7270002 2.7021415 0.7210933 0
5.7360005 2.6971595 0.72162902 0
5.7450004 2.6921449 0.72216475 0
5.7540002 2.6870975 0.72270048 0
5.7630005 2.6820183 0.7232362 0
5.7720003 2.6769063 0.72377193 0
5.7810001 2.6717618 0.72430766 0
5.7910004 2.6670883 0.72490293 0
5.8000002 2.6618769 0.72543859 0
5.8090005 2.6566334 0.72597438 0
5.8190002 2.651855 0.72656965 0
5.8280005 2.6465445 0.72710538 0
5.8370004 2.6412015 0.72764111 0
5.8470001 2.6363187 0.72823632 0
5.8560004 2.6309092 0.72877204 0
5.8660002 2.6259558 0.72936738 0
5.8750005 2.6204796 0.7299031 0
5.8850002 2.6154559 0.73049831 0
5.8940005 2.6099129 0.73103404 0
5.9040003 2.6048188 0.73162931 0
5.9140005 2.599689 0.73222458 0
5.9230003 2.5940447 0.73276031 0
5.9330006 2.5888445 0.73335558 0
5.9430003 2.5836079 0.73395079 0
6.0330005 2.5348563 0.73930812 0
6.0430002 2.5292592 0.73990339 0
6.0530005 2.5236259 0.74049866 0
5.4520001 2.8518827 0.69561088 0
5.4600005 2.8473446 0.6960727 0
5.4680004 2.8427775 0.6965344 0
5.4770002 2.8387492 0.69705391 0
5.4850001 2.8341227 0.69751567 0
5.4930005 2.8294671 0.69797748 0
5.5010004 2.8247824 0.69843924 0
5.5100002 2.8206301 0.69895875 0
5.5180001 2.8158858 0.69942051 0
5.5260005 2.8111131 0.69988227 0
5.5350003 2.8068671 0.70040178 0
5.5430002 2.8020344 0.70086354 0
5.5520005 2.7977254 0.70138305 0
5.5600004 2.7928333 0.70184481 0
5.5690002 2.788461 0.70236433 0
5.5770001 2.7835093 0.70282608 0
5.5860004 2.779074 0.7033456 0
5.5940003 2.7740629 0.70380735 0
5.6030002 2.7695642 0.70432687 0
5.6120005 2.765033 0.70484638 0
5.6200004 2.7599318 0.70530814 0
5.6290002 2.7553377 0.70582759 0
5.6380005 2.750711 0.70634711 0
5.6460004 2.7455194 0.70680892 0
5.6550002 2.7408297 0.70732844 0
5.6640005 2.7361073 0.70784795 0
5.6730003 2.7313523 0.70836741 0
5.6820002 2.7265649 0.70888686 0
5.6910005 2.7217455 0.70940638 0
5.7000003 2.716893 0.70992589 0
5.7090001 2.7120082 0.7104454 0
5.7180004 2.7070913 0.71096492 0
5.7270002 2.7021415 0.71148437 0
5.7360005 2.6971595 0.71200389 0
5.7450004 2.6921449 0.71252334 0
5.7540002 2.6870975 0.71304286 0
5.7630005 2.6820183 0.71356237 0
5.7720003 2.6769063 0.71408188 0
5.7810001 2.6717618 0.71460134 0
5.7910004 2.6670883 0.71517861 0
5.8000002 2.6618769 0.71569806 0
5.8090005 2.6566334 0.71621758 0
5.8190002 2.651855 0.71679479 0
5.8280005 2.6465445 0.7173143 0
5.8370004 2.6412015 0.71783376 0
5.8470001 2.6363187 0.71841097 0
5.8560004 2.6309092 0.71893048 0
5.8660002 2.6259558 0.71950769 0
5.8750005 2.6204796 0.72002721 0
5.8850002 2.6154559 0.72060442 0
5.8940005 2.6099129 0.72112393 0
5.9040003 2.6048188 0.72170115 0
5.9140005 2.599689 0.72227836 0
5.9230003 2.5940447 0.72279787 0
5.9330006 2.5888445 0.72337508 0
5.9430003 2.5836079 0.72395229 0
6.0330005 2.5348563 0.72914732 0
6.0430002 2.5292592 0.72972447 0
6.0530005 2.5236259 0.73030174 0
5.4520001 2.8518827 0.68649805 0
5.4600005 2.8473446 0.68694538 0
5.4680004 2.8427775 0.68739271 0
5.4770002 2.8387492 0.68789601 0
5.4850001 2.8341227 0.68834329 0
5.4930005 2.8294671 0.68879068 0
5.5010004 2.8247824 0.68923801 0
5.5100002 2.8206301 0.68974125 0
5.5180001 2.8158858 0.69018865 0
5.5260005 2.8111131 0.69063592 0
5.5350003 2.8068671 0.69113922 0
5.5430002 2.8020344 0.69158655 0
5.5520005 2.7977254 0.6920898 0
5.5600004 2.7928333 0.69253719 0
5.5690002 2.788461 0.69304043 0
5.5770001 2.7835093 0.69348776 0
5.5860004 2.779074 0.69399107 0
5.5940003 2.7740629 0.6944384 0
5.6030002 2.7695642 0.69494164 0
5.6120005 2.765033 0.69544494 0
5.6200004 2.7599318 0.69589227 0
5.6290002 2.7553377 0.69639552 0
5.6380005 2.750711 0.69689882 0
5.6460004 2.7455194 0.69734609 0
5.6550002 2.7408297 0.69784939 0
5.6640005 2.7361073 0.69835269 0
5.6730003 2.7313523 0.69885594 0
5.6820002 2.7265649 0.69935918 0
5.6910005 2.7217455 0.69986248 0
5.7000003 2.716893 0.70036566 0
5.7090001 2.7120082 0.70086896 0
5.7180004 2.7070913 0.70137227 0
5.7270002 2.7021415 0.70187551 0
5.7360005 2.6971595 0.70237875 0
5.7450004 2.6921449 0.70288205 0
5.7540002 2.6870975 0.70338523 0
5.7630005 2.6820183 0.70388854 0
5.7720003 2.6769063 0.70439184 0
5.7810001 2.6717618 0.70489502 0
5.7910004 2.6670883 0.70545423 0
5.8000002 2.6618769 0.70595753 0
5.8090005 2.6566334 0.70646083 0
5.8190002 2.651855 0.70701993 0
5.8280005 2.6465445 0.70752323 0
5.8370004 2.6412015 0.70802653 0
5.8470001 2.6363187 0.70858562 0
5.8560004 2.6309092 0.70908892 0
5.8660002 2.6259558 0.70964813 0
5.8750005 2.6204796 0.71015137 0
5.8850002 2.6154559 0.71071053 0
5.8940005 2.6099129 0.71121383 0
5.9040003 2.6048188 0.71177298 0
5.9140005 2.599689 0.71233213 0
5.9230003 2.5940447 0.71283543 0
5.9330006 2.5888445 0.71339464 0
5.9430003 2.5836079 0.71395379 0
6.0330005 2.5348563 0.71898639 0
6.0430002 2.5292592 0.7195456 0
6.0530005 2.5236259 0.72010481 0
5.4520001 2.8518827 0.67738521 0
5.4600005 2.8473446 0.67781812 0
5.4680004 2.8427775 0.67825103 0
5.4770002 2.8387492 0.678738 0
5.4850001 2.8341227 0.67917097 0
5.4930005 2.8294671 0.67960387 0
5.5010004 2.8247824 0.68003678 0
5.5100002 2.8206301 0.68052381 0
5.5180001 2.8158858 0.68095672 0
5.5260005 2.8111131 0.68138969 0
5.5350003 2.8068671 0.68187666 0
5.5430002 2.8020344 0.68230963 0
5.5520005 2.7977254 0.6827966 0
5.5600004 2.7928333 0.68322951 0
5.5690002 2.788461 0.68371654 0
5.5770001 2.7835093 0.68414944 0
5.5860004 2.779074 0.68463647 0
5.5940003 2.7740629 0.68506944 0
5.6030002 2.7695642 0.68555641 0
5.6120005 2.765033 0.6860435 0
5.6200004 2.7599318 0.68647635 0
5.6290002 2.7553377 0.68696338 0
5.6380005 2.750711 0.68745041 0
5.6460004 2.7455194 0.68788338 0
5.6550002 2.7408297 0.68837035 0
5.6640005 2.7361073 0.68885744 0
5.6730003 2.7313523 0.68934441 0
5.6820002 2.7265649 0.6898315 0
5.6910005 2.7217455 0.69031847 0
5.7000003 2.716893 0.69080549 0
5.7090001 2.7120082 0.69129252 0
5.7180004 2.7070913 0.69177961 0
5.7270002 2.7021415 0.69226658 0
5.7360005 2.6971595 0.69275367 0
5.7450004 2.6921449 0.69324064 0
5.7540002 2.6870975 0.69372767 0
5.7630005 2.6820183 0.6942147 0
5.7720003 2.6769063 0.69470173 0
5.7810001 2.6717618 0.69518876 0
5.7910004 2.6670883 0.69572991 0
5.8000002 2.6618769 0.69621694 0
5.8090005 2.6566334 0.69670403 0
5.8190002 2.651855 0.69724512 0
5.8280005 2.6465445 0.69773215 0
5.8370004 2.6412015 0.69821918 0
5.8470001 2.6363187 0.69876027 0
5.8560004 2.6309092 0.69924736 0
5.8660002 2.6259558 0.69978845 0
5.8750005 2.6204796 0.70027554 0
5.8850002 2.6154559 0.70081663 0
5.8940005 2.6099129 0.70130372 0
5.9040003 2.6048188 0.70184481 0
5.9140005 2.599689 0.70238602 0
5.9230003 2.5940447 0.70287299 0
5.9330006 2.5888445 0.7034142 0
5.9430003 2.5836079 0.70395529 0
6.0330005 2.5348563 0.70882559 0
6.0430002 2.5292592 0.70936668 0
6.0530005 2.5236259 0.70990789 0
5.4520001 2.8518827 0.66827232 0
5.4600005 2.8473446 0.6686908 0
5.4680004 2.8427775 0.66910934 0
5.4770002 2.8387492 0.6695801 0
5.4850001 2.8341227 0.66999859 0
5.4930005 2.8294671 0.67041707 0
5.5010004 2.8247824 0.67083561 0
5.5100002 2.8206301 0.67130637 0
5.5180001 2.8158858 0.6717248 0
5.5260005 2.8111131 0.67214334 0
5.5350003 2.8068671 0.6726141 0
5.5430002 2.8020344 0.67303258 0
5.5520005 2.7977254 0.6735034 0
5.5600004 2.7928333 0.67392188 0
5.5690002 2.788461 0.6743927 0
5.5770001 2.7835093 0.67481112 0
5.5860004 2.779074 0.675282 0
5.5940003 2.7740629 0.67570043 0
5.6030002 2.7695642 0.67617124 0
5.6120005 2.765033 0.67664206 0
5.6200004 2.7599318 0.67706048 0
5.6290002 2.7553377 0.6775313 0
5.6380005 2.750711 0.67800212 0
5.6460004 2.7455194 0.67842054 0
5.6550002 2.7408297 0.67889136 0
5.6640005 2.7361073 0.67936218 0
5.6730003 2.7313523 0.67983294 0
5.6820002 2.7265649 0.68030375 0
5.6910005 2.7217455 0.68077457 0
5.7000003 2.716893 0.68124533 0
5.7090001 2.7120082 0.68171608 0
5.7180004 2.7070913 0.68218696 0
5.7270002 2.7021415 0.68265772 0
5.7360005 2.6971595 0.68312854 0
5.7450004 2.6921449 0.68359929 0
5.7540002 2.6870975 0.68407011 0
5.7630005 2.6820183 0.68454087 0
5.7720003 2.6769063 0.68501168 0
5.7810001 2.6717618 0.6854825 0
5.7910004 2.6670883 0.68600559 0
5.8000002 2.6618769 0.68647635 0
5.8090005 2.6566334 0.68694717 0
5.8190002 2.651855 0.68747026 0
5.8280005 2.6465445 0.68794107 0
5.8370004 2.6412015 0.68841183 0
5.8470001 2.6363187 0.68893492 0
5.8560004 2.6309092 0.6894058 0
5.8660002 2.6259558 0.68992889 0
5.8750005 2.6204796 0.69039965 0
5.8850002 2.6154559 0.69092274 0
5.8940005 2.6099129 0.69139361 0
5.9040003 2.6048188 0.6919167 0
5.9140005 2.599689 0.69243979 0
5.9230003 2.5940447 0.69291055 0
5.9330006 2.5888445 0.69343364 0
5.9430003 2.5836079 0.69395679 0
6.0330005 2.5348563 0.69866472 0
6.0430002 2.5292592 0.69918782 0
6.0530005 2.5236259 0.69971097 0
5.4520001 2.8518827 0.65915948 0
5.4600005 2.8473446 0.65956354 0
5.4680004 2.8427775 0.65996766 0
5.4770002 2.8387492 0.66042221 0
5.4850001 2.8341227 0.66082621 0
5.4930005 2.8294671 0.66123027 0
5.5010004 2.8247824 0.66163433 0
5.5100002 2.8206301 0.66208887 0
5.5180001 2.8158858 0.66249293 0
5.5260005 2.8111131 0.66289699 0
5.5350003 2.8068671 0.66335154 0
5.5430002 2.8020344 0.6637556 0
5.5520005 2.7977254 0.6642102 0
5.5600004 2.7928333 0.6646142 0
5.5690002 2.788461 0.66506881 0
5.5770001 2.7835093 0.66547281 0
5.5860004 2.779074 0.66592741 0
5.5940003 2.7740629 0.66633141 0
5.6030002 2.7695642 0.66678602 0
5.6120005 2.765033 0.66724056 0
5.6200004 2.7599318 0.66764462 0
5.6290002 2.7553377 0.66809916 0
5.6380005 2.750711 0.66855377 0
5.6460004 2.7455194 0.66895783 0
5.6550002 2.7408297 0.66941237 0
5.6640005 2.7361073 0.66986692 0
5.6730003 2.7313523 0.67032146 0
5.6820002 2.7265649 0.67077601 0
5.6910005 2.7217455 0.67123061 0
5.7000003 2.716893 0.67168516 0
5.7090001 2.7120082 0.6721397 0
5.7180004 2.7070913 0.67259431 0
5.7270002 2.7021415 0.67304885 0
5.7360005 2.6971595 0.6735034 0
5.7450004 2.6921449 0.67395794 0
5.7540002 2.6870975 0.67441249 0
5.7630005 2.6820183 0.67486709 0
5.7720003 2.6769063 0.67532158 0
5.7810001 2.6717618 0.67577618 0
5.7910004 2.6670883 0.67628127 0
5.8000002 2.6618769 0.67673576 0
5.8090005 2.6566334 0.67719042 0
5.8190002 2.651855 0.67769545 0
5.8280005 2.6465445 0.67815 0
5.8370004 2.6412015 0.6786046 0
5.8470001 2.6363187 0.67910963 0
5.8560004 2.6309092 0.67956418 0
5.8660002 2.6259558 0.68006921 0
5.8750005 2.6204796 0.68052387 0
5.8850002 2.6154559 0.68102884 0
5.8940005 2.6099129 0.68148345 0
5.9040003 2.6048188 0.68198848 0
5.9140005 2.599689 0.68249357 0
5.9230003 2.5940447 0.68294811 0
5.9330006 2.5888445 0.6834532 0
5.9430003 2.5836079 0.68395829 0
6.0330005 2.5348563 0.68850386 0
6.0430002 2.5292592 0.68900895 0
6.0530005 2.5236259 0.68951404 0
5.4520001 2.8518827 0.65004671 0
5.4600005 2.8473446 0.65043628 0
5.4680004 2.8427775 0.65082592 0
5.4770002 2.8387492 0.65126425 0
5.4850001 2.8341227 0.65165389 0
5.4930005 2.8294671 0.65204352 0
5.5010004 2.8247824 0.6524331 0
5.5100002 2.8206301 0.65287143 0
5.5180001 2.8158858 0.65326107 0
5.5260005 2.8111131 0.6536507 0
5.5350003 2.8068671 0.65408897 0
5.5430002 2.8020344 0.65447867 0
5.5520005 2.7977254 0.65491694 0
5.5600004 2.7928333 0.65530658 0
5.5690002 2.788461 0.65574491 0
5.5770001 2.7835093 0.65613449 0
5.5860004 2.779074 0.65657282 0
5.5940003 2.7740629 0.65696251 0
5.6030002 2.7695642 0.65740079 0
5.6120005 2.765033 0.65783918 0
5.6200004 2.7599318 0.65822875 0
5.6290002 2.7553377 0.65866709 0
5.6380005 2.750711 0.65910542 0
5.6460004 2.7455194 0.659495 0
5.6550002 2.7408297 0.65993333 0
5.6640005 2.7361073 0.66037166 0
5.6730003 2.7313523 0.66080999 0
5.6820002 2.7265649 0.66124833 0
5.6910005 2.7217455 0.66168666 0
5.7000003 2.716893 0.66212499 0
5.7090001 2.7120082 0.66256332 0
5.7180004 2.7070913 0.66300166 0
5.7270002 2.7021415 0.66343999 0
5.7360005 2.6971595 0.66387826 0
5.7450004 2.6921449 0.66431659 0
5.7540002 2.6870975 0.66475487 0
5.7630005 2.6820183 0.66519326 0
5.7720003 2.6769063 0.66563153 0
5.7810001 2.6717618 0.66606987 0
5.7910004 2.6670883 0.66655695 0
5.8000002 2.6618769 0.66699529 0
5.8090005 2.6566334 0.66743362 0
5.8190002 2.651855 0.66792059 0
5.8280005 2.6465445 0.66835892 0
5.8370004 2.6412015 0.66879725 0
5.8470001 2.6363187 0.66928428 0
5.8560004 2.6309092 0.66972262 0
5.8660002 2.6259558 0.67020965 0
5.8750005 2.6204796 0.67064798 0
5.8850002 2.6154559 0.67113495 0
5.8940005 2.6099129 0.67157334 0
5.9040003 2.6048188 0.67206037 0
5.9140005 2.599689 0.67254734 0
5.9230003 2.5940447 0.67298567 0
5.9330006 2.5888445 0.67347276 0
5.9430003 2.5836079 0.67395973 0
6.0330005 2.5348563 0.678343 0
6.0430002 2.5292592 0.67883003 0
6.0530005 2.5236259 0.67931712 0
5.4520001 2.8518827 0.64093381 0
5.4600005 2.8473446 0.64130902 0
5.4680004 2.8427775 0.64168423 0
5.4770002 2.8387492 0.64210629 0
5.4850001 2.8341227 0.64248151 0
5.4930005 2.8294671 0.64285672 0
5.5010004 2.8247824 0.64323187 0
5.5100002 2.8206301 0.64365399 0
5.5180001 2.8158858 0.64402914 0
5.5260005 2.8111131 0.64440441 0
5.5350003 2.8068671 0.64482647 0
5.5430002 2.8020344 0.64520162 0
5.5520005 2.7977254 0.64562374 0
5.5600004 2.7928333 0.64599895 0
5.5690002 2.788461 0.64642102 0
5.5770001 2.7835093 0.64679623 0
5.5860004 2.779074 0.64721835 0
5.5940003 2.7740629 0.6475935 0
5.6030002 2.7695642 0.64801556 0
5.6120005 2.765033 0.64843768 0
5.6200004 2.7599318 0.64881289 0
5.6290002 2.7553377 0.64923495 0
5.6380005 2.750711 0.64965701 0
5.6460004 2.7455194 0.65003228 0
5.6550002 2.7408297 0.65045434 0
5.6640005 2.7361073 0.6508764 0
5.6730003 2.7313523 0.65129852 0
5.6820002 2.7265649 0.65172058 0
5.6910005 2.7217455 0.6521427 0
5.7000003 2.716893 0.65256476 0
5.7090001 2.7120082 0.65298688 0
5.7180004 2.7070913 0.653409 0
5.7270002 2.7021415 0.65383106 0
5.7360005 2.6971595 0.65425313 0
5.7450004 2.6921449 0.65467525 0
5.7540002 2.6870975 0.65509737 0
5.7630005 2.6820183 0.65551943 0
5.7720003 2.6769063 0.65594149 0
5.7810001 2.6717618 0.65636361 0
5.7910004 2.6670883 0.65683258 0
5.8000002 2.6618769 0.6572547 0
5.8090005 2.6566334 0.65767682 0
5.8190002 2.651855 0.65814579 0
5.8280005 2.6465445 0.65856791 0
5.8370004 2.6412015 0.65898991 0
5.8470001 2.6363187 0.65945894 0
5.8560004 2.6309092 0.659881 0
5.8660002 2.6259558 0.66034997 0
5.8750005 2.6204796 0.66077209 0
5.8850002 2.6154559 0.66124105 0
5.8940005 2.6099129 0.66166317 0
5.9040003 2.6048188 0.66213214 0
5.9140005 2.599689 0.66260123 0
5.9230003 2.5940447 0.66302323 0
5.9330006 2.5888445 0.66349226 0
5.9430003 2.5836079 0.66396129 0
6.0330005 2.5348563 0.66818213 0
6.0430002 2.5292592 0.6686511 0
6.0530005 2.5236259 0.66912019 0
5.4520001 2.8518827 0.63182098 0
5.4600005 2.8473446 0.63218176 0
5.4680004 2.8427775 0.63254249 0
5.4770002 2.8387492 0.6329484 0
5.4850001 2.8341227 0.63330913 0
5.4930005 2.8294671 0.63366991 0
5.5010004 2.8247824 0.6340307 0
5.5100002 2.8206301 0.63443649 0
5.5180001 2.8158858 0.63479728 0
5.5260005 2.8111131 0.63515806 0
5.5350003 2.8068671 0.63556385 0
5.5430002 2.8020344 0.63592464 0
5.5520005 2.7977254 0.63633054 0
5.5600004 2.7928333 0.63669127 0
5.5690002 2.788461 0.63709712 0
5.5770001 2.7835093 0.63745791 0
5.5860004 2.779074 0.63786376 0
5.5940003 2.7740629 0.63822448 0
5.6030002 2.7695642 0.63863039 0
5.6120005 2.765033 0.63903624 0
5.6200004 2.7599318 0.63939697 0
5.6290002 2.7553377 0.63980281 0
5.6380005 2.750711 0.64020872 0
5.6460004 2.7455194 0.64056945 0
5.6550002 2.7408297 0.6409753 0
5.6640005 2.7361073 0.64138114 0
5.6730003 2.7313523 0.64178705 0
5.6820002 2.7265649 0.6421929 0
5.6910005 2.7217455 0.64259875 0
5.7000003 2.716893 0.6430046 0
5.7090001 2.7120082 0.64341044 0
5.7180004 2.7070913 0.64381635 0
5.7270002 2.7021415 0.64422214 0
5.7360005 2.6971595 0.64462805 0
5.7450004 2.6921449 0.6450339 0
5.7540002 2.6870975 0.64543974 0
5.7630005 2.6820183 0.64584559 0
5.7720003 2.6769063 0.64625144 0
5.7810001 2.6717618 0.64665729 0
5.7910004 2.6670883 0.64710826 0
5.8000002 2.6618769 0.6475141 0
5.8090005 2.6566334 0.64792001 0
5.8190002 2.651855 0.64837092 0
5.8280005 2.6465445 0.64877677 0
5.8370004 2.6412015 0.64918268 0
5.8470001 2.6363187 0.64963359 0
5.8560004 2.6309092 0.65003943 0
5.8660002 2.6259558 0.6504904 0
5.8750005 2.6204796 0.65089631 0
5.8850002 2.6154559 0.65134722 0
5.8940005 2.6099129 0.65175307 0
5.9040003 2.6048188 0.65220404 0
5.9140005 2.599689 0.65265501 0
5.9230003 2.5940447 0.65306085 0
5.9330006 2.5888445 0.65351176 0
5.9430003 2.5836079 0.65396273 0
6.0330005 2.5348563 0.65802133 0
6.0430002 2.5292592 0.65847224 0
6.0530005 2.5236259 0.65892321 0
5.4520001 2.8518827 0.62270814 0
5.4600005 2.8473446 0.6230545 0
5.4680004 2.8427775 0.62340081 0
5.4770002 2.8387492 0.62379044 0
5.4850001 2.8341227 0.62413675 0
5.4930005 2.8294671 0.62448311 0
5.5010004 2.8247824 0.62482941 0
5.5100002 2.8206301 0.62521905 0
5.5180001 2.8158858 0.62556541 0
5.5260005 2.8111131 0.62591171 0
5.5350003 2.8068671 0.62630135 0
5.5430002 2.8020344 0.62664771 0
5.5520005 2.7977254 0.62703729 0
5.5600004 2.7928333 0.62738365 0
5.5690002 2.788461 0.62777323 0
5.5770001 2.7835093 0.62811959 0
5.5860004 2.779074 0.62850916 0
5.5940003 2.7740629 0.62885553 0
5.6030002 2.7695642 0.62924516 0
5.6120005 2.765033 0.6296348 0
5.6200004 2.7599318 0.6299811 0
5.6290002 2.7553377 0.63037074 0
5.6380005 2.750711 0.63076037 0
5.6460004 2.7455194 0.63110667 0
5.6550002 2.7408297 0.63149631 0
5.6640005 2.7361073 0.63188595 0
5.6730003 2.7313523 0.63227558 0
5.6820002 2.7265649 0.63266516 0
5.6910005 2.7217455 0.63305479 0
5.7000003 2.716893 0.63344443 0
5.7090001 2.7120082 0.633834 0
5.7180004 2.7070913 0.6342237 0
5.7270002 2.7021415 0.63461328 0
5.7360005 2.6971595 0.63500291 0
5.7450004 2.6921449 0.63539255 0
5.7540002 2.6870975 0.63578212 0
5.7630005 2.6820183 0.63617176 0
5.7720003 2.6769063 0.63656139 0
5.7810001 2.6717618 0.63695103 0
5.7910004 2.6670883 0.63738394 0
5.8000002 2.6618769 0.63777357 0
5.8090005 2.6566334 0.63816321 0
5.8190002 2.651855 0.63859606 0
5.8280005 2.6465445 0.63898569 0
5.8370004 2.6412015 0.63937533 0
5.8470001 2.6363187 0.63980824 0
5.8560004 2.6309092 0.64019787 0
5.8660002 2.6259558 0.64063078 0
5.8750005 2.6204796 0.64102042 0
5.8850002 2.6154559 0.64145333 0
5.8940005 2.6099129 0.64184296 0
5.9040003 2.6048188 0.64227587 0
5.9140005 2.599689 0.64270878 0
5.9230003 2.5940447 0.64309841 0
5.9330006 2.5888445 0.64353132 0
5.9430003 2.5836079 0.64396423 0
6.0330005 2.5348563 0.64786047 0
6.0430002 2.5292592 0.64829338 0
6.0530005 2.5236259 0.64872628 0
5.4520001 2.8518827 0.61359531 0
5.4600005 2.8473446 0.61392725 0
5.4680004 2.8427775 0.61425912 0
5.4770002 2.8387492 0.61463249 0
5.4850001 2.8341227 0.61496437 0
5.4930005 2.8294671 0.6152963 0
5.5010004 2.8247824 0.61562824 0
5.5100002 2.8206301 0.61600161 0
5.5180001 2.8158858 0.61633348 0
5.5260005 2.8111131 0.61666542 0
5.5350003 2.8068671 0.61703879 0
5.5430002 2.8020344 0.61737067 0
5.5520005 2.7977254 0.61774409 0
5.5600004 2.7928333 0.61807597 0
5.5690002 2.788461 0.61844933 0
5.5770001 2.7835093 0.61878127 0
5.5860004 2.779074 0.61915469 0
5.5940003 2.7740629 0.61948657 0
5.6030002 2.7695642 0.61985993 0
5.6120005 2.765033 0.6202333 0
5.6200004 2.7599318 0.62056524 0
5.6290002 2.7553377 0.6209386 0
5.6380005 2.750711 0.62131202 0
5.6460004 2.7455194 0.6216439 0
5.6550002 2.7408297 0.62201726 0
5.6640005 2.7361073 0.62239069 0
5.6730003 2.7313523 0.62276411 0
5.6820002 2.7265649 0.62313747 0
5.6910005 2.7217455 0.62351084 0
5.7000003 2.716893 0.6238842 0
5.7090001 2.7120082 0.62425762 0
5.7180004 2.7070913 0.62463105 0
5.7270002 2.7021415 0.62500441 0
5.7360005 2.6971595 0.62537777 0
5.7450004 2.6921449 0.6257512 0
5.7540002 2.6870975 0.62612456 0
5.7630005 2.6820183 0.62649798 0
5.7720003 2.6769063 0.62687135 0
5.7810001 2.6717618 0.62724471 0
5.7910004 2.6670883 0.62765962 0
5.8000002 2.6618769 0.62803298 0
5.8090005 2.6566334 0.62840641 0
5.8190002 2.651855 0.62882125 0
5.8280005 2.6465445 0.62919468 0
5.8370004 2.6412015 0.62956804 0
5.8470001 2.6363187 0.62998289 0
5.8560004 2.6309092 0.63035631 0
5.8660002 2.6259558 0.63077116 0
5.8750005 2.6204796 0.63114458 0
5.8850002 2.6154559 0.63155943 0
5.8940005 2.6099129 0.63193285 0
5.9040003 2.6048188 0.6323477 0
5.9140005 2.599689 0.63276255 0
5.9230003 2.5940447 0.63313597 0
5.9330006 2.5888445 0.63355088 0
5.9430003 2.5836079 0.63396573 0
6.0330005 2.5348563 0.6376996 0
6.0430002 2.5292592 0.63811445 0
6.0530005 2.5236259 0.63852936 0
5.4520001 2.8518827 0.60448247 0
5.4600005 2.8473446 0.60479999 0
5.4680004 2.8427775 0.60511744 0
5.4770002 2.8387492 0.60547459 0
5.4850001 2.8341227 0.60579205 0
5.4930005 2.8294671 0.6061095 0
5.5010004 2.8247824 0.60642695 0
5.5100002 2.8206301 0.60678411 0
5.5180001 2.8158858 0.60710162 0
5.5260005 2.8111131 0.60741907 0
5.5350003 2.8068671 0.60777622 0
5.5430002 2.8020344 0.60809368 0
5.5520005 2.7977254 0.60845089 0
5.5600004 2.7928333 0.60876834 0
5.5690002 2.788461 0.60912549 0
5.5770001 2.7835093 0.60944295 0
5.5860004 2.779074 0.6098001 0
5.5940003 2.7740629 0.61011755 0
5.6030002 2.7695642 0.61047471 0
5.6120005 2.765033 0.61083186 0
5.6200004 2.7599318 0.61114937 0
5.6290002 2.7553377 0.61150646 0
5.6380005 2.750711 0.61186367 0
5.6460004 2.7455194 0.61218113 0
5.6550002 2.7408297 0.61253828 0
5.6640005 2.7361073 0.61289543 0
5.6730003 2.7313523 0.61325258 0
5.6820002 2.7265649 0.61360973 0
5.6910005 2.7217455 0.61396688 0
5.7000003 2.716893 0.61432403 0
5.7090001 2.7120082 0.61468118 0
5.7180004 2.7070913 0.61503839 0
5.7270002 2.7021415 0.61539549 0
5.7360005 2.6971595 0.6157527 0
5.7450004 2.6921449 0.61610985 0
5.7540002 2.6870975 0.616467 0
5.7630005 2.6820183 0.61682415 0
5.7720003 2.6769063 0.6171813 0
5.7810001 2.6717618 0.61753845 0
5.7910004 2.6670883 0.6179353 0
5.8000002 2.6618769 0.61829245 0
5.8090005 2.6566334 0.6186496 0
5.8190002 2.651855 0.61904645 0
5.8280005 2.6465445 0.6194036 0
5.8370004 2.6412015 0.61976075 0
5.8470001 2.6363187 0.62015754 0
5.8560004 2.6309092 0.62051475 0
5.8660002 2.6259558 0.62091154 0
5.8750005 2.6204796 0.62126875 0
5.8850002 2.6154559 0.62166554 0
5.8940005 2.6099129 0.62202275 0
5.9040003 2.6048188 0.62241954 0
5.9140005 2.599689 0.62281638 0
5.9230003 2.5940447 0.62317353 0
5.9330006 2.5888445 0.62357038 0
5.9430003 2.5836079 0.62396723 0
6.0330005 2.5348563 0.62753874 0
6.0430002 2.5292592 0.62793559 0
6.0530005 2.5236259 0.62833244 0
5.4520001 2.8518827 0.59536964 0
5.4600005 2.8473446 0.59567267 0
5.4680004 2.8427775 0.59597576 0
5.4770002 2.8387492 0.59631664 0
5.4850001 2.8341227 0.59661967 0
5.4930005 2.8294671 0.59692276 0
5.5010004 2.8247824 0.59722579 0
5.5100002 2.8206301 0.59756666 0
5.5180001 2.8158858 0.59786969 0
5.5260005 2.8111131 0.59817278 0
5.5350003 2.8068671 0.59851366 0
5.5430002 2.8020344 0.59881675 0
5.5520005 2.7977254 0.59915763 0
5.5600004 2.7928333 0.59946066 0
5.5690002 2.788461 0.5998016 0
5.5770001 2.7835093 0.60010463 0
5.5860004 2.779074 0.60044557 0
5.5940003 2.7740629 0.6007486 0
5.6030002 2.7695642 0.60108948 0
5.6120005 2.765033 0.60143042 0
5.6200004 2.7599318 0.60173345 0
5.6290002 2.7553377 0.60207438 0
5.6380005 2.750711 0.60241532 0
5.6460004 2.7455194 0.60271835 0
5.6550002 2.7408297 0.60305929 0
5.6640005 2.7361073 0.60340023 0
5.6730003 2.7313523 0.60374111 0
5.6820002 2.7265649 0.60408205 0
5.6910005 2.7217455 0.60442293 0
5.7000003 2.716893 0.60476387 0
5.7090001 2.7120082 0.6051048 0
5.7180004 2.7070913 0.60544574 0
5.7270002 2.7021415 0.60578662 0
5.7360005 2.6971595 0.60612756 0
5.7450004 2.6921449 0.60646844 0
5.7540002 2.6870975 0.60680938 0
5.7630005 2.6820183 0.60715032 0
5.7720003 2.6769063 0.60749125 0
5.7810001 2.6717618 0.60783213 0
5.7910004 2.6670883 0.60821092 0
5.8000002 2.6618769 0.60855186 0
5.8090005 2.6566334 0.6088928 0
5.8190002 2.651855 0.60927159 0
5.8280005 2.6465445 0.60961252 0
5.8370004 2.6412015 0.6099534 0
5.8470001 2.6363187 0.61033225 0
5.8560004 2.6309092 0.61067313 0
5.8660002 2.6259558 0.61105192 0
5.8750005 2.6204796 0.61139286 0
5.8850002 2.6154559 0.61177164 0
5.8940005 2.6099129 0.61211258 0
5.9040003 2.6048188 0.61249137 0
5.9140005 2.599689 0.61287022 0
5.9230003 2.5940447 0.6132111 0
5.9330006 2.5888445 0.61358988 0
5.9430003 2.5836079 0.61396873 0
6.0330005 2.5348563 0.61737788 0
6.0430002 2.5292592 0.61775672 0
6.0530005 2.5236259 0.61813551 0
5.4520001 2.8518827 0.5862568 0
5.4600005 2.8473446 0.58654541 0
5.4680004 2.8427775 0.58683401 0
5.4770002 2.8387492 0.58715868 0
5.4850001 2.8341227 0.58744729 0
5.4930005 2.8294671 0.58773589 0
5.5010004 2.8247824 0.5880245 0
5.5100002 2.8206301 0.58834922 0
5.5180001 2.8158858 0.58863783 0
5.5260005 2.8111131 0.58892643 0
5.5350003 2.8068671 0.5892511 0
5.5430002 2.8020344 0.58953971 0
5.5520005 2.7977254 0.58986443 0
5.5600004 2.7928333 0.59015304 0
5.5690002 2.788461 0.59047771 0
5.5770001 2.7835093 0.59076631 0
5.5860004 2.779074 0.59109104 0
5.5940003 2.7740629 0.59137964 0
5.6030002 2.7695642 0.59170425 0
5.6120005 2.765033 0.59202898 0
5.6200004 2.7599318 0.59231758 0
5.6290002 2.7553377 0.59264231 0
5.6380005 2.750711 0.59296697 0
5.6460004 2.7455194 0.59325558 0
5.6550002 2.7408297 0.59358025 0
5.6640005 2.7361073 0.59390497 0
5.6730003 2.7313523 0.59422964 0
5.6820002 2.7265649 0.59455431 0
5.6910005 2.7217455 0.59487903 0
5.7000003 2.716893 0.5952037 0
5.7090001 2.7120082 0.59552836 0
5.7180004 2.7070913 0.59585309 0
5.7270002 2.7021415 0.59617776 0
5.7360005 2.6971595 0.59650242 0
5.7450004 2.6921449 0.59682715 0
5.7540002 2.6870975 0.59715182 0
5.7630005 2.6820183 0.59747648 0
5.7720003 2.6769063 0.59780115 0
5.7810001 2.6717618 0.59812582 0
5.7910004 2.6670883 0.5984866 0
5.8000002 2.6618769 0.59881127 0
5.8090005 2.6566334 0.59913599 0
5.8190002 2.651855 0.59949672 0
5.8280005 2.6465445 0.59982145 0
5.8370004 2.6412015 0.60014611 0
5.8470001 2.6363187 0.6005069 0
5.8560004 2.6309092 0.60083157 0
5.8660002 2.6259558 0.60119236 0
5.8750005 2.6204796 0.60151702 0
5.8850002 2.6154559 0.60187781 0
5.8940005 2.6099129 0.60220248 0
5.9040003 2.6048188 0.6025632 0
5.9140005 2.599689 0.60292399 0
5.9230003 2.5940447 0.60324866 0
5.9330006 2.5888445 0.60360944 0
5.9430003 2.5836079 0.60397017 0
6.0330005 2.5348563 0.60721707 0
6.0430002 2.5292592 0.6075778 0
6.0530005 2.5236259 0.60793859 0
5.4520001 2.8518827 0.57714397 0
5.4600005 2.8473446 0.57741815 0
5.4680004 2.8427775 0.57769233 0
5.4770002 2.8387492 0.57800078 0
5.4850001 2.8341227 0.57827497 0
5.4930005 2.8294671 0.57854915 0
5.5010004 2.8247824 0.57882333 0
5.5100002 2.8206301 0.57913172 0
5.5180001 2.8158858 0.5794059 0
5.5260005 2.8111131 0.57968009 0
5.5350003 2.8068671 0.57998854 0
5.5430002 2.8020344 0.58026272 0
5.5520005 2.7977254 0.58057117 0
5.5600004 2.7928333 0.58084536 0
5.5690002 2.788461 0.58115381 0
5.5770001 2.7835093 0.58142799 0
5.5860004 2.779074 0.58173645 0
5.5940003 2.7740629 0.58201063 0
5.6030002 2.7695642 0.58231908 0
5.6120005 2.765033 0.58262753 0
5.6200004 2.7599318 0.58290172 0
5.6290002 2.7553377 0.58321017 0
5.6380005 2.750711 0.58351862 0
5.6460004 2.7455194 0.58379281 0
5.6550002 2.7408297 0.58410126 0
5.6640005 2.7361073 0.58440971 0
5.6730003 2.7313523 0.58471817 0
5.6820002 2.7265649 0.58502662 0
5.6910005 2.7217455 0.58533508 0
5.7000003 2.716893 0.58564353 0
5.7090001 2.7120082 0.58595192 0
5.7180004 2.7070913 0.58626044 0
5.7270002 2.7021415 0.58656883 0
5.7360005 2.6971595 0.58687735 0
5.7450004 2.6921449 0.58718574 0
5.7540002 2.6870975 0.58749419 0
5.7630005 2.6820183 0.58780265 0
5.7720003 2.6769063 0.5881111 0
5.7810001 2.6717618 0.58841956 0
5.7910004 2.6670883 0.58876228 0
5.8000002 2.6618769 0.58907074 0
5.8090005 2.6566334 0.58937919 0
5.8190002 2.651855 0.58972192 0
5.8280005 2.6465445 0.59003037 0
5.8370004 2.6412015 0.59033883 0
5.8470001 2.6363187 0.59068155 0
5.8560004 2.6309092 0.59099001 0
5.8660002 2.6259558 0.59133273 0
5.8750005 2.6204796 0.59164119 0
5.8850002 2.6154559 0.59198391 0
5.8940005 2.6099129 0.59229237 0
5.9040003 2.6048188 0.59263504 0
5.9140005 2.599689 0.59297776 0
5.9230003 2.5940447 0.59328622 0
5.9330006 2.5888445 0.59362894 0
5.9430003 2.5836079 0.59397167 0
6.0330005 2.5348563 0.59705621 0
6.0430002 2.5292592 0.59739894 0
6.0530005 2.5236259 0.59774166 0
5.4520001 2.8518827 0.56803113 0
5.4600005 2.8473446 0.56829089 0
5.4680004 2.8427775 0.56855059 0
5.4770002 2.8387492 0.56884283 0
5.4850001 2.8341227 0.56910259 0
5.4930005 2.8294671 0.56936234 0
5.5010004 2.8247824 0.5696221 0
5.5100002 2.8206301 0.56991428 0
5.5180001 2.8158858 0.57017404 0
5.5260005 2.8111131 0.5704338 0
5.5350003 2.8068671 0.57072604 0
5.5430002 2.8020344 0.57098579 0
5.5520005 2.7977254 0.57127798 0
5.5600004 2.7928333 0.57153773 0
5.5690002 2.788461 0.57182992 0
5.5770001 2.7835093 0.57208967 0
5.5860004 2.779074 0.57238191 0
5.5940003 2.7740629 0.57264167 0
5.6030002 2.7695642 0.57293385 0
5.6120005 2.765033 0.57322609 0
5.6200004 2.7599318 0.57348585 0
5.6290002 2.7553377 0.57377803 0
5.6380005 2.750711 0.57407027 0
5.6460004 2.7455194 0.57433003 0
5.6550002 2.7408297 0.57462221 0
5.6640005 2.7361073 0.57491446 0
5.6730003 2.7313523 0.57520664 0
5.6820002 2.7265649 0.57549888 0
5.6910005 2.7217455 0.57579112 0
5.7000003 2.716893 0.5760833 0
5.7090001 2.7120082 0.57637554 0
5.7180004 2.7070913 0.57666779 0
5.7270002 2.7021415 0.57695997 0
5.7360005 2.6971595 0.57725215 0
5.7450004 2.6921449 0.57754439 0
5.7540002 2.6870975 0.57783663 0
5.7630005 2.6820183 0.57812881 0
5.7720003 2.6769063 0.57842106 0
5.7810001 2.6717618 0.5787133 0
5.7910004 2.6670883 0.57903796 0
5.8000002 2.6618769 0.57933021 0
5.8090005 2.6566334 0.57962239 0
5.8190002 2.651855 0.57994705 0
5.8280005 2.6465445 0.5802393 0
5.8370004 2.6412015 0.58053148 0
5.8470001 2.6363187 0.5808562 0
5.8560004 2.6309092 0.58114839 0
5.8660002 2.6259558 0.58147311 0
5.8750005 2.6204796 0.58176529 0
5.8850002 2.6154559 0.58209002 0
5.8940005 2.6099129 0.5823822 0
5.9040003 2.6048188 0.58270693 0
5.9140005 2.599689 0.58303159 0
5.9230003 2.5940447 0.58332384 0
5.9330006 2.5888445 0.5836485 0
5.9430003 2.5836079 0.58397317 0
6.0330005 2.5348563 0.58689535 0
6.0430002 2.5292592 0.58722001 0
6.0530005 2.5236259 0.58754474 0
5.4520001 2.8518827 0.5589183 0
5.4600005 2.8473446 0.55916357 0
5.4680004 2.8427775 0.5594089 0
5.4770002 2.8387492 0.55968487 0
5.4850001 2.8341227 0.55993021 0
5.4930005 2.8294671 0.56017554 0
5.5010004 2.8247824 0.56042087 0
5.5100002 2.8206301 0.56069684 0
5.5180001 2.8158858 0.56094217 0
5.5260005 2.8111131 0.56118751 0
5.5350003 2.8068671 0.56146348 0
5.5430002 2.8020344 0.56170875 0
5.5520005 2.7977254 0.56198478 0
5.5600004 2.7928333 0.56223011 0
5.5690002 2.788461 0.56250608 0
5.5770001 2.7835093 0.56275135 0
5.5860004 2.779074 0.56302738 0
5.5940003 2.7740629 0.56327266 0
5.6030002 2.7695642 0.56354868 0
5.6120005 2.765033 0.56382465 0
5.6200004 2.7599318 0.56406999 0
5.6290002 2.7553377 0.56434596 0
5.6380005 2.750711 0.56462193 0
5.6460004 2.7455194 0.56486726 0
5.6550002 2.7408297 0.56514323 0
5.6640005 2.7361073 0.5654192 0
5.6730003 2.7313523 0.56569517 0
5.6820002 2.7265649 0.56597114 0
5.6910005 2.7217455 0.56624717 0
5.7000003 2.716893 0.56652313 0
5.7090001 2.7120082 0.5667991 0
5.7180004 2.7070913 0.56707513 0
5.7270002 2.7021415 0.5673511 0
5.7360005 2.6971595 0.56762707 0
5.7450004 2.6921449 0.56790304 0
5.7540002 2.6870975 0.56817901 0
5.7630005 2.6820183 0.56845498 0
5.7720003 2.6769063 0.56873101 0
5.7810001 2.6717618 0.56900698 0
5.7910004 2.6670883 0.56931365 0
5.8000002 2.6618769 0.56958961 0
5.8090005 2.6566334 0.56986558 0
5.8190002 2.651855 0.57017225 0
5.8280005 2.6465445 0.57044822 0
5.8370004 2.6412015 0.57072419 0
5.8470001 2.6363187 0.57103086 0
5.8560004 2.6309092 0.57130682 0
5.8660002 2.6259558 0.57161349 0
5.8750005 2.6204796 0.57188946 0
5.8850002 2.6154559 0.57219613 0
5.8940005 2.6099129 0.5724721 0
5.9040003 2.6048188 0.5727787 0
5.9140005 2.599689 0.57308543 0
5.9230003 2.5940447 0.5733614 0
5.9330006 2.5888445 0.573668 0
5.9430003 2.5836079 0.57397467 0
6.0330005 2.5348563 0.57673448 0
6.0430002 2.5292592 0.57704115 0
6.0530005 2.5236259 0.57734776 0
5.4520001 2.8518827 0.5498054 0
5.4600005 2.8473446 0.55003631 0
5.4680004 2.8427775 0.55026722 0
5.4770002 2.8387492 0.55052698 0
5.4850001 2.8341227 0.55075783 0
5.4930005 2.8294671 0.55098873 0
5.5010004 2.8247824 0.55121964 0
5.5100002 2.8206301 0.55147934 0
5.5180001 2.8158858 0.55171025 0
5.5260005 2.8111131 0.55194116 0
5.5350003 2.8068671 0.55220091 0
5.5430002 2.8020344 0.55243176 0
5.5520005 2.7977254 0.55269152 0
5.5600004 2.7928333 0.55292243 0
5.5690002 2.788461 0.55318218 0
5.5770001 2.7835093 0.55341303 0
5.5860004 2.779074 0.55367279 0
5.5940003 2.7740629 0.5539037 0
5.6030002 2.7695642 0.55416346 0
5.6120005 2.765033 0.55442321 0
5.6200004 2.7599318 0.55465406 0
5.6290002 2.7553377 0.55491382 0
5.6380005 2.750711 0.55517358 0
5.6460004 2.7455194 0.55540448 0
5.6550002 2.7408297 0.55566418 0
5.6640005 2.7361073 0.55592394 0
5.6730003 2.7313523 0.5561837 0
5.6820002 2.7265649 0.55644345 0
5.6910005 2.7217455 0.55670321 0
5.7000003 2.716893 0.55696297 0
5.7090001 2.7120082 0.55722272 0
5.7180004 2.7070913 0.55748248 0
5.7270002 2.7021415 0.55774218 0
5.7360005 2.6971595 0.55800194 0
5.7450004 2.6921449 0.55826169 0
5.7540002 2.6870975 0.55852145 0
5.7630005 2.6820183 0.55878121 0
5.7720003 2.6769063 0.5590409 0
5.7810001 2.6717618 0.55930066 0
5.7910004 2.6670883 0.55958927 0
5.8000002 2.6618769 0.55984902 0
5.8090005 2.6566334 0.56010878 0
5.8190002 2.651855 0.56039739 0
5.8280005 2.6465445 0.56065714 0
5.8370004 2.6412015 0.5609169 0
5.8470001 2.6363187 0.56120551 0
5.8560004 2.6309092 0.56146526 0
5.8660002 2.6259558 0.56175387 0
5.8750005 2.6204796 0.56201363 0
5.8850002 2.6154559 0.56230223 0
5.8940005 2.6099129 0.56256199 0
5.9040003 2.6048188 0.56285059 0
5.9140005 2.599689 0.5631392 0
5.9230003 2.5940447 0.56339896 0
5.9330006 2.5888445 0.56368756 0
5.9430003 2.5836079 0.56397617 0
6.0330005 2.5348563 0.56657362 0
6.0430002 2.5292592 0.56686223 0
6.0530005 2.5236259 0.56715083 0
5.4520001 2.8518827 0.54069257 0
5.4600005 2.8473446 0.54090905 0
5.4680004 2.8427775 0.54112554 0
5.4770002 2.8387492 0.54136902 0
5.4850001 2.8341227 0.54158551 0
5.4930005 2.8294671 0.54180193 0
5.5010004 2.8247824 0.54201841 0
5.5100002 2.8206301 0.5422619 0
5.5180001 2.8158858 0.54247838 0
5.5260005 2.8111131 0.54269481 0
5.5350003 2.8068671 0.54293835 0
5.5430002 2.8020344 0.54315484 0
5.5520005 2.7977254 0.54339832 0
5.5600004 2.7928333 0.54361475 0
5.5690002 2.788461 0.54385829 0
5.5770001 2.7835093 0.54407471 0
5.5860004 2.779074 0.54431826 0
5.5940003 2.7740629 0.54453468 0
5.6030002 2.7695642 0.54477823 0
5.6120005 2.765033 0.54502177 0
5.6200004 2.7599318 0.5452382 0
5.6290002 2.7553377 0.54548168 0
5.6380005 2.750711 0.54572523 0
5.6460004 2.7455194 0.54594171 0
5.6550002 2.7408297 0.5461852 0
5.6640005 2.7361073 0.54642868 0
5.6730003 2.7313523 0.54667222 0
5.6820002 2.7265649 0.54691577 0
5.6910005 2.7217455 0.54715925 0
5.7000003 2.716893 0.54740274 0
5.7090001 2.7120082 0.54764628 0
5.7180004 2.7070913 0.54788983 0
5.7270002 2.7021415 0.54813331 0
5.7360005 2.6971595 0.5483768 0
5.7450004 2.6921449 0.54862034 0
5.7540002 2.6870975 0.54886383 0
5.7630005 2.6820183 0.54910737 0
5.7720003 2.6769063 0.54935086 0
5.7810001 2.6717618 0.5495944 0
5.7910004 2.6670883 0.54986495 0
5.8000002 2.6618769 0.55010849 0
5.8090005 2.6566334 0.55035198 0
5.8190002 2.651855 0.55062258 0
5.8280005 2.6465445 0.55086607 0
5.8370004 2.6412015 0.55110961 0
5.8470001 2.6363187 0.55138016 0
5.8560004 2.6309092 0.5516237 0
5.8660002 2.6259558 0.55189425 0
5.8750005 2.6204796 0.55213779 0
5.8850002 2.6154559 0.55240834 0
5.8940005 2.6099129 0.55265188 0
5.9040003 2.6048188 0.55292243 0
5.9140005 2.599689 0.55319297 0
5.9230003 2.5940447 0.55343652 0
5.9330006 2.5888445 0.55370712 0
5.9430003 2.5836079 0.55397767 0
6.0330005 2.5348563 0.55641282 0
6.0430002 2.5292592 0.55668336 0
6.0530005 2.5236259 0.55695391 0
5.4520001 2.8518827 0.53157973 0
5.4600005 2.8473446 0.53178179 0
5.4680004 2.8427775 0.53198385 0
5.4770002 2.8387492 0.53221107 0
5.4850001 2.8341227 0.53241313 0
5.4930005 2.8294671 0.53261513 0
5.5010004 2.8247824 0.53281718 0
5.5100002 2.8206301 0.53304446 0
5.5180001 2.8158858 0.53324646 0
5.5260005 2.8111131 0.53344852 0
5.5350003 2.8068671 0.53367579 0
5.5430002 2.8020344 0.53387779 0
5.5520005 2.7977254 0.53410506 0
5.5600004 2.7928333 0.53430712 0
5.5690002 2.788461 0.53453439 0
5.5770001 2.7835093 0.53473639 0
5.5860004 2.779074 0.53496373 0
5.5940003 2.7740629 0.53516573 0
5.6030002 2.7695642 0.535393 0
5.6120005 2.765033 0.53562027 0
5.6200004 2.7599318 0.53582233 0
5.6290002 2.7553377 0.5360496 0
5.6380005 2.750711 0.53627688 0
5.6460004 2.7455194 0.53647888 0
5.6550002 2.7408297 0.53670621 0
5.6640005 2.7361073 0.53693348 0
5.6730003 2.7313523 0.53716075 0
5.6820002 2.7265649 0.53738803 0
5.6910005 2.7217455 0.5376153 0
5.7000003 2.716893 0.53784257 0
5.7090001 2.7120082 0.53806984 0
5.7170005 2.7065735 0.5382719 0
5.7270002 2.7021415 0.53852439 0
5.7360005 2.6971595 0.53875172 0
5.7450004 2.6921449 0.53897899 0
5.7540002 2.6870975 0.53920627 0
5.7630005 2.6820183 0.53943354 0
5.7720003 2.6769063 0.53966081 0
5.7810001 2.6717618 0.53988808 0
5.7910004 2.6670883 0.54014063 0
5.8000002 2.6618769 0.5403679 0
5.8090005 2.6566334 0.54059517 0
5.8190002 2.651855 0.54084772 0
5.8280005 2.6465445 0.54107499 0
5.8370004 2.6412015 0.54130232 0
5.8470001 2.6363187 0.54155481 0
5.8560004 2.6309092 0.54178208 0
5.8660002 2.6259558 0.54203463 0
5.8750005 2.6204796 0.54226196 0
5.8850002 2.6154559 0.54251444 0
5.8940005 2.6099129 0.54274172 0
5.9040003 2.6048188 0.54299426 0
5.9140005 2.599689 0.54324681 0
5.9230003 2.5940447 0.54347408 0
5.9330006 2.5888445 0.54372662 0
5.9430003 2.5836079 0.54397917 0
6.0330005 2.5348563 0.54625195 0
6.0430002 2.5292592 0.5465045 0
6.0530005 2.5236259 0.54675698 0
5.4520001 2.8518827 0.5224669 0
5.4600005 2.8473446 0.52265453 0
5.4680004 2.8427775 0.52284211 0
5.4770002 2.8387492 0.52305317 0
5.4850001 2.8341227 0.52324075 0
5.4930005 2.8294671 0.52342838 0
5.5010004 2.8247824 0.52361596 0
5.5100002 2.8206301 0.52382696 0
5.5180001 2.8158858 0.52401459 0
5.5260005 2.8111131 0.52420223 0
5.5350003 2.8068671 0.52441323 0
5.5430002 2.8020344 0.5246008 0
5.5520005 2.7977254 0.52481186 0
5.5600004 2.7928333 0.5249995 0
5.5690002 2.788461 0.5252105 0
5.5770001 2.7835093 0.52539814 0
5.5860004 2.779074 0.52560914 0
5.5940003 2.7740629 0.52579677 0
5.6030002 2.7695642 0.52600777 0
5.6120005 2.765033 0.52621883 0
5.6200004 2.7599318 0.52640641 0
5.6290002 2.7553377 0.52661747 0
5.6380005 2.750711 0.52682853 0
5.6460004 2.7455194 0.52701616 0
5.6550002 2.7408297 0.52722716 0
5.6640005 2.7361073 0.52743822 0
5.6730003 2.7313523 0.52764928 0
5.6820002 2.7265649 0.52786028 0
5.6910005 2.7217455 0.52807134 0
5.7000003 2.716893 0.5282824 0
5.7090001 2.7120082 0.5284934 0
5.7170005 2.7065735 0.52868104 0
5.7270002 2.7021415 0.52891552 0
5.7360005 2.6971595 0.52912658 0
5.7450004 2.6921449 0.52933764 0
5.7540002 2.6870975 0.52954865 0
5.7630005 2.6820183 0.52975971 0
5.7720003 2.6769063 0.52997077 0
5.7810001 2.6717618 0.53018183 0
5.7910004 2.6670883 0.53041631 0
5.8000002 2.6618769 0.53062737 0
5.8090005 2.6566334 0.53083837 0
5.8190002 2.651855 0.53107285 0
5.8280005 2.6465445 0.53128397 0
5.8370004 2.6412015 0.53149498 0
5.8470001 2.6363187 0.53172946 0
5.8560004 2.6309092 0.53194052 0
5.8660002 2.6259558 0.532175 0
5.8750005 2.6204796 0.53238606 0
5.8850002 2.6154559 0.53262055 0
5.8940005 2.6099129 0.53283161 0
5.9040003 2.6048188 0.53306609 0
5.9140005 2.599689 0.53330064 0
5.9230003 2.5940447 0.53351164 0
5.9330006 2.5888445 0.53374612 0
5.9430003 2.5836079 0.53398061 0
6.0330005 2.5348563 0.53609109 0
6.0430002 2.5292592 0.53632557 0
6.0530005 2.5236259 0.53656006 0
5.4520001 2.8518827 0.51335406 0
5.4600005 2.8473446 0.51352727 0
5.4680004 2.8427775 0.51370043 0
5.4770002 2.8387492 0.51389521 0
5.4850001 2.8341227 0.51406837 0
5.4930005 2.8294671 0.51424158 0
5.5010004 2.8247824 0.51441473 0
5.5100002 2.8206301 0.51460952 0
5.5180001 2.8158858 0.51478267 0
5.5260005 2.8111131 0.51495588 0
5.5350003 2.8068671 0.51515067 0
5.5430002 2.8020344 0.51532388 0
5.5520005 2.7977254 0.51551867 0
5.5600004 2.7928333 0.51569182 0
5.5690002 2.788461 0.5158866 0
5.5770001 2.7835093 0.51605982 0
5.5860004 2.779074 0.5162546 0
5.5940003 2.7740629 0.51642776 0
5.6030002 2.7695642 0.5166226 0
5.6120005 2.765033 0.51681739 0
5.6200004 2.7599318 0.51699054 0
5.6290002 2.7553377 0.51718539 0
5.6380005 2.750711 0.51738018 0
5.6460004 2.7455194 0.51755333 0
5.6550002 2.7408297 0.51774818 0
5.6640005 2.7361073 0.51794297 0
5.6730003 2.7313523 0.51813781 0
5.6820002 2.7265649 0.5183326 0
5.6910005 2.7217455 0.51852739 0
5.7000003 2.716893 0.51872224 0
5.7090001 2.7120082 0.51891702 0
5.7170005 2.7065735 0.51909018 0
5.7270002 2.7021415 0.51930666 0
5.7360005 2.6971595 0.51950145 0
5.7450004 2.6921449 0.51969624 0
5.7540002 2.6870975 0.51989108 0
5.7630005 2.6820183 0.52008587 0
5.7720003 2.6769063 0.52028072 0
5.7810001 2.6717618 0.52047551 0
5.7910004 2.6670883 0.52069199 0
5.8000002 2.6618769 0.52088678 0
5.8090005 2.6566334 0.52108163 0
5.8190002 2.651855 0.52129805 0
5.8280005 2.6465445 0.52149284 0
5.8370004 2.6412015 0.52168769 0
5.8470001 2.6363187 0.52190411 0
5.8560004 2.6309092 0.52209896 0
5.8660002 2.6259558 0.52231538 0
5.8750005 2.6204796 0.52251023 0
5.8850002 2.6154559 0.52272666 0
5.8940005 2.6099129 0.5229215 0
5.9040003 2.6048188 0.52313793 0
5.9140005 2.599689 0.52335441 0
5.9230003 2.5940447 0.5235492 0
5.9330006 2.5888445 0.52376568 0
5.9430003 2.5836079 0.52398211 0
6.0330005 2.5348563 0.52593023 0
6.0430002 2.5292592 0.52614671 0
6.0530005 2.5236259 0.52636313 0
5.4520001 2.8518827 0.50424123 0
5.4600005 2.8473446 0.50440001 0
5.4680004 2.8427775 0.50455874 0
5.4770002 2.8387492 0.50473726 0
5.4850001 2.8341227 0.50489604 0
5.4930005 2.8294671 0.50505477 0
5.5010004 2.8247824 0.5052135 0
5.5100002 2.8206301 0.50539207 0
5.5180001 2.8158858 0.5055508 0
5.5260005 2.8111131 0.50570953 0
5.5350003 2.8068671 0.5058881 0
5.5430002 2.8020344 0.50604683 0
5.5520005 2.7977254 0.50622547 0
5.5600004 2.7928333 0.50638419 0
5.5690002 2.788461 0.50656277 0
5.5770001 2.7835093 0.5067215 0
5.5860004 2.779074 0.50690007 0
5.5940003 2.7740629 0.5070588 0
5.6030002 2.7695642 0.50723737 0
5.6120005 2.765033 0.50741595 0
5.6200004 2.7599318 0.50757468 0
5.6290002 2.7553377 0.50775325 0
5.6380005 2.750711 0.50793183 0
5.6460004 2.7455194 0.50809056 0
5.6550002 2.7408297 0.50826913 0
5.6640005 2.7361073 0.50844771 0
5.6730003 2.7313523 0.50862628 0
5.6820002 2.7265649 0.50880486 0
5.6910005 2.7217455 0.50898343 0
5.7000003 2.716893 0.50916201 0
5.7080002 2.7114887 0.50932074 0
5.7170005 2.7065735 0.50949937 0
5.7270002 2.7021415 0.50969774 0
5.7360005 2.6971595 0.50987637 0
5.7450004 2.6921449 0.51005495 0
5.7540002 2.6870975 0.51023352 0
5.7630005 2.6820183 0.5104121 0
5.7720003 2.6769063 0.51059067 0
5.7810001 2.6717618 0.51076925 0
5.7910004 2.6670883 0.51096761 0
5.8000002 2.6618769 0.51114619 0
5.8090005 2.6566334 0.51132482 0
5.8190002 2.651855 0.51152325 0
5.8280005 2.6465445 0.51170182 0
5.8370004 2.6412015 0.5118804 0
5.8470001 2.6363187 0.51207876 0
5.8560004 2.6309092 0.51225734 0
5.8660002 2.6259558 0.51245576 0
5.8750005 2.6204796 0.5126344 0
5.8850002 2.6154559 0.51283276 0
5.8940005 2.6099129 0.51301134 0
5.9040003 2.6048188 0.51320976 0
5.9140005 2.599689 0.51340818 0
5.9230003 2.5940447 0.51358676 0
5.9330006 2.5888445 0.51378518 0
5.9430003 2.5836079 0.51398361 0
6.0330005 2.5348563 0.51576936 0
6.0430002 2.5292592 0.51596779 0
6.0530005 2.5236259 0.51616621 0
5.4520001 2.8518827 0.49512839 0
5.4600005 2.8473446 0.49527273 0
5.4680004 2.8427775 0.49541703 0
5.4770002 2.8387492 0.49557936 0
5.4850001 2.8341227 0.49572366 0
5.4930005 2.8294671 0.49586797 0
5.5010004 2.8247824 0.49601227 0
5.5100002 2.8206301 0.4961746 0
5.5180001 2.8158858 0.49631891 0
5.5260005 2.8111131 0.49646324 0
5.5350003 2.8068671 0.49662557 0
5.5430002 2.8020344 0.49676988 0
5.5520005 2.7977254 0.49693221 0
5.5600004 2.7928333 0.49707651 0
5.5690002 2.788461 0.49723887 0
5.5770001 2.7835093 0.49738318 0
5.5860004 2.779074 0.49754551 0
5.5940003 2.7740629 0.49768981 0
5.6030002 2.7695642 0.49785215 0
5.6110005 2.7644939 0.49799645 0
5.6200004 2.7599318 0.49815881 0
5.6290002 2.7553377 0.49832115 0
5.6380005 2.750711 0.49848348 0
5.6460004 2.7455194 0.49862778 0
5.6550002 2.7408297 0.49879014 0
5.6640005 2.7361073 0.49895248 0
5.6730003 2.7313523 0.49911481 0
