# .PCD v0.7 - Point Cloud Data file format
VERSION 0.7
FIELDS x y z intensity
SIZE 4 4 4 4
TYPE F F F F
COUNT 1 1 1 1
WIDTH 1420
HEIGHT 1
VIEWPOINT 0 0 0 1 0 0 0
POINTS 1420
DATA ascii
4.2810001 0.2690261 2.0071328 0
4.283 0.26218423 2.0079589 0
4.2860003 0.25541276 2.0091982 0
4.29 0.24870619 2.0108504 0
4.2930002 0.24191123 2.0120895 0
4.296 0.23510548 2.0133288 0
4.2990003 0.22828889 2.0145681 0
4.302 0.22146145 2.0158072 0
4.3050003 0.21462321 2.0170465 0
4.3080001 0.20777416 2.0182858 0
4.3110003 0.20091429 2.0195251 0
4.3150001 0.19410489 2.0211773 0
4.3180003 0.18722157 2.0224164 0
4.3210001 0.18032743 2.0236557 0
4.3240004 0.17342244 2.024895 0
4.3270001 0.16650665 2.026134 0
4.3300004 0.15958002 2.0273733 0
4.3330002 0.15264256 2.0286126 0
4.3370004 0.14574301 2.0302649 0
4.3400002 0.13878211 2.0315042 0
4.3429999 0.1318104 2.0327432 0
4.3460002 0.12482785 2.0339825 0
4.349 0.11783448 2.0352216 0
4.3530002 0.11086999 2.0368738 0
4.3559999 0.10385317 2.0381131 0
4.3590002 0.096825525 2.0393524 0
4.362 0.089787066 2.0405915 0
4.3660002 0.082770258 2.0422437 0
4.369 0.075708345 2.043483 0
4.3720002 0.068635613 2.0447223 0
4.375 0.061552066 2.0459614 0
4.3780003 0.054457683 2.0472007 0
4.382 0.047375936 2.0488532 0
4.3850002 0.040258106 2.0500922 0
4.388 0.033129457 2.0513315 0
4.3920002 0.026008021 2.0529838 0
4.395 0.018855926 2.0542231 0
4.3980002 0.011693001 2.0554621 0
4.4010005 0.0045192614 2.0567014 0
4.4050002 -0.0026544891 2.0583537 0
4.4080005 -0.0098516829 2.059593 0
4.4110003 -0.017059701 2.060832 0
4.4150004 -0.024273129 2.0624845 0
4.4180002 -0.031504598 2.0637236 0
4.4210005 -0.038746886 2.0649629 0
4.4240003 -0.046 2.0662019 0
4.4280005 -0.053265739 2.0678544 0
4.4310002 -0.0605423 2.0690937 0
4.4340005 -0.067829691 2.0703328 0
4.4380002 -0.075135112 2.071985 0
4.4410005 -0.082445949 2.0732243 0
4.4450002 -0.089778423 2.0748765 0
4.4480004 -0.097112715 2.0761158 0
4.4510002 -0.10445782 2.0773549 0
4.4550004 -0.11182998 2.0790074 0
4.4580002 -0.11919853 2.0802464 0
4.4610004 -0.12657793 2.0814857 0
4.4650002 -0.13398977 2.083138 0
4.4680004 -0.14139259 2.0843773 0
4.4720001 -0.14883149 2.0860293 0
4.4750004 -0.15625778 2.0872688 0
4.4780002 -0.16369487 2.0885079 0
4.4820004 -0.17117347 2.0901604 0
4.4850001 -0.17863402 2.0913994 0
4.4890003 -0.18613967 2.0930517 0
4.4920001 -0.19362366 2.094291 0
4.4960003 -0.20115638 2.0959432 0
4.4990001 -0.20866382 2.0971825 0
4.5020003 -0.2161821 2.0984216 0
4.5060005 -0.22375448 2.1000741 0
4.5090003 -0.23129621 2.1013131 0
4.5130005 -0.23889565 2.1029656 0
4.5160003 -0.24646081 2.1042047 0
4.5200005 -0.25408733 2.1058571 0
4.5230002 -0.26167592 2.1070962 0
4.5270004 -0.26932952 2.1087484 0
4.5300002 -0.27694154 2.1099877 0
4.5340004 -0.28462219 2.11164 0
4.5370002 -0.29225767 2.1128793 0
4.5410004 -0.29996538 2.1145315 0
4.5440001 -0.30762434 2.1157706 0
4.5480003 -0.31535909 2.1174231 0
4.5510001 -0.3230415 2.1186621 0
4.5550003 -0.3308033 2.1203146 0
4.5580001 -0.33850914 2.1215537 0
4.5620003 -0.34629801 2.1232059 0
4.5660005 -0.35410127 2.1248584 0
4.5690002 -0.36184323 2.1260974 0
4.5730004 -0.36967355 2.1277499 0
4.5710001 -0.37704208 2.1269236 0
4.5660005 -0.38415995 2.1248584 0
4.5610003 -0.39125973 2.122793 0
4.5560002 -0.39834145 2.1207275 0
4.5670004 -0.40679052 2.1252713 0
4.6050005 -0.44042072 2.1409681 0
4.6090002 -0.44838813 2.1426203 0
4.6120005 -0.45627257 2.1438596 0
4.2980003 0.2844685 2.0071237 0
4.2980003 0.27743724 2.0071237 0
4.2980003 0.27040598 2.0071237 0
4.2980003 0.26337475 2.0071237 0
4.2980003 0.25634351 2.0071237 0
4.2980003 0.24931225 2.0071237 0
4.2980003 0.24228102 2.0071237 0
4.2980003 0.23524979 2.0071237 0
4.2990003 0.22828889 2.007535 0
4.302 0.22146145 2.0087688 0
4.3050003 0.21462321 2.0100026 0
4.3080001 0.20777416 2.0112364 0
4.3110003 0.20091429 2.0124702 0
4.3150001 0.19410489 2.0141153 0
4.3180003 0.18722157 2.0153491 0
4.3210001 0.18032743 2.016583 0
4.3240004 0.17342244 2.0178168 0
4.3270001 0.16650665 2.0190506 0
4.3300004 0.15958002 2.0202844 0
4.3330002 0.15264256 2.021518 0
4.3370004 0.14574301 2.0231633 0
4.3400002 0.13878211 2.0243971 0
4.3429999 0.1318104 2.0256307 0
4.3460002 0.12482785 2.0268645 0
4.349 0.11783448 2.0280983 0
4.3530002 0.11086999 2.0297434 0
4.3559999 0.10385317 2.0309772 0
4.3590002 0.096825525 2.0322111 0
4.362 0.089787066 2.0334449 0
4.3660002 0.082770258 2.03509 0
4.369 0.075708345 2.0363238 0
4.3720002 0.068635613 2.0375576 0
4.375 0.061552066 2.0387914 0
4.3780003 0.054457683 2.0400252 0
4.382 0.047375936 2.0416701 0
4.3850002 0.040258106 2.0429041 0
4.388 0.033129457 2.044138 0
4.3920002 0.026008021 2.0457828 0
4.395 0.018855926 2.0470169 0
4.3980002 0.011693001 2.0482504 0
4.4010005 0.0045192614 2.0494845 0
4.4050002 -0.0026544891 2.0511293 0
4.4080005 -0.0098516829 2.0523634 0
4.4110003 -0.017059701 2.053597 0
4.4150004 -0.024273129 2.0552423 0
4.4180002 -0.031504598 2.0564759 0
4.4210005 -0.038746886 2.0577097 0
4.4240003 -0.046 2.0589435 0
4.4280005 -0.053265739 2.0605886 0
4.4310002 -0.0605423 2.0618224 0
4.4340005 -0.067829691 2.0630562 0
4.4380002 -0.075135112 2.0647013 0
4.4410005 -0.082445949 2.0659351 0
4.4450002 -0.089778423 2.06758 0
4.4480004 -0.097112715 2.068814 0
4.4510002 -0.10445782 2.0700479 0
4.4550004 -0.11182998 2.0716929 0
4.4580002 -0.11919853 2.0729265 0
4.4610004 -0.12657793 2.0741606 0
4.4650002 -0.13398977 2.0758054 0
4.4680004 -0.14139259 2.0770395 0
4.4720001 -0.14883149 2.0786843 0
4.4750004 -0.15625778 2.0799181 0
4.4780002 -0.16369487 2.081152 0
4.4820004 -0.17117347 2.0827971 0
4.4850001 -0.17863402 2.0840309 0
4.4890003 -0.18613967 2.085676 0
4.4920001 -0.19362366 2.0869098 0
4.4960003 -0.20115638 2.0885549 0
4.4990001 -0.20866382 2.0897887 0
4.5020003 -0.2161821 2.0910225 0
4.5060005 -0.22375448 2.0926676 0
4.5090003 -0.23129621 2.0939014 0
4.5130005 -0.23889565 2.0955465 0
4.5160003 -0.24646081 2.0967803 0
4.5200005 -0.25408733 2.0984254 0
4.5230002 -0.26167592 2.099659 0
4.5270004 -0.26932952 2.1013043 0
4.5300002 -0.27694154 2.1025379 0
4.5340004 -0.28462219 2.104183 0
4.5370002 -0.29225767 2.1054168 0
4.5410004 -0.29996538 2.1070619 0
4.5440001 -0.30762434 2.1082957 0
4.5480003 -0.31535909 2.1099408 0
4.5510001 -0.3230415 2.1111746 0
4.5550003 -0.3308033 2.1128197 0
4.5580001 -0.33850914 2.1140535 0
4.5620003 -0.34629801 2.1156986 0
4.5660005 -0.35410127 2.1173437 0
4.5690002 -0.36184323 2.1185775 0
4.5730004 -0.36967355 2.1202226 0
4.5710001 -0.37704208 2.1193998 0
4.5660005 -0.38415995 2.1173437 0
4.5610003 -0.39125973 2.1152873 0
4.5560002 -0.39834145 2.1132309 0
4.5670004 -0.40679052 2.1177549 0
4.6050005 -0.44042072 2.1333833 0
4.6090002 -0.44838813 2.1350281 0
4.6120005 -0.45627257 2.1362619 0
4.316 0.24361223 2.0074627 0
4.316 0.23654851 2.0074627 0
4.316 0.2294848 2.0074627 0
4.316 0.22242108 2.0074627 0
4.316 0.21535736 2.0074627 0
4.316 0.20829365 2.0074627 0
4.316 0.20122993 2.0074627 0
4.316 0.19416623 2.0074627 0
4.3180003 0.18722157 2.0082817 0
4.3210001 0.18032743 2.0095103 0
4.3240004 0.17342244 2.0107386 0
4.3270001 0.16650665 2.0119669 0
4.3300004 0.15958002 2.0131953 0
4.3330002 0.15264256 2.0144236 0
4.3370004 0.14574301 2.0160615 0
4.3400002 0.13878211 2.0172901 0
4.3429999 0.1318104 2.0185184 0
4.3460002 0.12482785 2.0197468 0
4.349 0.11783448 2.0209751 0
4.3530002 0.11086999 2.022613 0
4.3559999 0.10385317 2.0238414 0
4.3590002 0.096825525 2.02507 0
4.362 0.089787066 2.0262983 0
4.3660002 0.082770258 2.027936 0
4.369 0.075708345 2.0291643 0
4.3720002 0.068635613 2.0303929 0
4.375 0.061552066 2.0316212 0
4.3780003 0.054457683 2.0328496 0
4.382 0.047375936 2.0344875 0
4.3850002 0.040258106 2.0357158 0
4.388 0.033129457 2.0369444 0
4.3920002 0.026008021 2.0385821 0
4.395 0.018855926 2.0398107 0
4.3980002 0.011693001 2.041039 0
4.4010005 0.0045192614 2.0422676 0
4.4050002 -0.0026544891 2.043905 0
4.4080005 -0.0098516829 2.0451336 0
4.4110003 -0.017059701 2.0463619 0
4.4150004 -0.024273129 2.0479999 0
4.4180002 -0.031504598 2.0492282 0
4.4210005 -0.038746886 2.0504568 0
4.4240003 -0.046 2.0516851 0
4.4280005 -0.053265739 2.053323 0
4.4310002 -0.0605423 2.0545514 0
4.4340005 -0.067829691 2.0557797 0
4.4380002 -0.075135112 2.0574174 0
4.4410005 -0.082445949 2.058646 0
4.4450002 -0.089778423 2.0602837 0
4.4480004 -0.097112715 2.0615122 0
4.4510002 -0.10445782 2.0627406 0
4.4550004 -0.11182998 2.0643785 0
4.4580002 -0.11919853 2.0656068 0
4.4610004 -0.12657793 2.0668354 0
4.4650002 -0.13398977 2.0684729 0
4.4680004 -0.14139259 2.0697014 0
4.4720001 -0.14883149 2.0713391 0
4.4750004 -0.15625778 2.0725677 0
4.4780002 -0.16369487 2.073796 0
4.4820004 -0.17117347 2.075434 0
4.4850001 -0.17863402 2.0766623 0
4.4890003 -0.18613967 2.0783002 0
4.4920001 -0.19362366 2.0795286 0
4.4960003 -0.20115638 2.0811665 0
4.4990001 -0.20866382 2.0823948 0
4.5020003 -0.2161821 2.0836232 0
4.5060005 -0.22375448 2.0852611 0
4.5090003 -0.23129621 2.0864894 0
4.5130005 -0.23889565 2.0881274 0
4.5160003 -0.24646081 2.0893557 0
4.5200005 -0.25408733 2.0909936 0
4.5230002 -0.26167592 2.092222 0
4.5270004 -0.26932952 2.0938599 0
4.5300002 -0.27694154 2.0950882 0
4.5340004 -0.28462219 2.0967262 0
4.5370002 -0.29225767 2.0979545 0
4.5410004 -0.29996538 2.0995924 0
4.5440001 -0.30762434 2.1008205 0
4.5480003 -0.31535909 2.1024587 0
4.5510001 -0.3230415 2.1036868 0
4.5550003 -0.3308033 2.105325 0
4.5580001 -0.33850914 2.1065533 0
4.5620003 -0.34629801 2.108191 0
4.5660005 -0.35410127 2.1098289 0
4.5690002 -0.36184323 2.1110573 0
4.5730004 -0.36967355 2.1126952 0
4.5710001 -0.37704208 2.1118762 0
4.5660005 -0.38415995 2.1098289 0
4.5610003 -0.39125973 2.1077816 0
4.5560002 -0.39834145 2.1057343 0
4.5670004 -0.40679052 2.1102386 0
4.6050005 -0.44042072 2.1257982 0
4.6090002 -0.44838813 2.1274359 0
4.6120005 -0.45627257 2.1286645 0
4.3330002 0.2023032 2.0073292 0
4.3330002 0.19520883 2.0073292 0
4.3330002 0.18811445 2.0073292 0
4.3330002 0.18102008 2.0073292 0
4.3330002 0.1739257 2.0073292 0
4.3330002 0.16683133 2.0073292 0
4.3330002 0.15973695 2.0073292 0
4.3330002 0.15264256 2.0073292 0
4.3370004 0.14574301 2.00896 0
4.3400002 0.13878211 2.0101831 0
4.3429999 0.1318104 2.0114059 0
4.3460002 0.12482785 2.0126288 0
4.349 0.11783448 2.0138519 0
4.3530002 0.11086999 2.0154824 0
4.3559999 0.10385317 2.0167055 0
4.3590002 0.096825525 2.0179284 0
4.362 0.089787066 2.0191514 0
4.3660002 0.082770258 2.0207822 0
4.369 0.075708345 2.0220051 0
4.3720002 0.068635613 2.0232279 0
4.375 0.061552066 2.024451 0
4.3780003 0.054457683 2.0256741 0
4.382 0.047375936 2.0273046 0
4.3850002 0.040258106 2.0285277 0
4.388 0.033129457 2.0297506 0
4.3920002 0.026008021 2.0313814 0
4.395 0.018855926 2.0326045 0
4.3980002 0.011693001 2.0338273 0
4.4010005 0.0045192614 2.0350504 0
4.4050002 -0.0026544891 2.0366809 0
4.4080005 -0.0098516829 2.037904 0
4.4110003 -0.017059701 2.0391269 0
4.4150004 -0.024273129 2.0407577 0
4.4180002 -0.031504598 2.0419805 0
4.4210005 -0.038746886 2.0432036 0
4.4240003 -0.046 2.0444264 0
4.4280005 -0.053265739 2.0460572 0
4.4310002 -0.0605423 2.0472801 0
4.4340005 -0.067829691 2.0485032 0
4.4380002 -0.075135112 2.0501337 0
4.4410005 -0.082445949 2.0513568 0
4.4450002 -0.089778423 2.0529873 0
4.4480004 -0.097112715 2.0542104 0
4.4510002 -0.10445782 2.0554333 0
4.4550004 -0.11182998 2.0570641 0
4.4580002 -0.11919853 2.0582869 0
4.4610004 -0.12657793 2.05951 0
4.4650002 -0.13398977 2.0611405 0
4.4680004 -0.14139259 2.0623636 0
4.4720001 -0.14883149 2.0639942 0
4.4750004 -0.15625778 2.0652173 0
4.4780002 -0.16369487 2.0664401 0
4.4820004 -0.17117347 2.0680709 0
4.4850001 -0.17863402 2.0692937 0
4.4890003 -0.18613967 2.0709245 0
4.4920001 -0.19362366 2.0721474 0
4.4960003 -0.20115638 2.0737782 0
4.4990001 -0.20866382 2.075001 0
4.5020003 -0.2161821 2.0762241 0
4.5060005 -0.22375448 2.0778549 0
4.5090003 -0.23129621 2.0790777 0
4.5130005 -0.23889565 2.0807083 0
4.5160003 -0.24646081 2.0819314 0
4.5200005 -0.25408733 2.0835619 0
4.5230002 -0.26167592 2.084785 0
4.5270004 -0.26932952 2.0864155 0
4.5300002 -0.27694154 2.0876384 0
4.5340004 -0.28462219 2.0892692 0
4.5370002 -0.29225767 2.090492 0
4.5410004 -0.29996538 2.0921228 0
4.5440001 -0.30762434 2.0933456 0
4.5480003 -0.31535909 2.0949764 0
4.5510001 -0.3230415 2.0961993 0
4.5550003 -0.3308033 2.0978301 0
4.5580001 -0.33850914 2.0990529 0
4.5620003 -0.34629801 2.1006837 0
4.5660005 -0.35410127 2.1023145 0
4.5690002 -0.36184323 2.1035373 0
4.5730004 -0.36967355 2.1051681 0
4.5710001 -0.37704208 2.1043525 0
4.5660005 -0.38415995 2.1023145 0
4.5610003 -0.39125973 2.100276 0
4.5560002 -0.39834145 2.0982378 0
4.5670004 -0.40679052 2.1027219 0
4.6050005 -0.44042072 2.1182132 0
4.6090002 -0.44838813 2.1198437 0
4.6120005 -0.45627257 2.1210668 0
4.3500004 0.16062623 2.0071347 0
4.3500004 0.15350118 2.0071347 0
4.3500004 0.14637615 2.0071347 0
4.3500004 0.1392511 2.0071347 0
4.3500004 0.13212606 2.0071347 0
4.3500004 0.12500101 2.0071347 0
4.3500004 0.11787598 2.0071347 0
4.3530002 0.11086999 2.008352 0
4.3559999 0.10385317 2.0095696 0
4.3590002 0.096825525 2.0107872 0
4.362 0.089787066 2.0120049 0
4.3660002 0.082770258 2.0136282 0
4.369 0.075708345 2.0148458 0
4.3720002 0.068635613 2.0160635 0
4.375 0.061552066 2.0172811 0
4.3780003 0.054457683 2.0184987 0
4.382 0.047375936 2.0201218 0
4.3850002 0.040258106 2.0213394 0
4.388 0.033129457 2.022557 0
4.3920002 0.026008021 2.0241804 0
4.395 0.018855926 2.025398 0
4.3980002 0.011693001 2.0266156 0
4.4010005 0.0045192614 2.0278335 0
4.4050002 -0.0026544891 2.0294566 0
4.4080005 -0.0098516829 2.0306745 0
4.4110003 -0.017059701 2.0318918 0
4.4150004 -0.024273129 2.0335152 0
4.4180002 -0.031504598 2.0347328 0
4.4210005 -0.038746886 2.0359504 0
4.4240003 -0.046 2.037168 0
4.4280005 -0.053265739 2.0387914 0
4.4310002 -0.0605423 2.040009 0
4.4340005 -0.067829691 2.0412266 0
4.4380002 -0.075135112 2.04285 0
4.4410005 -0.082445949 2.0440676 0
4.4450002 -0.089778423 2.0456908 0
4.4480004 -0.097112715 2.0469086 0
4.4510002 -0.10445782 2.048126 0
4.4550004 -0.11182998 2.0497496 0
4.4580002 -0.11919853 2.0509672 0
4.4610004 -0.12657793 2.0521848 0
4.4650002 -0.13398977 2.053808 0
4.4680004 -0.14139259 2.0550256 0
4.4720001 -0.14883149 2.056649 0
4.4750004 -0.15625778 2.0578666 0
4.4780002 -0.16369487 2.0590842 0
4.4820004 -0.17117347 2.0607078 0
4.4850001 -0.17863402 2.0619252 0
4.4890003 -0.18613967 2.0635486 0
4.4920001 -0.19362366 2.0647662 0
4.4960003 -0.20115638 2.0663896 0
4.4990001 -0.20866382 2.0676072 0
4.5020003 -0.2161821 2.0688248 0
4.5060005 -0.22375448 2.0704484 0
4.5090003 -0.23129621 2.0716658 0
4.5130005 -0.23889565 2.0732894 0
4.5160003 -0.24646081 2.0745068 0
4.5200005 -0.25408733 2.0761302 0
4.5230002 -0.26167592 2.0773478 0
4.5270004 -0.26932952 2.0789711 0
4.5300002 -0.27694154 2.0801888 0
4.5340004 -0.28462219 2.0818124 0
4.5370002 -0.29225767 2.0830297 0
4.5410004 -0.29996538 2.0846531 0
4.5440001 -0.30762434 2.0858707 0
4.5480003 -0.31535909 2.0874941 0
4.5510001 -0.3230415 2.0887117 0
4.5550003 -0.3308033 2.0903351 0
4.5580001 -0.33850914 2.0915527 0
4.5620003 -0.34629801 2.0931761 0
4.5660005 -0.35410127 2.0947998 0
4.5690002 -0.36184323 2.0960171 0
4.5730004 -0.36967355 2.0976408 0
4.5710001 -0.37704208 2.0968287 0
4.5660005 -0.38415995 2.0947998 0
4.5610003 -0.39125973 2.0927703 0
4.5560002 -0.39834145 2.0907412 0
4.5670004 -0.40679052 2.0952055 0
4.6050005 -0.44042072 2.1106281 0
4.6090002 -0.44838813 2.1122515 0
4.6120005 -0.45627257 2.1134691 0
4.368 0.11862275 2.0072825 0
4.368 0.11146525 2.0072825 0
4.368 0.10430773 2.0072825 0
4.368 0.097150207 2.0072825 0
4.368 0.089992717 2.0072825 0
4.368 0.082835197 2.0072825 0
4.369 0.075708345 2.0076864 0
4.3720002 0.068635613 2.0088987 0
4.375 0.061552066 2.0101109 0
4.3780003 0.054457683 2.011323 0
4.382 0.047375936 2.0129392 0
4.3850002 0.040258106 2.0141513 0
4.388 0.033129457 2.0153635 0
4.3920002 0.026008021 2.0169797 0
4.395 0.018855926 2.0181918 0
4.3980002 0.011693001 2.0194039 0
4.4010005 0.0045192614 2.0206163 0
4.4050002 -0.0026544891 2.0222323 0
4.4080005 -0.0098516829 2.0234447 0
4.4110003 -0.017059701 2.0246568 0
4.4150004 -0.024273129 2.026273 0
4.4180002 -0.031504598 2.0274851 0
4.4210005 -0.038746886 2.0286975 0
4.4240003 -0.046 2.0299094 0
4.4280005 -0.053265739 2.0315259 0
4.4310002 -0.0605423 2.0327377 0
4.4340005 -0.067829691 2.0339501 0
4.4380002 -0.075135112 2.0355661 0
4.4410005 -0.082445949 2.0367785 0
4.4450002 -0.089778423 2.0383945 0
4.4480004 -0.097112715 2.0396068 0
4.4510002 -0.10445782 2.0408187 0
4.4550004 -0.11182998 2.0424352 0
4.4580002 -0.11919853 2.0436471 0
4.4610004 -0.12657793 2.0448594 0
4.4650002 -0.13398977 2.0464754 0
4.4680004 -0.14139259 2.0476878 0
4.4720001 -0.14883149 2.0493038 0
4.4750004 -0.15625778 2.0505161 0
4.4780002 -0.16369487 2.0517282 0
4.4820004 -0.17117347 2.0533445 0
4.4850001 -0.17863402 2.0545566 0
4.4890003 -0.18613967 2.0561728 0
4.4920001 -0.19362366 2.057385 0
4.4960003 -0.20115638 2.0590012 0
4.4990001 -0.20866382 2.0602133 0
4.5020003 -0.2161821 2.0614254 0
4.5060005 -0.22375448 2.0630419 0
4.5090003 -0.23129621 2.0642538 0
4.5130005 -0.23889565 2.0658703 0
4.5160003 -0.24646081 2.0670822 0
4.5200005 -0.25408733 2.0686986 0
4.5230002 -0.26167592 2.0699105 0
4.5270004 -0.26932952 2.071527 0
4.5300002 -0.27694154 2.0727389 0
4.5340004 -0.28462219 2.0743554 0
4.5370002 -0.29225767 2.0755672 0
4.5410004 -0.29996538 2.0771837 0
4.5440001 -0.30762434 2.0783956 0
4.5480003 -0.31535909 2.0800121 0
4.5510001 -0.3230415 2.081224 0
4.5550003 -0.3308033 2.0828404 0
4.5580001 -0.33850914 2.0840523 0
4.5620003 -0.34629801 2.0856688 0
4.5660005 -0.35410127 2.087285 0
4.5690002 -0.36184323 2.0884972 0
4.5730004 -0.36967355 2.0901134 0
4.5710001 -0.37704208 2.0893052 0
4.5660005 -0.38415995 2.087285 0
4.5610003 -0.39125973 2.0852647 0
4.5560002 -0.39834145 2.0832443 0
4.5670004 -0.40679052 2.0876892 0
4.6050005 -0.44042072 2.1030431 0
4.6090002 -0.44838813 2.1046593 0
4.6120005 -0.45627257 2.1058714 0
4.3860002 0.076229662 2.0073655 0
4.3860002 0.069039673 2.0073655 0
4.3860002 0.061849695 2.0073655 0
4.3860002 0.054659721 2.0073655 0
4.3860002 0.047469739 2.0073655 0
4.3860002 0.040279757 2.0073655 0
4.388 0.033129457 2.0081699 0
4.3920002 0.026008021 2.009779 0
4.395 0.018855926 2.0109856 0
4.3980002 0.011693001 2.0121925 0
4.4010005 0.0045192614 2.0133994 0
4.4050002 -0.0026544891 2.0150082 0
4.4080005 -0.0098516829 2.0162148 0
4.4110003 -0.017059701 2.0174217 0
4.4150004 -0.024273129 2.0190308 0
4.4180002 -0.031504598 2.0202374 0
4.4210005 -0.038746886 2.0214443 0
4.4240003 -0.046 2.022651 0
4.4280005 -0.053265739 2.02426 0
4.4310002 -0.0605423 2.0254667 0
4.4340005 -0.067829691 2.0266736 0
4.4380002 -0.075135112 2.0282824 0
4.4410005 -0.082445949 2.0294893 0
4.4450002 -0.089778423 2.0310981 0
4.4480004 -0.097112715 2.032305 0
4.4510002 -0.10445782 2.0335116 0
4.4550004 -0.11182998 2.0351207 0
4.4580002 -0.11919853 2.0363274 0
4.4610004 -0.12657793 2.0375342 0
4.4650002 -0.13398977 2.0391431 0
4.4680004 -0.14139259 2.04035 0
4.4720001 -0.14883149 2.0419588 0
4.4750004 -0.15625778 2.0431657 0
4.4780002 -0.16369487 2.0443723 0
4.4820004 -0.17117347 2.0459814 0
4.4850001 -0.17863402 2.047188 0
4.4890003 -0.18613967 2.0487971 0
4.4920001 -0.19362366 2.0500038 0
4.4960003 -0.20115638 2.0516129 0
4.4990001 -0.20866382 2.0528195 0
4.5020003 -0.2161821 2.0540264 0
4.5060005 -0.22375448 2.0556355 0
4.5090003 -0.23129621 2.0568421 0
4.5130005 -0.23889565 2.0584512 0
4.5160003 -0.24646081 2.0596578 0
4.5200005 -0.25408733 2.0612669 0
4.5230002 -0.26167592 2.0624735 0
4.5270004 -0.26932952 2.0640826 0
4.5300002 -0.27694154 2.0652893 0
4.5340004 -0.28462219 2.0668983 0
4.5370002 -0.29225767 2.068105 0
4.5410004 -0.29996538 2.0697141 0
4.5440001 -0.30762434 2.0709207 0
4.5480003 -0.31535909 2.0725298 0
4.5510001 -0.3230415 2.0737364 0
4.5550003 -0.3308033 2.0753455 0
4.5580001 -0.33850914 2.0765522 0
4.5620003 -0.34629801 2.0781612 0
4.5660005 -0.35410127 2.0797703 0
4.5690002 -0.36184323 2.080977 0
4.5730004 -0.36967355 2.0825861 0
4.5710001 -0.37704208 2.0817814 0
4.5660005 -0.38415995 2.0797703 0
4.5610003 -0.39125973 2.077759 0
4.5560002 -0.39834145 2.0757477 0
4.5670004 -0.40679052 2.0801725 0
4.6050005 -0.44042072 2.095458 0
4.6090002 -0.44838813 2.0970669 0
4.6120005 -0.45627257 2.0982738 0
4.4040003 0.040669378 2.0073836 0
4.4040003 0.033446934 2.0073836 0
4.4040003 0.026224483 2.0073836 0
4.4040003 0.019002039 2.0073836 0
4.4040003 0.011779584 2.0073836 0
4.4040003 0.0045571364 2.0073836 0
4.4050002 -0.0026544891 2.0077839 0
4.4080005 -0.0098516829 2.0089853 0
4.4110003 -0.017059701 2.0101864 0
4.4150004 -0.024273129 2.0117884 0
4.4180002 -0.031504598 2.0129898 0
4.4210005 -0.038746886 2.0141912 0
4.4240003 -0.046 2.0153925 0
4.4280005 -0.053265739 2.0169942 0
4.4310002 -0.0605423 2.0181954 0
4.4340005 -0.067829691 2.019397 0
4.4380002 -0.075135112 2.0209987 0
4.4410005 -0.082445949 2.0221999 0
4.4450002 -0.089778423 2.0238016 0
4.4480004 -0.097112715 2.0250032 0
4.4510002 -0.10445782 2.0262043 0
4.4550004 -0.11182998 2.0278063 0
4.4580002 -0.11919853 2.0290074 0
4.4610004 -0.12657793 2.0302088 0
4.4650002 -0.13398977 2.0318105 0
4.4680004 -0.14139259 2.0330119 0
4.4720001 -0.14883149 2.0346136 0
4.4750004 -0.15625778 2.0358152 0
4.4780002 -0.16369487 2.0370164 0
4.4820004 -0.17117347 2.0386183 0
4.4850001 -0.17863402 2.0398195 0
4.4890003 -0.18613967 2.0414214 0
4.4920001 -0.19362366 2.0426226 0
4.4960003 -0.20115638 2.0442245 0
4.4990001 -0.20866382 2.0454257 0
4.5020003 -0.2161821 2.046627 0
4.5060005 -0.22375448 2.048229 0
4.5090003 -0.23129621 2.0494304 0
4.5130005 -0.23889565 2.0510321 0
4.5160003 -0.24646081 2.0522332 0
4.5200005 -0.25408733 2.0538352 0
4.5230002 -0.26167592 2.0550365 0
4.5270004 -0.26932952 2.0566382 0
4.5300002 -0.27694154 2.0578396 0
4.5340004 -0.28462219 2.0594413 0
4.5370002 -0.29225767 2.0606427 0
4.5410004 -0.29996538 2.0622447 0
4.5440001 -0.30762434 2.0634458 0
4.5480003 -0.31535909 2.0650477 0
4.5510001 -0.3230415 2.0662489 0
4.5550003 -0.3308033 2.0678508 0
4.5580001 -0.33850914 2.069052 0
4.5620003 -0.34629801 2.0706539 0
4.5660005 -0.35410127 2.0722556 0
4.5690002 -0.36184323 2.073457 0
4.5730004 -0.36967355 2.0750587 0
4.5710001 -0.37704208 2.0742579 0
4.5660005 -0.38415995 2.0722556 0
4.5610003 -0.39125973 2.0702534 0
4.5560002 -0.39834145 2.0682511 0
4.5670004 -0.40679052 2.0726562 0
4.6050005 -0.44042072 2.087873 0
4.6090002 -0.44838813 2.0894747 0
4.6120005 -0.45627257 2.0906763 0
4.4220004 -0.002470497 2.0073366 0
4.4220004 -0.0097254179 2.0073366 0
4.4220004 -0.016980333 2.0073366 0
4.4220004 -0.024235249 2.0073366 0
4.4220004 -0.031490166 2.0073366 0
4.4220004 -0.038745083 2.0073366 0
4.4240003 -0.046 2.0081339 0
4.4280005 -0.053265739 2.0097284 0
4.4310002 -0.0605423 2.0109243 0
4.4340005 -0.067829691 2.0121205 0
4.4380002 -0.075135112 2.0137148 0
4.4410005 -0.082445949 2.0149109 0
4.4450002 -0.089778423 2.0165052 0
4.4480004 -0.097112715 2.0177014 0
4.4510002 -0.10445782 2.0188971 0
4.4550004 -0.11182998 2.0204918 0
4.4580002 -0.11919853 2.0216875 0
4.4610004 -0.12657793 2.0228837 0
4.4650002 -0.13398977 2.024478 0
4.4680004 -0.14139259 2.0256741 0
4.4720001 -0.14883149 2.0272686 0
4.4750004 -0.15625778 2.0284646 0
4.4780002 -0.16369487 2.0296605 0
4.4820004 -0.17117347 2.031255 0
4.4850001 -0.17863402 2.0324509 0
4.4890003 -0.18613967 2.0340457 0
4.4920001 -0.19362366 2.0352414 0
4.4960003 -0.20115638 2.0368361 0
4.4990001 -0.20866382 2.0380318 0
4.5020003 -0.2161821 2.039228 0
4.5060005 -0.22375448 2.0408225 0
4.5090003 -0.23129621 2.0420184 0
4.5130005 -0.23889565 2.043613 0
4.5160003 -0.24646081 2.0448089 0
4.5200005 -0.25408733 2.0464034 0
4.5230002 -0.26167592 2.0475993 0
4.5270004 -0.26932952 2.0491941 0
4.5300002 -0.27694154 2.0503898 0
4.5340004 -0.28462219 2.0519845 0
4.5370002 -0.29225767 2.0531805 0
4.5410004 -0.29996538 2.054775 0
4.5440001 -0.30762434 2.0559709 0
4.5480003 -0.31535909 2.0575655 0
4.5510001 -0.3230415 2.0587614 0
4.5550003 -0.3308033 2.0603559 0
4.5580001 -0.33850914 2.0615518 0
4.5620003 -0.34629801 2.0631464 0
4.5660005 -0.35410127 2.0647411 0
4.5690002 -0.36184323 2.065937 0
4.5730004 -0.36967355 2.0675316 0
4.5710001 -0.37704208 2.0667341 0
4.5660005 -0.38415995 2.0647411 0
4.5610003 -0.39125973 2.0627477 0
4.5560002 -0.39834145 2.0607545 0
4.5670004 -0.40679052 2.0651395 0
4.6050005 -0.44042072 2.0802882 0
4.6090002 -0.44838813 2.0818825 0
4.6120005 -0.45627257 2.0830786 0
4.4400001 -0.053287387 2.0072246 0
4.4400001 -0.06057477 2.0072246 0
4.4400001 -0.067862153 2.0072246 0
4.4450002 -0.089778423 2.0092089 0
4.4480004 -0.097112715 2.0103996 0
4.4510002 -0.10445782 2.01159 0
4.4550004 -0.11182998 2.0131774 0
4.4580002 -0.11919853 2.0143678 0
4.4610004 -0.12657793 2.0155585 0
4.4650002 -0.13398977 2.0171456 0
4.4680004 -0.14139259 2.0183363 0
4.4720001 -0.14883149 2.0199234 0
4.4750004 -0.15625778 2.0211141 0
4.4780002 -0.16369487 2.0223045 0
4.4820004 -0.17117347 2.0238919 0
4.4850001 -0.17863402 2.0250823 0
4.4890003 -0.18613967 2.0266697 0
4.4920001 -0.19362366 2.0278602 0
4.4960003 -0.20115638 2.0294478 0
4.4990001 -0.20866382 2.030638 0
4.5020003 -0.2161821 2.0318286 0
4.5060005 -0.22375448 2.033416 0
4.5090003 -0.23129621 2.0346065 0
4.5130005 -0.23889565 2.0361941 0
4.5160003 -0.24646081 2.0373843 0
4.5200005 -0.25408733 2.0389719 0
4.5230002 -0.26167592 2.0401623 0
4.5270004 -0.26932952 2.0417497 0
4.5300002 -0.27694154 2.0429401 0
4.5340004 -0.28462219 2.0445275 0
4.5370002 -0.29225767 2.045718 0
4.5410004 -0.29996538 2.0473053 0
4.5440001 -0.30762434 2.0484958 0
4.5480003 -0.31535909 2.0500832 0
4.5510001 -0.3230415 2.0512738 0
4.5550003 -0.3308033 2.052861 0
4.5580001 -0.33850914 2.0540516 0
4.5620003 -0.34629801 2.0556388 0
4.5660005 -0.35410127 2.0572264 0
4.5690002 -0.36184323 2.0584168 0
4.5730004 -0.36967355 2.0600042 0
4.5710001 -0.37704208 2.0592103 0
4.5660005 -0.38415995 2.0572264 0
4.5610003 -0.39125973 2.0552421 0
4.5560002 -0.39834145 2.0532579 0
4.5670004 -0.40679052 2.0576231 0
4.6050005 -0.44042072 2.0727031 0
4.6090002 -0.44838813 2.0742903 0
4.6120005 -0.45627257 2.0754809 0
4.4590001 -0.097251602 2.007443 0
4.4590001 -0.10457326 2.007443 0
4.4650002 -0.13398977 2.0098131 0
4.4680004 -0.14139259 2.0109985 0
4.4720001 -0.14883149 2.0125785 0
4.4750004 -0.15625778 2.0137637 0
4.4780002 -0.16369487 2.0149486 0
4.4820004 -0.17117347 2.0165288 0
4.4850001 -0.17863402 2.0177138 0
4.4890003 -0.18613967 2.019294 0
4.4920001 -0.19362366 2.020479 0
4.4960003 -0.20115638 2.0220592 0
4.4990001 -0.20866382 2.0232441 0
4.5020003 -0.2161821 2.0244296 0
4.5060005 -0.22375448 2.0260098 0
4.5090003 -0.23129621 2.0271947 0
4.5130005 -0.23889565 2.028775 0
4.5160003 -0.24646081 2.0299599 0
4.5200005 -0.25408733 2.0315402 0
4.5230002 -0.26167592 2.0327251 0
4.5270004 -0.26932952 2.0343053 0
4.5300002 -0.27694154 2.0354905 0
4.5340004 -0.28462219 2.0370705 0
4.5370002 -0.29225767 2.0382555 0
4.5410004 -0.29996538 2.0398359 0
4.5440001 -0.30762434 2.0410209 0
4.5480003 -0.31535909 2.0426011 0
4.5510001 -0.3230415 2.043786 0
4.5550003 -0.3308033 2.0453663 0
4.5580001 -0.33850914 2.0465512 0
4.5620003 -0.34629801 2.0481315 0
4.5660005 -0.35410127 2.0497117 0
4.5690002 -0.36184323 2.0508966 0
4.5730004 -0.36967355 2.0524769 0
4.5710001 -0.37704208 2.0516868 0
4.5660005 -0.38415995 2.0497117 0
4.5610003 -0.39125973 2.0477364 0
4.5560002 -0.39834145 2.0457611 0
4.5670004 -0.40679052 2.0501068 0
4.6050005 -0.44042072 2.0651181 0
4.6090002 -0.44838813 2.0666981 0
4.6120005 -0.45627257 2.0678833 0
4.4780002 -0.14162709 2.0075927 0
4.4850001 -0.17863402 2.0103452 0
4.4890003 -0.18613967 2.0119183 0
4.4920001 -0.19362366 2.013098 0
4.4960003 -0.20115638 2.0146708 0
4.4990001 -0.20866382 2.0158503 0
4.5020003 -0.2161821 2.0170302 0
4.5060005 -0.22375448 2.0186033 0
4.5090003 -0.23129621 2.0197828 0
4.5130005 -0.23889565 2.0213559 0
4.5160003 -0.24646081 2.0225353 0
4.5200005 -0.25408733 2.0241084 0
4.5230002 -0.26167592 2.0252881 0
4.5270004 -0.26932952 2.0268612 0
4.5300002 -0.27694154 2.0280406 0
4.5340004 -0.28462219 2.0296135 0
4.5370002 -0.29225767 2.0307932 0
4.5410004 -0.29996538 2.0323663 0
4.5440001 -0.30762434 2.033546 0
4.5480003 -0.31535909 2.0351188 0
4.5510001 -0.3230415 2.0362985 0
4.5550003 -0.3308033 2.0378714 0
4.5580001 -0.33850914 2.0390511 0
4.5620003 -0.34629801 2.0406241 0
4.5660005 -0.35410127 2.042197 0
4.5690002 -0.36184323 2.0433767 0
4.5730004 -0.36967355 2.0449495 0
4.5710001 -0.37704208 2.044163 0
4.5660005 -0.38415995 2.042197 0
4.5610003 -0.39125973 2.040231 0
4.5560002 -0.39834145 2.0382648 0
4.5670004 -0.40679052 2.0425901 0
4.6050005 -0.44042072 2.057533 0
4.6090002 -0.44838813 2.0591059 0
4.6120005 -0.45627257 2.0602856 0
4.5060005 -0.22375448 2.0111969 0
4.5090003 -0.23129621 2.0123711 0
4.5130005 -0.23889565 2.0139368 0
4.5160003 -0.24646081 2.015111 0
4.5200005 -0.25408733 2.0166769 0
4.5230002 -0.26167592 2.0178509 0
4.5270004 -0.26932952 2.0194168 0
4.5300002 -0.27694154 2.020591 0
4.5340004 -0.28462219 2.0221567 0
4.5370002 -0.29225767 2.0233309 0
4.5410004 -0.29996538 2.0248966 0
4.5440001 -0.30762434 2.0260708 0
4.5480003 -0.31535909 2.0276365 0
4.5510001 -0.3230415 2.028811 0
4.5550003 -0.3308033 2.0303767 0
4.5580001 -0.33850914 2.0315509 0
4.5620003 -0.34629801 2.0331166 0
4.5660005 -0.35410127 2.0346825 0
4.5690002 -0.36184323 2.0358565 0
4.5730004 -0.36967355 2.0374224 0
4.5710001 -0.37704208 2.0366395 0
4.5660005 -0.38415995 2.0346825 0
4.5610003 -0.39125973 2.0327253 0
4.5560002 -0.39834145 2.0307682 0
4.5670004 -0.40679052 2.0350738 0
4.6050005 -0.44042072 2.049948 0
4.6090002 -0.44838813 2.0515137 0
4.6120005 -0.45627257 2.0526881 0
4.5270004 -0.26932952 2.0119724 0
4.5300002 -0.27694154 2.0131412 0
4.5340004 -0.28462219 2.0146997 0
4.5370002 -0.29225767 2.0158687 0
4.5410004 -0.29996538 2.0174272 0
4.5440001 -0.30762434 2.0185959 0
4.5480003 -0.31535909 2.0201545 0
4.5510001 -0.3230415 2.0213232 0
4.5550003 -0.3308033 2.0228817 0
4.5580001 -0.33850914 2.0240505 0
4.5620003 -0.34629801 2.0256093 0
4.5660005 -0.35410127 2.0271678 0
4.5690002 -0.36184323 2.0283365 0
4.5730004 -0.36967355 2.0298951 0
4.5710001 -0.37704208 2.0291157 0
4.5660005 -0.38415995 2.0271678 0
4.5610003 -0.39125973 2.0252197 0
4.5560002 -0.39834145 2.0232713 0
4.5670004 -0.40679052 2.0275574 0
4.6050005 -0.44042072 2.0423629 0
4.6090002 -0.44838813 2.0439215 0
4.6120005 -0.45627257 2.0450902 0
4.5410004 -0.29996538 2.0099576 0
4.5440001 -0.30762434 2.011121 0
4.5480003 -0.31535909 2.0126722 0
4.5510001 -0.3230415 2.0138357 0
4.5550003 -0.3308033 2.0153871 0
4.5580001 -0.33850914 2.0165503 0
4.5620003 -0.34629801 2.0181017 0
4.5660005 -0.35410127 2.0196531 0
4.5690002 -0.36184323 2.0208163 0
4.5730004 -0.36967355 2.0223677 0
4.5710001 -0.37704208 2.0215921 0
4.5660005 -0.38415995 2.0196531 0
4.5610003 -0.39125973 2.0177138 0
4.5560002 -0.39834145 2.0157747 0
4.5670004 -0.40679052 2.020041 0
4.6050005 -0.44042072 2.0347779 0
4.6090002 -0.44838813 2.036329 0
4.6120005 -0.45627257 2.0374928 0
4.5540004 -0.30076265 2.0075061 0
4.5540004 -0.3082557 2.0075061 0
4.5540004 -0.31574869 2.0075061 0
4.5540004 -0.32324174 2.0075061 0
4.5550003 -0.3308033 2.0078921 0
4.5580001 -0.33850914 2.0090501 0
4.5620003 -0.34629801 2.0105941 0
4.5660005 -0.35410127 2.0121384 0
4.5690002 -0.36184323 2.0132964 0
4.5730004 -0.36967355 2.0148406 0
4.5710001 -0.37704208 2.0140684 0
4.5660005 -0.38415995 2.0121384 0
4.5610003 -0.39125973 2.0102081 0
4.5560002 -0.39834145 2.0082781 0
4.5670004 -0.40679052 2.0125244 0
4.6050005 -0.44042072 2.0271928 0
4.6090002 -0.44838813 2.0287368 0
4.6120005 -0.45627257 2.0298951 0
4.5730004 -0.31698251 2.0073133 0
4.5730004 -0.32450983 2.0073133 0
4.5590005 -0.33107749 2.0019343 0
4.5580001 -0.33850914 2.00155 0
4.5620003 -0.34629801 2.0030868 0
4.5660005 -0.35410127 2.0046237 0
4.5690002 -0.36184323 2.0057762 0
4.5730004 -0.36967355 2.0073133 0
4.5710001 -0.37704208 2.0065446 0
4.5660005 -0.38415995 2.0046237 0
4.5610003 -0.39125973 2.0027025 0
4.5560002 -0.39834145 2.0007815 0
4.5670004 -0.40679052 2.005008 0
4.6050005 -0.44042072 2.019608 0
4.6090002 -0.44838813 2.0211446 0
4.6120005 -0.45627257 2.0222974 0
4.5730004 -0.32450983 1.999786 0
4.5590005 -0.33107749 1.9944322 0
4.5580001 -0.33850914 1.9940497 0
4.5620003 -0.34629801 1.9955795 0
4.5660005 -0.35410127 1.9971091 0
4.5690002 -0.36184323 1.9982562 0
4.5730004 -0.36967355 1.999786 0
4.5710001 -0.37704208 1.9990211 0
4.5660005 -0.38415995 1.9971091 0
4.5610003 -0.39125973 1.9951971 0
4.5560002 -0.39834145 1.9932849 0
4.5670004 -0.40679052 1.9974915 0
4.6050005 -0.44042072 2.012023 0
4.6090002 -0.44838813 2.0135524 0
4.6120005 -0.45627257 2.0146997 0
4.5730004 -0.32450983 1.9922587 0
4.5590005 -0.33107749 1.9869303 0
4.5580001 -0.33850914 1.9865495 0
4.5620003 -0.34629801 1.988072 0
4.5660005 -0.35410127 1.9895945 0
4.5690002 -0.36184323 1.9907362 0
4.5730004 -0.36967355 1.9922587 0
4.5710001 -0.37704208 1.9914973 0
4.5660005 -0.38415995 1.9895945 0
4.5610003 -0.39125973 1.9876914 0
4.5560002 -0.39834145 1.9857883 0
4.5670004 -0.40679052 1.989975 0
4.6050005 -0.44042072 2.0044379 0
4.6090002 -0.44838813 2.0059602 0
4.6120005 -0.45627257 2.007102 0
4.5730004 -0.32450983 1.9847314 0
4.5590005 -0.33107749 1.9794282 0
4.5580001 -0.33850914 1.9790492 0
4.5620003 -0.34629801 1.9805645 0
4.5660005 -0.35410127 1.9820799 0
4.5690002 -0.36184323 1.9832162 0
4.5730004 -0.36967355 1.9847314 0
4.5710001 -0.37704208 1.9839736 0
4.5660005 -0.38415995 1.9820799 0
4.5610003 -0.39125973 1.9801857 0
4.5560002 -0.39834145 1.9782916 0
4.5670004 -0.40679052 1.9824586 0
4.6050005 -0.44042072 1.996853 0
4.6090002 -0.44838813 1.998368 0
4.6120005 -0.45627257 1.9995046 0
4.5730004 -0.32450983 1.977204 0
4.5590005 -0.33107749 1.9719261 0
4.5580001 -0.33850914 1.9715489 0
4.5620003 -0.34629801 1.973057 0
4.5660005 -0.35410127 1.9745651 0
4.5690002 -0.36184323 1.9756961 0
4.5730004 -0.36967355 1.977204 0
4.5710001 -0.37704208 1.97645 0
4.5660005 -0.38415995 1.9745651 0
4.5610003 -0.39125973 1.9726801 0
4.5560002 -0.39834145 1.970795 0
4.5670004 -0.40679052 1.9749421 0
4.6050005 -0.44042072 1.9892679 0
4.6090002 -0.44838813 1.9907758 0
4.6120005 -0.45627257 1.991907 0
4.5590005 -0.33107749 1.9644241 0
4.5580001 -0.33850914 1.9640487 0
4.5620003 -0.34629801 1.9655496 0
4.5660005 -0.35410127 1.9670504 0
4.5690002 -0.36184323 1.968176 0
4.5730004 -0.36967355 1.9696767 0
4.5710001 -0.37704208 1.9689263 0
4.5660005 -0.38415995 1.9670504 0
4.5610003 -0.39125973 1.9651744 0
4.5560002 -0.39834145 1.9632984 0
4.5670004 -0.40679052 1.9674257 0
4.6050005 -0.44042072 1.9816829 0
4.6090002 -0.44838813 1.9831836 0
4.6120005 -0.45627257 1.9843093 0
4.5580001 -0.33850914 1.9565486 0
4.5620003 -0.34629801 1.9580421 0
4.5660005 -0.35410127 1.9595357 0
4.5690002 -0.36184323 1.9606559 0
4.5730004 -0.36967355 1.9621495 0
4.5710001 -0.37704208 1.9614025 0
4.5660005 -0.38415995 1.9595357 0
4.5610003 -0.39125973 1.9576688 0
4.5560002 -0.39834145 1.9558018 0
4.5670004 -0.40679052 1.9599091 0
4.6050005 -0.44042072 1.9740978 0
4.6090002 -0.44838813 1.9755913 0
4.6120005 -0.45627257 1.9767116 0
4.5580001 -0.33850914 1.9490483 0
4.5620003 -0.34629801 1.9505347 0
4.5660005 -0.35410127 1.952021 0
4.5690002 -0.36184323 1.9531357 0
4.5730004 -0.36967355 1.9546221 0
4.5710001 -0.37704208 1.9538789 0
4.5660005 -0.38415995 1.952021 0
4.5610003 -0.39125973 1.9501632 0
4.5560002 -0.39834145 1.9483052 0
4.5670004 -0.40679052 1.9523926 0
4.6050005 -0.44042072 1.9665129 0
4.6090002 -0.44838813 1.9679991 0
4.6120005 -0.45627257 1.9691139 0
4.5580001 -0.33850914 1.9415481 0
4.5620003 -0.34629801 1.9430273 0
4.5660005 -0.35410127 1.9445065 0
4.5690002 -0.36184323 1.9456156 0
4.5730004 -0.36967355 1.9470949 0
4.5710001 -0.37704208 1.9463552 0
4.5660005 -0.38415995 1.9445065 0
4.5610003 -0.39125973 1.9426576 0
4.5560002 -0.39834145 1.9408085 0
4.5670004 -0.40679052 1.9448762 0
4.6050005 -0.44042072 1.9589279 0
4.6090002 -0.44838813 1.9604069 0
4.6120005 -0.45627257 1.9615164 0
4.5580001 -0.33850914 1.9340478 0
4.5620003 -0.34629801 1.9355198 0
4.5660005 -0.35410127 1.9369918 0
4.5690002 -0.36184323 1.9380956 0
4.5730004 -0.36967355 1.9395676 0
4.5710001 -0.37704208 1.9388314 0
4.5660005 -0.38415995 1.9369918 0
4.5610003 -0.39125973 1.9351518 0
4.5560002 -0.39834145 1.9333119 0
4.5670004 -0.40679052 1.9373597 0
4.6050005 -0.44042072 1.9513428 0
4.6090002 -0.44838813 1.9528147 0
4.6120005 -0.45627257 1.9539187 0
4.5580001 -0.33850914 1.9265475 0
4.5620003 -0.34629801 1.9280124 0
4.5660005 -0.35410127 1.9294771 0
4.5690002 -0.36184323 1.9305755 0
4.5730004 -0.36967355 1.9320403 0
4.5710001 -0.37704208 1.9313079 0
4.5660005 -0.38415995 1.9294771 0
4.5610003 -0.39125973 1.9276462 0
4.5560002 -0.39834145 1.9258153 0
4.5670004 -0.40679052 1.9298433 0
4.6050005 -0.44042072 1.9437578 0
4.6090002 -0.44838813 1.9452224 0
4.6120005 -0.45627257 1.9463211 0
4.5580001 -0.33850914 1.9190474 0
4.5620003 -0.34629801 1.9205049 0
4.5660005 -0.35410127 1.9219625 0
4.5690002 -0.36184323 1.9230554 0
4.5730004 -0.36967355 1.924513 0
4.5710001 -0.37704208 1.9237841 0
4.5660005 -0.38415995 1.9219625 0
4.5610003 -0.39125973 1.9201405 0
4.5560002 -0.39834145 1.9183186 0
4.5670004 -0.40679052 1.9223268 0
4.6050005 -0.44042072 1.9361728 0
4.6090002 -0.44838813 1.9376302 0
4.6120005 -0.45627257 1.9387234 0
4.5580001 -0.33850914 1.9115472 0
4.5620003 -0.34629801 1.9129974 0
4.5660005 -0.35410127 1.9144478 0
4.5690002 -0.36184323 1.9155354 0
4.5730004 -0.36967355 1.9169858 0
4.5710001 -0.37704208 1.9162605 0
4.5660005 -0.38415995 1.9144478 0
4.5610003 -0.39125973 1.9126348 0
4.5560002 -0.39834145 1.910822 0
4.5670004 -0.40679052 1.9148104 0
4.6050005 -0.44042072 1.9285878 0
4.6090002 -0.44838813 1.930038 0
4.6120005 -0.45627257 1.9311258 0
4.5580001 -0.33850914 1.9040469 0
4.5620003 -0.34629801 1.90549 0
4.5660005 -0.35410127 1.9069331 0
4.5690002 -0.36184323 1.9080154 0
4.5730004 -0.36967355 1.9094585 0
4.5710001 -0.37704208 1.9087368 0
4.5660005 -0.38415995 1.9069331 0
4.5610003 -0.39125973 1.9051293 0
4.5560002 -0.39834145 1.9033254 0
4.5670004 -0.40679052 1.9072939 0
4.6050005 -0.44042072 1.9210029 0
4.6090002 -0.44838813 1.9224458 0
4.6120005 -0.45627257 1.9235282 0
4.5580001 -0.33850914 1.8965467 0
4.5620003 -0.34629801 1.8979826 0
4.5660005 -0.35410127 1.8994185 0
4.5690002 -0.36184323 1.9004953 0
4.5730004 -0.36967355 1.9019312 0
4.5710001 -0.37704208 1.901213 0
4.5660005 -0.38415995 1.8994185 0
4.5610003 -0.39125973 1.8976237 0
4.5560002 -0.39834145 1.8958287 0
4.5670004 -0.40679052 1.8997773 0
4.6050005 -0.44042072 1.9134178 0
4.6090002 -0.44838813 1.9148536 0
4.6120005 -0.45627257 1.9159305 0
4.6160002 -0.46426705 1.9173663 0
4.5580001 -0.33850914 1.8890464 0
4.5620003 -0.34629801 1.8904752 0
4.5660005 -0.35410127 1.8919038 0
4.5690002 -0.36184323 1.8929752 0
4.5730004 -0.36967355 1.8944039 0
4.5710001 -0.37704208 1.8936894 0
4.5660005 -0.38415995 1.8919038 0
4.5610003 -0.39125973 1.890118 0
4.5560002 -0.39834145 1.8883321 0
4.5670004 -0.40679052 1.8922609 0
4.6050005 -0.44042072 1.9058329 0
4.6090002 -0.44838813 1.9072614 0
4.6120005 -0.45627257 1.9083328 0
4.6160002 -0.46426705 1.9097614 0
4.5580001 -0.33850914 1.8815461 0
4.5620003 -0.34629801 1.8829677 0
4.5660005 -0.35410127 1.8843892 0
4.5690002 -0.36184323 1.8854551 0
4.5730004 -0.36967355 1.8868766 0
4.5710001 -0.37704208 1.8861657 0
4.5660005 -0.38415995 1.8843892 0
4.5610003 -0.39125973 1.8826123 0
4.5560002 -0.39834145 1.8808357 0
4.5670004 -0.40679052 1.8847444 0
4.6050005 -0.44042072 1.8982478 0
4.6090002 -0.44838813 1.8996692 0
4.6120005 -0.45627257 1.9007353 0
4.6160002 -0.46426705 1.9021565 0
4.5580001 -0.33850914 1.874046 0
4.5620003 -0.34629801 1.8754601 0
4.5660005 -0.35410127 1.8768744 0
4.5690002 -0.36184323 1.8779351 0
4.5730004 -0.36967355 1.8793494 0
4.5710001 -0.37704208 1.8786421 0
4.5660005 -0.38415995 1.8768744 0
4.5610003 -0.39125973 1.8751067 0
4.5560002 -0.39834145 1.8733389 0
4.5670004 -0.40679052 1.877228 0
4.6050005 -0.44042072 1.8906628 0
4.6090002 -0.44838813 1.892077 0
4.6120005 -0.45627257 1.8931376 0
4.6160002 -0.46426705 1.8945516 0
4.5580001 -0.33850914 1.8665457 0
4.5620003 -0.34629801 1.8679527 0
4.5660005 -0.35410127 1.8693597 0
4.5690002 -0.36184323 1.870415 0
4.5730004 -0.36967355 1.871822 0
4.5710001 -0.37704208 1.8711183 0
4.5660005 -0.38415995 1.8693597 0
4.5610003 -0.39125973 1.867601 0
4.5560002 -0.39834145 1.8658423 0
4.5670004 -0.40679052 1.8697115 0
4.6050005 -0.44042072 1.8830779 0
4.6090002 -0.44838813 1.8844846 0
4.6120005 -0.45627257 1.88554 0
4.6160002 -0.46426705 1.8869468 0
4.5580001 -0.33850914 1.8590455 0
4.5620003 -0.34629801 1.8604453 0
4.5660005 -0.35410127 1.8618451 0
4.5690002 -0.36184323 1.8628949 0
4.5730004 -0.36967355 1.8642946 0
4.5710001 -0.37704208 1.8635948 0
4.5660005 -0.38415995 1.8618451 0
4.5610003 -0.39125973 1.8600954 0
4.5560002 -0.39834145 1.8583456 0
4.5670004 -0.40679052 1.862195 0
4.6050005 -0.44042072 1.8754928 0
4.6090002 -0.44838813 1.8768924 0
4.6120005 -0.45627257 1.8779423 0
4.6160002 -0.46426705 1.879342 0
4.5580001 -0.33850914 1.8515453 0
4.5620003 -0.34629801 1.8529379 0
4.5660005 -0.35410127 1.8543305 0
4.5690002 -0.36184323 1.8553747 0
4.5730004 -0.36967355 1.8567673 0
4.5710001 -0.37704208 1.856071 0
4.5660005 -0.38415995 1.8543305 0
4.5610003 -0.39125973 1.8525897 0
4.5560002 -0.39834145 1.850849 0
4.5670004 -0.40679052 1.8546786 0
4.6050005 -0.44042072 1.8679078 0
4.6090002 -0.44838813 1.8693002 0
4.6120005 -0.45627257 1.8703446 0
4.6160002 -0.46426705 1.8717371 0
4.5580001 -0.33850914 1.844045 0
4.5620003 -0.34629801 1.8454304 0
4.5660005 -0.35410127 1.8468158 0
4.5690002 -0.36184323 1.8478546 0
4.5730004 -0.36967355 1.8492401 0
4.5710001 -0.37704208 1.8485473 0
4.5660005 -0.38415995 1.8468158 0
4.5610003 -0.39125973 1.8450841 0
4.5560002 -0.39834145 1.8433524 0
4.5670004 -0.40679052 1.8471621 0
4.6050005 -0.44042072 1.8603228 0
4.6090002 -0.44838813 1.861708 0
4.6120005 -0.45627257 1.8627471 0
4.6160002 -0.46426705 1.8641323 0
4.5580001 -0.33850914 1.8365448 0
4.5620003 -0.34629801 1.8379229 0
4.5660005 -0.35410127 1.8393011 0
4.5690002 -0.36184323 1.8403347 0
4.5730004 -0.36967355 1.8417128 0
4.5710001 -0.37704208 1.8410237 0
4.5660005 -0.38415995 1.8393011 0
4.5610003 -0.39125973 1.8375784 0
4.5560002 -0.39834145 1.8358557 0
4.5670004 -0.40679052 1.8396456 0
4.6050005 -0.44042072 1.8527378 0
4.6090002 -0.44838813 1.8541157 0
4.6120005 -0.45627257 1.8551494 0
4.6160002 -0.46426705 1.8565274 0
4.5580001 -0.33850914 1.8290446 0
4.5620003 -0.34629801 1.8304155 0
4.5660005 -0.35410127 1.8317864 0
4.5690002 -0.36184323 1.8328146 0
4.5730004 -0.36967355 1.8341855 0
4.5710001 -0.37704208 1.8334999 0
4.5660005 -0.38415995 1.8317864 0
4.5610003 -0.39125973 1.8300728 0
4.5560002 -0.39834145 1.8283591 0
4.5670004 -0.40679052 1.8321291 0
4.6050005 -0.44042072 1.8451527 0
4.6090002 -0.44838813 1.8465235 0
4.6120005 -0.45627257 1.8475518 0
4.6160002 -0.46426705 1.8489226 0
4.5580001 -0.33850914 1.8215443 0
4.5620003 -0.34629801 1.822908 0
4.5660005 -0.35410127 1.8242718 0
4.5690002 -0.36184323 1.8252945 0
4.5730004 -0.36967355 1.8266582 0
4.5710001 -0.37704208 1.8259764 0
4.5660005 -0.38415995 1.8242718 0
4.5610003 -0.39125973 1.8225672 0
4.5560002 -0.39834145 1.8208625 0
4.5670004 -0.40679052 1.8246127 0
4.6050005 -0.44042072 1.8375677 0
4.6090002 -0.44838813 1.8389313 0
4.6120005 -0.45627257 1.8399541 0
4.6160002 -0.46426705 1.8413178 0
4.5580001 -0.33850914 1.814044 0
4.5620003 -0.34629801 1.8154006 0
4.5660005 -0.35410127 1.8167571 0
4.5690002 -0.36184323 1.8177744 0
4.5730004 -0.36967355 1.8191309 0
4.5710001 -0.37704208 1.8184526 0
4.5660005 -0.38415995 1.8167571 0
4.5610003 -0.39125973 1.8150616 0
4.5560002 -0.39834145 1.8133658 0
4.5670004 -0.40679052 1.8170962 0
4.6050005 -0.44042072 1.8299828 0
4.6090002 -0.44838813 1.831339 0
4.6120005 -0.45627257 1.8323565 0
4.6160002 -0.46426705 1.8337128 0
4.5580001 -0.33850914 1.8065439 0
4.5620003 -0.34629801 1.8078932 0
4.5660005 -0.35410127 1.8092425 0
4.5690002 -0.36184323 1.8102543 0
4.5730004 -0.36967355 1.8116037 0
4.5710001 -0.37704208 1.8109289 0
4.5660005 -0.38415995 1.8092425 0
4.5610003 -0.39125973 1.8075559 0
4.5560002 -0.39834145 1.8058692 0
4.5670004 -0.40679052 1.8095797 0
4.6050005 -0.44042072 1.8223977 0
4.6090002 -0.44838813 1.8237468 0
4.6120005 -0.45627257 1.8247588 0
4.6160002 -0.46426705 1.826108 0
4.5580001 -0.33850914 1.7990437 0
4.5620003 -0.34629801 1.8003857 0
4.5660005 -0.35410127 1.8017279 0
4.5690002 -0.36184323 1.8027343 0
4.5730004 -0.36967355 1.8040763 0
4.5710001 -0.37704208 1.8034053 0
4.5660005 -0.38415995 1.8017279 0
4.5610003 -0.39125973 1.8000503 0
4.5560002 -0.39834145 1.7983727 0
4.5670004 -0.40679052 1.8020633 0
4.6050005 -0.44042072 1.8148127 0
4.6090002 -0.44838813 1.8161546 0
4.6120005 -0.45627257 1.8171612 0
4.6160002 -0.46426705 1.8185031 0
4.5580001 -0.33850914 1.7915434 0
4.5620003 -0.34629801 1.7928783 0
4.5660005 -0.35410127 1.7942132 0
4.5690002 -0.36184323 1.7952142 0
4.5730004 -0.36967355 1.7965491 0
4.5710001 -0.37704208 1.7958815 0
4.5660005 -0.38415995 1.7942132 0
4.5610003 -0.39125973 1.7925446 0
4.5560002 -0.39834145 1.790876 0
4.5670004 -0.40679052 1.7945468 0
4.6050005 -0.44042072 1.8072276 0
4.6090002 -0.44838813 1.8085624 0
4.6120005 -0.45627257 1.8095636 0
4.6160002 -0.46426705 1.8108983 0
4.5580001 -0.33850914 1.7840432 0
4.5620003 -0.34629801 1.7853708 0
4.5660005 -0.35410127 1.7866985 0
4.5690002 -0.36184323 1.7876941 0
4.5730004 -0.36967355 1.7890217 0
4.5710001 -0.37704208 1.7883579 0
4.5660005 -0.38415995 1.7866985 0
4.5610003 -0.39125973 1.7850389 0
4.5560002 -0.39834145 1.7833794 0
4.5670004 -0.40679052 1.7870303 0
4.6050005 -0.44042072 1.7996427 0
4.6090002 -0.44838813 1.8009701 0
4.6120005 -0.45627257 1.8019658 0
4.6160002 -0.46426705 1.8032935 0
4.5580001 -0.33850914 1.7765429 0
4.5620003 -0.34629801 1.7778634 0
4.5660005 -0.35410127 1.7791837 0
4.5690002 -0.36184323 1.780174 0
4.5730004 -0.36967355 1.7814945 0
4.5710001 -0.37704208 1.7808342 0
4.5660005 -0.38415995 1.7791837 0
4.5610003 -0.39125973 1.7775333 0
4.5560002 -0.39834145 1.7758828 0
4.5670004 -0.40679052 1.7795138 0
4.6050005 -0.44042072 1.7920576 0
4.6090002 -0.44838813 1.7933779 0
4.6120005 -0.45627257 1.7943683 0
4.6160002 -0.46426705 1.7956885 0
4.5580001 -0.33850914 1.7690426 0
4.5620003 -0.34629801 1.7703558 0
4.5660005 -0.35410127 1.7716691 0
4.5690002 -0.36184323 1.7726541 0
4.5730004 -0.36967355 1.7739673 0
4.5710001 -0.37704208 1.7733105 0
4.5660005 -0.38415995 1.7716691 0
4.5610003 -0.39125973 1.7700276 0
4.5560002 -0.39834145 1.7683861 0
4.5670004 -0.40679052 1.7719975 0
4.6050005 -0.44042072 1.7844726 0
4.6090002 -0.44838813 1.7857857 0
4.6120005 -0.45627257 1.7867706 0
4.6160002 -0.46426705 1.7880837 0
4.5580001 -0.33850914 1.7615424 0
4.5620003 -0.34629801 1.7628485 0
4.5660005 -0.35410127 1.7641546 0
4.5690002 -0.36184323 1.765134 0
4.5730004 -0.36967355 1.7664399 0
4.5710001 -0.37704208 1.7657868 0
4.5660005 -0.38415995 1.7641546 0
4.5610003 -0.39125973 1.762522 0
4.5560002 -0.39834145 1.7608895 0
4.5670004 -0.40679052 1.7644809 0
4.6050005 -0.44042072 1.7768877 0
4.6090002 -0.44838813 1.7781935 0
4.6120005 -0.45627257 1.779173 0
4.6160002 -0.46426705 1.7804788 0
4.5580001 -0.33850914 1.7540423 0
4.5620003 -0.34629801 1.7553411 0
4.5660005 -0.35410127 1.7566398 0
4.5690002 -0.36184323 1.7576138 0
4.5730004 -0.36967355 1.7589127 0
4.5710001 -0.37704208 1.7582632 0
4.5660005 -0.38415995 1.7566398 0
4.5610003 -0.39125973 1.7550163 0
4.5560002 -0.39834145 1.7533928 0
4.5670004 -0.40679052 1.7569644 0
4.6050005 -0.44042072 1.7693026 0
4.6090002 -0.44838813 1.7706012 0
4.6120005 -0.45627257 1.7715755 0
4.6160002 -0.46426705 1.772874 0
4.5580001 -0.33850914 1.746542 0
4.5620003 -0.34629801 1.7478336 0
4.5660005 -0.35410127 1.7491251 0
4.5690002 -0.36184323 1.7500937 0
4.5730004 -0.36967355 1.7513853 0
4.5710001 -0.37704208 1.7507395 0
4.5660005 -0.38415995 1.7491251 0
4.5610003 -0.39125973 1.7475107 0
4.5560002 -0.39834145 1.7458962 0
4.5670004 -0.40679052 1.7494481 0
4.6050005 -0.44042072 1.7617176 0
