# .PCD v0.7 - Point Cloud Data file format
VERSION 0.7
FIELDS x y z intensity
SIZE 4 4 4 4
TYPE F F F F
COUNT 1 1 1 1
WIDTH 1430
HEIGHT 1
VIEWPOINT 0 0 0 1 0 0 0
POINTS 1430
DATA ascii
2.5420003 1.0899446 0.39627251 0
2.5450003 1.0876664 0.39626166 0
2.5490003 1.0859041 0.39624724 0
2.5530002 1.0841273 0.39623281 0
2.5590003 1.0833824 0.39621118 0
2.5640001 1.0820944 0.39619315 0
2.5720003 1.082347 0.39616427 0
2.5830002 1.0841237 0.3961246 0
2.5710001 0.99175787 0.39616787 0
2.5620003 0.98355603 0.39620036 0
2.5640001 0.98060501 0.39619315 0
2.5660002 0.97764671 0.3961859 0
2.5670002 0.9742105 0.3961823 0
2.5690002 0.97123969 0.39617509 0
2.5710001 0.96826148 0.39616787 0
2.5720003 0.96481085 0.39616427 0
2.5740001 0.96182013 0.39615706 0
2.5760002 0.95882225 0.39614984 0
2.5770001 0.95535707 0.39614624 0
2.5790002 0.95234656 0.39613903 0
2.5810001 0.94932866 0.39613181 0
2.5820003 0.94584918 0.39612821 0
2.5840001 0.94281882 0.39612097 0
2.5860002 0.93978113 0.39611375 0
2.5870001 0.93628716 0.39611015 0
2.5890002 0.93323696 0.39610294 0
2.5910003 0.9301796 0.39609572 0
2.5930002 0.92711484 0.39608851 0
2.5940001 0.92360103 0.3960849 0
2.5960002 0.92052376 0.39607769 0
2.5980003 0.91743934 0.39607048 0
2.5990002 0.91391098 0.39606687 0
2.6010003 0.91081387 0.39605966 0
2.6030002 0.90770948 0.39605242 0
2.6040001 0.9041667 0.39604881 0
2.6060002 0.90104979 0.3960416 0
2.6080003 0.89792562 0.39603439 0
2.6100001 0.89479417 0.39602718 0
2.6110003 0.89123172 0.39602357 0
2.6130002 0.88808769 0.39601636 0
2.6150002 0.88493639 0.39600915 0
2.6170001 0.88177788 0.39600194 0
2.6180003 0.87819558 0.39599833 0
2.6200001 0.87502444 0.39599112 0
2.6220002 0.87184614 0.3959839 0
2.6240003 0.86866069 0.39597666 0
2.6250002 0.86505848 0.39597306 0
2.6270001 0.86186028 0.39596584 0
2.6290002 0.85865492 0.39595863 0
2.6310003 0.8554424 0.39595142 0
2.6320002 0.85182029 0.39594781 0
2.6340003 0.84859514 0.3959406 0
2.6360002 0.8453626 0.39593339 0
2.6380002 0.84212303 0.39592618 0
2.6390002 0.83848107 0.39592257 0
2.6410003 0.83522886 0.39591536 0
2.6430001 0.83196938 0.39590812 0
2.6450002 0.82870269 0.39590091 0
2.6470003 0.82542878 0.39589369 0
2.6480002 0.82176161 0.39589009 0
2.6500001 0.81847507 0.39588287 0
2.6520002 0.81518131 0.39587566 0
2.6540003 0.81188035 0.39586845 0
2.6550002 0.80819339 0.39586484 0
2.6570003 0.80487984 0.39585763 0
2.6590002 0.80155897 0.39585042 0
2.6610003 0.79823101 0.39584321 0
2.6630001 0.79489571 0.39583597 0
2.6650002 0.79155326 0.39582875 0
2.6660001 0.7878356 0.39582515 0
2.6680002 0.78448051 0.39581794 0
2.6700003 0.78111827 0.39581072 0
2.6720002 0.7777487 0.39580351 0
2.6740003 0.77437204 0.3957963 0
2.6750002 0.77062905 0.39579269 0
2.6770003 0.76723975 0.39578548 0
2.6790001 0.76384312 0.39577827 0
2.6810002 0.76043934 0.39577103 0
2.6830001 0.75702834 0.39576381 0
2.6850002 0.75361013 0.3957566 0
2.6860001 0.74983656 0.395753 0
2.6880002 0.74640572 0.39574578 0
2.6900003 0.74296772 0.39573857 0
2.6920002 0.7395224 0.39573136 0
2.6940002 0.73606998 0.39572415 0
2.6960001 0.73261017 0.39571694 0
2.6980002 0.72914326 0.39570972 0
2.6990001 0.72533363 0.39570612 0
2.7010002 0.72185409 0.39569888 0
2.7030003 0.7183674 0.39569166 0
2.7050002 0.71487331 0.39568445 0
2.7070003 0.7113722 0.39567724 0
2.7090001 0.70786375 0.39567003 0
2.7110002 0.70434815 0.39566281 0
2.7130003 0.70082533 0.3956556 0
2.7150002 0.69729525 0.39564839 0
2.7160003 0.69343877 0.39564478 0
2.7180002 0.68989605 0.39563757 0
2.7200003 0.68634617 0.39563033 0
2.7220001 0.68278903 0.39562312 0
2.7240002 0.67922473 0.39561591 0
2.7260003 0.67565316 0.39560869 0
2.7280002 0.67207438 0.39560148 0
2.7300003 0.66848844 0.39559427 0
2.7320001 0.66489524 0.39558706 0
2.7340002 0.66129488 0.39557984 0
2.7360003 0.65768725 0.39557263 0
2.7380002 0.65407234 0.39556542 0
2.7390003 0.65015274 0.39556178 0
2.7410002 0.64652526 0.39555457 0
2.7430003 0.64289063 0.39554736 0
2.7450001 0.63924873 0.39554015 0
2.7470002 0.63559955 0.39553294 0
2.5310001 1.1648333 0.39246827 0
2.5260003 1.1581575 0.39249533 0
2.5230002 1.1526288 0.39251155 0
2.5210001 1.1476737 0.39252239 0
2.5200002 1.1432869 0.39252779 0
2.5190003 1.1389036 0.39253321 0
2.5190003 1.1350814 0.39253321 0
2.5190003 1.1312591 0.39253321 0
2.5190003 1.1274369 0.39253321 0
2.5190003 1.1236145 0.39253321 0
2.5200002 1.1203424 0.39252779 0
2.5210001 1.1170666 0.39252239 0
2.5220003 1.1137874 0.39251697 0
2.5230002 1.1105045 0.39251155 0
2.5250001 1.1077608 0.39250073 0
2.5270002 1.10501 0.39248991 0
2.5290003 1.102252 0.39247909 0
2.5310001 1.0994867 0.39246827 0
2.5330002 1.0967144 0.39245746 0
2.5360003 1.0944686 0.39244121 0
2.5390003 1.0922121 0.39242497 0
2.5420003 1.0899446 0.39240873 0
2.5450003 1.0876664 0.39239252 0
2.5490003 1.0859041 0.39237085 0
2.5530002 1.0841273 0.39234921 0
2.5590003 1.0833824 0.39231676 0
2.5640001 1.0820944 0.3922897 0
2.5720003 1.082347 0.3922464 0
2.5830002 1.0841237 0.39218688 0
2.5710001 0.99175787 0.39225182 0
2.5620003 0.98355603 0.39230052 0
2.5640001 0.98060501 0.3922897 0
2.5660002 0.97764671 0.39227888 0
2.5670002 0.9742105 0.39227346 0
2.5690002 0.97123969 0.39226264 0
2.5710001 0.96826148 0.39225182 0
2.5720003 0.96481085 0.3922464 0
2.5740001 0.96182013 0.39223558 0
2.5760002 0.95882225 0.39222476 0
2.5770001 0.95535707 0.39221933 0
2.5790002 0.95234656 0.39220852 0
2.5810001 0.94932866 0.3921977 0
2.5820003 0.94584918 0.39219227 0
2.5840001 0.94281882 0.39218146 0
2.5860002 0.93978113 0.39217064 0
2.5870001 0.93628716 0.39216524 0
2.5890002 0.93323696 0.3921544 0
2.5910003 0.9301796 0.39214358 0
2.5930002 0.92711484 0.39213276 0
2.5940001 0.92360103 0.39212734 0
2.5960002 0.92052376 0.39211652 0
2.5980003 0.91743934 0.3921057 0
2.5990002 0.91391098 0.3921003 0
2.6010003 0.91081387 0.39208946 0
2.6030002 0.90770948 0.39207864 0
2.6040001 0.9041667 0.39207324 0
2.6060002 0.90104979 0.39206243 0
2.6080003 0.89792562 0.39205158 0
2.6100001 0.89479417 0.39204076 0
2.6110003 0.89123172 0.39203537 0
2.6130002 0.88808769 0.39202452 0
2.6150002 0.88493639 0.3920137 0
2.6170001 0.88177788 0.39200288 0
2.6180003 0.87819558 0.39199749 0
2.6200001 0.87502444 0.39198664 0
2.6220002 0.87184614 0.39197582 0
2.6240003 0.86866069 0.391965 0
2.6250002 0.86505848 0.39195961 0
2.6270001 0.86186028 0.39194876 0
2.6290002 0.85865492 0.39193794 0
2.6310003 0.8554424 0.39192712 0
2.6320002 0.85182029 0.39192173 0
2.6340003 0.84859514 0.39191088 0
2.6360002 0.8453626 0.39190006 0
2.6380002 0.84212303 0.39188924 0
2.6390002 0.83848107 0.39188382 0
2.6410003 0.83522886 0.391873 0
2.6430001 0.83196938 0.39186218 0
2.6450002 0.82870269 0.39185137 0
2.6470003 0.82542878 0.39184055 0
2.6480002 0.82176161 0.39183512 0
2.6500001 0.81847507 0.39182431 0
2.6520002 0.81518131 0.39181349 0
2.6540003 0.81188035 0.39180267 0
2.6550002 0.80819339 0.39179724 0
2.6570003 0.80487984 0.39178643 0
2.6590002 0.80155897 0.39177561 0
2.6610003 0.79823101 0.39176479 0
2.6630001 0.79489571 0.39175397 0
2.6650002 0.79155326 0.39174312 0
2.6660001 0.7878356 0.39173773 0
2.6680002 0.78448051 0.39172691 0
2.6700003 0.78111827 0.39171609 0
2.6720002 0.7777487 0.39170524 0
2.6740003 0.77437204 0.39169443 0
2.6750002 0.77062905 0.39168903 0
2.6770003 0.76723975 0.39167821 0
2.6790001 0.76384312 0.39166737 0
2.6810002 0.76043934 0.39165655 0
2.6830001 0.75702834 0.39164573 0
2.6850002 0.75361013 0.39163491 0
2.6860001 0.74983656 0.39162949 0
2.6880002 0.74640572 0.39161867 0
2.6900003 0.74296772 0.39160785 0
2.6920002 0.7395224 0.39159703 0
2.6940002 0.73606998 0.39158621 0
2.6960001 0.73261017 0.3915754 0
2.6980002 0.72914326 0.39156455 0
2.6990001 0.72533363 0.39155915 0
2.7010002 0.72185409 0.39154834 0
2.7030003 0.7183674 0.39153749 0
2.7050002 0.71487331 0.39152667 0
2.7070003 0.7113722 0.39151585 0
2.7090001 0.70786375 0.39150503 0
2.7110002 0.70434815 0.39149421 0
2.7130003 0.70082533 0.3914834 0
2.7150002 0.69729525 0.39147258 0
2.7160003 0.69343877 0.39146715 0
2.7180002 0.68989605 0.39145634 0
2.7200003 0.68634617 0.39144552 0
2.7220001 0.68278903 0.3914347 0
2.7240002 0.67922473 0.39142385 0
2.7260003 0.67565316 0.39141303 0
2.7280002 0.67207438 0.39140221 0
2.7300003 0.66848844 0.3913914 0
2.7320001 0.66489524 0.39138058 0
2.7340002 0.66129488 0.39136976 0
2.7360003 0.65768725 0.39135891 0
2.7380002 0.65407234 0.39134809 0
2.7390003 0.65015274 0.3913427 0
2.7410002 0.64652526 0.39133188 0
2.7430003 0.64289063 0.39132103 0
2.7450001 0.63924873 0.39131021 0
2.7470002 0.63559955 0.3912994 0
2.5310001 1.1648333 0.38862434 0
2.5260003 1.1581575 0.38866043 0
2.5230002 1.1526288 0.38868207 0
2.5210001 1.1476737 0.38869649 0
2.5200002 1.1432869 0.38870373 0
2.5190003 1.1389036 0.38871095 0
2.5190003 1.1350814 0.38871095 0
2.5190003 1.1312591 0.38871095 0
2.5190003 1.1274369 0.38871095 0
2.5190003 1.1236145 0.38871095 0
2.5200002 1.1203424 0.38870373 0
2.5210001 1.1170666 0.38869649 0
2.5220003 1.1137874 0.38868928 0
2.5230002 1.1105045 0.38868207 0
2.5250001 1.1077608 0.38866764 0
2.5270002 1.10501 0.38865322 0
2.5290003 1.102252 0.38863879 0
2.5310001 1.0994867 0.38862434 0
2.5330002 1.0967144 0.38860992 0
2.5360003 1.0944686 0.38858828 0
2.5390003 1.0922121 0.38856664 0
2.5420003 1.0899446 0.38854498 0
2.5450003 1.0876664 0.38852334 0
2.5490003 1.0859041 0.38849449 0
2.5530002 1.0841273 0.38846561 0
2.5590003 1.0833824 0.38842234 0
2.5640001 1.0820944 0.38838625 0
2.5720003 1.082347 0.38832852 0
2.5830002 1.0841237 0.38824916 0
2.5710001 0.99175787 0.38833573 0
2.5620003 0.98355603 0.38840067 0
2.5640001 0.98060501 0.38838625 0
2.5660002 0.97764671 0.38837183 0
2.5670002 0.9742105 0.38836461 0
2.5690002 0.97123969 0.38835019 0
2.5710001 0.96826148 0.38833573 0
2.5720003 0.96481085 0.38832852 0
2.5740001 0.96182013 0.3883141 0
2.5760002 0.95882225 0.38829967 0
2.5770001 0.95535707 0.38829246 0
2.5790002 0.95234656 0.38827801 0
2.5810001 0.94932866 0.38826358 0
2.5820003 0.94584918 0.38825637 0
2.5840001 0.94281882 0.38824195 0
2.5860002 0.93978113 0.38822752 0
2.5870001 0.93628716 0.38822031 0
2.5890002 0.93323696 0.38820586 0
2.5910003 0.9301796 0.38819143 0
2.5930002 0.92711484 0.38817701 0
2.5940001 0.92360103 0.3881698 0
2.5960002 0.92052376 0.38815537 0
2.5980003 0.91743934 0.38814092 0
2.5990002 0.91391098 0.3881337 0
2.6010003 0.91081387 0.38811928 0
2.6030002 0.90770948 0.38810486 0
2.6040001 0.9041667 0.38809764 0
2.6060002 0.90104979 0.38808322 0
2.6080003 0.89792562 0.38806877 0
2.6100001 0.89479417 0.38805434 0
2.6110003 0.89123172 0.38804713 0
2.6130002 0.88808769 0.3880327 0
2.6150002 0.88493639 0.38801828 0
2.6170001 0.88177788 0.38800386 0
2.6180003 0.87819558 0.38799661 0
2.6200001 0.87502444 0.38798219 0
2.6220002 0.87184614 0.38796777 0
2.6240003 0.86866069 0.38795334 0
2.6250002 0.86505848 0.38794613 0
2.6270001 0.86186028 0.3879317 0
2.6290002 0.85865492 0.38791725 0
2.6310003 0.8554424 0.38790283 0
2.6320002 0.85182029 0.38789561 0
2.6340003 0.84859514 0.38788119 0
2.6360002 0.8453626 0.38786677 0
2.6380002 0.84212303 0.38785231 0
2.6390002 0.83848107 0.3878451 0
2.6410003 0.83522886 0.38783067 0
2.6430001 0.83196938 0.38781625 0
2.6450002 0.82870269 0.38780183 0
2.6470003 0.82542878 0.38778737 0
2.6480002 0.82176161 0.38778016 0
2.6500001 0.81847507 0.38776574 0
2.6520002 0.81518131 0.38775131 0
2.6540003 0.81188035 0.38773689 0
2.6550002 0.80819339 0.38772967 0
2.6570003 0.80487984 0.38771522 0
2.6590002 0.80155897 0.3877008 0
2.6610003 0.79823101 0.38768637 0
2.6630001 0.79489571 0.38767195 0
2.6650002 0.79155326 0.38765752 0
2.6660001 0.7878356 0.38765031 0
2.6680002 0.78448051 0.38763586 0
2.6700003 0.78111827 0.38762143 0
2.6720002 0.7777487 0.38760701 0
2.6740003 0.77437204 0.38759258 0
2.6750002 0.77062905 0.38758537 0
2.6770003 0.76723975 0.38757092 0
2.6790001 0.76384312 0.38755649 0
2.6810002 0.76043934 0.38754207 0
2.6830001 0.75702834 0.38752764 0
2.6850002 0.75361013 0.38751322 0
2.6860001 0.74983656 0.38750598 0
2.6880002 0.74640572 0.38749155 0
2.6900003 0.74296772 0.38747713 0
2.6920002 0.7395224 0.38746271 0
2.6940002 0.73606998 0.38744828 0
2.6960001 0.73261017 0.38743383 0
2.6980002 0.72914326 0.3874194 0
2.6990001 0.72533363 0.38741219 0
2.7010002 0.72185409 0.38739777 0
2.7030003 0.7183674 0.38738334 0
2.7050002 0.71487331 0.38736892 0
2.7070003 0.7113722 0.38735446 0
2.7090001 0.70786375 0.38734004 0
2.7110002 0.70434815 0.38732561 0
2.7130003 0.70082533 0.38731119 0
2.7150002 0.69729525 0.38729674 0
2.7160003 0.69343877 0.38728952 0
2.7180002 0.68989605 0.3872751 0
2.7200003 0.68634617 0.38726068 0
2.7220001 0.68278903 0.38724625 0
2.7240002 0.67922473 0.38723183 0
2.7260003 0.67565316 0.38721737 0
2.7280002 0.67207438 0.38720295 0
2.7300003 0.66848844 0.38718852 0
2.7320001 0.66489524 0.3871741 0
2.7340002 0.66129488 0.38715965 0
2.7360003 0.65768725 0.38714522 0
2.7380002 0.65407234 0.3871308 0
2.7390003 0.65015274 0.38712358 0
2.7410002 0.64652526 0.38710916 0
2.7430003 0.64289063 0.38709474 0
2.7450001 0.63924873 0.38708028 0
2.7470002 0.63559955 0.38706586 0
2.5310001 1.1648333 0.38478044 0
2.5260003 1.1581575 0.38482553 0
2.5230002 1.1526288 0.38485259 0
2.5210001 1.1476737 0.38487062 0
2.5200002 1.1432869 0.38487965 0
2.5190003 1.1389036 0.38488865 0
2.5190003 1.1350814 0.38488865 0
2.5190003 1.1312591 0.38488865 0
2.5190003 1.1274369 0.38488865 0
2.5190003 1.1236145 0.38488865 0
2.5200002 1.1203424 0.38487965 0
2.5210001 1.1170666 0.38487062 0
2.5220003 1.1137874 0.38486162 0
2.5230002 1.1105045 0.38485259 0
2.5250001 1.1077608 0.38483456 0
2.5270002 1.10501 0.38481653 0
2.5290003 1.102252 0.38479847 0
2.5310001 1.0994867 0.38478044 0
2.5330002 1.0967144 0.38476241 0
2.5360003 1.0944686 0.38473535 0
2.5390003 1.0922121 0.38470829 0
2.5420003 1.0899446 0.38468122 0
2.5450003 1.0876664 0.38465416 0
2.5490003 1.0859041 0.3846181 0
2.5530002 1.0841273 0.38458201 0
2.5590003 1.0833824 0.38452789 0
2.5640001 1.0820944 0.3844828 0
2.5720003 1.082347 0.38441065 0
2.5830002 1.0841237 0.38431144 0
2.6050003 0.98414588 0.38411301 0
2.6020002 0.97877228 0.38414007 0
2.6000001 0.97387314 0.38415813 0
2.5990002 0.96944308 0.38416713 0
2.5990002 0.96547651 0.38416713 0
2.5990002 0.96150982 0.38416713 0
2.6000001 0.95799971 0.38415813 0
2.6010003 0.95448589 0.3841491 0
2.6020002 0.95096838 0.38414007 0
2.6040001 0.94789827 0.38412204 0
2.6070001 0.94527018 0.38409498 0
2.6100001 0.94263119 0.38406792 0
2.6130002 0.9399814 0.38404086 0
2.6170001 0.93776453 0.3840048 0
2.6230001 0.93641704 0.38395068 0
3.0060003 0.85183835 0.38049638 0
3.0050001 0.84679484 0.38050541 0
3.0040002 0.84175503 0.38051444 0
3.0050001 0.83739698 0.38050541 0
3.0060003 0.83303541 0.38049638 0
3.0070002 0.8286702 0.38048738 0
3.0100002 0.82496881 0.38046032 0
2.7460003 0.71994388 0.38284135 0
2.7430003 0.71473807 0.38286841 0
2.7410002 0.70986599 0.38288644 0
2.7400002 0.70532221 0.38289547 0
2.7390003 0.70078206 0.38290447 0
2.7400002 0.6968804 0.38289547 0
2.7400002 0.6926595 0.38289547 0
2.7420001 0.68906623 0.38287741 0
2.7440002 0.68546587 0.38285938 0
2.7460003 0.6818583 0.38284135 0
2.7470002 0.677935 0.38283232 0
2.7300003 0.66848844 0.38298565 0
2.7320001 0.66489524 0.38296762 0
2.7340002 0.66129488 0.38294956 0
2.7360003 0.65768725 0.38293153 0
2.7380002 0.65407234 0.3829135 0
2.7390003 0.65015274 0.38290447 0
2.7410002 0.64652526 0.38288644 0
2.7430003 0.64289063 0.38286841 0
2.7450001 0.63924873 0.38285035 0
2.7470002 0.63559955 0.38283232 0
2.5310001 1.1648333 0.38093653 0
2.5260003 1.1581575 0.38099062 0
2.5230002 1.1526288 0.38102311 0
2.5210001 1.1476737 0.38104475 0
2.5200002 1.1432869 0.38105556 0
2.5190003 1.1389036 0.38106638 0
2.5190003 1.1350814 0.38106638 0
2.5190003 1.1312591 0.38106638 0
2.5190003 1.1274369 0.38106638 0
2.5190003 1.1236145 0.38106638 0
2.5200002 1.1203424 0.38105556 0
2.5210001 1.1170666 0.38104475 0
2.5220003 1.1137874 0.38103393 0
2.5230002 1.1105045 0.38102311 0
2.5250001 1.1077608 0.38100147 0
2.5270002 1.10501 0.38097981 0
2.5290003 1.102252 0.38095817 0
2.5310001 1.0994867 0.38093653 0
2.5330002 1.0967144 0.38091487 0
2.5360003 1.0944686 0.38088241 0
2.5390003 1.0922121 0.38084993 0
2.5420003 1.0899446 0.38081747 0
2.5450003 1.0876664 0.38078499 0
2.5490003 1.0859041 0.38074172 0
2.5530002 1.0841273 0.38069841 0
2.5590003 1.0833824 0.38063347 0
2.5640001 1.0820944 0.38057938 0
2.5720003 1.082347 0.38049278 0
2.5830002 1.0841237 0.38037375 0
2.6050003 0.98414588 0.38013563 0
2.6020002 0.97877228 0.38016811 0
2.6000001 0.97387314 0.38018975 0
2.5990002 0.96944308 0.38020056 0
2.5990002 0.96547651 0.38020056 0
2.5990002 0.96150982 0.38020056 0
2.6000001 0.95799971 0.38018975 0
2.6010003 0.95448589 0.38017893 0
2.6020002 0.95096838 0.38016811 0
2.6040001 0.94789827 0.38014644 0
2.6070001 0.94527018 0.38011399 0
2.6100001 0.94263119 0.3800815 0
2.6130002 0.9399814 0.38004905 0
2.6170001 0.93776453 0.38000575 0
2.6230001 0.93641704 0.37994081 0
2.6310003 0.93592834 0.37985423 0
3.0090003 0.8575781 0.37576321 0
3.0060003 0.85183835 0.37579566 0
3.0050001 0.84679484 0.37580648 0
3.0040002 0.84175503 0.3758173 0
3.0050001 0.83739698 0.37580648 0
3.0060003 0.83303541 0.37579566 0
3.0070002 0.8286702 0.37578484 0
3.0100002 0.82496881 0.37575239 0
3.0130002 0.82125658 0.3757199 0
2.7460003 0.71994388 0.3786096 0
2.7430003 0.71473807 0.37864208 0
2.7410002 0.70986599 0.37866372 0
2.7400002 0.70532221 0.37867454 0
2.7390003 0.70078206 0.37868536 0
2.7400002 0.6968804 0.37867454 0
2.7400002 0.6926595 0.37867454 0
2.7420001 0.68906623 0.3786529 0
2.7440002 0.68546587 0.37863126 0
2.7460003 0.6818583 0.3786096 0
2.7470002 0.677935 0.37859878 0
2.7300003 0.66848844 0.37878278 0
2.7320001 0.66489524 0.37876114 0
2.7340002 0.66129488 0.37873948 0
2.7360003 0.65768725 0.37871784 0
2.7380002 0.65407234 0.3786962 0
2.7390003 0.65015274 0.37868536 0
2.7410002 0.64652526 0.37866372 0
2.7430003 0.64289063 0.37864208 0
2.7450001 0.63924873 0.37862045 0
2.7470002 0.63559955 0.37859878 0
2.5310001 1.1648333 0.3770926 0
2.5260003 1.1581575 0.37715575 0
2.5230002 1.1526288 0.37719363 0
2.5210001 1.1476737 0.37721887 0
2.5200002 1.1432869 0.37723151 0
2.5190003 1.1389036 0.37724411 0
2.5190003 1.1350814 0.37724411 0
2.5190003 1.1312591 0.37724411 0
2.5190003 1.1274369 0.37724411 0
2.5190003 1.1236145 0.37724411 0
2.5200002 1.1203424 0.37723151 0
2.5210001 1.1170666 0.37721887 0
2.5220003 1.1137874 0.37720624 0
2.5230002 1.1105045 0.37719363 0
2.5250001 1.1077608 0.37716836 0
2.5270002 1.10501 0.37714311 0
2.5290003 1.102252 0.37711787 0
2.5310001 1.0994867 0.3770926 0
2.5330002 1.0967144 0.37706736 0
2.5360003 1.0944686 0.37702948 0
2.5390003 1.0922121 0.3769916 0
2.5420003 1.0899446 0.37695372 0
2.5450003 1.0876664 0.37691584 0
2.5490003 1.0859041 0.37686533 0
2.5530002 1.0841273 0.37681481 0
2.5590003 1.0833824 0.37673905 0
2.5640001 1.0820944 0.37667593 0
2.5720003 1.082347 0.3765749 0
2.5830002 1.0841237 0.37643602 0
2.6050003 0.98414588 0.37615824 0
2.6020002 0.97877228 0.37619612 0
2.6000001 0.97387314 0.37622136 0
2.5990002 0.96944308 0.37623399 0
2.5990002 0.96547651 0.37623399 0
2.5990002 0.96150982 0.37623399 0
2.6000001 0.95799971 0.37622136 0
2.6010003 0.95448589 0.37620875 0
2.6020002 0.95096838 0.37619612 0
2.6040001 0.94789827 0.37617087 0
2.6070001 0.94527018 0.37613299 0
2.6100001 0.94263119 0.37609512 0
2.6130002 0.9399814 0.37605721 0
2.6170001 0.93776453 0.37600672 0
2.6230001 0.93641704 0.37593096 0
2.6310003 0.93592834 0.37582994 0
3.0090003 0.8575781 0.37105706 0
3.0060003 0.85183835 0.37109494 0
3.0050001 0.84679484 0.37110758 0
3.0040002 0.84175503 0.37112021 0
3.0050001 0.83739698 0.37110758 0
3.0060003 0.83303541 0.37109494 0
3.0070002 0.8286702 0.37108231 0
3.0100002 0.82496881 0.37104443 0
3.0130002 0.82125658 0.37100655 0
2.7460003 0.71994388 0.37437788 0
2.7430003 0.71473807 0.37441576 0
2.7410002 0.70986599 0.374441 0
2.7400002 0.70532221 0.37445363 0
2.7390003 0.70078206 0.37446627 0
2.7400002 0.6968804 0.37445363 0
2.7400002 0.6926595 0.37445363 0
2.7420001 0.68906623 0.37442839 0
2.7440002 0.68546587 0.37440312 0
2.7460003 0.6818583 0.37437788 0
2.7470002 0.677935 0.37436524 0
2.7300003 0.66848844 0.37457991 0
2.7320001 0.66489524 0.37455466 0
2.7340002 0.66129488 0.37452939 0
2.7360003 0.65768725 0.37450415 0
2.7380002 0.65407234 0.37447888 0
2.7390003 0.65015274 0.37446627 0
2.7410002 0.64652526 0.374441 0
2.7430003 0.64289063 0.37441576 0
2.7450001 0.63924873 0.37439051 0
2.7470002 0.63559955 0.37436524 0
2.5310001 1.1648333 0.3732487 0
2.5260003 1.1581575 0.37332085 0
2.5230002 1.1526288 0.37336412 0
2.5210001 1.1476737 0.373393 0
2.5200002 1.1432869 0.37340742 0
2.5190003 1.1389036 0.37342185 0
2.5190003 1.1350814 0.37342185 0
2.5190003 1.1312591 0.37342185 0
2.5190003 1.1274369 0.37342185 0
2.5190003 1.1236145 0.37342185 0
2.5200002 1.1203424 0.37340742 0
2.5210001 1.1170666 0.373393 0
2.5220003 1.1137874 0.37337857 0
2.5230002 1.1105045 0.37336412 0
2.5250001 1.1077608 0.37333527 0
2.5270002 1.10501 0.37330642 0
2.5290003 1.102252 0.37327754 0
2.5310001 1.0994867 0.3732487 0
2.5330002 1.0967144 0.37321982 0
2.5360003 1.0944686 0.37317654 0
2.5390003 1.0922121 0.37313324 0
2.5420003 1.0899446 0.37308997 0
2.5450003 1.0876664 0.37304667 0
2.5490003 1.0859041 0.37298894 0
2.5530002 1.0841273 0.37293121 0
2.5590003 1.0833824 0.37284464 0
2.5640001 1.0820944 0.37277249 0
2.5720003 1.082347 0.37265703 0
2.5830002 1.0841237 0.3724983 0
2.6050003 0.98414588 0.37218082 0
2.6020002 0.97877228 0.37222412 0
2.6000001 0.97387314 0.372253 0
2.5990002 0.96944308 0.37226743 0
2.5990002 0.96547651 0.37226743 0
2.5990002 0.96150982 0.37226743 0
2.6000001 0.95799971 0.372253 0
2.6010003 0.95448589 0.37223855 0
2.6020002 0.95096838 0.37222412 0
2.6040001 0.94789827 0.37219527 0
2.6070001 0.94527018 0.37215197 0
2.6100001 0.94263119 0.3721087 0
2.6130002 0.9399814 0.3720654 0
2.6170001 0.93776453 0.37200767 0
2.6230001 0.93641704 0.37192109 0
2.6310003 0.93592834 0.37180564 0
3.0140002 0.86402482 0.36627877 0
3.0090003 0.8575781 0.36635092 0
3.0060003 0.85183835 0.36639422 0
3.0050001 0.84679484 0.36640865 0
3.0040002 0.84175503 0.36642307 0
3.0050001 0.83739698 0.36640865 0
3.0060003 0.83303541 0.36639422 0
3.0070002 0.8286702 0.3663798 0
3.0100002 0.82496881 0.36633649 0
3.0130002 0.82125658 0.36629319 0
3.0000002 0.81225193 0.3664808 0
2.7540002 0.72680193 0.3700307 0
2.7460003 0.71994388 0.37014616 0
2.7430003 0.71473807 0.37018943 0
2.7410002 0.70986599 0.37021831 0
2.7400002 0.70532221 0.37023273 0
2.7390003 0.70078206 0.37024716 0
2.7400002 0.6968804 0.37023273 0
2.7400002 0.6926595 0.37023273 0
2.7420001 0.68906623 0.37020385 0
2.7440002 0.68546587 0.370175 0
2.7460003 0.6818583 0.37014616 0
2.7470002 0.677935 0.3701317 0
2.7300003 0.66848844 0.37037703 0
2.7320001 0.66489524 0.37034816 0
2.7340002 0.66129488 0.37031931 0
2.7360003 0.65768725 0.37029046 0
2.7380002 0.65407234 0.37026158 0
2.7390003 0.65015274 0.37024716 0
2.7410002 0.64652526 0.37021831 0
2.7430003 0.64289063 0.37018943 0
2.7450001 0.63924873 0.37016058 0
2.7470002 0.63559955 0.3701317 0
2.5310001 1.1648333 0.36940479 0
2.5260003 1.1581575 0.36948594 0
2.5230002 1.1526288 0.36953464 0
2.5210001 1.1476737 0.36956713 0
2.5200002 1.1432869 0.36958334 0
2.5190003 1.1389036 0.36959958 0
2.5190003 1.1350814 0.36959958 0
2.5190003 1.1312591 0.36959958 0
2.5190003 1.1274369 0.36959958 0
2.5190003 1.1236145 0.36959958 0
2.5200002 1.1203424 0.36958334 0
2.5210001 1.1170666 0.36956713 0
2.5220003 1.1137874 0.36955088 0
2.5230002 1.1105045 0.36953464 0
2.5250001 1.1077608 0.36950219 0
2.5270002 1.10501 0.3694697 0
2.5290003 1.102252 0.36943725 0
2.5310001 1.0994867 0.36940479 0
2.5330002 1.0967144 0.36937231 0
2.5360003 1.0944686 0.36932361 0
2.5390003 1.0922121 0.36927491 0
2.5420003 1.0899446 0.36922619 0
2.5450003 1.0876664 0.36917749 0
2.5490003 1.0859041 0.36911255 0
2.5530002 1.0841273 0.36904761 0
2.5590003 1.0833824 0.36895022 0
2.5640001 1.0820944 0.36886904 0
2.5720003 1.082347 0.36873916 0
2.5830002 1.0841237 0.36856058 0
2.6050003 0.98414588 0.36820343 0
2.6020002 0.97877228 0.36825216 0
2.6000001 0.97387314 0.36828461 0
2.5990002 0.96944308 0.36830086 0
2.5990002 0.96547651 0.36830086 0
2.5990002 0.96150982 0.36830086 0
2.6000001 0.95799971 0.36828461 0
2.6010003 0.95448589 0.36826837 0
2.6020002 0.95096838 0.36825216 0
2.6040001 0.94789827 0.36821967 0
2.6070001 0.94527018 0.36817098 0
2.6100001 0.94263119 0.36812228 0
2.6130002 0.9399814 0.36807358 0
2.6170001 0.93776453 0.36800864 0
2.6230001 0.93641704 0.36791122 0
2.6310003 0.93592834 0.36778134 0
3.0140002 0.86402482 0.36156362 0
3.0090003 0.8575781 0.3616448 0
3.0060003 0.85183835 0.3616935 0
3.0050001 0.84679484 0.36170974 0
3.0040002 0.84175503 0.36172596 0
3.0050001 0.83739698 0.36170974 0
3.0060003 0.83303541 0.3616935 0
3.0070002 0.8286702 0.36167726 0
3.0100002 0.82496881 0.36162856 0
3.0130002 0.82125658 0.36157987 0
3.0000002 0.81225193 0.3617909 0
2.7540002 0.72680193 0.36578453 0
2.7460003 0.71994388 0.3659144 0
2.7430003 0.71473807 0.3659631 0
2.7410002 0.70986599 0.36599559 0
2.7400002 0.70532221 0.3660118 0
2.7390003 0.70078206 0.36602804 0
2.7400002 0.6968804 0.3660118 0
2.7400002 0.6926595 0.3660118 0
2.7420001 0.68906623 0.36597934 0
2.7440002 0.68546587 0.36594689 0
2.7460003 0.6818583 0.3659144 0
2.7470002 0.677935 0.36589816 0
2.7300003 0.66848844 0.36617416 0
2.7320001 0.66489524 0.36614168 0
2.7340002 0.66129488 0.36610922 0
2.7360003 0.65768725 0.36607674 0
2.7380002 0.65407234 0.36604428 0
2.7390003 0.65015274 0.36602804 0
2.7410002 0.64652526 0.36599559 0
2.7430003 0.64289063 0.3659631 0
2.7450001 0.63924873 0.36593065 0
2.7470002 0.63559955 0.36589816 0
2.5310001 1.1648333 0.36556086 0
2.5260003 1.1581575 0.36565104 0
2.5230002 1.1526288 0.36570516 0
2.5210001 1.1476737 0.36574125 0
2.5200002 1.1432869 0.36575928 0
2.5190003 1.1389036 0.36577731 0
2.5190003 1.1350814 0.36577731 0
2.5190003 1.1312591 0.36577731 0
2.5190003 1.1274369 0.36577731 0
2.5190003 1.1236145 0.36577731 0
2.5200002 1.1203424 0.36575928 0
2.5210001 1.1170666 0.36574125 0
2.5220003 1.1137874 0.36572319 0
2.5230002 1.1105045 0.36570516 0
2.5250001 1.1077608 0.3656691 0
2.5270002 1.10501 0.36563301 0
2.5290003 1.102252 0.36559695 0
2.5310001 1.0994867 0.36556086 0
2.5330002 1.0967144 0.36552477 0
2.5360003 1.0944686 0.36547068 0
2.5390003 1.0922121 0.36541656 0
2.5420003 1.0899446 0.36536244 0
2.5450003 1.0876664 0.36530831 0
2.5490003 1.0859041 0.36523616 0
2.5530002 1.0841273 0.36516401 0
2.5590003 1.0833824 0.3650558 0
2.5640001 1.0820944 0.36496562 0
2.5720003 1.082347 0.36482131 0
2.5830002 1.0841237 0.36462289 0
2.6050003 0.98414588 0.36422604 0
2.6020002 0.97877228 0.36428016 0
2.6000001 0.97387314 0.36431623 0
2.5990002 0.96944308 0.36433429 0
2.5990002 0.96547651 0.36433429 0
2.5990002 0.96150982 0.36433429 0
2.6000001 0.95799971 0.36431623 0
2.6010003 0.95448589 0.36429819 0
2.6020002 0.95096838 0.36428016 0
2.6040001 0.94789827 0.36424407 0
2.6070001 0.94527018 0.36418998 0
2.6100001 0.94263119 0.36413586 0
2.6130002 0.9399814 0.36408174 0
2.6170001 0.93776453 0.36400959 0
2.6230001 0.93641704 0.36390135 0
2.6310003 0.93592834 0.36375704 0
3.0140002 0.86402482 0.35684848 0
3.0090003 0.8575781 0.35693866 0
3.0060003 0.85183835 0.35699278 0
3.0050001 0.84679484 0.35701081 0
3.0040002 0.84175503 0.35702884 0
3.0050001 0.83739698 0.35701081 0
3.0060003 0.83303541 0.35699278 0
3.0070002 0.8286702 0.35697472 0
3.0100002 0.82496881 0.35692063 0
3.0130002 0.82125658 0.35686651 0
3.0000002 0.81225193 0.35710099 0
2.7540002 0.72680193 0.36153838 0
2.7460003 0.71994388 0.36168265 0
2.7430003 0.71473807 0.36173677 0
2.7410002 0.70986599 0.36177287 0
2.7400002 0.70532221 0.3617909 0
2.7390003 0.70078206 0.36180893 0
2.7400002 0.6968804 0.3617909 0
2.7400002 0.6926595 0.3617909 0
2.7420001 0.68906623 0.36175483 0
2.7440002 0.68546587 0.36171874 0
2.7460003 0.6818583 0.36168265 0
2.7470002 0.677935 0.36166462 0
2.7300003 0.66848844 0.36197129 0
2.7320001 0.66489524 0.3619352 0
2.7340002 0.66129488 0.36189914 0
2.7360003 0.65768725 0.36186305 0
2.7380002 0.65407234 0.36182699 0
2.7390003 0.65015274 0.36180893 0
2.7410002 0.64652526 0.36177287 0
2.7430003 0.64289063 0.36173677 0
2.7450001 0.63924873 0.36170071 0
2.7470002 0.63559955 0.36166462 0
2.5310001 1.1648333 0.36171696 0
2.5260003 1.1581575 0.36181617 0
2.5230002 1.1526288 0.36187568 0
2.5210001 1.1476737 0.36191535 0
2.5200002 1.1432869 0.3619352 0
2.5190003 1.1389036 0.36195505 0
2.5190003 1.1350814 0.36195505 0
2.5190003 1.1312591 0.36195505 0
2.5190003 1.1274369 0.36195505 0
2.5190003 1.1236145 0.36195505 0
2.5200002 1.1203424 0.3619352 0
2.5210001 1.1170666 0.36191535 0
2.5220003 1.1137874 0.36189553 0
2.5230002 1.1105045 0.36187568 0
2.5250001 1.1077608 0.36183599 0
2.5270002 1.10501 0.36179632 0
2.5290003 1.102252 0.36175662 0
2.5310001 1.0994867 0.36171696 0
2.5330002 1.0967144 0.36167726 0
2.5360003 1.0944686 0.36161774 0
2.5390003 1.0922121 0.3615582 0
2.5420003 1.0899446 0.36149868 0
2.5450003 1.0876664 0.36143917 0
2.5490003 1.0859041 0.36135978 0
2.5530002 1.0841273 0.36128044 0
2.5590003 1.0833824 0.36116138 0
2.5640001 1.0820944 0.36106217 0
2.5720003 1.082347 0.36090344 0
2.5830002 1.0841237 0.36068517 0
2.6050003 0.98414588 0.36024866 0
2.6020002 0.97877228 0.36030817 0
2.6000001 0.97387314 0.36034787 0
2.5990002 0.96944308 0.36036769 0
2.5990002 0.96547651 0.36036769 0
2.5990002 0.96150982 0.36036769 0
2.6000001 0.95799971 0.36034787 0
2.6010003 0.95448589 0.36032802 0
2.6020002 0.95096838 0.36030817 0
2.6040001 0.94789827 0.36026847 0
2.6070001 0.94527018 0.36020896 0
2.6100001 0.94263119 0.36014944 0
2.6130002 0.9399814 0.3600899 0
2.6170001 0.93776453 0.36001053 0
2.6230001 0.93641704 0.3598915 0
2.6310003 0.93592834 0.35973275 0
3.0140002 0.86402482 0.3521333 0
3.0090003 0.8575781 0.35223252 0
3.0060003 0.85183835 0.35229206 0
3.0050001 0.84679484 0.35231188 0
3.0040002 0.84175503 0.35233173 0
3.0050001 0.83739698 0.35231188 0
3.0060003 0.83303541 0.35229206 0
3.0070002 0.8286702 0.35227221 0
3.0100002 0.82496881 0.35221267 0
3.0130002 0.82125658 0.35215315 0
3.0160003 0.81753349 0.35209364 0
2.7540002 0.72680193 0.35729221 0
2.7460003 0.71994388 0.35745093 0
2.7430003 0.71473807 0.35751045 0
2.7410002 0.70986599 0.35755014 0
2.7400002 0.70532221 0.35756999 0
2.7390003 0.70078206 0.35758984 0
2.7400002 0.6968804 0.35756999 0
2.7400002 0.6926595 0.35756999 0
2.7420001 0.68906623 0.3575303 0
2.7440002 0.68546587 0.35749063 0
2.7460003 0.6818583 0.35745093 0
2.7470002 0.677935 0.35743108 0
2.7300003 0.66848844 0.35776842 0
2.7320001 0.66489524 0.35772872 0
2.7340002 0.66129488 0.35768905 0
2.7360003 0.65768725 0.35764936 0
2.7380002 0.65407234 0.35760969 0
2.7390003 0.65015274 0.35758984 0
2.7410002 0.64652526 0.35755014 0
2.7430003 0.64289063 0.35751045 0
2.7450001 0.63924873 0.35747078 0
2.7470002 0.63559955 0.35743108 0
2.5310001 1.1648333 0.35787302 0
2.5260003 1.1581575 0.35798126 0
2.5230002 1.1526288 0.3580462 0
2.5210001 1.1476737 0.35808948 0
2.5200002 1.1432869 0.35811114 0
2.5190003 1.1389036 0.35813278 0
2.5190003 1.1350814 0.35813278 0
2.5190003 1.1312591 0.35813278 0
2.5190003 1.1274369 0.35813278 0
2.5190003 1.1236145 0.35813278 0
2.5200002 1.1203424 0.35811114 0
2.5210001 1.1170666 0.35808948 0
2.5220003 1.1137874 0.35806784 0
2.5230002 1.1105045 0.3580462 0
2.5250001 1.1077608 0.3580029 0
2.5270002 1.10501 0.3579596 0
2.5290003 1.102252 0.35791633 0
2.5310001 1.0994867 0.35787302 0
2.5330002 1.0967144 0.35782975 0
2.5360003 1.0944686 0.35776481 0
2.5390003 1.0922121 0.35769987 0
2.5420003 1.0899446 0.35763493 0
2.5450003 1.0876664 0.35756999 0
2.5490003 1.0859041 0.35748342 0
2.5530002 1.0841273 0.35739681 0
2.5590003 1.0833824 0.35726696 0
2.5640001 1.0820944 0.35715872 0
2.5720003 1.082347 0.35698557 0
2.5830002 1.0841237 0.35674745 0
2.6050003 0.98414588 0.35627124 0
2.6020002 0.97877228 0.35633618 0
2.6000001 0.97387314 0.35637948 0
2.5990002 0.96944308 0.35640112 0
2.5990002 0.96547651 0.35640112 0
2.5990002 0.96150982 0.35640112 0
2.6000001 0.95799971 0.35637948 0
2.6010003 0.95448589 0.35635781 0
2.6020002 0.95096838 0.35633618 0
2.6040001 0.94789827 0.3562929 0
2.6070001 0.94527018 0.35622796 0
2.6100001 0.94263119 0.35616302 0
2.6130002 0.9399814 0.35609809 0
2.6170001 0.93776453 0.35601151 0
2.6230001 0.93641704 0.35588163 0
2.6310003 0.93592834 0.35570845 0
3.0140002 0.86402482 0.34741816 0
3.0090003 0.8575781 0.34752637 0
3.0060003 0.85183835 0.34759131 0
3.0050001 0.84679484 0.34761298 0
3.0040002 0.84175503 0.34763461 0
3.0050001 0.83739698 0.34761298 0
3.0060003 0.83303541 0.34759131 0
3.0070002 0.8286702 0.34756967 0
3.0100002 0.82496881 0.34750473 0
3.0130002 0.82125658 0.3474398 0
3.0160003 0.81753349 0.34737486 0
2.7540002 0.72680193 0.35304603 0
2.7460003 0.71994388 0.35321921 0
2.7430003 0.71473807 0.35328415 0
2.7410002 0.70986599 0.35332742 0
2.7400002 0.70532221 0.35334909 0
2.7390003 0.70078206 0.35337073 0
2.7400002 0.6968804 0.35334909 0
2.7400002 0.6926595 0.35334909 0
2.7420001 0.68906623 0.35330579 0
2.7440002 0.68546587 0.35326248 0
2.7460003 0.6818583 0.35321921 0
2.7490003 0.67855191 0.35315427 0
2.7530003 0.67554134 0.3530677 0
2.7590003 0.67312604 0.35293782 0
2.7670002 0.67129517 0.35276464 0
2.5310001 1.1648333 0.35402912 0
2.5260003 1.1581575 0.35414636 0
2.5230002 1.1526288 0.35421669 0
2.5210001 1.1476737 0.3542636 0
2.5200002 1.1432869 0.35428706 0
2.5190003 1.1389036 0.35431051 0
2.5190003 1.1350814 0.35431051 0
2.5190003 1.1312591 0.35431051 0
2.5190003 1.1274369 0.35431051 0
2.5190003 1.1236145 0.35431051 0
2.5200002 1.1203424 0.35428706 0
2.5210001 1.1170666 0.3542636 0
2.5220003 1.1137874 0.35424015 0
2.5230002 1.1105045 0.35421669 0
2.5250001 1.1077608 0.35416982 0
2.5270002 1.10501 0.35412291 0
2.5290003 1.102252 0.35407603 0
2.5310001 1.0994867 0.35402912 0
2.5330002 1.0967144 0.35398221 0
2.5360003 1.0944686 0.35391188 0
2.5390003 1.0922121 0.35384151 0
2.5420003 1.0899446 0.35377118 0
2.5450003 1.0876664 0.35370082 0
2.5490003 1.0859041 0.35360703 0
2.5530002 1.0841273 0.35351321 0
2.5590003 1.0833824 0.35337251 0
2.5640001 1.0820944 0.35325527 0
2.5720003 1.082347 0.3530677 0
2.5830002 1.0841237 0.35280973 0
2.6050003 0.98414588 0.35229385 0
2.6020002 0.97877228 0.35236421 0
2.6000001 0.97387314 0.35241109 0
2.5990002 0.96944308 0.35243455 0
2.5990002 0.96547651 0.35243455 0
2.5990002 0.96150982 0.35243455 0
2.6000001 0.95799971 0.35241109 0
2.6010003 0.95448589 0.35238764 0
2.6020002 0.95096838 0.35236421 0
2.6040001 0.94789827 0.3523173 0
2.6070001 0.94527018 0.35224694 0
2.6100001 0.94263119 0.35217661 0
2.6130002 0.9399814 0.35210624 0
2.6170001 0.93776453 0.35201246 0
2.6230001 0.93641704 0.35187176 0
2.6310003 0.93592834 0.35168415 0
3.0140002 0.86402482 0.34270298 0
3.0090003 0.8575781 0.34282026 0
3.0060003 0.85183835 0.34289059 0
3.0050001 0.84679484 0.34291404 0
3.0040002 0.84175503 0.3429375 0
3.0050001 0.83739698 0.34291404 0
3.0060003 0.83303541 0.34289059 0
3.0070002 0.8286702 0.34286714 0
3.0100002 0.82496881 0.3427968 0
3.0130002 0.82125658 0.34272644 0
3.0160003 0.81753349 0.34265611 0
2.7540002 0.72680193 0.34879988 0
2.7460003 0.71994388 0.34898746 0
2.7430003 0.71473807 0.34905782 0
2.7410002 0.70986599 0.34910473 0
2.7400002 0.70532221 0.34912816 0
2.7390003 0.70078206 0.34915161 0
2.7400002 0.6968804 0.34912816 0
2.7400002 0.6926595 0.34912816 0
2.7420001 0.68906623 0.34908128 0
2.7440002 0.68546587 0.34903437 0
2.7460003 0.6818583 0.34898746 0
2.7490003 0.67855191 0.34891713 0
2.7530003 0.67554134 0.34882331 0
2.7590003 0.67312604 0.34868261 0
2.7670002 0.67129517 0.34849504 0
2.5310001 1.1648333 0.35018522 0
2.5260003 1.1581575 0.35031146 0
2.5230002 1.1526288 0.35038722 0
2.5210001 1.1476737 0.35043773 0
2.5200002 1.1432869 0.35046297 0
2.5190003 1.1389036 0.35048825 0
2.5190003 1.1350814 0.35048825 0
2.5190003 1.1312591 0.35048825 0
2.5190003 1.1274369 0.35048825 0
2.5190003 1.1236145 0.35048825 0
2.5200002 1.1203424 0.35046297 0
2.5210001 1.1170666 0.35043773 0
2.5220003 1.1137874 0.35041249 0
2.5230002 1.1105045 0.35038722 0
2.5250001 1.1077608 0.35033673 0
2.5270002 1.10501 0.35028622 0
2.5290003 1.102252 0.3502357 0
2.5310001 1.0994867 0.35018522 0
2.5330002 1.0967144 0.3501347 0
2.5360003 1.0944686 0.35005891 0
2.5390003 1.0922121 0.34998316 0
2.5420003 1.0899446 0.3499074 0
2.5450003 1.0876664 0.34983164 0
2.5490003 1.0859041 0.34973064 0
2.5530002 1.0841273 0.34962964 0
2.5590003 1.0833824 0.3494781 0
2.5640001 1.0820944 0.34935182 0
2.5720003 1.082347 0.34914982 0
2.5830002 1.0841237 0.34887204 0
2.6050003 0.98414588 0.34831646 0
2.6020002 0.97877228 0.34839222 0
2.6000001 0.97387314 0.34844273 0
2.5990002 0.96944308 0.34846798 0
2.5990002 0.96547651 0.34846798 0
2.5990002 0.96150982 0.34846798 0
2.6000001 0.95799971 0.34844273 0
2.6010003 0.95448589 0.34841746 0
2.6020002 0.95096838 0.34839222 0
2.6040001 0.94789827 0.3483417 0
2.6070001 0.94527018 0.34826595 0
2.6100001 0.94263119 0.34819019 0
2.6130002 0.9399814 0.34811443 0
2.6170001 0.93776453 0.3480134 0
2.6230001 0.93641704 0.34786189 0
2.6310003 0.93592834 0.34765986 0
3.0140002 0.86402482 0.33798784 0
3.0090003 0.8575781 0.33811411 0
3.0060003 0.85183835 0.33818987 0
3.0050001 0.84679484 0.33821511 0
3.0040002 0.84175503 0.33824039 0
3.0050001 0.83739698 0.33821511 0
3.0060003 0.83303541 0.33818987 0
3.0070002 0.8286702 0.33816463 0
3.0100002 0.82496881 0.33808887 0
3.0130002 0.82125658 0.33801311 0
3.0160003 0.81753349 0.33793736 0
2.7540002 0.72680193 0.34455371 0
2.7460003 0.71994388 0.34475574 0
2.7430003 0.71473807 0.3448315 0
2.7410002 0.70986599 0.34488201 0
2.7400002 0.70532221 0.34490725 0
2.7390003 0.70078206 0.3449325 0
2.7400002 0.6968804 0.34490725 0
2.7400002 0.6926595 0.34490725 0
2.7420001 0.68906623 0.34485674 0
2.7440002 0.68546587 0.34480625 0
2.7460003 0.6818583 0.34475574 0
2.7490003 0.67855191 0.34467998 0
2.7530003 0.67554134 0.34457895 0
2.7590003 0.67312604 0.34442744 0
2.7670002 0.67129517 0.34422541 0
2.5310001 1.1648333 0.34634128 0
2.5260003 1.1581575 0.34647655 0
2.5230002 1.1526288 0.34655774 0
2.5210001 1.1476737 0.34661186 0
2.5200002 1.1432869 0.34663892 0
2.5190003 1.1389036 0.34666598 0
2.5190003 1.1350814 0.34666598 0
2.5190003 1.1312591 0.34666598 0
2.5190003 1.1274369 0.34666598 0
2.5190003 1.1236145 0.34666598 0
2.5200002 1.1203424 0.34663892 0
2.5210001 1.1170666 0.34661186 0
2.5220003 1.1137874 0.3465848 0
2.5230002 1.1105045 0.34655774 0
2.5250001 1.1077608 0.34650362 0
2.5270002 1.10501 0.34644952 0
2.5290003 1.102252 0.3463954 0
2.5310001 1.0994867 0.34634128 0
2.5330002 1.0967144 0.34628716 0
2.5360003 1.0944686 0.34620601 0
2.5390003 1.0922121 0.34612483 0
2.5420003 1.0899446 0.34604365 0
2.5450003 1.0876664 0.34596246 0
2.5490003 1.0859041 0.34585425 0
2.5530002 1.0841273 0.34574604 0
2.5590003 1.0833824 0.34558368 0
2.5640001 1.0820944 0.3454484 0
2.5720003 1.082347 0.34523195 0
2.5830002 1.0841237 0.34493431 0
2.6050003 0.98414588 0.34433907 0
2.6020002 0.97877228 0.34442022 0
2.6000001 0.97387314 0.34447435 0
2.5990002 0.96944308 0.34450141 0
2.5990002 0.96547651 0.34450141 0
2.5990002 0.96150982 0.34450141 0
2.6000001 0.95799971 0.34447435 0
2.6010003 0.95448589 0.34444728 0
2.6020002 0.95096838 0.34442022 0
2.6040001 0.94789827 0.3443661 0
2.6070001 0.94527018 0.34428495 0
2.6100001 0.94263119 0.34420377 0
2.6130002 0.9399814 0.34412259 0
2.6170001 0.93776453 0.34401438 0
2.6230001 0.93641704 0.34385204 0
2.6310003 0.93592834 0.34363556 0
3.0140002 0.86402482 0.3332727 0
3.0090003 0.8575781 0.33340797 0
3.0060003 0.85183835 0.33348915 0
3.0050001 0.84679484 0.33351621 0
3.0040002 0.84175503 0.33354327 0
3.0050001 0.83739698 0.33351621 0
3.0060003 0.83303541 0.33348915 0
3.0070002 0.8286702 0.33346209 0
3.0100002 0.82496881 0.33338094 0
3.0130002 0.82125658 0.33329976 0
3.0160003 0.81753349 0.33321857 0
2.7540002 0.72680193 0.34030753 0
2.7460003 0.71994388 0.34052402 0
2.7430003 0.71473807 0.34060517 0
2.7410002 0.70986599 0.34065929 0
2.7400002 0.70532221 0.34068635 0
2.7390003 0.70078206 0.34071338 0
2.7400002 0.6968804 0.34068635 0
2.7400002 0.6926595 0.34068635 0
2.7420001 0.68906623 0.34063223 0
2.7440002 0.68546587 0.34057811 0
2.7460003 0.6818583 0.34052402 0
2.7490003 0.67855191 0.34044284 0
2.7530003 0.67554134 0.34033459 0
2.7590003 0.67312604 0.34017226 0
2.7670002 0.67129517 0.33995581 0
2.5310001 1.1648333 0.34249738 0
2.5260003 1.1581575 0.34264168 0
2.5230002 1.1526288 0.34272826 0
2.5210001 1.1476737 0.34278598 0
2.5200002 1.1432869 0.34281483 0
2.5190003 1.1389036 0.34284371 0
2.5190003 1.1350814 0.34284371 0
2.5190003 1.1312591 0.34284371 0
2.5190003 1.1274369 0.34284371 0
2.5190003 1.1236145 0.34284371 0
2.5200002 1.1203424 0.34281483 0
2.5210001 1.1170666 0.34278598 0
2.5220003 1.1137874 0.34275711 0
2.5230002 1.1105045 0.34272826 0
2.5250001 1.1077608 0.34267053 0
2.5270002 1.10501 0.3426128 0
2.5290003 1.102252 0.34255508 0
2.5310001 1.0994867 0.34249738 0
2.5330002 1.0967144 0.34243965 0
2.5360003 1.0944686 0.34235305 0
2.5390003 1.0922121 0.34226647 0
2.5420003 1.0899446 0.34217989 0
2.5450003 1.0876664 0.34209332 0
2.5490003 1.0859041 0.34197786 0
2.5530002 1.0841273 0.34186244 0
2.5590003 1.0833824 0.34168926 0
2.5640001 1.0820944 0.34154496 0
2.5720003 1.082347 0.34131408 0
2.5830002 1.0841237 0.34099659 0
2.6050003 0.98414588 0.34036165 0
2.6020002 0.97877228 0.34044823 0
2.6000001 0.97387314 0.34050596 0
2.5990002 0.96944308 0.34053481 0
2.5990002 0.96547651 0.34053481 0
2.5990002 0.96150982 0.34053481 0
2.6000001 0.95799971 0.34050596 0
2.6010003 0.95448589 0.34047711 0
2.6020002 0.95096838 0.34044823 0
2.6040001 0.94789827 0.34039053 0
2.6070001 0.94527018 0.34030396 0
2.6100001 0.94263119 0.34021735 0
2.6130002 0.9399814 0.34013078 0
2.6170001 0.93776453 0.34001532 0
2.6230001 0.93641704 0.33984217 0
2.6310003 0.93592834 0.33961126 0
3.0140002 0.86402482 0.32855755 0
3.0090003 0.8575781 0.32870185 0
3.0060003 0.85183835 0.32878843 0
3.0050001 0.84679484 0.32881731 0
3.0040002 0.84175503 0.32884616 0
3.0050001 0.83739698 0.32881731 0
3.0060003 0.83303541 0.32878843 0
3.0070002 0.8286702 0.32875955 0
3.0100002 0.82496881 0.32867298 0
3.0130002 0.82125658 0.3285864 0
3.0160003 0.81753349 0.32849982 0
2.7540002 0.72680193 0.33606139 0
2.7460003 0.71994388 0.33629227 0
2.7430003 0.71473807 0.33637884 0
2.7410002 0.70986599 0.33643657 0
2.7400002 0.70532221 0.33646542 0
2.7390003 0.70078206 0.3364943 0
2.7400002 0.6968804 0.33646542 0
2.7400002 0.6926595 0.33646542 0
2.7420001 0.68906623 0.33640772 0
2.7440002 0.68546587 0.33634999 0
2.7460003 0.6818583 0.33629227 0
2.7490003 0.67855191 0.33620569 0
2.7530003 0.67554134 0.33609024 0
2.7590003 0.67312604 0.33591706 0
2.7670002 0.67129517 0.33568621 0
2.5310001 1.1648333 0.33865345 0
2.5260003 1.1581575 0.33880678 0
2.5230002 1.1526288 0.33889878 0
2.5210001 1.1476737 0.33896011 0
2.5200002 1.1432869 0.33899078 0
2.5190003 1.1389036 0.33902144 0
2.5190003 1.1350814 0.33902144 0
2.5190003 1.1312591 0.33902144 0
2.5190003 1.1274369 0.33902144 0
2.5190003 1.1236145 0.33902144 0
2.5200002 1.1203424 0.33899078 0
2.5210001 1.1170666 0.33896011 0
2.5220003 1.1137874 0.33892941 0
2.5230002 1.1105045 0.33889878 0
2.5250001 1.1077608 0.33883744 0
2.5270002 1.10501 0.33877611 0
2.5290003 1.102252 0.33871478 0
2.5310001 1.0994867 0.33865345 0
2.5330002 1.0967144 0.33859211 0
2.5360003 1.0944686 0.33850014 0
2.5390003 1.0922121 0.33840814 0
2.5420003 1.0899446 0.33831614 0
2.5450003 1.0876664 0.33822414 0
2.5490003 1.0859041 0.33810148 0
2.5530002 1.0841273 0.33797884 0
2.5590003 1.0833824 0.33779484 0
2.5640001 1.0820944 0.33764151 0
2.5720003 1.082347 0.3373962 0
2.5830002 1.0841237 0.3370589 0
2.6050003 0.98414588 0.33638427 0
2.6020002 0.97877228 0.33647627 0
2.6000001 0.97387314 0.3365376 0
2.5990002 0.96944308 0.33656824 0
2.5990002 0.96547651 0.33656824 0
2.5990002 0.96150982 0.33656824 0
2.6000001 0.95799971 0.3365376 0
2.6010003 0.95448589 0.3365069 0
2.6020002 0.95096838 0.33647627 0
2.6040001 0.94789827 0.33641493 0
2.6070001 0.94527018 0.33632293 0
2.6100001 0.94263119 0.33623093 0
2.6130002 0.9399814 0.33613893 0
2.6170001 0.93776453 0.3360163 0
2.6230001 0.93641704 0.3358323 0
2.6310003 0.93592834 0.33558697 0
3.0140002 0.86402482 0.32384241 0
3.0090003 0.8575781 0.32399571 0
3.0060003 0.85183835 0.32408771 0
3.0050001 0.84679484 0.32411838 0
3.0040002 0.84175503 0.32414904 0
3.0050001 0.83739698 0.32411838 0
3.0060003 0.83303541 0.32408771 0
3.0070002 0.8286702 0.32405704 0
3.0100002 0.82496881 0.32396504 0
3.0130002 0.82125658 0.32387304 0
3.0160003 0.81753349 0.32378104 0
2.7540002 0.72680193 0.33181521 0
2.7460003 0.71994388 0.33206052 0
2.7430003 0.71473807 0.33215255 0
2.7410002 0.70986599 0.33221385 0
2.7400002 0.70532221 0.33224452 0
2.7390003 0.70078206 0.33227518 0
2.7400002 0.6968804 0.33224452 0
2.7400002 0.6926595 0.33224452 0
2.7420001 0.68906623 0.33218318 0
2.7440002 0.68546587 0.33212185 0
2.7460003 0.6818583 0.33206052 0
2.7490003 0.67855191 0.33196855 0
2.7530003 0.67554134 0.33184588 0
2.7590003 0.67312604 0.33166188 0
2.7670002 0.67129517 0.33141658 0
2.5310001 1.1648333 0.33480954 0
2.5260003 1.1581575 0.33497187 0
2.5230002 1.1526288 0.3350693 0
2.5210001 1.1476737 0.33513421 0
2.5200002 1.1432869 0.33516669 0
2.5190003 1.1389036 0.33519918 0
2.5190003 1.1350814 0.33519918 0
2.5190003 1.1312591 0.33519918 0
2.5190003 1.1274369 0.33519918 0
2.5190003 1.1236145 0.33519918 0
2.5200002 1.1203424 0.33516669 0
2.5210001 1.1170666 0.33513421 0
2.5220003 1.1137874 0.33510175 0
2.5230002 1.1105045 0.3350693 0
2.5250001 1.1077608 0.33500436 0
2.5270002 1.10501 0.33493942 0
2.5290003 1.102252 0.33487448 0
2.5310001 1.0994867 0.33480954 0
2.5330002 1.0967144 0.3347446 0
2.5360003 1.0944686 0.33464718 0
2.5390003 1.0922121 0.33454978 0
2.5420003 1.0899446 0.33445239 0
2.5450003 1.0876664 0.33435497 0
2.5490003 1.0859041 0.33422512 0
2.5530002 1.0841273 0.33409524 0
2.5590003 1.0833824 0.33390042 0
2.5640001 1.0820944 0.33373809 0
2.5720003 1.082347 0.33347833 0
2.5830002 1.0841237 0.33312118 0
2.6050003 0.98414588 0.33240688 0
2.6020002 0.97877228 0.33250427 0
2.6000001 0.97387314 0.33256921 0
2.5990002 0.96944308 0.33260167 0
2.5990002 0.96547651 0.33260167 0
2.5990002 0.96150982 0.33260167 0
2.6000001 0.95799971 0.33256921 0
2.6010003 0.95448589 0.33253673 0
2.6020002 0.95096838 0.33250427 0
2.6040001 0.94789827 0.33243933 0
2.6070001 0.94527018 0.33234194 0
2.6100001 0.94263119 0.33224452 0
2.6130002 0.9399814 0.33214712 0
2.6170001 0.93776453 0.33201724 0
2.6230001 0.93641704 0.33182243 0
2.6310003 0.93592834 0.33156267 0
3.0140002 0.86402482 0.31912723 0
3.0090003 0.8575781 0.31928957 0
3.0060003 0.85183835 0.31938696 0
3.0050001 0.84679484 0.31941944 0
3.0040002 0.84175503 0.31945193 0
3.0050001 0.83739698 0.31941944 0
3.0060003 0.83303541 0.31938696 0
3.0070002 0.8286702 0.3193545 0
3.0100002 0.82496881 0.31925711 0
3.0130002 0.82125658 0.31915969 0
3.0160003 0.81753349 0.31906229 0
2.7540002 0.72680193 0.32756907 0
2.7460003 0.71994388 0.32782879 0
2.7430003 0.71473807 0.32792622 0
2.7410002 0.70986599 0.32799113 0
2.7400002 0.70532221 0.32802361 0
2.7390003 0.70078206 0.32805607 0
2.7400002 0.6968804 0.32802361 0
2.7400002 0.6926595 0.32802361 0
2.7420001 0.68906623 0.32795867 0
2.7440002 0.68546587 0.32789373 0
2.7460003 0.6818583 0.32782879 0
2.7490003 0.67855191 0.32773137 0
2.7530003 0.67554134 0.32760152 0
2.7590003 0.67312604 0.3274067 0
2.7670002 0.67129517 0.32714695 0
2.5310001 1.1648333 0.33096564 0
2.5260003 1.1581575 0.33113697 0
2.5230002 1.1526288 0.33123982 0
2.5210001 1.1476737 0.33130836 0
2.5200002 1.1432869 0.33134261 0
2.5190003 1.1389036 0.33137688 0
2.5190003 1.1350814 0.33137688 0
2.5190003 1.1312591 0.33137688 0
2.5190003 1.1274369 0.33137688 0
2.5190003 1.1236145 0.33137688 0
2.5200002 1.1203424 0.33134261 0
2.5210001 1.1170666 0.33130836 0
2.5220003 1.1137874 0.33127406 0
2.5230002 1.1105045 0.33123982 0
2.5250001 1.1077608 0.33117127 0
2.5270002 1.10501 0.33110273 0
2.5290003 1.102252 0.33103415 0
2.5310001 1.0994867 0.33096564 0
