# .PCD v0.7 - Point Cloud Data file format
VERSION 0.7
FIELDS x y z intensity
SIZE 4 4 4 4
TYPE F F F F
COUNT 1 1 1 1
WIDTH 1460
HEIGHT 1
VIEWPOINT 0 0 0 1 0 0 0
POINTS 1460
DATA ascii
4.5180001 -2.1407192 1.4216473 0
4.5130005 -2.1455951 1.4204118 0
4.5080004 -2.1504526 1.4191761 0
4.5040002 -2.1558063 1.4181875 0
4.4990001 -2.1606295 1.4169519 0
4.4940004 -2.1654351 1.4157164 0
4.4900002 -2.1707418 1.4147279 0
4.4850001 -2.1755128 1.4134923 0
4.4800005 -2.1802659 1.4122568 0
4.4760003 -2.1855259 1.4112682 0
4.4710002 -2.1902447 1.4100325 0
4.4670005 -2.1954739 1.4090441 0
4.4620004 -2.2001584 1.4078085 0
4.4570003 -2.2048247 1.4065729 0
4.4530001 -2.210007 1.4055843 0
4.4480004 -2.2146394 1.4043489 0
4.4440002 -2.2197909 1.4033602 0
4.4390001 -2.2243888 1.4021246 0
4.4350004 -2.2295101 1.4011362 0
4.4300003 -2.2340734 1.3999006 0
4.4260001 -2.2391639 1.3989121 0
4.4210005 -2.2436934 1.3976766 0
4.4170003 -2.2487531 1.396688 0
4.4120002 -2.253248 1.3954523 0
4.4080005 -2.2582772 1.394464 0
4.4030004 -2.2627378 1.3932283 0
4.3990002 -2.2677362 1.3922398 0
4.3940001 -2.2721629 1.3910042 0
4.3900003 -2.2771304 1.3900157 0
4.3850002 -2.2815228 1.3887801 0
4.381 -2.2864597 1.3877916 0
4.3770003 -2.2913823 1.3868032 0
4.3720002 -2.2957239 1.3855674 0
4.368 -2.300616 1.3845791 0
4.3640003 -2.3054934 1.3835906 0
4.3590002 -2.3097847 1.3823549 0
4.355 -2.3146317 1.3813665 0
5.0680003 -1.5532116 1.549144 0
5.0620003 -1.5596837 1.5476722 0
5.0560002 -1.5661341 1.5462003 0
5.0500002 -1.5725628 1.5447284 0
5.0440001 -1.57897 1.5432564 0
5.0380001 -1.5853555 1.5417845 0
5.0320005 -1.5917195 1.5403128 0
5.0260005 -1.5980617 1.5388408 0
5.0200005 -1.6043822 1.5373689 0
5.0140004 -1.6106811 1.5358969 0
5.0080004 -1.6169583 1.534425 0
5.0020003 -1.6232139 1.532953 0
4.9970002 -1.6297923 1.5317265 0
4.9910002 -1.6360065 1.5302546 0
4.9850001 -1.6421989 1.5287826 0
4.9790001 -1.6483697 1.5273107 0
4.9730005 -1.6545191 1.5258389 0
4.9670005 -1.6606466 1.5243671 0
4.9620004 -1.6671077 1.5231403 0
4.9560003 -1.6731938 1.5216684 0
4.9500003 -1.6792581 1.5201966 0
4.9440002 -1.6853009 1.5187247 0
4.9390001 -1.6916845 1.517498 0
4.9330001 -1.6976858 1.516026 0
4.9270005 -1.7036656 1.5145543 0
4.9210005 -1.7096235 1.5130825 0
4.9160004 -1.7159295 1.5118557 0
4.9100003 -1.7218461 1.5103838 0
4.9050002 -1.7281142 1.5091572 0
4.8990002 -1.7339892 1.5076853 0
4.8930001 -1.7398425 1.5062133 0
4.8880005 -1.7460533 1.5049869 0
4.8820004 -1.7518651 1.503515 0
4.8760004 -1.7576553 1.502043 0
4.8710003 -1.7638081 1.5008165 0
4.8650002 -1.7695568 1.4993445 0
4.8600001 -1.7756717 1.4981179 0
4.8540001 -1.781379 1.496646 0
4.8490005 -1.7874562 1.4954195 0
4.8430004 -1.7931218 1.4939476 0
4.8380003 -1.799161 1.492721 0
4.8320003 -1.8047851 1.4912491 0
4.8270001 -1.8107864 1.4900224 0
4.8210001 -1.8163691 1.4885504 0
4.8160005 -1.8223326 1.487324 0
4.8110003 -1.8282781 1.4860975 0
4.8050003 -1.8337995 1.4846255 0
4.8000002 -1.8397069 1.4833989 0
4.7940001 -1.8451868 1.4819269 0
4.7890005 -1.8510566 1.4807005 0
4.7840004 -1.8569081 1.4794738 0
4.7780004 -1.8623267 1.4780018 0
4.7730002 -1.8681403 1.4767753 0
4.7680001 -1.8739358 1.4755486 0
4.7620001 -1.8792932 1.4740767 0
4.7570004 -1.8850511 1.4728503 0
4.7520003 -1.8907907 1.4716235 0
4.7470002 -1.8965125 1.470397 0
4.7410002 -1.9017885 1.4689251 0
4.7360005 -1.9074725 1.4676986 0
4.7310004 -1.9131383 1.466472 0
4.7260003 -1.9187858 1.4652454 0
4.7210002 -1.9244156 1.4640187 0
4.7150002 -1.9295906 1.4625468 0
4.7100005 -1.9351826 1.4613203 0
4.7050004 -1.9407562 1.4600937 0
4.7000003 -1.9463118 1.4588672 0
4.6950002 -1.9518497 1.4576404 0
4.6900005 -1.9573694 1.456414 0
4.6850004 -1.962871 1.4551874 0
4.6790004 -1.9679054 1.4537154 0
4.6740003 -1.973369 1.4524889 0
4.6690001 -1.9788148 1.4512621 0
4.6640005 -1.9842426 1.4500357 0
4.6590004 -1.9896522 1.4488091 0
4.6540003 -1.9950435 1.4475825 0
4.6490002 -2.000417 1.4463558 0
4.6440005 -2.0057728 1.4451294 0
4.6390004 -2.0111103 1.4439027 0
4.6340003 -2.0164297 1.4426762 0
4.6290002 -2.0217309 1.4414495 0
4.6240001 -2.0270143 1.4402229 0
4.6190004 -2.0322797 1.4389964 0
4.6140003 -2.0375271 1.4377698 0
4.6090002 -2.0427561 1.4365431 0
4.6040001 -2.0479672 1.4353166 0
4.6000004 -2.0536387 1.4343352 0
4.5950003 -2.0588155 1.4331087 0
4.5900002 -2.0639741 1.4318821 0
4.5850005 -2.0691154 1.4306556 0
4.5800004 -2.0742381 1.4294289 0
4.5750003 -2.0793428 1.4282024 0
4.5700002 -2.0844295 1.4269757 0
4.5650001 -2.0894983 1.4257492 0
4.5610003 -2.0950415 1.424768 0
4.5560002 -2.1000757 1.4235413 0
4.5510001 -2.105092 1.4223146 0
4.5460005 -2.1100907 1.4210882 0
4.5410004 -2.1150711 1.4198616 0
4.5370002 -2.1205347 1.4188802 0
4.5320001 -2.1254807 1.4176537 0
4.5270004 -2.1304088 1.4164271 0
4.5230002 -2.1358254 1.4154458 0
4.5180001 -2.1407192 1.4142191 0
4.5130005 -2.1455951 1.4129927 0
4.5080004 -2.1504526 1.4117661 0
4.5040002 -2.1558063 1.4107848 0
4.4990001 -2.1606295 1.4095582 0
4.4940004 -2.1654351 1.4083316 0
4.4900002 -2.1707418 1.4073503 0
4.4850001 -2.1755128 1.4061236 0
4.4800005 -2.1802659 1.4048972 0
4.4760003 -2.1855259 1.4039159 0
4.4710002 -2.1902447 1.4026892 0
4.4670005 -2.1954739 1.401708 0
4.4620004 -2.2001584 1.4004813 0
4.4570003 -2.2048247 1.3992548 0
4.4530001 -2.210007 1.3982735 0
4.4480004 -2.2146394 1.397047 0
4.4440002 -2.2197909 1.3960656 0
4.4390001 -2.2243888 1.394839 0
4.4350004 -2.2295101 1.393858 0
4.4300003 -2.2340734 1.3926312 0
4.4260001 -2.2391639 1.39165 0
4.4210005 -2.2436934 1.3904234 0
4.4170003 -2.2487531 1.3894421 0
4.4120002 -2.253248 1.3882155 0
4.4080005 -2.2582772 1.3872343 0
4.4030004 -2.2627378 1.3860077 0
4.3990002 -2.2677362 1.3850263 0
4.3940001 -2.2721629 1.3837998 0
4.3900003 -2.2771304 1.3828185 0
4.3850002 -2.2815228 1.3815919 0
4.381 -2.2864597 1.3806106 0
4.3770003 -2.2913823 1.3796294 0
4.3720002 -2.2957239 1.3784028 0
4.368 -2.300616 1.3774215 0
4.3640003 -2.3054934 1.3764402 0
4.3590002 -2.3097847 1.3752136 0
4.355 -2.3146317 1.3742323 0
5.0680003 -1.5532116 1.5407239 0
5.0620003 -1.5596837 1.5392628 0
5.0560002 -1.5661341 1.5378017 0
5.0500002 -1.5725628 1.5363406 0
5.0440001 -1.57897 1.5348796 0
5.0380001 -1.5853555 1.5334184 0
5.0320005 -1.5917195 1.5319575 0
5.0260005 -1.5980617 1.5304964 0
5.0200005 -1.6043822 1.5290353 0
5.0140004 -1.6106811 1.5275742 0
5.0080004 -1.6169583 1.526113 0
5.0020003 -1.6232139 1.524652 0
4.9970002 -1.6297923 1.5234344 0
4.9910002 -1.6360065 1.5219734 0
4.9850001 -1.6421989 1.5205121 0
4.9790001 -1.6483697 1.5190511 0
4.9730005 -1.6545191 1.51759 0
4.9670005 -1.6606466 1.516129 0
4.9620004 -1.6671077 1.5149114 0
4.9560003 -1.6731938 1.5134504 0
4.9500003 -1.6792581 1.5119892 0
4.9440002 -1.6853009 1.5105281 0
4.9390001 -1.6916845 1.5093106 0
4.9330001 -1.6976858 1.5078495 0
4.9270005 -1.7036656 1.5063885 0
4.9210005 -1.7096235 1.5049273 0
4.9160004 -1.7159295 1.5037098 0
4.9100003 -1.7218461 1.5022486 0
4.9050002 -1.7281142 1.501031 0
4.8990002 -1.7339892 1.49957 0
4.8930001 -1.7398425 1.4981089 0
4.8880005 -1.7460533 1.4968915 0
4.8820004 -1.7518651 1.4954304 0
4.8760004 -1.7576553 1.4939693 0
4.8710003 -1.7638081 1.4927516 0
4.8650002 -1.7695568 1.4912906 0
4.8600001 -1.7756717 1.4900728 0
4.8540001 -1.781379 1.4886118 0
4.8490005 -1.7874562 1.4873943 0
4.8430004 -1.7931218 1.4859333 0
4.8380003 -1.799161 1.4847156 0
4.8320003 -1.8047851 1.4832546 0
4.8270001 -1.8107864 1.4820369 0
4.8210001 -1.8163691 1.4805759 0
4.8160005 -1.8223326 1.4793583 0
4.8110003 -1.8282781 1.4781408 0
4.8050003 -1.8337995 1.4766797 0
4.8000002 -1.8397069 1.4754621 0
4.7940001 -1.8451868 1.474001 0
4.7890005 -1.8510566 1.4727836 0
4.7840004 -1.8569081 1.471566 0
4.7780004 -1.8623267 1.4701048 0
4.7730002 -1.8681403 1.4688873 0
4.7680001 -1.8739358 1.4676696 0
4.7620001 -1.8792932 1.4662086 0
4.7570004 -1.8850511 1.4649911 0
4.7520003 -1.8907907 1.4637735 0
4.7470002 -1.8965125 1.4625559 0
4.7410002 -1.9017885 1.4610949 0
4.7360005 -1.9074725 1.4598773 0
4.7310004 -1.9131383 1.4586598 0
4.7260003 -1.9187858 1.457442 0
4.7210002 -1.9244156 1.4562246 0
4.7150002 -1.9295906 1.4547634 0
4.7100005 -1.9351826 1.4535459 0
4.7050004 -1.9407562 1.4523283 0
4.7000003 -1.9463118 1.4511107 0
4.6950002 -1.9518497 1.4498931 0
4.6900005 -1.9573694 1.4486756 0
4.6850004 -1.962871 1.447458 0
4.6790004 -1.9679054 1.445997 0
4.6740003 -1.973369 1.4447794 0
4.6690001 -1.9788148 1.4435618 0
4.6640005 -1.9842426 1.4423443 0
4.6590004 -1.9896522 1.4411266 0
4.6540003 -1.9950435 1.4399091 0
4.6490002 -2.000417 1.4386914 0
4.6440005 -2.0057728 1.437474 0
4.6390004 -2.0111103 1.4362563 0
4.6340003 -2.0164297 1.4350388 0
4.6290002 -2.0217309 1.4338212 0
4.6240001 -2.0270143 1.4326036 0
4.6190004 -2.0322797 1.4313861 0
4.6140003 -2.0375271 1.4301685 0
4.6090002 -2.0427561 1.4289509 0
4.6040001 -2.0479672 1.4277333 0
4.6000004 -2.0536387 1.4267594 0
4.5950003 -2.0588155 1.4255418 0
4.5900002 -2.0639741 1.4243242 0
4.5850005 -2.0691154 1.4231067 0
4.5800004 -2.0742381 1.4218891 0
4.5750003 -2.0793428 1.4206715 0
4.5700002 -2.0844295 1.4194539 0
4.5650001 -2.0894983 1.4182363 0
4.5610003 -2.0950415 1.4172623 0
4.5560002 -2.1000757 1.4160446 0
4.5510001 -2.105092 1.4148271 0
4.5460005 -2.1100907 1.4136095 0
4.5410004 -2.1150711 1.412392 0
4.5370002 -2.1205347 1.4114178 0
4.5320001 -2.1254807 1.4102004 0
4.5270004 -2.1304088 1.4089828 0
4.5230002 -2.1358254 1.4080087 0
4.5180001 -2.1407192 1.4067911 0
4.5130005 -2.1455951 1.4055736 0
4.5080004 -2.1504526 1.404356 0
4.5040002 -2.1558063 1.4033819 0
4.4990001 -2.1606295 1.4021643 0
4.4940004 -2.1654351 1.4009469 0
4.4900002 -2.1707418 1.3999727 0
4.4850001 -2.1755128 1.3987551 0
4.4800005 -2.1802659 1.3975376 0
4.4760003 -2.1855259 1.3965635 0
4.4710002 -2.1902447 1.3953459 0
4.4670005 -2.1954739 1.394372 0
4.4620004 -2.2001584 1.3931544 0
4.4570003 -2.2048247 1.3919368 0
4.4530001 -2.210007 1.3909626 0
4.4480004 -2.2146394 1.3897451 0
4.4440002 -2.2197909 1.3887711 0
4.4390001 -2.2243888 1.3875535 0
4.4350004 -2.2295101 1.3865795 0
4.4300003 -2.2340734 1.3853619 0
4.4260001 -2.2391639 1.3843879 0
4.4210005 -2.2436934 1.3831702 0
4.4170003 -2.2487531 1.3821962 0
4.4120002 -2.253248 1.3809786 0
4.4080005 -2.2582772 1.3800046 0
4.4030004 -2.2627378 1.378787 0
4.3990002 -2.2677362 1.3778129 0
4.3940001 -2.2721629 1.3765954 0
4.3900003 -2.2771304 1.3756213 0
4.3850002 -2.2815228 1.3744037 0
4.381 -2.2864597 1.3734297 0
4.3770003 -2.2913823 1.3724556 0
4.3720002 -2.2957239 1.3712381 0
4.368 -2.300616 1.3702641 0
4.3640003 -2.3054934 1.3692899 0
4.3590002 -2.3097847 1.3680724 0
4.355 -2.3146317 1.3670983 0
5.0680003 -1.5532116 1.5323037 0
5.0620003 -1.5596837 1.5308534 0
5.0560002 -1.5661341 1.5294031 0
5.0500002 -1.5725628 1.5279529 0
5.0440001 -1.57897 1.5265027 0
5.0380001 -1.5853555 1.5250524 0
5.0320005 -1.5917195 1.5236022 0
5.0260005 -1.5980617 1.5221519 0
5.0200005 -1.6043822 1.5207018 0
5.0140004 -1.6106811 1.5192515 0
5.0080004 -1.6169583 1.5178012 0
5.0020003 -1.6232139 1.5163509 0
4.9970002 -1.6297923 1.5151423 0
4.9910002 -1.6360065 1.513692 0
4.9850001 -1.6421989 1.5122417 0
4.9790001 -1.6483697 1.5107914 0
4.9730005 -1.6545191 1.5093412 0
4.9670005 -1.6606466 1.5078909 0
4.9620004 -1.6671077 1.5066825 0
4.9560003 -1.6731938 1.5052322 0
4.9500003 -1.6792581 1.5037819 0
4.9440002 -1.6853009 1.5023316 0
4.9390001 -1.6916845 1.5011231 0
4.9330001 -1.6976858 1.4996728 0
4.9270005 -1.7036656 1.4982226 0
4.9210005 -1.7096235 1.4967723 0
4.9160004 -1.7159295 1.4955637 0
4.9100003 -1.7218461 1.4941136 0
4.9050002 -1.7281142 1.492905 0
4.8990002 -1.7339892 1.4914547 0
4.8930001 -1.7398425 1.4900044 0
4.8880005 -1.7460533 1.4887959 0
4.8820004 -1.7518651 1.4873457 0
4.8760004 -1.7576553 1.4858954 0
4.8710003 -1.7638081 1.4846867 0
4.8650002 -1.7695568 1.4832366 0
4.8600001 -1.7756717 1.482028 0
4.8540001 -1.781379 1.4805777 0
4.8490005 -1.7874562 1.4793693 0
4.8430004 -1.7931218 1.477919 0
4.8380003 -1.799161 1.4767103 0
4.8320003 -1.8047851 1.47526 0
4.8270001 -1.8107864 1.4740516 0
4.8210001 -1.8163691 1.4726013 0
4.8160005 -1.8223326 1.4713928 0
4.8110003 -1.8282781 1.4701842 0
4.8050003 -1.8337995 1.4687339 0
4.8000002 -1.8397069 1.4675254 0
4.7940001 -1.8451868 1.4660751 0
4.7890005 -1.8510566 1.4648666 0
4.7840004 -1.8569081 1.4636581 0
4.7780004 -1.8623267 1.4622078 0
4.7730002 -1.8681403 1.4609991 0
4.7680001 -1.8739358 1.4597906 0
4.7620001 -1.8792932 1.4583403 0
4.7570004 -1.8850511 1.4571319 0
4.7520003 -1.8907907 1.4559233 0
4.7470002 -1.8965125 1.4547148 0
4.7410002 -1.9017885 1.4532645 0
4.7360005 -1.9074725 1.4520559 0
4.7310004 -1.9131383 1.4508474 0
4.7260003 -1.9187858 1.4496388 0
4.7210002 -1.9244156 1.4484303 0
4.7150002 -1.9295906 1.44698 0
4.7100005 -1.9351826 1.4457715 0
4.7050004 -1.9407562 1.4445629 0
4.7000003 -1.9463118 1.4433544 0
4.6950002 -1.9518497 1.4421458 0
4.6900005 -1.9573694 1.4409373 0
4.6850004 -1.962871 1.4397287 0
4.6790004 -1.9679054 1.4382784 0
4.6740003 -1.973369 1.4370699 0
4.6690001 -1.9788148 1.4358613 0
4.6640005 -1.9842426 1.4346528 0
4.6590004 -1.9896522 1.4334443 0
4.6540003 -1.9950435 1.4322356 0
4.6490002 -2.000417 1.4310272 0
4.6440005 -2.0057728 1.4298186 0
4.6390004 -2.0111103 1.4286101 0
4.6340003 -2.0164297 1.4274014 0
4.6290002 -2.0217309 1.4261929 0
4.6240001 -2.0270143 1.4249843 0
4.6190004 -2.0322797 1.4237759 0
4.6140003 -2.0375271 1.4225672 0
4.6090002 -2.0427561 1.4213587 0
4.6040001 -2.0479672 1.4201502 0
4.6000004 -2.0536387 1.4191834 0
4.5950003 -2.0588155 1.4179747 0
4.5900002 -2.0639741 1.4167662 0
4.5850005 -2.0691154 1.4155577 0
4.5800004 -2.0742381 1.4143492 0
4.5750003 -2.0793428 1.4131405 0
4.5700002 -2.0844295 1.411932 0
4.5650001 -2.0894983 1.4107233 0
4.5610003 -2.0950415 1.4097567 0
4.5560002 -2.1000757 1.408548 0
4.5510001 -2.105092 1.4073395 0
4.5460005 -2.1100907 1.4061309 0
4.5410004 -2.1150711 1.4049225 0
4.5370002 -2.1205347 1.4039556 0
4.5320001 -2.1254807 1.4027469 0
4.5270004 -2.1304088 1.4015385 0
4.5230002 -2.1358254 1.4005716 0
4.5180001 -2.1407192 1.399363 0
4.5130005 -2.1455951 1.3981545 0
4.5080004 -2.1504526 1.396946 0
4.5040002 -2.1558063 1.3959792 0
4.4990001 -2.1606295 1.3947705 0
4.4940004 -2.1654351 1.3935621 0
4.4900002 -2.1707418 1.3925951 0
4.4850001 -2.1755128 1.3913866 0
4.4800005 -2.1802659 1.3901781 0
4.4760003 -2.1855259 1.3892112 0
4.4710002 -2.1902447 1.3880026 0
4.4670005 -2.1954739 1.3870358 0
4.4620004 -2.2001584 1.3858273 0
4.4570003 -2.2048247 1.3846186 0
4.4530001 -2.210007 1.3836519 0
4.4480004 -2.2146394 1.3824434 0
4.4440002 -2.2197909 1.3814764 0
4.4390001 -2.2243888 1.3802679 0
4.4350004 -2.2295101 1.3793012 0
4.4300003 -2.2340734 1.3780925 0
4.4260001 -2.2391639 1.3771256 0
4.4210005 -2.2436934 1.3759172 0
4.4170003 -2.2487531 1.3749503 0
4.4120002 -2.253248 1.3737417 0
4.4080005 -2.2582772 1.372775 0
4.4030004 -2.2627378 1.3715664 0
4.3990002 -2.2677362 1.3705995 0
4.3940001 -2.2721629 1.369391 0
4.3900003 -2.2771304 1.3684242 0
4.3850002 -2.2815228 1.3672155 0
4.381 -2.2864597 1.3662487 0
4.3770003 -2.2913823 1.3652819 0
4.3720002 -2.2957239 1.3640734 0
4.368 -2.300616 1.3631065 0
4.3640003 -2.3054934 1.3621397 0
4.3590002 -2.3097847 1.3609312 0
4.355 -2.3146317 1.3599643 0
5.0680003 -1.5532116 1.5238836 0
5.0620003 -1.5596837 1.5224441 0
5.0560002 -1.5661341 1.5210047 0
5.0500002 -1.5725628 1.5195652 0
5.0440001 -1.57897 1.5181258 0
5.0380001 -1.5853555 1.5166863 0
5.0320005 -1.5917195 1.515247 0
5.0260005 -1.5980617 1.5138075 0
5.0200005 -1.6043822 1.5123681 0
5.0140004 -1.6106811 1.5109286 0
5.0080004 -1.6169583 1.5094892 0
5.0020003 -1.6232139 1.5080497 0
4.9970002 -1.6297923 1.5068501 0
4.9910002 -1.6360065 1.5054108 0
4.9850001 -1.6421989 1.5039712 0
4.9790001 -1.6483697 1.5025319 0
4.9730005 -1.6545191 1.5010924 0
4.9670005 -1.6606466 1.4996531 0
4.9620004 -1.6671077 1.4984535 0
4.9560003 -1.6731938 1.497014 0
4.9500003 -1.6792581 1.4955746 0
4.9440002 -1.6853009 1.4941351 0
4.9390001 -1.6916845 1.4929355 0
4.9330001 -1.6976858 1.4914961 0
4.9270005 -1.7036656 1.4900568 0
4.9210005 -1.7096235 1.4886173 0
4.9160004 -1.7159295 1.4874178 0
4.9100003 -1.7218461 1.4859784 0
4.9050002 -1.7281142 1.4847789 0
4.8990002 -1.7339892 1.4833393 0
4.8930001 -1.7398425 1.4819 0
4.8880005 -1.7460533 1.4807005 0
4.8820004 -1.7518651 1.4792609 0
4.8760004 -1.7576553 1.4778216 0
4.8710003 -1.7638081 1.476622 0
4.8650002 -1.7695568 1.4751825 0
4.8600001 -1.7756717 1.4739829 0
4.8540001 -1.781379 1.4725436 0
4.8490005 -1.7874562 1.4713441 0
4.8430004 -1.7931218 1.4699047 0
4.8380003 -1.799161 1.4687051 0
4.8320003 -1.8047851 1.4672656 0
4.8270001 -1.8107864 1.4660661 0
4.8210001 -1.8163691 1.4646266 0
4.8160005 -1.8223326 1.4634272 0
4.8110003 -1.8282781 1.4622276 0
4.8050003 -1.8337995 1.4607882 0
4.8000002 -1.8397069 1.4595886 0
4.7940001 -1.8451868 1.4581491 0
4.7890005 -1.8510566 1.4569497 0
4.7840004 -1.8569081 1.4557501 0
4.7780004 -1.8623267 1.4543108 0
4.7730002 -1.8681403 1.4531112 0
4.7680001 -1.8739358 1.4519116 0
4.7620001 -1.8792932 1.4504721 0
4.7570004 -1.8850511 1.4492726 0
4.7520003 -1.8907907 1.4480731 0
4.7470002 -1.8965125 1.4468735 0
4.7410002 -1.9017885 1.4454341 0
4.7360005 -1.9074725 1.4442346 0
4.7310004 -1.9131383 1.4430351 0
4.7260003 -1.9187858 1.4418355 0
4.7210002 -1.9244156 1.4406359 0
4.7150002 -1.9295906 1.4391966 0
4.7100005 -1.9351826 1.4379971 0
4.7050004 -1.9407562 1.4367976 0
4.7000003 -1.9463118 1.435598 0
4.6950002 -1.9518497 1.4343984 0
4.6900005 -1.9573694 1.4331989 0
4.6850004 -1.962871 1.4319993 0
4.6790004 -1.9679054 1.43056 0
4.6740003 -1.973369 1.4293604 0
4.6690001 -1.9788148 1.4281608 0
4.6640005 -1.9842426 1.4269614 0
4.6590004 -1.9896522 1.4257618 0
4.6540003 -1.9950435 1.4245623 0
4.6490002 -2.000417 1.4233627 0
4.6440005 -2.0057728 1.4221634 0
4.6390004 -2.0111103 1.4209638 0
4.6340003 -2.0164297 1.4197642 0
4.6290002 -2.0217309 1.4185647 0
4.6240001 -2.0270143 1.4173651 0
4.6190004 -2.0322797 1.4161656 0
4.6140003 -2.0375271 1.414966 0
4.6090002 -2.0427561 1.4137664 0
4.6040001 -2.0479672 1.4125669 0
4.6000004 -2.0536387 1.4116074 0
4.5950003 -2.0588155 1.4104078 0
4.5900002 -2.0639741 1.4092083 0
4.5850005 -2.0691154 1.4080087 0
4.5800004 -2.0742381 1.4068092 0
4.5750003 -2.0793428 1.4056096 0
4.5700002 -2.0844295 1.40441 0
4.5650001 -2.0894983 1.4032105 0
4.5610003 -2.0950415 1.4022509 0
4.5560002 -2.1000757 1.4010514 0
4.5510001 -2.105092 1.3998518 0
4.5460005 -2.1100907 1.3986523 0
4.5410004 -2.1150711 1.3974528 0
4.5370002 -2.1205347 1.3964932 0
4.5320001 -2.1254807 1.3952936 0
4.5270004 -2.1304088 1.3940941 0
4.5230002 -2.1358254 1.3931345 0
4.5180001 -2.1407192 1.391935 0
4.5130005 -2.1455951 1.3907355 0
4.5080004 -2.1504526 1.3895359 0
4.5040002 -2.1558063 1.3885763 0
4.4990001 -2.1606295 1.3873767 0
4.4940004 -2.1654351 1.3861773 0
4.4900002 -2.1707418 1.3852175 0
4.4850001 -2.1755128 1.3840179 0
4.4800005 -2.1802659 1.3828186 0
4.4760003 -2.1855259 1.3818589 0
4.4710002 -2.1902447 1.3806593 0
4.4670005 -2.1954739 1.3796998 0
4.4620004 -2.2001584 1.3785002 0
4.4570003 -2.2048247 1.3773006 0
4.4530001 -2.210007 1.376341 0
4.4480004 -2.2146394 1.3751415 0
4.4440002 -2.2197909 1.3741819 0
4.4390001 -2.2243888 1.3729823 0
4.4350004 -2.2295101 1.3720227 0
4.4300003 -2.2340734 1.3708233 0
4.4260001 -2.2391639 1.3698635 0
4.4210005 -2.2436934 1.368664 0
4.4170003 -2.2487531 1.3677044 0
4.4120002 -2.253248 1.3665048 0
4.4080005 -2.2582772 1.3655453 0
4.4030004 -2.2627378 1.3643458 0
4.3990002 -2.2677362 1.363386 0
4.3940001 -2.2721629 1.3621866 0
4.3900003 -2.2771304 1.3612269 0
4.3850002 -2.2815228 1.3600273 0
4.381 -2.2864597 1.3590678 0
4.3770003 -2.2913823 1.3581082 0
4.3720002 -2.2957239 1.3569086 0
4.368 -2.300616 1.3559489 0
4.3640003 -2.3054934 1.3549894 0
4.3590002 -2.3097847 1.3537898 0
4.355 -2.3146317 1.3528302 0
5.0680003 -1.5532116 1.5154634 0
5.0620003 -1.5596837 1.5140347 0
5.0560002 -1.5661341 1.5126061 0
5.0500002 -1.5725628 1.5111774 0
5.0440001 -1.57897 1.5097488 0
5.0380001 -1.5853555 1.5083202 0
5.0320005 -1.5917195 1.5068917 0
5.0260005 -1.5980617 1.5054631 0
5.0200005 -1.6043822 1.5040344 0
5.0140004 -1.6106811 1.5026058 0
5.0080004 -1.6169583 1.5011772 0
5.0020003 -1.6232139 1.4997486 0
4.9970002 -1.6297923 1.498558 0
4.9910002 -1.6360065 1.4971294 0
4.9850001 -1.6421989 1.4957008 0
4.9790001 -1.6483697 1.4942721 0
4.9730005 -1.6545191 1.4928436 0
4.9670005 -1.6606466 1.491415 0
4.9620004 -1.6671077 1.4902245 0
4.9560003 -1.6731938 1.4887959 0
4.9500003 -1.6792581 1.4873673 0
4.9440002 -1.6853009 1.4859387 0
4.9390001 -1.6916845 1.4847481 0
4.9330001 -1.6976858 1.4833195 0
4.9270005 -1.7036656 1.481891 0
4.9210005 -1.7096235 1.4804623 0
4.9160004 -1.7159295 1.4792719 0
4.9100003 -1.7218461 1.4778432 0
4.9050002 -1.7281142 1.4766526 0
4.8990002 -1.7339892 1.4752239 0
4.8930001 -1.7398425 1.4737953 0
4.8880005 -1.7460533 1.472605 0
4.8820004 -1.7518651 1.4711763 0
4.8760004 -1.7576553 1.4697477 0
4.8710003 -1.7638081 1.4685571 0
4.8650002 -1.7695568 1.4671285 0
4.8600001 -1.7756717 1.4659381 0
4.8540001 -1.781379 1.4645094 0
4.8490005 -1.7874562 1.4633189 0
4.8430004 -1.7931218 1.4618902 0
4.8380003 -1.799161 1.4606998 0
4.8320003 -1.8047851 1.4592712 0
4.8270001 -1.8107864 1.4580806 0
4.8210001 -1.8163691 1.456652 0
4.8160005 -1.8223326 1.4554615 0
4.8110003 -1.8282781 1.454271 0
4.8050003 -1.8337995 1.4528424 0
4.8000002 -1.8397069 1.4516518 0
4.7940001 -1.8451868 1.4502232 0
4.7890005 -1.8510566 1.4490328 0
4.7840004 -1.8569081 1.4478422 0
4.7780004 -1.8623267 1.4464136 0
4.7730002 -1.8681403 1.4452231 0
4.7680001 -1.8739358 1.4440325 0
4.7620001 -1.8792932 1.4426039 0
4.7570004 -1.8850511 1.4414134 0
4.7520003 -1.8907907 1.440223 0
4.7470002 -1.8965125 1.4390324 0
4.7410002 -1.9017885 1.4376038 0
4.7360005 -1.9074725 1.4364133 0
4.7310004 -1.9131383 1.4352227 0
4.7260003 -1.9187858 1.4340323 0
4.7210002 -1.9244156 1.4328418 0
4.7150002 -1.9295906 1.4314132 0
4.7100005 -1.9351826 1.4302226 0
4.7050004 -1.9407562 1.4290321 0
4.7000003 -1.9463118 1.4278417 0
4.6950002 -1.9518497 1.426651 0
4.6900005 -1.9573694 1.4254606 0
4.6850004 -1.962871 1.4242702 0
4.6790004 -1.9679054 1.4228415 0
4.6740003 -1.973369 1.4216509 0
4.6690001 -1.9788148 1.4204603 0
4.6640005 -1.9842426 1.41927 0
4.6590004 -1.9896522 1.4180794 0
4.6540003 -1.9950435 1.4168888 0
4.6490002 -2.000417 1.4156983 0
4.6440005 -2.0057728 1.4145079 0
4.6390004 -2.0111103 1.4133173 0
4.6340003 -2.0164297 1.4121268 0
4.6290002 -2.0217309 1.4109364 0
4.6240001 -2.0270143 1.4097457 0
4.6190004 -2.0322797 1.4085553 0
4.6140003 -2.0375271 1.4073648 0
4.6090002 -2.0427561 1.4061742 0
4.6040001 -2.0479672 1.4049836 0
4.6000004 -2.0536387 1.4040313 0
4.5950003 -2.0588155 1.4028409 0
4.5900002 -2.0639741 1.4016503 0
4.5850005 -2.0691154 1.4004598 0
4.5800004 -2.0742381 1.3992692 0
4.5750003 -2.0793428 1.3980788 0
4.5700002 -2.0844295 1.3968881 0
4.5650001 -2.0894983 1.3956976 0
4.5610003 -2.0950415 1.3947452 0
4.5560002 -2.1000757 1.3935548 0
4.5510001 -2.105092 1.3923643 0
4.5460005 -2.1100907 1.3911737 0
4.5410004 -2.1150711 1.3899833 0
4.5370002 -2.1205347 1.3890307 0
4.5320001 -2.1254807 1.3878403 0
4.5270004 -2.1304088 1.3866498 0
4.5230002 -2.1358254 1.3856974 0
4.5180001 -2.1407192 1.3845068 0
4.5130005 -2.1455951 1.3833164 0
4.5080004 -2.1504526 1.3821259 0
4.5040002 -2.1558063 1.3811735 0
4.4990001 -2.1606295 1.3799828 0
4.4940004 -2.1654351 1.3787924 0
4.4900002 -2.1707418 1.3778399 0
4.4850001 -2.1755128 1.3766495 0
4.4800005 -2.1802659 1.3754591 0
4.4760003 -2.1855259 1.3745066 0
4.4710002 -2.1902447 1.373316 0
4.4670005 -2.1954739 1.3723637 0
4.4620004 -2.2001584 1.3711731 0
4.4570003 -2.2048247 1.3699826 0
4.4530001 -2.210007 1.3690301 0
4.4480004 -2.2146394 1.3678397 0
4.4440002 -2.2197909 1.3668873 0
4.4390001 -2.2243888 1.3656968 0
4.4350004 -2.2295101 1.3647444 0
4.4300003 -2.2340734 1.3635539 0
4.4260001 -2.2391639 1.3626014 0
4.4210005 -2.2436934 1.361411 0
4.4170003 -2.2487531 1.3604585 0
4.4120002 -2.253248 1.359268 0
4.4080005 -2.2582772 1.3583156 0
4.4030004 -2.2627378 1.3571252 0
4.3990002 -2.2677362 1.3561726 0
4.3940001 -2.2721629 1.3549821 0
4.3900003 -2.2771304 1.3540298 0
4.3850002 -2.2815228 1.3528392 0
4.381 -2.2864597 1.3518867 0
4.3770003 -2.2913823 1.3509344 0
4.3720002 -2.2957239 1.3497438 0
4.368 -2.300616 1.3487915 0
4.3640003 -2.3054934 1.3478391 0
4.3590002 -2.3097847 1.3466486 0
4.355 -2.3146317 1.3456961 0
5.0680003 -1.5532116 1.5070432 0
5.0620003 -1.5596837 1.5056255 0
5.0560002 -1.5661341 1.5042076 0
5.0500002 -1.5725628 1.5027899 0
5.0440001 -1.57897 1.501372 0
5.0380001 -1.5853555 1.4999542 0
5.0320005 -1.5917195 1.4985365 0
5.0260005 -1.5980617 1.4971187 0
5.0200005 -1.6043822 1.4957008 0
5.0140004 -1.6106811 1.4942831 0
5.0080004 -1.6169583 1.4928652 0
5.0020003 -1.6232139 1.4914476 0
4.9970002 -1.6297923 1.490266 0
4.9910002 -1.6360065 1.4888482 0
4.9850001 -1.6421989 1.4874303 0
4.9790001 -1.6483697 1.4860126 0
4.9730005 -1.6545191 1.4845948 0
4.9670005 -1.6606466 1.4831771 0
4.9620004 -1.6671077 1.4819955 0
4.9560003 -1.6731938 1.4805778 0
4.9500003 -1.6792581 1.47916 0
4.9440002 -1.6853009 1.4777422 0
4.9390001 -1.6916845 1.4765606 0
4.9330001 -1.6976858 1.4751428 0
4.9270005 -1.7036656 1.4737251 0
4.9210005 -1.7096235 1.4723073 0
4.9160004 -1.7159295 1.4711257 0
4.9100003 -1.7218461 1.4697081 0
4.9050002 -1.7281142 1.4685265 0
4.8990002 -1.7339892 1.4671087 0
4.8930001 -1.7398425 1.4656909 0
4.8880005 -1.7460533 1.4645095 0
4.8820004 -1.7518651 1.4630916 0
4.8760004 -1.7576553 1.4616739 0
4.8710003 -1.7638081 1.4604924 0
4.8650002 -1.7695568 1.4590745 0
4.8600001 -1.7756717 1.457893 0
4.8540001 -1.781379 1.4564751 0
4.8490005 -1.7874562 1.4552938 0
4.8430004 -1.7931218 1.4538759 0
4.8380003 -1.799161 1.4526945 0
4.8320003 -1.8047851 1.4512767 0
4.8270001 -1.8107864 1.4500952 0
4.8210001 -1.8163691 1.4486773 0
4.8160005 -1.8223326 1.4474959 0
4.8110003 -1.8282781 1.4463143 0
4.8050003 -1.8337995 1.4448967 0
4.8000002 -1.8397069 1.4437151 0
4.7940001 -1.8451868 1.4422973 0
4.7890005 -1.8510566 1.4411159 0
4.7840004 -1.8569081 1.4399343 0
4.7780004 -1.8623267 1.4385165 0
4.7730002 -1.8681403 1.437335 0
4.7680001 -1.8739358 1.4361535 0
4.7620001 -1.8792932 1.4347357 0
4.7570004 -1.8850511 1.4335543 0
4.7520003 -1.8907907 1.4323728 0
4.7470002 -1.8965125 1.4311913 0
4.7410002 -1.9017885 1.4297734 0
4.7360005 -1.9074725 1.4285921 0
4.7310004 -1.9131383 1.4274105 0
4.7260003 -1.9187858 1.426229 0
4.7210002 -1.9244156 1.4250475 0
4.7150002 -1.9295906 1.4236296 0
4.7100005 -1.9351826 1.4224483 0
4.7050004 -1.9407562 1.4212667 0
4.7000003 -1.9463118 1.4200853 0
4.6950002 -1.9518497 1.4189037 0
4.6900005 -1.9573694 1.4177222 0
4.6850004 -1.962871 1.4165407 0
4.6790004 -1.9679054 1.4151229 0
4.6740003 -1.973369 1.4139415 0
4.6690001 -1.9788148 1.4127599 0
4.6640005 -1.9842426 1.4115785 0
4.6590004 -1.9896522 1.4103969 0
4.6540003 -1.9950435 1.4092156 0
4.6490002 -2.000417 1.408034 0
4.6440005 -2.0057728 1.4068525 0
4.6390004 -2.0111103 1.405671 0
4.6340003 -2.0164297 1.4044895 0
4.6290002 -2.0217309 1.4033079 0
4.6240001 -2.0270143 1.4021264 0
4.6190004 -2.0322797 1.4009449 0
4.6140003 -2.0375271 1.3997636 0
4.6090002 -2.0427561 1.398582 0
4.6040001 -2.0479672 1.3974005 0
4.6000004 -2.0536387 1.3964553 0
4.5950003 -2.0588155 1.3952738 0
4.5900002 -2.0639741 1.3940923 0
4.5850005 -2.0691154 1.3929108 0
4.5800004 -2.0742381 1.3917294 0
4.5750003 -2.0793428 1.3905479 0
4.5700002 -2.0844295 1.3893663 0
4.5650001 -2.0894983 1.3881848 0
4.5610003 -2.0950415 1.3872396 0
4.5560002 -2.1000757 1.3860582 0
4.5510001 -2.105092 1.3848766 0
4.5460005 -2.1100907 1.3836952 0
4.5410004 -2.1150711 1.3825136 0
4.5370002 -2.1205347 1.3815684 0
4.5320001 -2.1254807 1.3803869 0
4.5270004 -2.1304088 1.3792055 0
4.5230002 -2.1358254 1.3782603 0
4.5180001 -2.1407192 1.3770788 0
4.5130005 -2.1455951 1.3758973 0
4.5080004 -2.1504526 1.3747158 0
4.5040002 -2.1558063 1.3737706 0
4.4990001 -2.1606295 1.3725891 0
4.4940004 -2.1654351 1.3714076 0
4.4900002 -2.1707418 1.3704624 0
4.4850001 -2.1755128 1.3692809 0
4.4800005 -2.1802659 1.3680995 0
4.4760003 -2.1855259 1.3671542 0
4.4710002 -2.1902447 1.3659728 0
4.4670005 -2.1954739 1.3650275 0
4.4620004 -2.2001584 1.3638461 0
4.4570003 -2.2048247 1.3626646 0
4.4530001 -2.210007 1.3617194 0
4.4480004 -2.2146394 1.3605379 0
4.4440002 -2.2197909 1.3595927 0
4.4390001 -2.2243888 1.3584112 0
4.4350004 -2.2295101 1.357466 0
4.4300003 -2.2340734 1.3562845 0
4.4260001 -2.2391639 1.3553393 0
4.4210005 -2.2436934 1.3541578 0
4.4170003 -2.2487531 1.3532127 0
4.4120002 -2.253248 1.3520311 0
4.4080005 -2.2582772 1.3510859 0
4.4030004 -2.2627378 1.3499044 0
4.3990002 -2.2677362 1.3489592 0
4.3940001 -2.2721629 1.3477777 0
4.3900003 -2.2771304 1.3468325 0
4.3850002 -2.2815228 1.345651 0
4.381 -2.2864597 1.3447059 0
4.3770003 -2.2913823 1.3437607 0
4.3720002 -2.2957239 1.3425791 0
4.368 -2.300616 1.341634 0
4.3640003 -2.3054934 1.3406888 0
4.3590002 -2.3097847 1.3395072 0
4.355 -2.3146317 1.3385621 0
5.0680003 -1.5532116 1.498623 0
5.0620003 -1.5596837 1.497216 0
5.0560002 -1.5661341 1.4958091 0
5.0500002 -1.5725628 1.4944021 0
5.0440001 -1.57897 1.4929951 0
5.0380001 -1.5853555 1.4915881 0
5.0320005 -1.5917195 1.4901812 0
5.0260005 -1.5980617 1.4887743 0
5.0200005 -1.6043822 1.4873673 0
5.0140004 -1.6106811 1.4859604 0
5.0080004 -1.6169583 1.4845533 0
5.0020003 -1.6232139 1.4831463 0
4.9970002 -1.6297923 1.4819738 0
4.9910002 -1.6360065 1.4805669 0
4.9850001 -1.6421989 1.4791598 0
4.9790001 -1.6483697 1.4777529 0
4.9730005 -1.6545191 1.476346 0
4.9670005 -1.6606466 1.474939 0
4.9620004 -1.6671077 1.4737666 0
4.9560003 -1.6731938 1.4723595 0
4.9500003 -1.6792581 1.4709525 0
4.9440002 -1.6853009 1.4695456 0
4.9390001 -1.6916845 1.4683732 0
4.9330001 -1.6976858 1.4669662 0
4.9270005 -1.7036656 1.4655594 0
4.9210005 -1.7096235 1.4641523 0
4.9160004 -1.7159295 1.4629798 0
4.9100003 -1.7218461 1.4615729 0
4.9050002 -1.7281142 1.4604003 0
4.8990002 -1.7339892 1.4589933 0
4.8930001 -1.7398425 1.4575864 0
4.8880005 -1.7460533 1.456414 0
4.8820004 -1.7518651 1.455007 0
4.8760004 -1.7576553 1.4536 0
4.8710003 -1.7638081 1.4524275 0
4.8650002 -1.7695568 1.4510205 0
4.8600001 -1.7756717 1.4498479 0
4.8540001 -1.781379 1.448441 0
4.8490005 -1.7874562 1.4472686 0
4.8430004 -1.7931218 1.4458617 0
4.8380003 -1.799161 1.4446892 0
4.8320003 -1.8047851 1.4432822 0
4.8270001 -1.8107864 1.4421097 0
4.8210001 -1.8163691 1.4407027 0
4.8160005 -1.8223326 1.4395304 0
4.8110003 -1.8282781 1.4383578 0
4.8050003 -1.8337995 1.4369508 0
4.8000002 -1.8397069 1.4357783 0
4.7940001 -1.8451868 1.4343714 0
4.7890005 -1.8510566 1.4331989 0
4.7840004 -1.8569081 1.4320265 0
4.7780004 -1.8623267 1.4306195 0
4.7730002 -1.8681403 1.4294469 0
4.7680001 -1.8739358 1.4282745 0
4.7620001 -1.8792932 1.4268675 0
4.7570004 -1.8850511 1.4256951 0
4.7520003 -1.8907907 1.4245225 0
4.7470002 -1.8965125 1.4233501 0
4.7410002 -1.9017885 1.4219431 0
4.7360005 -1.9074725 1.4207708 0
4.7310004 -1.9131383 1.4195982 0
4.7260003 -1.9187858 1.4184257 0
4.7210002 -1.9244156 1.4172533 0
4.7150002 -1.9295906 1.4158462 0
4.7100005 -1.9351826 1.4146738 0
4.7050004 -1.9407562 1.4135013 0
4.7000003 -1.9463118 1.4123288 0
4.6950002 -1.9518497 1.4111564 0
4.6900005 -1.9573694 1.409984 0
4.6850004 -1.962871 1.4088115 0
4.6790004 -1.9679054 1.4074044 0
4.6740003 -1.973369 1.4062319 0
4.6690001 -1.9788148 1.4050595 0
4.6640005 -1.9842426 1.403887 0
4.6590004 -1.9896522 1.4027145 0
4.6540003 -1.9950435 1.4015421 0
4.6490002 -2.000417 1.4003695 0
4.6440005 -2.0057728 1.3991971 0
4.6390004 -2.0111103 1.3980247 0
4.6340003 -2.0164297 1.3968521 0
4.6290002 -2.0217309 1.3956797 0
4.6240001 -2.0270143 1.3945072 0
4.6190004 -2.0322797 1.3933347 0
4.6140003 -2.0375271 1.3921622 0
4.6090002 -2.0427561 1.3909898 0
4.6040001 -2.0479672 1.3898172 0
4.6000004 -2.0536387 1.3888794 0
4.5950003 -2.0588155 1.3877069 0
4.5900002 -2.0639741 1.3865343 0
4.5850005 -2.0691154 1.3853619 0
4.5800004 -2.0742381 1.3841894 0
4.5750003 -2.0793428 1.3830169 0
4.5700002 -2.0844295 1.3818445 0
4.5650001 -2.0894983 1.380672 0
4.5610003 -2.0950415 1.379734 0
4.5560002 -2.1000757 1.3785615 0
4.5510001 -2.105092 1.377389 0
4.5460005 -2.1100907 1.3762167 0
4.5420003 -2.1155705 1.3752786 0
4.5370002 -2.1205347 1.374106 0
4.5320001 -2.1254807 1.3729335 0
4.5270004 -2.1304088 1.3717612 0
4.5230002 -2.1358254 1.3708231 0
4.5180001 -2.1407192 1.3696507 0
4.5130005 -2.1455951 1.3684783 0
4.5080004 -2.1504526 1.3673058 0
4.5040002 -2.1558063 1.3663678 0
4.4990001 -2.1606295 1.3651953 0
4.4940004 -2.1654351 1.3640229 0
4.4900002 -2.1707418 1.3630848 0
4.4850001 -2.1755128 1.3619123 0
4.4800005 -2.1802659 1.3607399 0
4.4760003 -2.1855259 1.3598019 0
4.4710002 -2.1902447 1.3586295 0
4.4670005 -2.1954739 1.3576914 0
4.4620004 -2.2001584 1.3565191 0
4.4570003 -2.2048247 1.3553466 0
4.4530001 -2.210007 1.3544085 0
4.4480004 -2.2146394 1.3532361 0
4.4440002 -2.2197909 1.3522981 0
4.4390001 -2.2243888 1.3511256 0
4.4350004 -2.2295101 1.3501877 0
4.4300003 -2.2340734 1.3490151 0
4.4260001 -2.2391639 1.3480772 0
4.4210005 -2.2436934 1.3469048 0
4.4170003 -2.2487531 1.3459667 0
4.4120002 -2.253248 1.3447942 0
4.4080005 -2.2582772 1.3438563 0
4.4030004 -2.2627378 1.3426838 0
4.3990002 -2.2677362 1.3417457 0
4.3940001 -2.2721629 1.3405733 0
4.3900003 -2.2771304 1.3396354 0
4.3850002 -2.2815228 1.3384628 0
4.381 -2.2864597 1.3375249 0
4.3770003 -2.2913823 1.3365868 0
4.3720002 -2.2957239 1.3354144 0
4.368 -2.300616 1.3344765 0
4.3640003 -2.3054934 1.3335384 0
4.3590002 -2.3097847 1.332366 0
4.355 -2.3146317 1.3314281 0
5.0680003 -1.5532116 1.4902029 0
5.0620003 -1.5596837 1.4888067 0
5.0560002 -1.5661341 1.4874105 0
5.0500002 -1.5725628 1.4860145 0
5.0440001 -1.57897 1.4846182 0
5.0380001 -1.5853555 1.4832221 0
5.0320005 -1.5917195 1.4818261 0
5.0260005 -1.5980617 1.4804298 0
5.0200005 -1.6043822 1.4790337 0
5.0140004 -1.6106811 1.4776375 0
5.0080004 -1.6169583 1.4762414 0
5.0020003 -1.6232139 1.4748452 0
4.9970002 -1.6297923 1.4736817 0
4.9910002 -1.6360065 1.4722856 0
4.9850001 -1.6421989 1.4708894 0
4.9790001 -1.6483697 1.4694933 0
4.9730005 -1.6545191 1.4680972 0
4.9670005 -1.6606466 1.4667011 0
4.9620004 -1.6671077 1.4655377 0
4.9560003 -1.6731938 1.4641415 0
4.9500003 -1.6792581 1.4627453 0
4.9440002 -1.6853009 1.4613491 0
4.9390001 -1.6916845 1.4601856 0
4.9330001 -1.6976858 1.4587895 0
4.9270005 -1.7036656 1.4573934 0
4.9210005 -1.7096235 1.4559972 0
4.9160004 -1.7159295 1.4548337 0
4.9100003 -1.7218461 1.4534377 0
4.9050002 -1.7281142 1.4522742 0
4.8990002 -1.7339892 1.450878 0
4.8930001 -1.7398425 1.4494818 0
4.8880005 -1.7460533 1.4483185 0
4.8820004 -1.7518651 1.4469223 0
4.8760004 -1.7576553 1.4455261 0
4.8710003 -1.7638081 1.4443626 0
4.8650002 -1.7695568 1.4429666 0
4.8600001 -1.7756717 1.4418031 0
4.8540001 -1.781379 1.4404068 0
4.8490005 -1.7874562 1.4392434 0
4.8430004 -1.7931218 1.4378474 0
4.8380003 -1.799161 1.4366839 0
4.8320003 -1.8047851 1.4352877 0
4.8270001 -1.8107864 1.4341242 0
4.8210001 -1.8163691 1.4327281 0
4.8160005 -1.8223326 1.4315647 0
4.8110003 -1.8282781 1.4304012 0
4.8050003 -1.8337995 1.4290051 0
4.8000002 -1.8397069 1.4278417 0
4.7940001 -1.8451868 1.4264454 0
4.7890005 -1.8510566 1.425282 0
4.7840004 -1.8569081 1.4241185 0
4.7780004 -1.8623267 1.4227223 0
4.7730002 -1.8681403 1.4215589 0
4.7680001 -1.8739358 1.4203954 0
4.7620001 -1.8792932 1.4189993 0
4.7570004 -1.8850511 1.417836 0
4.7520003 -1.8907907 1.4166723 0
4.7470002 -1.8965125 1.4155089 0
4.7410002 -1.9017885 1.4141128 0
4.7360005 -1.9074725 1.4129494 0
4.7310004 -1.9131383 1.411786 0
4.7260003 -1.9187858 1.4106225 0
4.7210002 -1.9244156 1.4094589 0
4.7150002 -1.9295906 1.4080628 0
4.7100005 -1.9351826 1.4068995 0
4.7050004 -1.9407562 1.405736 0
4.7000003 -1.9463118 1.4045725 0
4.6950002 -1.9518497 1.4034089 0
4.6900005 -1.9573694 1.4022455 0
4.6850004 -1.962871 1.401082 0
4.6790004 -1.9679054 1.399686 0
4.6740003 -1.973369 1.3985224 0
4.6690001 -1.9788148 1.3973589 0
4.6640005 -1.9842426 1.3961955 0
4.6590004 -1.9896522 1.395032 0
4.6540003 -1.9950435 1.3938687 0
4.6490002 -2.000417 1.3927052 0
4.6440005 -2.0057728 1.3915418 0
4.6390004 -2.0111103 1.3903784 0
4.6340003 -2.0164297 1.3892149 0
4.6290002 -2.0217309 1.3880514 0
4.6240001 -2.0270143 1.3868879 0
4.6190004 -2.0322797 1.3857244 0
4.6140003 -2.0375271 1.3845609 0
4.6090002 -2.0427561 1.3833975 0
4.6040001 -2.0479672 1.382234 0
4.6000004 -2.0536387 1.3813033 0
4.5950003 -2.0588155 1.3801398 0
4.5900002 -2.0639741 1.3789763 0
4.5850005 -2.0691154 1.377813 0
4.5800004 -2.0742381 1.3766495 0
4.5750003 -2.0793428 1.375486 0
4.5700002 -2.0844295 1.3743225 0
4.5650001 -2.0894983 1.3731591 0
4.5610003 -2.0950415 1.3722284 0
4.5560002 -2.1000757 1.3710649 0
4.5510001 -2.105092 1.3699014 0
4.5460005 -2.1100907 1.3687381 0
4.5420003 -2.1155705 1.3678073 0
4.5370002 -2.1205347 1.3666438 0
4.5320001 -2.1254807 1.3654803 0
4.5270004 -2.1304088 1.3643169 0
4.5230002 -2.1358254 1.363386 0
4.5180001 -2.1407192 1.3622226 0
4.5130005 -2.1455951 1.3610592 0
4.5080004 -2.1504526 1.3598957 0
4.5040002 -2.1558063 1.3589649 0
4.4990001 -2.1606295 1.3578014 0
4.4940004 -2.1654351 1.3566381 0
4.4900002 -2.1707418 1.3557073 0
4.4850001 -2.1755128 1.3545438 0
4.4800005 -2.1802659 1.3533804 0
4.4760003 -2.1855259 1.3524495 0
4.4710002 -2.1902447 1.3512861 0
4.4670005 -2.1954739 1.3503555 0
4.4620004 -2.2001584 1.3491919 0
4.4570003 -2.2048247 1.3480284 0
4.4530001 -2.210007 1.3470976 0
4.4480004 -2.2146394 1.3459343 0
4.4440002 -2.2197909 1.3450035 0
4.4390001 -2.2243888 1.34384 0
4.4350004 -2.2295101 1.3429092 0
4.4300003 -2.2340734 1.3417459 0
4.4260001 -2.2391639 1.3408149 0
4.4210005 -2.2436934 1.3396516 0
4.4170003 -2.2487531 1.3387209 0
4.4120002 -2.253248 1.3375574 0
4.4080005 -2.2582772 1.3366266 0
4.4030004 -2.2627378 1.3354632 0
4.3990002 -2.2677362 1.3345324 0
4.3940001 -2.2721629 1.3333689 0
4.3900003 -2.2771304 1.3324381 0
4.3850002 -2.2815228 1.3312746 0
4.381 -2.2864597 1.330344 0
4.3770003 -2.2913823 1.3294132 0
4.3720002 -2.2957239 1.3282497 0
4.368 -2.300616 1.3273189 0
4.3640003 -2.3054934 1.3263881 0
4.3590002 -2.3097847 1.3252248 0
5.0680003 -1.5532116 1.4817827 0
5.0620003 -1.5596837 1.4803973 0
5.0560002 -1.5661341 1.479012 0
5.0500002 -1.5725628 1.4776267 0
5.0440001 -1.57897 1.4762414 0
5.0380001 -1.5853555 1.474856 0
5.0320005 -1.5917195 1.4734708 0
5.0260005 -1.5980617 1.4720855 0
5.0200005 -1.6043822 1.4707001 0
5.0140004 -1.6106811 1.4693148 0
5.0080004 -1.6169583 1.4679295 0
5.0020003 -1.6232139 1.4665442 0
4.9970002 -1.6297923 1.4653896 0
4.9910002 -1.6360065 1.4640043 0
4.9850001 -1.6421989 1.4626189 0
4.9790001 -1.6483697 1.4612336 0
4.9730005 -1.6545191 1.4598484 0
4.9670005 -1.6606466 1.4584631 0
4.9620004 -1.6671077 1.4573087 0
4.9560003 -1.6731938 1.4559233 0
4.9500003 -1.6792581 1.454538 0
4.9440002 -1.6853009 1.4531527 0
4.9390001 -1.6916845 1.4519981 0
4.9330001 -1.6976858 1.4506128 0
4.9270005 -1.7036656 1.4492276 0
4.9210005 -1.7096235 1.4478422 0
4.9160004 -1.7159295 1.4466878 0
4.9100003 -1.7218461 1.4453025 0
4.9050002 -1.7281142 1.4441479 0
4.8990002 -1.7339892 1.4427626 0
4.8930001 -1.7398425 1.4413773 0
4.8880005 -1.7460533 1.440223 0
4.8820004 -1.7518651 1.4388376 0
4.8760004 -1.7576553 1.4374523 0
4.8710003 -1.7638081 1.4362979 0
4.8650002 -1.7695568 1.4349126 0
4.8600001 -1.7756717 1.433758 0
4.8540001 -1.781379 1.4323727 0
4.8490005 -1.7874562 1.4312184 0
4.8430004 -1.7931218 1.4298331 0
4.8380003 -1.799161 1.4286785 0
4.8320003 -1.8047851 1.4272932 0
4.8270001 -1.8107864 1.4261388 0
4.8210001 -1.8163691 1.4247534 0
4.8160005 -1.8223326 1.4235991 0
4.8110003 -1.8282781 1.4224446 0
4.8050003 -1.8337995 1.4210593 0
4.8000002 -1.8397069 1.4199048 0
4.7940001 -1.8451868 1.4185195 0
4.7890005 -1.8510566 1.4173651 0
4.7840004 -1.8569081 1.4162107 0
4.7780004 -1.8623267 1.4148253 0
4.7730002 -1.8681403 1.4136709 0
4.7680001 -1.8739358 1.4125164 0
4.7620001 -1.8792932 1.411131 0
4.7570004 -1.8850511 1.4099767 0
4.7520003 -1.8907907 1.4088223 0
4.7470002 -1.8965125 1.4076678 0
4.7410002 -1.9017885 1.4062824 0
4.7360005 -1.9074725 1.4051281 0
4.7310004 -1.9131383 1.4039736 0
4.7260003 -1.9187858 1.4028192 0
4.7210002 -1.9244156 1.4016647 0
4.7150002 -1.9295906 1.4002793 0
4.7100005 -1.9351826 1.399125 0
4.7050004 -1.9407562 1.3979706 0
4.7000003 -1.9463118 1.396816 0
4.6950002 -1.9518497 1.3956616 0
4.6900005 -1.9573694 1.3945073 0
4.6850004 -1.962871 1.3933527 0
4.6790004 -1.9679054 1.3919674 0
4.6740003 -1.973369 1.390813 0
4.6690001 -1.9788148 1.3896586 0
4.6640005 -1.9842426 1.3885041 0
4.6590004 -1.9896522 1.3873497 0
4.6540003 -1.9950435 1.3861952 0
4.6490002 -2.000417 1.3850408 0
4.6440005 -2.0057728 1.3838865 0
4.6390004 -2.0111103 1.3827319 0
4.6340003 -2.0164297 1.3815775 0
4.6290002 -2.0217309 1.3804231 0
4.6240001 -2.0270143 1.3792685 0
4.6190004 -2.0322797 1.3781142 0
4.6140003 -2.0375271 1.3769598 0
4.6090002 -2.0427561 1.3758053 0
4.6040001 -2.0479672 1.3746508 0
4.6000004 -2.0536387 1.3737273 0
4.5950003 -2.0588155 1.3725729 0
4.5900002 -2.0639741 1.3714184 0
4.5850005 -2.0691154 1.3702641 0
4.5800004 -2.0742381 1.3691096 0
4.5750003 -2.0793428 1.3679551 0
4.5700002 -2.0844295 1.3668007 0
4.5650001 -2.0894983 1.3656462 0
4.5610003 -2.0950415 1.3647227 0
4.5560002 -2.1000757 1.3635683 0
4.5510001 -2.105092 1.3624138 0
4.5460005 -2.1100907 1.3612595 0
4.5420003 -2.1155705 1.3603358 0
4.5370002 -2.1205347 1.3591814 0
4.5320001 -2.1254807 1.3580269 0
4.5270004 -2.1304088 1.3568726 0
4.5230002 -2.1358254 1.3559489 0
4.5180001 -2.1407192 1.3547945 0
4.5130005 -2.1455951 1.3536402 0
4.5080004 -2.1504526 1.3524857 0
4.5040002 -2.1558063 1.3515621 0
4.4990001 -2.1606295 1.3504076 0
4.4940004 -2.1654351 1.3492533 0
4.4900002 -2.1707418 1.3483297 0
4.4850001 -2.1755128 1.3471752 0
4.4800005 -2.1802659 1.3460208 0
4.4760003 -2.1855259 1.3450973 0
4.4710002 -2.1902447 1.3439428 0
4.4670005 -2.1954739 1.3430194 0
4.4620004 -2.2001584 1.3418648 0
4.4570003 -2.2048247 1.3407104 0
4.4530001 -2.210007 1.3397868 0
4.4480004 -2.2146394 1.3386325 0
4.4440002 -2.2197909 1.3377088 0
4.4390001 -2.2243888 1.3365544 0
4.4350004 -2.2295101 1.3356309 0
4.4300003 -2.2340734 1.3344765 0
4.4260001 -2.2391639 1.3335528 0
4.4210005 -2.2436934 1.3323985 0
4.4170003 -2.2487531 1.3314749 0
4.4120002 -2.253248 1.3303205 0
4.4080005 -2.2582772 1.329397 0
4.4030004 -2.2627378 1.3282425 0
4.3990002 -2.2677362 1.3273189 0
4.3940001 -2.2721629 1.3261645 0
4.3900003 -2.2771304 1.325241 0
4.3850002 -2.2815228 1.3240865 0
4.381 -2.2864597 1.3231629 0
4.3770003 -2.2913823 1.3222394 0
4.3720002 -2.2957239 1.321085 0
4.368 -2.300616 1.3201615 0
4.3640003 -2.3054934 1.3192379 0
5.0680003 -1.5532116 1.4733624 0
5.0620003 -1.5596837 1.471988 0
5.0560002 -1.5661341 1.4706135 0
5.0500002 -1.5725628 1.4692389 0
5.0440001 -1.57897 1.4678645 0
5.0380001 -1.5853555 1.4664899 0
5.0320005 -1.5917195 1.4651155 0
5.0260005 -1.5980617 1.4637411 0
5.0200005 -1.6043822 1.4623666 0
5.0140004 -1.6106811 1.460992 0
5.0080004 -1.6169583 1.4596175 0
5.0020003 -1.6232139 1.458243 0
4.9970002 -1.6297923 1.4570975 0
4.9910002 -1.6360065 1.455723 0
4.9850001 -1.6421989 1.4543484 0
4.9790001 -1.6483697 1.4529741 0
4.9730005 -1.6545191 1.4515996 0
4.9670005 -1.6606466 1.4502251 0
4.9620004 -1.6671077 1.4490796 0
4.9560003 -1.6731938 1.447705 0
4.9500003 -1.6792581 1.4463307 0
4.9440002 -1.6853009 1.4449561 0
4.9390001 -1.6916845 1.4438107 0
4.9330001 -1.6976858 1.4424361 0
4.9270005 -1.7036656 1.4410619 0
4.9210005 -1.7096235 1.4396873 0
4.9160004 -1.7159295 1.4385418 0
4.9100003 -1.7218461 1.4371673 0
4.9050002 -1.7281142 1.4360218 0
4.8990002 -1.7339892 1.4346473 0
4.8930001 -1.7398425 1.4332728 0
4.8880005 -1.7460533 1.4321275 0
4.8820004 -1.7518651 1.430753 0
4.8760004 -1.7576553 1.4293784 0
4.8710003 -1.7638081 1.428233 0
4.8650002 -1.7695568 1.4268584 0
4.8600001 -1.7756717 1.4257131 0
4.8540001 -1.781379 1.4243386 0
4.8490005 -1.7874562 1.4231932 0
4.8430004 -1.7931218 1.4218187 0
4.8380003 -1.799161 1.4206733 0
4.8320003 -1.8047851 1.4192988 0
4.8270001 -1.8107864 1.4181533 0
4.8210001 -1.8163691 1.4167788 0
4.8160005 -1.8223326 1.4156334 0
4.8110003 -1.8282781 1.414488 0
4.8050003 -1.8337995 1.4131135 0
4.8000002 -1.8397069 1.411968 0
4.7940001 -1.8451868 1.4105936 0
4.7890005 -1.8510566 1.4094483 0
4.7840004 -1.8569081 1.4083028 0
4.7780004 -1.8623267 1.4069283 0
4.7730002 -1.8681403 1.4057828 0
4.7680001 -1.8739358 1.4046375 0
4.7620001 -1.8792932 1.4032629 0
4.7570004 -1.8850511 1.4021175 0
4.7520003 -1.8907907 1.400972 0
4.7470002 -1.8965125 1.3998266 0
4.7410002 -1.9017885 1.398452 0
4.7360005 -1.9074725 1.3973068 0
4.7310004 -1.9131383 1.3961613 0
4.7260003 -1.9187858 1.3950158 0
4.7210002 -1.9244156 1.3938705 0
4.7150002 -1.9295906 1.3924959 0
4.7100005 -1.9351826 1.3913506 0
4.7050004 -1.9407562 1.3902051 0
4.7000003 -1.9463118 1.3890597 0
4.6950002 -1.9518497 1.3879143 0
4.6900005 -1.9573694 1.3867689 0
4.6850004 -1.962871 1.3856235 0
4.6790004 -1.9679054 1.384249 0
4.6740003 -1.973369 1.3831035 0
4.6690001 -1.9788148 1.3819581 0
4.6640005 -1.9842426 1.3808128 0
4.6590004 -1.9896522 1.3796673 0
4.6540003 -1.9950435 1.3785218 0
4.6490002 -2.000417 1.3773763 0
4.6440005 -2.0057728 1.3762311 0
4.6390004 -2.0111103 1.3750856 0
4.6340003 -2.0164297 1.3739401 0
4.6290002 -2.0217309 1.3727947 0
4.6240001 -2.0270143 1.3716493 0
4.6190004 -2.0322797 1.3705039 0
4.6140003 -2.0375271 1.3693585 0
4.6090002 -2.0427561 1.3682131 0
4.6040001 -2.0479672 1.3670677 0
4.6000004 -2.0536387 1.3661513 0
4.5950003 -2.0588155 1.3650059 0
4.5900002 -2.0639741 1.3638605 0
4.5850005 -2.0691154 1.3627151 0
4.5800004 -2.0742381 1.3615696 0
4.5750003 -2.0793428 1.3604243 0
4.5700002 -2.0844295 1.3592788 0
4.5650001 -2.0894983 1.3581334 0
4.5610003 -2.0950415 1.3572171 0
4.5560002 -2.1000757 1.3560716 0
4.5510001 -2.105092 1.3549262 0
4.5460005 -2.1100907 1.3537809 0
4.5420003 -2.1155705 1.3528644 0
4.5370002 -2.1205347 1.351719 0
4.5320001 -2.1254807 1.3505735 0
4.5270004 -2.1304088 1.3494282 0
4.5230002 -2.1358254 1.3485119 0
4.5180001 -2.1407192 1.3473665 0
4.5130005 -2.1455951 1.3462211 0
4.5080004 -2.1504526 1.3450757 0
4.5040002 -2.1558063 1.3441592 0
4.4990001 -2.1606295 1.3430139 0
4.4940004 -2.1654351 1.3418685 0
4.4900002 -2.1707418 1.340952 0
4.4850001 -2.1755128 1.3398067 0
4.4800005 -2.1802659 1.3386613 0
4.4760003 -2.1855259 1.337745 0
4.4710002 -2.1902447 1.3365996 0
4.4670005 -2.1954739 1.3356832 0
4.4620004 -2.2001584 1.3345377 0
4.4570003 -2.2048247 1.3333924 0
4.4530001 -2.210007 1.332476 0
4.4480004 -2.2146394 1.3313307 0
4.4440002 -2.2197909 1.3304143 0
4.4390001 -2.2243888 1.3292688 0
4.4350004 -2.2295101 1.3283526 0
4.4300003 -2.2340734 1.3272071 0
4.4260001 -2.2391639 1.3262907 0
4.4210005 -2.2436934 1.3251454 0
4.4170003 -2.2487531 1.324229 0
4.4120002 -2.253248 1.3230836 0
4.4080005 -2.2582772 1.3221673 0
4.4030004 -2.2627378 1.3210219 0
4.3990002 -2.2677362 1.3201056 0
4.3940001 -2.2721629 1.3189601 0
4.3900003 -2.2771304 1.3180438 0
4.3850002 -2.2815228 1.3168983 0
4.381 -2.2864597 1.315982 0
4.3770003 -2.2913823 1.3150657 0
4.3720002 -2.2957239 1.3139203 0
4.368 -2.300616 1.3130039 0
5.0680003 -1.5532116 1.4649423 0
5.0620003 -1.5596837 1.4635787 0
5.0560002 -1.5661341 1.4622149 0
5.0500002 -1.5725628 1.4608513 0
5.0440001 -1.57897 1.4594876 0
5.0380001 -1.5853555 1.4581239 0
5.0320005 -1.5917195 1.4567603 0
5.0260005 -1.5980617 1.4553965 0
5.0200005 -1.6043822 1.4540329 0
5.0140004 -1.6106811 1.4526691 0
5.0080004 -1.6169583 1.4513055 0
5.0020003 -1.6232139 1.4499419 0
4.9970002 -1.6297923 1.4488055 0
4.9910002 -1.6360065 1.4474417 0
4.9850001 -1.6421989 1.4460781 0
4.9790001 -1.6483697 1.4447143 0
4.9730005 -1.6545191 1.4433508 0
4.9670005 -1.6606466 1.4419872 0
4.9620004 -1.6671077 1.4408506 0
4.9560003 -1.6731938 1.439487 0
4.9500003 -1.6792581 1.4381233 0
4.9440002 -1.6853009 1.4367596 0
4.9390001 -1.6916845 1.4356232 0
4.9330001 -1.6976858 1.4342595 0
4.9270005 -1.7036656 1.4328959 0
4.9210005 -1.7096235 1.4315323 0
4.9160004 -1.7159295 1.4303958 0
4.9100003 -1.7218461 1.4290321 0
4.9050002 -1.7281142 1.4278957 0
