# .PCD v0.7 - Point Cloud Data file format
VERSION 0.7
FIELDS x y z intensity
SIZE 4 4 4 4
TYPE F F F F
COUNT 1 1 1 1
WIDTH 1509
HEIGHT 1
VIEWPOINT 0 0 0 1 0 0 0
POINTS 1509
DATA ascii
4.8860002 1.6694793 1.8362634 0
4.8920002 1.663671 1.8381791 0
4.8970003 1.6574624 1.8397756 0
4.9030004 1.6516126 1.8416911 0
4.9080005 1.6453661 1.8432876 0
4.9140005 1.6394749 1.8452033 0
4.9200001 1.6335618 1.8471186 0
4.9250002 1.6272576 1.8487151 0
4.9310002 1.6213032 1.8506308 0
4.9360003 1.614961 1.8522272 0
4.9420004 1.6089653 1.8541429 0
4.9480004 1.6029477 1.8560585 0
4.9530005 1.5965478 1.8576549 0
4.9590001 1.5904888 1.8595704 0
4.9650002 1.584408 1.8614861 0
4.9710002 1.5783058 1.8634018 0
4.9760003 1.5718284 1.8649981 0
4.9820004 1.5656847 1.8669138 0
4.9880004 1.5595193 1.8688295 0
4.9940004 1.5533322 1.8707451 0
4.9990005 1.5467771 1.8723415 0
5.0050001 1.5405484 1.8742571 0
5.0110002 1.5342983 1.8761727 0
5.0170002 1.5280265 1.8780884 0
5.0230002 1.521733 1.8800039 0
5.0290003 1.5154179 1.8819196 0
5.0350003 1.5090811 1.8838353 0
5.0400004 1.5023891 1.8854318 0
5.0460005 1.4960108 1.8873473 0
5.0520005 1.4896109 1.889263 0
5.0580001 1.4831891 1.8911785 0
5.0640001 1.476746 1.8930942 0
5.0700002 1.4702812 1.8950099 0
5.0760002 1.4637947 1.8969256 0
5.0820003 1.4572866 1.8988411 0
5.0880003 1.4507568 1.9007568 0
5.0940003 1.4442054 1.9026724 0
5.1000004 1.4376323 1.9045881 0
5.1060004 1.4310375 1.9065038 0
5.1130004 1.4247333 1.9087387 0
5.1190004 1.4180934 1.9106543 0
5.1250005 1.4114319 1.91257 0
5.1310005 1.4047489 1.9144857 0
5.1370001 1.398044 1.9164011 0
4.3640003 2.2349446 1.6624522 0
4.368 2.2300885 1.663722 0
4.3720002 2.2252181 1.6649919 0
4.3770003 2.2209036 1.6665792 0
4.381 2.2160025 1.6678491 0
4.3850002 2.2110872 1.669119 0
4.3900003 2.206722 1.6707064 0
4.3940001 2.201776 1.6719762 0
4.3990002 2.1973763 1.6735636 0
4.4030004 2.1923997 1.6748335 0
4.4070001 2.1874084 1.6761032 0
4.4120002 2.1829586 1.6776906 0
4.4160004 2.1779368 1.6789606 0
4.4210005 2.1734526 1.680548 0
4.4250002 2.1684 1.6818178 0
4.4300003 2.1638815 1.6834052 0
4.4340005 2.1587985 1.6846751 0
4.4380002 2.1537008 1.6859448 0
4.4430003 2.149132 1.6875323 0
4.4470005 2.1440036 1.6888022 0
4.4520001 2.1394 1.6903894 0
4.4560003 2.1342413 1.6916593 0
4.4610004 2.1296039 1.6932468 0
4.4660001 2.124948 1.694834 0
4.4700003 2.1197424 1.6961039 0
4.4750004 2.1150525 1.6976913 0
4.4790001 2.1098158 1.6989611 0
4.4840002 2.1050918 1.7005485 0
4.4880004 2.0998247 1.7018185 0
4.4930005 2.0950663 1.7034057 0
4.4980001 2.0902896 1.704993 0
4.5020003 2.0849757 1.7062629 0
4.5070004 2.0801651 1.7078503 0
4.5110002 2.07482 1.7091202 0
4.5160003 2.0699754 1.7107075 0
4.5210004 2.0651124 1.7122949 0
4.5250001 2.0597205 1.7135648 0
4.5300002 2.0548232 1.7151521 0
4.5350003 2.0499079 1.7167395 0
4.5390005 2.0444696 1.7180095 0
4.5440001 2.0395198 1.7195966 0
4.5490003 2.0345521 1.721184 0
4.5540004 2.0295665 1.7227715 0
4.5580001 2.0240648 1.7240412 0
4.5630002 2.0190449 1.7256286 0
4.5680003 2.0140069 1.7272161 0
4.5730004 2.0089507 1.7288034 0
4.5770001 2.0033858 1.7300732 0
4.5820003 1.9982955 1.7316606 0
4.5870004 1.9931872 1.733248 0
4.5920005 1.9880607 1.7348354 0
4.5970001 1.9829161 1.7364227 0
4.6020002 1.9777539 1.7380099 0
4.6060004 1.9720936 1.7392799 0
4.6110001 1.9668965 1.7408671 0
4.6160002 1.9616818 1.7424545 0
4.6210003 1.956449 1.744042 0
4.6260004 1.9511981 1.7456293 0
4.6310005 1.9459293 1.7472167 0
4.6360002 1.9406421 1.748804 0
4.6410003 1.9353373 1.7503914 0
4.6460004 1.9300141 1.7519786 0
4.6510005 1.9246732 1.7535661 0
4.6560001 1.9193139 1.7551534 0
4.6610003 1.9139369 1.7567408 0
4.6660004 1.9085417 1.7583281 0
4.6710005 1.9031285 1.7599155 0
4.6760001 1.8976971 1.7615027 0
4.6810002 1.8922478 1.7630903 0
4.6860003 1.8867806 1.7646775 0
4.6910005 1.8812952 1.7662649 0
4.6960001 1.8757915 1.7678522 0
4.7010002 1.8702703 1.7694396 0
4.7060003 1.8647307 1.7710268 0
4.7110004 1.8591733 1.7726144 0
4.7160001 1.8535975 1.7742015 0
4.7210002 1.8480041 1.775789 0
4.7260003 1.8423924 1.7773763 0
4.7310004 1.8367628 1.7789637 0
4.7370005 1.8315481 1.7808685 0
4.7420001 1.8258803 1.7824558 0
4.7470002 1.8201947 1.7840432 0
4.7520003 1.8144912 1.7856306 0
4.7570004 1.8087695 1.7872179 0
4.7630005 1.8034536 1.7891228 0
4.7680001 1.797694 1.7907101 0
4.7730002 1.7919165 1.7922974 0
4.7780004 1.7861208 1.7938849 0
4.7840004 1.7807238 1.7957896 0
4.7890005 1.7748904 1.797377 0
4.7940001 1.7690387 1.7989643 0
4.7990003 1.7631692 1.8005517 0
4.8050003 1.757691 1.8024565 0
4.8100004 1.7517836 1.8040439 0
4.8150005 1.7458582 1.8056313 0
4.8210001 1.7403184 1.807536 0
4.8260002 1.7343551 1.8091233 0
4.8320003 1.7287742 1.8110282 0
4.8370004 1.722773 1.8126155 0
4.8420005 1.7167537 1.8142029 0
4.8480005 1.7111114 1.8161077 0
4.8530002 1.705054 1.817695 0
4.8590002 1.6993703 1.8195999 0
4.8640003 1.6932752 1.8211873 0
4.8700004 1.6875499 1.8230921 0
4.8750005 1.681417 1.8246795 0
4.8810005 1.6756502 1.8265843 0
4.8860002 1.6694793 1.8281715 0
4.8920002 1.663671 1.8300765 0
4.8970003 1.6574624 1.8316637 0
4.9030004 1.6516126 1.8335687 0
4.9080005 1.6453661 1.835156 0
4.9140005 1.6394749 1.8370608 0
4.9200001 1.6335618 1.8389655 0
4.9250002 1.6272576 1.8405529 0
4.9310002 1.6213032 1.8424578 0
4.9360003 1.614961 1.8440452 0
4.9420004 1.6089653 1.8459499 0
4.9480004 1.6029477 1.8478547 0
4.9530005 1.5965478 1.8494421 0
4.9590001 1.5904888 1.8513469 0
4.9650002 1.584408 1.8532517 0
4.9710002 1.5783058 1.8551565 0
4.9760003 1.5718284 1.8567439 0
4.9820004 1.5656847 1.8586488 0
4.9880004 1.5595193 1.8605535 0
4.9940004 1.5533322 1.8624585 0
4.9990005 1.5467771 1.8640457 0
5.0050001 1.5405484 1.8659505 0
5.0110002 1.5342983 1.8678553 0
5.0170002 1.5280265 1.8697602 0
5.0230002 1.521733 1.871665 0
5.0290003 1.5154179 1.8735698 0
5.0350003 1.5090811 1.8754746 0
5.0400004 1.5023891 1.8770621 0
5.0460005 1.4960108 1.8789668 0
5.0520005 1.4896109 1.8808717 0
5.0580001 1.4831891 1.8827764 0
5.0640001 1.476746 1.8846812 0
5.0700002 1.4702812 1.8865861 0
5.0760002 1.4637947 1.8884909 0
5.0820003 1.4572866 1.8903958 0
5.0880003 1.4507568 1.8923005 0
5.0940003 1.4442054 1.8942055 0
5.1000004 1.4376323 1.8961103 0
5.1060004 1.4310375 1.898015 0
5.1130004 1.4247333 1.9002373 0
5.1190004 1.4180934 1.9021422 0
5.1250005 1.4114319 1.9040471 0
5.1310005 1.4047489 1.9059519 0
5.1370001 1.398044 1.9078565 0
4.3640003 2.2349446 1.6553018 0
4.368 2.2300885 1.6565645 0
4.3720002 2.2252181 1.6578271 0
4.3770003 2.2209036 1.6594055 0
4.381 2.2160025 1.6606681 0
4.3850002 2.2110872 1.6619308 0
4.3900003 2.206722 1.6635092 0
4.3940001 2.201776 1.6647718 0
4.3990002 2.1973763 1.6663501 0
4.4030004 2.1923997 1.6676128 0
4.4070001 2.1874084 1.6688753 0
4.4120002 2.1829586 1.6704538 0
4.4160004 2.1779368 1.6717165 0
4.4210005 2.1734526 1.6732948 0
4.4250002 2.1684 1.6745574 0
4.4300003 2.1638815 1.6761359 0
4.4340005 2.1587985 1.6773986 0
4.4380002 2.1537008 1.6786611 0
4.4430003 2.149132 1.6802394 0
4.4470005 2.1440036 1.6815022 0
4.4520001 2.1394 1.6830804 0
4.4560003 2.1342413 1.6843431 0
4.4610004 2.1296039 1.6859214 0
4.4660001 2.124948 1.6874998 0
4.4700003 2.1197424 1.6887624 0
4.4750004 2.1150525 1.6903409 0
4.4790001 2.1098158 1.6916034 0
4.4840002 2.1050918 1.6931818 0
4.4880004 2.0998247 1.6944444 0
4.4930005 2.0950663 1.6960229 0
4.4980001 2.0902896 1.6976011 0
4.5020003 2.0849757 1.6988637 0
4.5070004 2.0801651 1.7004421 0
4.5110002 2.07482 1.7017047 0
4.5160003 2.0699754 1.7032832 0
4.5210004 2.0651124 1.7048615 0
4.5250001 2.0597205 1.7061241 0
4.5300002 2.0548232 1.7077024 0
4.5350003 2.0499079 1.7092808 0
4.5390005 2.0444696 1.7105435 0
4.5440001 2.0395198 1.7121217 0
4.5490003 2.0345521 1.7137001 0
4.5540004 2.0295665 1.7152785 0
4.5580001 2.0240648 1.7165411 0
4.5630002 2.0190449 1.7181194 0
4.5680003 2.0140069 1.7196977 0
4.5730004 2.0089507 1.7212762 0
4.5770001 2.0033858 1.7225388 0
4.5820003 1.9982955 1.7241172 0
4.5870004 1.9931872 1.7256955 0
4.5920005 1.9880607 1.7272738 0
4.5970001 1.9829161 1.728852 0
4.6020002 1.9777539 1.7304305 0
4.6060004 1.9720936 1.7316931 0
4.6110001 1.9668965 1.7332714 0
4.6160002 1.9616818 1.7348497 0
4.6210003 1.956449 1.7364281 0
4.6260004 1.9511981 1.7380065 0
4.6310005 1.9459293 1.7395848 0
4.6360002 1.9406421 1.741163 0
4.6410003 1.9353373 1.7427415 0
4.6460004 1.9300141 1.7443198 0
4.6510005 1.9246732 1.7458981 0
4.6560001 1.9193139 1.7474763 0
4.6610003 1.9139369 1.7490548 0
4.6660004 1.9085417 1.7506331 0
4.6710005 1.9031285 1.7522115 0
4.6760001 1.8976971 1.7537897 0
4.6810002 1.8922478 1.7553681 0
4.6860003 1.8867806 1.7569464 0
4.6910005 1.8812952 1.7585248 0
4.6960001 1.8757915 1.760103 0
4.7010002 1.8702703 1.7616814 0
4.7060003 1.8647307 1.7632598 0
4.7110004 1.8591733 1.7648381 0
4.7160001 1.8535975 1.7664163 0
4.7210002 1.8480041 1.7679946 0
4.7260003 1.8423924 1.7695731 0
4.7310004 1.8367628 1.7711514 0
4.7370005 1.8315481 1.7730454 0
4.7420001 1.8258803 1.7746236 0
4.7470002 1.8201947 1.7762021 0
4.7520003 1.8144912 1.7777804 0
4.7570004 1.8087695 1.7793587 0
4.7630005 1.8034536 1.7812529 0
4.7680001 1.797694 1.7828311 0
4.7730002 1.7919165 1.7844094 0
4.7780004 1.7861208 1.7859877 0
4.7840004 1.7807238 1.7878817 0
4.7890005 1.7748904 1.7894601 0
4.7940001 1.7690387 1.7910384 0
4.7990003 1.7631692 1.7926167 0
4.8050003 1.757691 1.7945107 0
4.8100004 1.7517836 1.7960891 0
4.8150005 1.7458582 1.7976674 0
4.8210001 1.7403184 1.7995613 0
4.8260002 1.7343551 1.8011397 0
4.8320003 1.7287742 1.8030337 0
4.8370004 1.722773 1.804612 0
4.8420005 1.7167537 1.8061905 0
4.8480005 1.7111114 1.8080845 0
4.8530002 1.705054 1.8096627 0
4.8590002 1.6993703 1.8115567 0
4.8640003 1.6932752 1.813135 0
4.8700004 1.6875499 1.815029 0
4.8750005 1.681417 1.8166074 0
4.8810005 1.6756502 1.8185014 0
4.8860002 1.6694793 1.8200796 0
4.8920002 1.663671 1.8219737 0
4.8970003 1.6574624 1.823552 0
4.9030004 1.6516126 1.825446 0
4.9080005 1.6453661 1.8270245 0
4.9140005 1.6394749 1.8289185 0
4.9200001 1.6335618 1.8308123 0
4.9250002 1.6272576 1.8323907 0
4.9310002 1.6213032 1.8342847 0
4.9360003 1.614961 1.835863 0
4.9420004 1.6089653 1.837757 0
4.9480004 1.6029477 1.8396511 0
4.9530005 1.5965478 1.8412294 0
4.9590001 1.5904888 1.8431233 0
4.9650002 1.584408 1.8450173 0
4.9710002 1.5783058 1.8469113 0
4.9760003 1.5718284 1.8484896 0
4.9820004 1.5656847 1.8503836 0
4.9880004 1.5595193 1.8522776 0
4.9940004 1.5533322 1.8541718 0
4.9990005 1.5467771 1.8557501 0
5.0050001 1.5405484 1.857644 0
5.0110002 1.5342983 1.859538 0
5.0170002 1.5280265 1.861432 0
5.0230002 1.521733 1.863326 0
5.0290003 1.5154179 1.86522 0
5.0350003 1.5090811 1.8671141 0
5.0400004 1.5023891 1.8686924 0
5.0460005 1.4960108 1.8705864 0
5.0520005 1.4896109 1.8724804 0
5.0580001 1.4831891 1.8743743 0
5.0640001 1.476746 1.8762683 0
5.0700002 1.4702812 1.8781623 0
5.0760002 1.4637947 1.8800564 0
5.0820003 1.4572866 1.8819503 0
5.0880003 1.4507568 1.8838443 0
5.0940003 1.4442054 1.8857384 0
5.1000004 1.4376323 1.8876324 0
5.1060004 1.4310375 1.8895264 0
5.1130004 1.4247333 1.8917359 0
5.1190004 1.4180934 1.89363 0
5.1250005 1.4114319 1.895524 0
5.1310005 1.4047489 1.897418 0
5.1370001 1.398044 1.8993119 0
4.3640003 2.2349446 1.6481515 0
4.368 2.2300885 1.6494069 0
4.3720002 2.2252181 1.6506624 0
4.3770003 2.2209036 1.6522318 0
4.381 2.2160025 1.6534872 0
4.3850002 2.2110872 1.6547426 0
4.3900003 2.206722 1.656312 0
4.3940001 2.201776 1.6575674 0
4.3990002 2.1973763 1.6591367 0
4.4030004 2.1923997 1.6603922 0
4.4070001 2.1874084 1.6616476 0
4.4120002 2.1829586 1.6632168 0
4.4160004 2.1779368 1.6644725 0
4.4210005 2.1734526 1.6660417 0
4.4250002 2.1684 1.6672971 0
4.4300003 2.1638815 1.6688664 0
4.4340005 2.1587985 1.670122 0
4.4390001 2.1542454 1.6716912 0
4.4430003 2.149132 1.6729467 0
4.4470005 2.1440036 1.6742022 0
4.4520001 2.1394 1.6757715 0
4.4560003 2.1342413 1.6770269 0
4.4610004 2.1296039 1.6785963 0
4.4660001 2.124948 1.6801654 0
4.4700003 2.1197424 1.681421 0
4.4750004 2.1150525 1.6829903 0
4.4790001 2.1098158 1.6842456 0
4.4840002 2.1050918 1.685815 0
4.4880004 2.0998247 1.6870706 0
4.4930005 2.0950663 1.6886399 0
4.4980001 2.0902896 1.690209 0
4.5020003 2.0849757 1.6914645 0
4.5070004 2.0801651 1.6930339 0
4.5110002 2.07482 1.6942893 0
4.5160003 2.0699754 1.6958586 0
4.5210004 2.0651124 1.697428 0
4.5250001 2.0597205 1.6986834 0
4.5300002 2.0548232 1.7002527 0
4.5350003 2.0499079 1.701822 0
4.5390005 2.0444696 1.7030776 0
4.5440001 2.0395198 1.7046468 0
4.5490003 2.0345521 1.7062161 0
4.5540004 2.0295665 1.7077854 0
4.5580001 2.0240648 1.7090408 0
4.5630002 2.0190449 1.7106102 0
4.5680003 2.0140069 1.7121795 0
4.5730004 2.0089507 1.7137488 0
4.5770001 2.0033858 1.7150042 0
4.5820003 1.9982955 1.7165736 0
4.5870004 1.9931872 1.7181429 0
4.5920005 1.9880607 1.7197123 0
4.5970001 1.9829161 1.7212815 0
4.6020002 1.9777539 1.7228508 0
4.6060004 1.9720936 1.7241063 0
4.6110001 1.9668965 1.7256755 0
4.6160002 1.9616818 1.7272449 0
4.6210003 1.956449 1.7288142 0
4.6260004 1.9511981 1.7303835 0
4.6310005 1.9459293 1.7319529 0
4.6360002 1.9406421 1.7335222 0
4.6410003 1.9353373 1.7350914 0
4.6460004 1.9300141 1.7366608 0
4.6510005 1.9246732 1.7382301 0
4.6560001 1.9193139 1.7397994 0
4.6610003 1.9139369 1.7413687 0
4.6660004 1.9085417 1.742938 0
4.6710005 1.9031285 1.7445074 0
4.6760001 1.8976971 1.7460766 0
4.6810002 1.8922478 1.747646 0
4.6860003 1.8867806 1.7492152 0
4.6910005 1.8812952 1.7507846 0
4.6960001 1.8757915 1.7523539 0
4.7010002 1.8702703 1.7539232 0
4.7060003 1.8647307 1.7554926 0
4.7110004 1.8591733 1.757062 0
4.7160001 1.8535975 1.7586311 0
4.7210002 1.8480041 1.7602004 0
4.7260003 1.8423924 1.7617699 0
4.7310004 1.8367628 1.7633392 0
4.7370005 1.8315481 1.7652223 0
4.7420001 1.8258803 1.7667915 0
4.7470002 1.8201947 1.768361 0
4.7520003 1.8144912 1.7699302 0
4.7570004 1.8087695 1.7714995 0
4.7630005 1.8034536 1.7733828 0
4.7680001 1.797694 1.7749519 0
4.7730002 1.7919165 1.7765213 0
4.7780004 1.7861208 1.7780906 0
4.7840004 1.7807238 1.7799739 0
4.7890005 1.7748904 1.7815433 0
4.7940001 1.7690387 1.7831124 0
4.7990003 1.7631692 1.7846818 0
4.8050003 1.757691 1.7865649 0
4.8100004 1.7517836 1.7881342 0
4.8150005 1.7458582 1.7897036 0
4.8210001 1.7403184 1.7915868 0
4.8260002 1.7343551 1.793156 0
4.8320003 1.7287742 1.7950392 0
4.8370004 1.722773 1.7966086 0
4.8420005 1.7167537 1.798178 0
4.8480005 1.7111114 1.8000611 0
4.8530002 1.705054 1.8016304 0
4.8590002 1.6993703 1.8035135 0
4.8640003 1.6932752 1.8050828 0
4.8700004 1.6875499 1.8069659 0
4.8750005 1.681417 1.8085355 0
4.8810005 1.6756502 1.8104186 0
4.8860002 1.6694793 1.8119878 0
4.8920002 1.663671 1.813871 0
4.8970003 1.6574624 1.8154403 0
4.9030004 1.6516126 1.8173234 0
4.9080005 1.6453661 1.8188928 0
4.9140005 1.6394749 1.8207761 0
4.9200001 1.6335618 1.822659 0
4.9250002 1.6272576 1.8242284 0
4.9310002 1.6213032 1.8261117 0
4.9360003 1.614961 1.8276809 0
4.9420004 1.6089653 1.8295641 0
4.9480004 1.6029477 1.8314474 0
4.9530005 1.5965478 1.8330168 0
4.9590001 1.5904888 1.8348997 0
4.9650002 1.584408 1.8367829 0
4.9710002 1.5783058 1.8386661 0
4.9760003 1.5718284 1.8402355 0
4.9820004 1.5656847 1.8421186 0
4.9880004 1.5595193 1.8440019 0
4.9940004 1.5533322 1.845885 0
4.9990005 1.5467771 1.8474543 0
5.0050001 1.5405484 1.8493375 0
5.0110002 1.5342983 1.8512206 0
5.0170002 1.5280265 1.8531038 0
5.0230002 1.521733 1.854987 0
5.0290003 1.5154179 1.8568702 0
5.0350003 1.5090811 1.8587533 0
5.0400004 1.5023891 1.8603227 0
5.0460005 1.4960108 1.8622059 0
5.0520005 1.4896109 1.864089 0
5.0580001 1.4831891 1.8659722 0
5.0640001 1.476746 1.8678553 0
5.0700002 1.4702812 1.8697385 0
5.0760002 1.4637947 1.8716217 0
5.0820003 1.4572866 1.8735049 0
5.0880003 1.4507568 1.875388 0
5.0940003 1.4442054 1.8772713 0
5.1000004 1.4376323 1.8791544 0
5.1060004 1.4310375 1.8810376 0
5.1130004 1.4247333 1.8832347 0
5.1190004 1.4180934 1.8851179 0
5.1250005 1.4114319 1.887001 0
5.1310005 1.4047489 1.8888843 0
5.1370001 1.398044 1.8907672 0
4.3640003 2.2349446 1.6410012 0
4.368 2.2300885 1.6422495 0
4.3720002 2.2252181 1.6434976 0
4.3770003 2.2209036 1.645058 0
4.381 2.2160025 1.6463062 0
4.3850002 2.2110872 1.6475544 0
4.3900003 2.206722 1.6491147 0
4.3940001 2.201776 1.650363 0
4.3990002 2.1973763 1.6519233 0
4.4030004 2.1923997 1.6531715 0
4.4070001 2.1874084 1.6544197 0
4.4120002 2.1829586 1.65598 0
4.4160004 2.1779368 1.6572284 0
4.4210005 2.1734526 1.6587886 0
4.4250002 2.1684 1.6600368 0
4.4300003 2.1638815 1.6615971 0
4.4340005 2.1587985 1.6628454 0
4.4390001 2.1542454 1.6644056 0
4.4430003 2.149132 1.6656538 0
4.4470005 2.1440036 1.6669021 0
4.4520001 2.1394 1.6684624 0
4.4560003 2.1342413 1.6697106 0
4.4610004 2.1296039 1.671271 0
4.4660001 2.124948 1.6728311 0
4.4700003 2.1197424 1.6740795 0
4.4750004 2.1150525 1.6756397 0
4.4790001 2.1098158 1.6768879 0
4.4840002 2.1050918 1.6784483 0
4.4880004 2.0998247 1.6796966 0
4.4930005 2.0950663 1.6812569 0
4.4980001 2.0902896 1.682817 0
4.5020003 2.0849757 1.6840653 0
4.5070004 2.0801651 1.6856257 0
4.5110002 2.07482 1.6868738 0
4.5160003 2.0699754 1.6884342 0
4.5210004 2.0651124 1.6899945 0
4.5250001 2.0597205 1.6912426 0
4.5300002 2.0548232 1.6928029 0
4.5350003 2.0499079 1.6943632 0
4.5390005 2.0444696 1.6956116 0
4.5440001 2.0395198 1.6971717 0
4.5490003 2.0345521 1.6987321 0
4.5540004 2.0295665 1.7002923 0
4.5580001 2.0240648 1.7015406 0
4.5630002 2.0190449 1.7031009 0
4.5680003 2.0140069 1.7046613 0
4.5730004 2.0089507 1.7062216 0
4.5770001 2.0033858 1.7074697 0
4.5820003 1.9982955 1.70903 0
4.5870004 1.9931872 1.7105904 0
4.5920005 1.9880607 1.7121507 0
4.5970001 1.9829161 1.7137109 0
4.6020002 1.9777539 1.7152712 0
4.6060004 1.9720936 1.7165195 0
4.6110001 1.9668965 1.7180797 0
4.6160002 1.9616818 1.71964 0
4.6210003 1.956449 1.7212003 0
4.6260004 1.9511981 1.7227607 0
4.6310005 1.9459293 1.724321 0
4.6360002 1.9406421 1.7258812 0
4.6410003 1.9353373 1.7274415 0
4.6460004 1.9300141 1.7290019 0
4.6510005 1.9246732 1.7305622 0
4.6560001 1.9193139 1.7321224 0
4.6610003 1.9139369 1.7336826 0
4.6660004 1.9085417 1.7352431 0
4.6710005 1.9031285 1.7368033 0
4.6760001 1.8976971 1.7383635 0
4.6810002 1.8922478 1.7399238 0
4.6860003 1.8867806 1.7414842 0
4.6910005 1.8812952 1.7430445 0
4.6960001 1.8757915 1.7446047 0
4.7010002 1.8702703 1.746165 0
4.7060003 1.8647307 1.7477254 0
4.7110004 1.8591733 1.7492857 0
4.7160001 1.8535975 1.7508458 0
4.7210002 1.8480041 1.7524062 0
4.7260003 1.8423924 1.7539665 0
4.7310004 1.8367628 1.7555269 0
4.7370005 1.8315481 1.7573992 0
4.7420001 1.8258803 1.7589594 0
4.7470002 1.8201947 1.7605197 0
4.7520003 1.8144912 1.7620801 0
4.7570004 1.8087695 1.7636404 0
4.7630005 1.8034536 1.7655127 0
4.7680001 1.797694 1.7670729 0
4.7730002 1.7919165 1.7686334 0
4.7780004 1.7861208 1.7701936 0
4.7840004 1.7807238 1.772066 0
4.7890005 1.7748904 1.7736262 0
4.7940001 1.7690387 1.7751864 0
4.7990003 1.7631692 1.7767469 0
4.8050003 1.757691 1.7786192 0
4.8100004 1.7517836 1.7801795 0
4.8150005 1.7458582 1.7817398 0
4.8210001 1.7403184 1.783612 0
4.8260002 1.7343551 1.7851723 0
4.8320003 1.7287742 1.7870448 0
4.8370004 1.722773 1.7886051 0
4.8420005 1.7167537 1.7901654 0
4.8480005 1.7111114 1.7920378 0
4.8530002 1.705054 1.7935979 0
4.8590002 1.6993703 1.7954704 0
4.8640003 1.6932752 1.7970307 0
4.8700004 1.6875499 1.798903 0
4.8750005 1.681417 1.8004633 0
4.8810005 1.6756502 1.8023357 0
4.8860002 1.6694793 1.8038958 0
4.8920002 1.663671 1.8057683 0
4.8970003 1.6574624 1.8073286 0
4.9030004 1.6516126 1.8092009 0
4.9080005 1.6453661 1.8107613 0
4.9140005 1.6394749 1.8126336 0
4.9200001 1.6335618 1.8145059 0
4.9250002 1.6272576 1.8160661 0
4.9310002 1.6213032 1.8179386 0
4.9360003 1.614961 1.8194989 0
4.9420004 1.6089653 1.8213712 0
4.9480004 1.6029477 1.8232436 0
4.9530005 1.5965478 1.8248039 0
4.9590001 1.5904888 1.8266762 0
4.9650002 1.584408 1.8285486 0
4.9710002 1.5783058 1.8304209 0
4.9760003 1.5718284 1.8319812 0
4.9820004 1.5656847 1.8338536 0
4.9880004 1.5595193 1.835726 0
4.9940004 1.5533322 1.8375983 0
4.9990005 1.5467771 1.8391587 0
5.0050001 1.5405484 1.8410308 0
5.0110002 1.5342983 1.8429033 0
5.0170002 1.5280265 1.8447757 0
5.0230002 1.521733 1.846648 0
5.0290003 1.5154179 1.8485203 0
5.0350003 1.5090811 1.8503927 0
5.0400004 1.5023891 1.851953 0
5.0460005 1.4960108 1.8538253 0
5.0520005 1.4896109 1.8556978 0
5.0580001 1.4831891 1.8575699 0
5.0640001 1.476746 1.8594424 0
5.0700002 1.4702812 1.8613148 0
5.0760002 1.4637947 1.8631871 0
5.0820003 1.4572866 1.8650594 0
5.0880003 1.4507568 1.8669318 0
5.0940003 1.4442054 1.8688041 0
5.1000004 1.4376323 1.8706765 0
5.1060004 1.4310375 1.8725489 0
5.1130004 1.4247333 1.8747333 0
5.1190004 1.4180934 1.8766057 0
5.1250005 1.4114319 1.8784781 0
5.1310005 1.4047489 1.8803504 0
5.1370001 1.398044 1.8822225 0
4.3640003 2.2349446 1.6338509 0
4.368 2.2300885 1.6350919 0
4.3720002 2.2252181 1.636333 0
4.3770003 2.2209036 1.6378843 0
4.381 2.2160025 1.6391253 0
4.3850002 2.2110872 1.6403663 0
4.3900003 2.206722 1.6419176 0
4.3940001 2.201776 1.6431586 0
4.3990002 2.1973763 1.6447098 0
4.4030004 2.1923997 1.6459509 0
4.4070001 2.1874084 1.6471918 0
4.4120002 2.1829586 1.6487432 0
4.4160004 2.1779368 1.6499842 0
4.4210005 2.1734526 1.6515355 0
4.4250002 2.1684 1.6527764 0
4.4300003 2.1638815 1.6543278 0
4.4340005 2.1587985 1.6555688 0
4.4390001 2.1542454 1.65712 0
4.4430003 2.149132 1.6583611 0
4.4470005 2.1440036 1.6596022 0
4.4520001 2.1394 1.6611533 0
4.4560003 2.1342413 1.6623944 0
4.4610004 2.1296039 1.6639457 0
4.4660001 2.124948 1.6654968 0
4.4700003 2.1197424 1.6667379 0
4.4750004 2.1150525 1.6682892 0
4.4790001 2.1098158 1.6695303 0
4.4840002 2.1050918 1.6710814 0
4.4880004 2.0998247 1.6723226 0
4.4930005 2.0950663 1.6738739 0
4.4980001 2.0902896 1.6754251 0
4.5020003 2.0849757 1.6766661 0
4.5070004 2.0801651 1.6782174 0
4.5110002 2.07482 1.6794584 0
4.5160003 2.0699754 1.6810097 0
4.5210004 2.0651124 1.682561 0
4.5250001 2.0597205 1.6838019 0
4.5300002 2.0548232 1.6853533 0
4.5350003 2.0499079 1.6869045 0
4.5390005 2.0444696 1.6881456 0
4.5440001 2.0395198 1.6896968 0
4.5490003 2.0345521 1.6912482 0
4.5540004 2.0295665 1.6927993 0
4.5580001 2.0240648 1.6940404 0
4.5630002 2.0190449 1.6955917 0
4.5680003 2.0140069 1.697143 0
4.5730004 2.0089507 1.6986942 0
4.5770001 2.0033858 1.6999352 0
4.5820003 1.9982955 1.7014865 0
4.5870004 1.9931872 1.7030379 0
4.5920005 1.9880607 1.7045891 0
4.5970001 1.9829161 1.7061404 0
4.6020002 1.9777539 1.7076916 0
4.6060004 1.9720936 1.7089328 0
4.6110001 1.9668965 1.7104838 0
4.6160002 1.9616818 1.7120352 0
4.6210003 1.956449 1.7135864 0
4.6260004 1.9511981 1.7151378 0
4.6310005 1.9459293 1.7166891 0
4.6360002 1.9406421 1.7182403 0
4.6410003 1.9353373 1.7197915 0
4.6460004 1.9300141 1.7213429 0
4.6510005 1.9246732 1.7228942 0
4.6560001 1.9193139 1.7244453 0
4.6610003 1.9139369 1.7259966 0
4.6660004 1.9085417 1.727548 0
4.6710005 1.9031285 1.7290993 0
4.6760001 1.8976971 1.7306504 0
4.6810002 1.8922478 1.7322018 0
4.6860003 1.8867806 1.733753 0
4.6910005 1.8812952 1.7353044 0
4.6960001 1.8757915 1.7368555 0
4.7010002 1.8702703 1.7384069 0
4.7060003 1.8647307 1.7399582 0
4.7110004 1.8591733 1.7415094 0
4.7160001 1.8535975 1.7430606 0
4.7210002 1.8480041 1.744612 0
4.7260003 1.8423924 1.7461632 0
4.7310004 1.8367628 1.7477145 0
4.7370005 1.8315481 1.7495761 0
4.7420001 1.8258803 1.7511272 0
4.7470002 1.8201947 1.7526785 0
4.7520003 1.8144912 1.7542299 0
4.7570004 1.8087695 1.7557812 0
4.7630005 1.8034536 1.7576427 0
4.7680001 1.797694 1.7591939 0
4.7730002 1.7919165 1.7607452 0
4.7780004 1.7861208 1.7622966 0
4.7840004 1.7807238 1.764158 0
4.7890005 1.7748904 1.7657094 0
4.7940001 1.7690387 1.7672606 0
4.7990003 1.7631692 1.7688119 0
4.8050003 1.757691 1.7706734 0
4.8100004 1.7517836 1.7722248 0
4.8150005 1.7458582 1.7737759 0
4.8210001 1.7403184 1.7756374 0
4.8260002 1.7343551 1.7771888 0
4.8320003 1.7287742 1.7790502 0
4.8370004 1.722773 1.7806016 0
4.8420005 1.7167537 1.7821529 0
4.8480005 1.7111114 1.7840145 0
4.8530002 1.705054 1.7855656 0
4.8590002 1.6993703 1.7874271 0
4.8640003 1.6932752 1.7889785 0
4.8700004 1.6875499 1.7908399 0
4.8750005 1.681417 1.7923913 0
4.8810005 1.6756502 1.7942528 0
4.8860002 1.6694793 1.795804 0
4.8920002 1.663671 1.7976656 0
4.8970003 1.6574624 1.7992167 0
4.9030004 1.6516126 1.8010784 0
4.9080005 1.6453661 1.8026297 0
4.9140005 1.6394749 1.8044913 0
4.9200001 1.6335618 1.8063526 0
4.9250002 1.6272576 1.8079039 0
4.9310002 1.6213032 1.8097655 0
4.9360003 1.614961 1.8113167 0
4.9420004 1.6089653 1.8131784 0
4.9480004 1.6029477 1.8150399 0
4.9530005 1.5965478 1.8165913 0
4.9590001 1.5904888 1.8184526 0
4.9650002 1.584408 1.8203142 0
4.9710002 1.5783058 1.8221757 0
4.9760003 1.5718284 1.823727 0
4.9820004 1.5656847 1.8255886 0
4.9880004 1.5595193 1.82745 0
4.9940004 1.5533322 1.8293116 0
4.9990005 1.5467771 1.8308629 0
5.0050001 1.5405484 1.8327243 0
5.0110002 1.5342983 1.8345859 0
5.0170002 1.5280265 1.8364475 0
5.0230002 1.521733 1.8383089 0
5.0290003 1.5154179 1.8401705 0
5.0350003 1.5090811 1.8420321 0
5.0400004 1.5023891 1.8435833 0
5.0460005 1.4960108 1.8454449 0
5.0520005 1.4896109 1.8473064 0
5.0580001 1.4831891 1.8491679 0
5.0640001 1.476746 1.8510294 0
5.0700002 1.4702812 1.8528908 0
5.0760002 1.4637947 1.8547525 0
5.0820003 1.4572866 1.856614 0
5.0880003 1.4507568 1.8584756 0
5.0940003 1.4442054 1.8603371 0
5.1000004 1.4376323 1.8621986 0
5.1060004 1.4310375 1.8640602 0
5.1130004 1.4247333 1.8662319 0
5.1190004 1.4180934 1.8680935 0
5.1250005 1.4114319 1.8699551 0
5.1310005 1.4047489 1.8718165 0
5.1370001 1.398044 1.873678 0
4.3640003 2.2349446 1.6267006 0
4.368 2.2300885 1.6279345 0
4.3720002 2.2252181 1.6291683 0
4.3770003 2.2209036 1.6307105 0
4.381 2.2160025 1.6319443 0
4.3850002 2.2110872 1.633178 0
4.3900003 2.206722 1.6347203 0
4.3940001 2.201776 1.6359543 0
4.3990002 2.1973763 1.6374965 0
4.4030004 2.1923997 1.6387303 0
4.4070001 2.1874084 1.639964 0
4.4120002 2.1829586 1.6415062 0
4.4160004 2.1779368 1.6427401 0
4.4210005 2.1734526 1.6442825 0
4.4250002 2.1684 1.6455162 0
4.4300003 2.1638815 1.6470585 0
4.4340005 2.1587985 1.6482923 0
4.4390001 2.1542454 1.6498344 0
4.4430003 2.149132 1.6510682 0
4.4470005 2.1440036 1.6523021 0
4.4520001 2.1394 1.6538444 0
4.4560003 2.1342413 1.6550782 0
4.4610004 2.1296039 1.6566204 0
4.4660001 2.124948 1.6581626 0
4.4700003 2.1197424 1.6593964 0
4.4750004 2.1150525 1.6609387 0
4.4790001 2.1098158 1.6621724 0
4.4840002 2.1050918 1.6637148 0
4.4880004 2.0998247 1.6649486 0
4.4930005 2.0950663 1.6664909 0
4.4980001 2.0902896 1.668033 0
4.5020003 2.0849757 1.6692668 0
4.5070004 2.0801651 1.6708091 0
4.5110002 2.07482 1.672043 0
4.5160003 2.0699754 1.6735853 0
4.5210004 2.0651124 1.6751275 0
4.5250001 2.0597205 1.6763612 0
4.5300002 2.0548232 1.6779035 0
4.5350003 2.0499079 1.6794457 0
4.5390005 2.0444696 1.6806796 0
4.5440001 2.0395198 1.6822219 0
4.5490003 2.0345521 1.6837641 0
4.5540004 2.0295665 1.6853064 0
4.5580001 2.0240648 1.6865401 0
4.5630002 2.0190449 1.6880825 0
4.5680003 2.0140069 1.6896247 0
4.5730004 2.0089507 1.691167 0
4.5770001 2.0033858 1.6924007 0
4.5820003 1.9982955 1.6939429 0
4.5870004 1.9931872 1.6954852 0
4.5920005 1.9880607 1.6970276 0
4.5970001 1.9829161 1.6985698 0
4.6020002 1.9777539 1.7001121 0
4.6060004 1.9720936 1.7013459 0
4.6110001 1.9668965 1.702888 0
4.6160002 1.9616818 1.7044303 0
4.6210003 1.956449 1.7059726 0
4.6260004 1.9511981 1.7075149 0
4.6310005 1.9459293 1.7090572 0
4.6360002 1.9406421 1.7105993 0
4.6410003 1.9353373 1.7121416 0
4.6460004 1.9300141 1.7136838 0
4.6510005 1.9246732 1.7152262 0
4.6560001 1.9193139 1.7167683 0
4.6610003 1.9139369 1.7183107 0
4.6660004 1.9085417 1.7198529 0
4.6710005 1.9031285 1.7213953 0
4.6760001 1.8976971 1.7229373 0
4.6810002 1.8922478 1.7244797 0
4.6860003 1.8867806 1.726022 0
4.6910005 1.8812952 1.7275642 0
4.6960001 1.8757915 1.7291064 0
4.7010002 1.8702703 1.7306486 0
4.7060003 1.8647307 1.732191 0
4.7110004 1.8591733 1.7337332 0
4.7160001 1.8535975 1.7352754 0
4.7210002 1.8480041 1.7368176 0
4.7260003 1.8423924 1.7383599 0
4.7310004 1.8367628 1.7399023 0
4.7370005 1.8315481 1.741753 0
4.7420001 1.8258803 1.7432951 0
4.7470002 1.8201947 1.7448374 0
4.7520003 1.8144912 1.7463796 0
4.7570004 1.8087695 1.7479219 0
4.7630005 1.8034536 1.7497727 0
4.7680001 1.797694 1.7513148 0
4.7730002 1.7919165 1.7528571 0
4.7780004 1.7861208 1.7543995 0
4.7840004 1.7807238 1.7562501 0
4.7890005 1.7748904 1.7577924 0
4.7940001 1.7690387 1.7593347 0
4.7990003 1.7631692 1.7608769 0
4.8050003 1.757691 1.7627276 0
4.8100004 1.7517836 1.7642699 0
4.8150005 1.7458582 1.7658123 0
4.8210001 1.7403184 1.7676628 0
4.8260002 1.7343551 1.7692051 0
4.8320003 1.7287742 1.7710557 0
4.8370004 1.722773 1.772598 0
4.8420005 1.7167537 1.7741404 0
4.8480005 1.7111114 1.7759911 0
4.8530002 1.705054 1.7775332 0
4.8590002 1.6993703 1.7793839 0
4.8640003 1.6932752 1.7809262 0
4.8700004 1.6875499 1.782777 0
4.8750005 1.681417 1.7843192 0
4.8810005 1.6756502 1.78617 0
4.8860002 1.6694793 1.7877121 0
4.8920002 1.663671 1.7895628 0
4.8970003 1.6574624 1.7911052 0
4.9030004 1.6516126 1.7929559 0
4.9080005 1.6453661 1.7944981 0
4.9140005 1.6394749 1.7963488 0
4.9200001 1.6335618 1.7981994 0
4.9250002 1.6272576 1.7997417 0
4.9310002 1.6213032 1.8015925 0
4.9360003 1.614961 1.8031348 0
4.9420004 1.6089653 1.8049855 0
4.9480004 1.6029477 1.8068362 0
4.9530005 1.5965478 1.8083785 0
4.9590001 1.5904888 1.8102291 0
4.9650002 1.584408 1.8120797 0
4.9710002 1.5783058 1.8139304 0
4.9760003 1.5718284 1.8154727 0
4.9820004 1.5656847 1.8173234 0
4.9880004 1.5595193 1.8191742 0
4.9940004 1.5533322 1.8210249 0
4.9990005 1.5467771 1.8225672 0
5.0050001 1.5405484 1.8244178 0
5.0110002 1.5342983 1.8262686 0
5.0170002 1.5280265 1.8281193 0
5.0230002 1.521733 1.82997 0
5.0290003 1.5154179 1.8318206 0
5.0350003 1.5090811 1.8336713 0
5.0400004 1.5023891 1.8352137 0
5.0460005 1.4960108 1.8370644 0
5.0520005 1.4896109 1.8389151 0
5.0580001 1.4831891 1.8407657 0
5.0640001 1.476746 1.8426164 0
5.0700002 1.4702812 1.8444672 0
5.0760002 1.4637947 1.8463179 0
5.0820003 1.4572866 1.8481685 0
5.0880003 1.4507568 1.8500192 0
5.0940003 1.4442054 1.8518701 0
5.1000004 1.4376323 1.8537208 0
5.1060004 1.4310375 1.8555715 0
5.1130004 1.4247333 1.8577306 0
5.1190004 1.4180934 1.8595812 0
5.1250005 1.4114319 1.861432 0
5.1310005 1.4047489 1.8632828 0
5.1370001 1.398044 1.8651333 0
4.3640003 2.2349446 1.6195503 0
4.368 2.2300885 1.620777 0
4.3720002 2.2252181 1.6220034 0
4.3770003 2.2209036 1.6235367 0
4.381 2.2160025 1.6247634 0
4.3850002 2.2110872 1.6259899 0
4.3900003 2.206722 1.6275232 0
4.3940001 2.201776 1.6287497 0
4.3990002 2.1973763 1.630283 0
4.4030004 2.1923997 1.6315097 0
4.4070001 2.1874084 1.6327361 0
4.4120002 2.1829586 1.6342695 0
4.4160004 2.1779368 1.635496 0
4.4210005 2.1734526 1.6370293 0
4.4250002 2.1684 1.6382557 0
4.4300003 2.1638815 1.6397891 0
4.4340005 2.1587985 1.6410158 0
4.4390001 2.1542454 1.6425488 0
4.4430003 2.149132 1.6437756 0
4.4470005 2.1440036 1.6450021 0
4.4520001 2.1394 1.6465353 0
4.4570003 2.134779 1.6480685 0
4.4610004 2.1296039 1.6492952 0
4.4660001 2.124948 1.6508282 0
4.4700003 2.1197424 1.6520549 0
4.4750004 2.1150525 1.6535883 0
4.4790001 2.1098158 1.6548147 0
4.4840002 2.1050918 1.656348 0
4.4880004 2.0998247 1.6575745 0
4.4930005 2.0950663 1.6591079 0
4.4980001 2.0902896 1.6606411 0
4.5020003 2.0849757 1.6618676 0
4.5070004 2.0801651 1.663401 0
4.5110002 2.07482 1.6646274 0
4.5160003 2.0699754 1.6661607 0
4.5210004 2.0651124 1.6676941 0
4.5250001 2.0597205 1.6689205 0
4.5300002 2.0548232 1.6704538 0
4.5350003 2.0499079 1.6719871 0
4.5390005 2.0444696 1.6732137 0
4.5440001 2.0395198 1.6747468 0
4.5490003 2.0345521 1.67628 0
4.5540004 2.0295665 1.6778134 0
4.5580001 2.0240648 1.6790398 0
4.5630002 2.0190449 1.6805731 0
4.5680003 2.0140069 1.6821065 0
4.5730004 2.0089507 1.6836396 0
4.5770001 2.0033858 1.6848662 0
4.5820003 1.9982955 1.6863995 0
4.5870004 1.9931872 1.6879327 0
4.5920005 1.9880607 1.689466 0
4.5970001 1.9829161 1.6909992 0
4.6020002 1.9777539 1.6925324 0
4.6060004 1.9720936 1.6937591 0
4.6110001 1.9668965 1.6952921 0
4.6160002 1.9616818 1.6968255 0
4.6210003 1.956449 1.6983587 0
4.6260004 1.9511981 1.6998919 0
4.6310005 1.9459293 1.7014253 0
4.6360002 1.9406421 1.7029583 0
4.6410003 1.9353373 1.7044916 0
4.6460004 1.9300141 1.706025 0
4.6510005 1.9246732 1.7075582 0
4.6560001 1.9193139 1.7090913 0
4.6610003 1.9139369 1.7106247 0
4.6660004 1.9085417 1.7121578 0
4.6710005 1.9031285 1.7136911 0
4.6760001 1.8976971 1.7152243 0
4.6810002 1.8922478 1.7167575 0
4.6860003 1.8867806 1.7182908 0
4.6910005 1.8812952 1.7198242 0
4.6960001 1.8757915 1.7213572 0
4.7010002 1.8702703 1.7228905 0
4.7060003 1.8647307 1.7244238 0
4.7110004 1.8591733 1.725957 0
4.7160001 1.8535975 1.7274901 0
4.7210002 1.8480041 1.7290235 0
4.7260003 1.8423924 1.7305567 0
4.7310004 1.8367628 1.73209 0
4.7370005 1.8315481 1.7339299 0
4.7420001 1.8258803 1.735463 0
4.7470002 1.8201947 1.7369962 0
4.7520003 1.8144912 1.7385296 0
4.7570004 1.8087695 1.7400628 0
4.7630005 1.8034536 1.7419027 0
4.7680001 1.797694 1.7434359 0
4.7730002 1.7919165 1.7449691 0
4.7780004 1.7861208 1.7465024 0
4.7840004 1.7807238 1.7483423 0
4.7890005 1.7748904 1.7498755 0
4.7940001 1.7690387 1.7514086 0
4.7990003 1.7631692 1.752942 0
4.8050003 1.757691 1.7547818 0
4.8100004 1.7517836 1.7563151 0
4.8150005 1.7458582 1.7578484 0
4.8210001 1.7403184 1.7596881 0
4.8260002 1.7343551 1.7612214 0
4.8320003 1.7287742 1.7630613 0
4.8370004 1.722773 1.7645946 0
4.8420005 1.7167537 1.7661278 0
4.8480005 1.7111114 1.7679678 0
4.8530002 1.705054 1.7695009 0
4.8590002 1.6993703 1.7713407 0
4.8640003 1.6932752 1.7728741 0
4.8700004 1.6875499 1.7747139 0
4.8750005 1.681417 1.7762471 0
4.8810005 1.6756502 1.7780871 0
4.8860002 1.6694793 1.7796202 0
4.8920002 1.663671 1.7814602 0
4.8970003 1.6574624 1.7829934 0
4.9030004 1.6516126 1.7848333 0
4.9080005 1.6453661 1.7863666 0
4.9140005 1.6394749 1.7882065 0
4.9200001 1.6335618 1.7900462 0
4.9250002 1.6272576 1.7915795 0
4.9310002 1.6213032 1.7934194 0
4.9360003 1.614961 1.7949526 0
4.9420004 1.6089653 1.7967926 0
4.9480004 1.6029477 1.7986324 0
4.9530005 1.5965478 1.8001658 0
4.9590001 1.5904888 1.8020055 0
4.9650002 1.584408 1.8038453 0
4.9710002 1.5783058 1.8056853 0
4.9760003 1.5718284 1.8072186 0
4.9820004 1.5656847 1.8090584 0
4.9880004 1.5595193 1.8108983 0
4.9940004 1.5533322 1.8127382 0
4.9990005 1.5467771 1.8142715 0
5.0050001 1.5405484 1.8161112 0
5.0110002 1.5342983 1.8179511 0
5.0170002 1.5280265 1.8197911 0
5.0230002 1.521733 1.821631 0
5.0290003 1.5154179 1.8234708 0
5.0350003 1.5090811 1.8253107 0
5.0400004 1.5023891 1.826844 0
5.0460005 1.4960108 1.828684 0
5.0520005 1.4896109 1.8305238 0
5.0580001 1.4831891 1.8323635 0
5.0640001 1.476746 1.8342035 0
5.0700002 1.4702812 1.8360434 0
5.0760002 1.4637947 1.8378834 0
5.0820003 1.4572866 1.8397231 0
5.0880003 1.4507568 1.841563 0
5.0940003 1.4442054 1.843403 0
5.1000004 1.4376323 1.8452429 0
5.1060004 1.4310375 1.8470827 0
5.1130004 1.4247333 1.8492292 0
5.1190004 1.4180934 1.8510691 0
5.1250005 1.4114319 1.8529091 0
5.1310005 1.4047489 1.854749 0
5.1370001 1.398044 1.8565887 0
4.3640003 2.2349446 1.6124001 0
4.368 2.2300885 1.6136194 0
4.3720002 2.2252181 1.6148387 0
4.3770003 2.2209036 1.616363 0
4.381 2.2160025 1.6175823 0
4.3850002 2.2110872 1.6188017 0
4.3900003 2.206722 1.620326 0
4.3940001 2.201776 1.6215453 0
4.3990002 2.1973763 1.6230695 0
4.4030004 2.1923997 1.6242889 0
4.4070001 2.1874084 1.6255082 0
4.4120002 2.1829586 1.6270325 0
4.4160004 2.1779368 1.6282519 0
4.4210005 2.1734526 1.6297762 0
4.4250002 2.1684 1.6309955 0
4.4300003 2.1638815 1.6325197 0
4.4340005 2.1587985 1.6337392 0
4.4390001 2.1542454 1.6352632 0
4.4430003 2.149132 1.6364827 0
4.4470005 2.1440036 1.6377021 0
4.4520001 2.1394 1.6392263 0
4.4570003 2.134779 1.6407505 0
4.4610004 2.1296039 1.6419699 0
4.4660001 2.124948 1.643494 0
4.4700003 2.1197424 1.6447134 0
4.4750004 2.1150525 1.6462377 0
4.4790001 2.1098158 1.647457 0
4.4840002 2.1050918 1.6489813 0
4.4880004 2.0998247 1.6502007 0
4.4930005 2.0950663 1.6517249 0
4.4980001 2.0902896 1.653249 0
4.5020003 2.0849757 1.6544684 0
4.5070004 2.0801651 1.6559927 0
4.5110002 2.07482 1.657212 0
4.5160003 2.0699754 1.6587362 0
4.5210004 2.0651124 1.6602604 0
4.5250001 2.0597205 1.6614798 0
4.5300002 2.0548232 1.663004 0
4.5350003 2.0499079 1.6645284 0
4.5390005 2.0444696 1.6657478 0
4.5440001 2.0395198 1.6672719 0
4.5490003 2.0345521 1.6687961 0
4.5540004 2.0295665 1.6703204 0
4.5580001 2.0240648 1.6715397 0
4.5630002 2.0190449 1.6730639 0
4.5680003 2.0140069 1.6745881 0
4.5730004 2.0089507 1.6761124 0
4.5770001 2.0033858 1.6773317 0
4.5820003 1.9982955 1.678856 0
4.5870004 1.9931872 1.6803801 0
4.5920005 1.9880607 1.6819044 0
4.5970001 1.9829161 1.6834286 0
4.6020002 1.9777539 1.6849527 0
4.6060004 1.9720936 1.6861721 0
4.6110001 1.9668965 1.6876963 0
4.6160002 1.9616818 1.6892207 0
4.6210003 1.956449 1.6907449 0
4.6260004 1.9511981 1.6922691 0
4.6310005 1.9459293 1.6937933 0
4.6360002 1.9406421 1.6953175 0
4.6410003 1.9353373 1.6968417 0
4.6460004 1.9300141 1.6983659 0
4.6510005 1.9246732 1.6998903 0
4.6560001 1.9193139 1.7014142 0
4.6610003 1.9139369 1.7029386 0
4.6660004 1.9085417 1.7044628 0
4.6710005 1.9031285 1.7059871 0
4.6760001 1.8976971 1.7075112 0
4.6810002 1.8922478 1.7090354 0
4.6860003 1.8867806 1.7105597 0
4.6910005 1.8812952 1.7120839 0
4.6960001 1.8757915 1.713608 0
4.7010002 1.8702703 1.7151324 0
4.7060003 1.8647307 1.7166566 0
4.7110004 1.8591733 1.7181809 0
4.7160001 1.8535975 1.7197049 0
4.7210002 1.8480041 1.7212292 0
4.7260003 1.8423924 1.7227534 0
4.7310004 1.8367628 1.7242776 0
4.7370005 1.8315481 1.7261068 0
4.7420001 1.8258803 1.7276309 0
4.7470002 1.8201947 1.7291551 0
4.7520003 1.8144912 1.7306794 0
4.7570004 1.8087695 1.7322036 0
4.7630005 1.8034536 1.7340326 0
4.7680001 1.797694 1.7355568 0
4.7730002 1.7919165 1.7370811 0
4.7780004 1.7861208 1.7386053 0
4.7840004 1.7807238 1.7404344 0
4.7890005 1.7748904 1.7419586 0
4.7940001 1.7690387 1.7434827 0
4.7990003 1.7631692 1.745007 0
4.8050003 1.757691 1.7468361 0
4.8100004 1.7517836 1.7483603 0
4.8150005 1.7458582 1.7498846 0
4.8210001 1.7403184 1.7517135 0
4.8260002 1.7343551 1.7532377 0
4.8320003 1.7287742 1.7550669 0
4.8370004 1.722773 1.7565911 0
4.8420005 1.7167537 1.7581153 0
4.8480005 1.7111114 1.7599444 0
4.8530002 1.705054 1.7614685 0
4.8590002 1.6993703 1.7632977 0
4.8640003 1.6932752 1.7648218 0
4.8700004 1.6875499 1.7666509 0
4.8750005 1.681417 1.7681752 0
4.8810005 1.6756502 1.7700043 0
4.8860002 1.6694793 1.7715284 0
4.8920002 1.663671 1.7733574 0
4.8970003 1.6574624 1.7748817 0
4.9030004 1.6516126 1.7767107 0
4.9080005 1.6453661 1.778235 0
4.9140005 1.6394749 1.7800641 0
4.9200001 1.6335618 1.781893 0
4.9250002 1.6272576 1.7834173 0
4.9310002 1.6213032 1.7852464 0
4.9360003 1.614961 1.7867706 0
4.9420004 1.6089653 1.7885996 0
4.9480004 1.6029477 1.7904288 0
4.9530005 1.5965478 1.791953 0
4.9590001 1.5904888 1.7937819 0
4.9650002 1.584408 1.7956109 0
4.9710002 1.5783058 1.7974401 0
4.9760003 1.5718284 1.7989644 0
4.9820004 1.5656847 1.8007934 0
4.9880004 1.5595193 1.8026226 0
4.9940004 1.5533322 1.8044515 0
4.9990005 1.5467771 1.8059758 0
5.0050001 1.5405484 1.8078047 0
5.0110002 1.5342983 1.8096339 0
5.0170002 1.5280265 1.8114629 0
5.0230002 1.521733 1.813292 0
5.0290003 1.5154179 1.8151211 0
5.0350003 1.5090811 1.8169501 0
5.0400004 1.5023891 1.8184743 0
5.0460005 1.4960108 1.8203034 0
5.0520005 1.4896109 1.8221325 0
5.0580001 1.4831891 1.8239615 0
5.0640001 1.476746 1.8257905 0
5.0700002 1.4702812 1.8276197 0
5.0760002 1.4637947 1.8294487 0
5.0820003 1.4572866 1.8312777 0
5.0880003 1.4507568 1.8331068 0
5.0940003 1.4442054 1.8349358 0
5.1000004 1.4376323 1.8367649 0
5.1060004 1.4310375 1.838594 0
5.1130004 1.4247333 1.8407279 0
5.1190004 1.4180934 1.842557 0
5.1250005 1.4114319 1.8443861 0
5.1310005 1.4047489 1.8462151 0
5.1370001 1.398044 1.848044 0
4.3640003 2.2349446 1.6052498 0
4.368 2.2300885 1.6064619 0
4.3720002 2.2252181 1.607674 0
4.3770003 2.2209036 1.6091893 0
4.381 2.2160025 1.6104014 0
4.3850002 2.2110872 1.6116136 0
4.3900003 2.206722 1.6131289 0
4.3940001 2.201776 1.6143409 0
4.3990002 2.1973763 1.6158562 0
4.4030004 2.1923997 1.6170683 0
4.4070001 2.1874084 1.6182804 0
4.4120002 2.1829586 1.6197956 0
4.4160004 2.1779368 1.6210078 0
4.4210005 2.1734526 1.6225231 0
4.4250002 2.1684 1.6237352 0
4.4300003 2.1638815 1.6252503 0
4.4340005 2.1587985 1.6264626 0
4.4390001 2.1542454 1.6279777 0
4.4430003 2.149132 1.62919 0
4.4470005 2.1440036 1.6304021 0
4.4520001 2.1394 1.6319172 0
4.4570003 2.134779 1.6334325 0
4.4610004 2.1296039 1.6346446 0
4.4660001 2.124948 1.6361598 0
4.4700003 2.1197424 1.6373719 0
4.4750004 2.1150525 1.6388872 0
4.4790001 2.1098158 1.6400992 0
4.4840002 2.1050918 1.6416144 0
4.4880004 2.0998247 1.6428267 0
4.4930005 2.0950663 1.6443419 0
4.4980001 2.0902896 1.645857 0
4.5020003 2.0849757 1.6470692 0
4.5070004 2.0801651 1.6485845 0
4.5110002 2.07482 1.6497966 0
4.5160003 2.0699754 1.6513118 0
4.5210004 2.0651124 1.652827 0
4.5250001 2.0597205 1.6540391 0
4.5300002 2.0548232 1.6555543 0
4.5350003 2.0499079 1.6570696 0
4.5390005 2.0444696 1.6582817 0
4.5440001 2.0395198 1.6597968 0
4.5490003 2.0345521 1.6613121 0
4.5540004 2.0295665 1.6628274 0
4.5580001 2.0240648 1.6640394 0
4.5630002 2.0190449 1.6655546 0
4.5680003 2.0140069 1.6670699 0
4.5730004 2.0089507 1.6685852 0
4.5770001 2.0033858 1.6697972 0
4.5820003 1.9982955 1.6713125 0
4.5870004 1.9931872 1.6728276 0
4.5920005 1.9880607 1.6743429 0
4.5970001 1.9829161 1.675858 0
4.6020002 1.9777539 1.6773732 0
4.6060004 1.9720936 1.6785854 0
4.6110001 1.9668965 1.6801006 0
4.6160002 1.9616818 1.6816157 0
4.6210003 1.956449 1.683131 0
4.6260004 1.9511981 1.6846462 0
4.6310005 1.9459293 1.6861614 0
4.6360002 1.9406421 1.6876765 0
4.6410003 1.9353373 1.6891918 0
4.6460004 1.9300141 1.690707 0
4.6510005 1.9246732 1.6922222 0
4.6560001 1.9193139 1.6937373 0
4.6610003 1.9139369 1.6952525 0
4.6660004 1.9085417 1.6967678 0
4.6710005 1.9031285 1.6982831 0
4.6760001 1.8976971 1.6997981 0
4.6810002 1.8922478 1.7013133 0
4.6860003 1.8867806 1.7028285 0
4.6910005 1.8812952 1.7043438 0
4.6960001 1.8757915 1.7058589 0
4.7010002 1.8702703 1.7073741 0
4.7060003 1.8647307 1.7088894 0
4.7110004 1.8591733 1.7104045 0
4.7160001 1.8535975 1.7119197 0
4.7210002 1.8480041 1.7134349 0
4.7260003 1.8423924 1.7149502 0
4.7310004 1.8367628 1.7164654 0
4.7370005 1.8315481 1.7182837 0
4.7420001 1.8258803 1.7197987 0
4.7470002 1.8201947 1.721314 0
4.7520003 1.8144912 1.7228292 0
4.7570004 1.8087695 1.7243445 0
4.7630005 1.8034536 1.7261627 0
4.7680001 1.797694 1.7276777 0
4.7730002 1.7919165 1.729193 0
4.7780004 1.7861208 1.7307082 0
4.7840004 1.7807238 1.7325264 0
4.7890005 1.7748904 1.7340417 0
4.7940001 1.7690387 1.7355568 0
4.7990003 1.7631692 1.7370721 0
4.8050003 1.757691 1.7388903 0
4.8100004 1.7517836 1.7404056 0
4.8150005 1.7458582 1.7419208 0
4.8210001 1.7403184 1.7437389 0
4.8260002 1.7343551 1.745254 0
4.8320003 1.7287742 1.7470723 0
4.8370004 1.722773 1.7485875 0
4.8420005 1.7167537 1.7501028 0
4.8480005 1.7111114 1.7519211 0
4.8530002 1.705054 1.7534361 0
4.8590002 1.6993703 1.7552544 0
4.8640003 1.6932752 1.7567697 0
4.8700004 1.6875499 1.7585878 0
4.8750005 1.681417 1.7601031 0
4.8810005 1.6756502 1.7619213 0
4.8860002 1.6694793 1.7634364 0
4.8920002 1.663671 1.7652547 0
4.8970003 1.6574624 1.7667699 0
4.9030004 1.6516126 1.7685882 0
4.9080005 1.6453661 1.7701035 0
4.9140005 1.6394749 1.7719216 0
4.9200001 1.6335618 1.7737398 0
4.9250002 1.6272576 1.775255 0
4.9310002 1.6213032 1.7770733 0
4.9360003 1.614961 1.7785885 0
4.9420004 1.6089653 1.7804067 0
4.9480004 1.6029477 1.782225 0
4.9530005 1.5965478 1.7837402 0
4.9590001 1.5904888 1.7855583 0
4.9650002 1.584408 1.7873765 0
4.9710002 1.5783058 1.7891949 0
4.9760003 1.5718284 1.7907101 0
4.9820004 1.5656847 1.7925284 0
4.9880004 1.5595193 1.7943466 0
4.9940004 1.5533322 1.7961649 0
4.9990005 1.5467771 1.7976801 0
5.0050001 1.5405484 1.7994982 0
5.0110002 1.5342983 1.8013164 0
5.0170002 1.5280265 1.8031347 0
5.0230002 1.521733 1.8049529 0
5.0290003 1.5154179 1.8067713 0
5.0350003 1.5090811 1.8085895 0
5.0410004 1.5027226 1.8104078 0
5.0460005 1.4960108 1.8119229 0
5.0520005 1.4896109 1.8137412 0
5.0580001 1.4831891 1.8155593 0
5.0640001 1.476746 1.8173776 0
5.0700002 1.4702812 1.8191957 0
5.0760002 1.4637947 1.821014 0
5.0820003 1.4572866 1.8228323 0
5.0880003 1.4507568 1.8246505 0
5.0940003 1.4442054 1.8264688 0
5.1000004 1.4376323 1.828287 0
5.1060004 1.4310375 1.8301053 0
5.1130004 1.4247333 1.8322266 0
5.1190004 1.4180934 1.8340448 0
5.1250005 1.4114319 1.835863 0
5.1310005 1.4047489 1.8376813 0
5.1370001 1.398044 1.8394994 0
4.3640003 2.2349446 1.5980995 0
4.368 2.2300885 1.5993043 0
4.3720002 2.2252181 1.6005093 0
4.3770003 2.2209036 1.6020156 0
4.381 2.2160025 1.6032205 0
4.3850002 2.2110872 1.6044253 0
4.3900003 2.206722 1.6059315 0
4.3940001 2.201776 1.6071366 0
4.3990002 2.1973763 1.6086427 0
4.4030004 2.1923997 1.6098477 0
4.4070001 2.1874084 1.6110525 0
4.4120002 2.1829586 1.6125587 0
4.4160004 2.1779368 1.6137638 0
4.4210005 2.1734526 1.61527 0
4.4250002 2.1684 1.6164747 0
4.4300003 2.1638815 1.617981 0
4.4340005 2.1587985 1.6191859 0
4.4390001 2.1542454 1.6206921 0
4.4430003 2.149132 1.6218971 0
4.4470005 2.1440036 1.6231021 0
4.4520001 2.1394 1.6246082 0
4.4570003 2.134779 1.6261144 0
4.4610004 2.1296039 1.6273195 0
4.4660001 2.124948 1.6288254 0
4.4700003 2.1197424 1.6300304 0
4.4750004 2.1150525 1.6315366 0
4.4790001 2.1098158 1.6327416 0
4.4840002 2.1050918 1.6342478 0
4.4880004 2.0998247 1.6354527 0
4.4930005 2.0950663 1.636959 0
4.4980001 2.0902896 1.638465 0
4.5020003 2.0849757 1.63967 0
4.5070004 2.0801651 1.6411762 0
4.5110002 2.07482 1.6423811 0
4.5160003 2.0699754 1.6438873 0
4.5210004 2.0651124 1.6453935 0
4.5250001 2.0597205 1.6465983 0
4.5300002 2.0548232 1.6481045 0
4.5350003 2.0499079 1.6496109 0
4.5390005 2.0444696 1.6508158 0
4.5440001 2.0395198 1.6523219 0
4.5490003 2.0345521 1.6538281 0
4.5540004 2.0295665 1.6553342 0
4.5580001 2.0240648 1.6565392 0
4.5630002 2.0190449 1.6580454 0
4.5680003 2.0140069 1.6595516 0
4.5730004 2.0089507 1.6610578 0
4.5770001 2.0033858 1.6622627 0
4.5820003 1.9982955 1.6637689 0
4.5870004 1.9931872 1.6652751 0
4.5920005 1.9880607 1.6667813 0
4.5970001 1.9829161 1.6682874 0
4.6020002 1.9777539 1.6697936 0
4.6060004 1.9720936 1.6709986 0
4.6110001 1.9668965 1.6725047 0
4.6160002 1.9616818 1.6740109 0
4.6210003 1.956449 1.6755171 0
4.6260004 1.9511981 1.6770233 0
4.6310005 1.9459293 1.6785295 0
4.6360002 1.9406421 1.6800356 0
4.6410003 1.9353373 1.6815418 0
4.6460004 1.9300141 1.683048 0
4.6510005 1.9246732 1.6845542 0
4.6560001 1.9193139 1.6860603 0
4.6610003 1.9139369 1.6875665 0
4.6660004 1.9085417 1.6890727 0
4.6710005 1.9031285 1.6905789 0
4.6760001 1.8976971 1.692085 0
4.6810002 1.8922478 1.6935912 0
4.6860003 1.8867806 1.6950974 0
4.6910005 1.8812952 1.6966037 0
4.6960001 1.8757915 1.6981097 0
4.7010002 1.8702703 1.699616 0
4.7060003 1.8647307 1.7011222 0
4.7110004 1.8591733 1.7026284 0
4.7160001 1.8535975 1.7041343 0
4.7210002 1.8480041 1.7056407 0
4.7260003 1.8423924 1.7071469 0
4.7310004 1.8367628 1.7086531 0
4.7370005 1.8315481 1.7104605 0
4.7420001 1.8258803 1.7119666 0
4.7470002 1.8201947 1.7134728 0
4.7520003 1.8144912 1.7149791 0
4.7570004 1.8087695 1.7164853 0
4.7630005 1.8034536 1.7182927 0
4.7680001 1.797694 1.7197987 0
4.7730002 1.7919165 1.7213049 0
4.7780004 1.7861208 1.7228111 0
4.7840004 1.7807238 1.7246186 0
4.7890005 1.7748904 1.7261248 0
4.7940001 1.7690387 1.727631 0
4.7990003 1.7631692 1.7291372 0
4.8050003 1.757691 1.7309445 0
4.8100004 1.7517836 1.7324507 0
4.8150005 1.7458582 1.7339569 0
4.8210001 1.7403184 1.7357643 0
4.8260002 1.7343551 1.7372705 0
4.8320003 1.7287742 1.7390779 0
4.8370004 1.722773 1.7405841 0
4.8420005 1.7167537 1.7420903 0
4.8480005 1.7111114 1.7438978 0
4.8530002 1.705054 1.7454038 0
4.8590002 1.6993703 1.7472112 0
4.8640003 1.6932752 1.7487174 0
4.8700004 1.6875499 1.7505249 0
4.8750005 1.681417 1.7520311 0
