# .PCD v0.7 - Point Cloud Data file format
VERSION 0.7
FIELDS x y z intensity
SIZE 4 4 4 4
TYPE F F F F
COUNT 1 1 1 1
WIDTH 1457
HEIGHT 1
VIEWPOINT 0 0 0 1 0 0 0
POINTS 1457
DATA ascii
4.4670005 2.1768348 0.4186722 0
4.4710002 2.1716776 0.41868663 0
4.4750004 2.1665061 0.41870105 0
4.4800005 2.1618614 0.41871908 0
4.4840002 2.1566591 0.41873351 0
4.4890003 2.1519802 0.41875157 0
4.4930005 2.1467471 0.41876599 0
4.4980001 2.1420338 0.41878402 0
4.5020003 2.1367702 0.41879845 0
4.5070004 2.1320229 0.41881651 0
4.5110002 2.1267285 0.41883093 0
4.5160003 2.1219466 0.41884896 0
4.5200005 2.116622 0.41886339 0
4.5250001 2.1118054 0.41888142 0
4.5290003 2.1064501 0.41889587 0
4.5340004 2.1015997 0.4189139 0
4.5380001 2.0962133 0.41892833 0
4.5430002 2.0913289 0.41894636 0
4.5480003 2.086426 0.41896442 0
4.5520005 2.0809929 0.41897884 0
4.5570002 2.0760558 0.41899687 0
4.5610003 2.0705922 0.41901129 0
4.5660005 2.0656209 0.41902936 0
4.5710001 2.0606315 0.41904739 0
4.5750003 2.0551209 0.41906181 0
4.5800004 2.0500972 0.41907984 0
4.5850005 2.0450559 0.4190979 0
4.5890002 2.0394981 0.41911232 0
4.5940003 2.0344224 0.41913036 0
4.5990005 2.0293283 0.41914839 0
4.6030002 2.0237238 0.41916284 0
4.6080003 2.0185957 0.41918087 0
4.6130004 2.0134492 0.4191989 0
4.6170001 2.007798 0.41921332 0
4.6220002 2.0026174 0.41923136 0
4.6270003 1.9974189 0.41924942 0
4.6320004 1.9922023 0.41926745 0
4.6370001 1.9869676 0.41928548 0
4.6410003 1.9812369 0.4192999 0
4.6460004 1.9759681 0.41931796 0
4.6510005 1.970681 0.41933599 0
4.6560001 1.9653759 0.41935402 0
4.6610003 1.960053 0.41937208 0
4.6650004 1.9542432 0.41938651 0
4.6700001 1.9488857 0.41940454 0
4.6750002 1.9435103 0.41942257 0
4.6800003 1.9381169 0.41944063 0
4.6850004 1.9327055 0.41945866 0
4.6900005 1.927276 0.41947669 0
4.6950002 1.9218285 0.41949472 0
4.7000003 1.9163629 0.41951278 0
4.7050004 1.9108795 0.41953081 0
4.7100005 1.9053777 0.41954884 0
4.7150002 1.899858 0.41956687 0
4.7190003 1.8938713 0.41958132 0
4.7240005 1.8883173 0.41959935 0
4.7290001 1.8827451 0.41961738 0
4.7340002 1.8771554 0.41963542 0
4.7390003 1.8715473 0.41965348 0
4.7440004 1.8659213 0.41967151 0
4.7500005 1.8607155 0.41969314 0
4.7550001 1.8550515 0.41971117 0
4.7600002 1.8493694 0.41972923 0
4.7650003 1.8436695 0.41974726 0
4.7700005 1.8379514 0.41976529 0
4.7750001 1.8322152 0.41978332 0
4.7800002 1.8264612 0.41980138 0
4.7850003 1.8206891 0.41981941 0
4.7900004 1.8148987 0.41983745 0
4.7950001 1.8090905 0.41985548 0
4.8010001 1.8036844 0.41987714 0
4.8060002 1.7978383 0.41989517 0
4.8110003 1.7919742 0.4199132 0
4.8160005 1.7860919 0.41993126 0
4.8210001 1.7801915 0.41994929 0
4.8270001 1.7746845 0.41997093 0
4.8320003 1.7687465 0.41998896 0
4.8370004 1.7627904 0.42000702 0
4.8420005 1.7568161 0.42002505 0
4.8480005 1.7512281 0.42004669 0
4.8530002 1.7452159 0.42006472 0
4.8580003 1.7391857 0.42008278 0
4.8630004 1.7331376 0.42010081 0
4.8690004 1.7274681 0.42012244 0
4.8740001 1.721382 0.4201405 0
4.8790002 1.7152779 0.42015854 0
4.8850002 1.7095474 0.42018017 0
4.8900003 1.7034054 0.4201982 0
4.8950005 1.6972454 0.42021626 0
4.9010005 1.6914535 0.4202379 0
4.9060001 1.6852554 0.42025593 0
4.9120002 1.6794219 0.42027757 0
4.9170003 1.6731862 0.42029563 0
4.9230003 1.6673112 0.42031726 0
4.9280005 1.6610376 0.42033529 0
4.9340005 1.6551211 0.42035696 0
4.9390001 1.6488094 0.42037499 0
4.9440002 1.6424799 0.42039302 0
4.9500003 1.6365021 0.42041466 0
4.9560003 1.6305027 0.42043632 0
4.9610004 1.6241153 0.42045435 0
4.9670005 1.6180744 0.42047599 0
4.9720001 1.6116492 0.42049405 0
4.9780002 1.6055669 0.42051569 0
4.9830003 1.5991037 0.42053372 0
4.9890003 1.5929799 0.42055535 0
4.9950004 1.5868342 0.42057702 0
5.0000005 1.5803136 0.42059505 0
5.0060005 1.5741266 0.42061669 0
5.0120001 1.5679177 0.42063835 0
5.0170002 1.5613391 0.42065638 0
5.0230002 1.555089 0.42067802 0
5.0290003 1.5488172 0.42069966 0
5.0340004 1.542181 0.42071772 0
5.0400004 1.5358677 0.42073935 0
5.0460005 1.5295327 0.42076099 0
5.0520005 1.5231761 0.42078266 0
5.0570002 1.5164623 0.42080069 0
5.0630002 1.5100641 0.42082232 0
5.0690002 1.5036443 0.42084399 0
5.0750003 1.497203 0.42086563 0
5.0810003 1.4907399 0.42088726 0
5.0860004 1.4839289 0.42090529 0
5.0920005 1.4774243 0.42092696 0
5.0980005 1.4708982 0.42094859 0
5.1040001 1.4643502 0.42097023 0
5.1100001 1.4577807 0.4209919 0
5.1160002 1.4511896 0.42101353 0
5.1220002 1.444577 0.42103517 0
5.1280003 1.4379425 0.42105684 0
5.1340003 1.4312865 0.42107847 0
5.1400003 1.4246087 0.42110011 0
5.1460004 1.4179094 0.42112178 0
5.1520004 1.4111884 0.42114341 0
5.1580005 1.4044458 0.42116505 0
5.1640005 1.3976816 0.42118669 0
5.1700006 1.3908957 0.42120835 0
5.1760001 1.3840879 0.42122999 0
5.1820002 1.3772588 0.42125162 0
5.1880002 1.3704078 0.42127329 0
5.1940002 1.3635354 0.42129493 0
4.3970003 2.2539332 0.41120982 0
4.4020004 2.2495914 0.41121885 0
4.4060001 2.2446594 0.41122606 0
4.4100003 2.2397137 0.41123328 0
4.4140005 2.2347534 0.41124049 0
4.4190001 2.2303448 0.41124952 0
4.4230003 2.2253535 0.41125673 0
4.4270005 2.2203479 0.41126394 0
4.4320002 2.215889 0.41127297 0
4.4360003 2.2108526 0.41128018 0
4.4400001 2.205802 0.4112874 0
4.4450002 2.2012923 0.41129643 0
4.4490004 2.1962113 0.41130364 0
4.4530001 2.1911154 0.41131085 0
4.4580002 2.1865554 0.41131988 0
4.4620004 2.1814291 0.41132709 0
4.4670005 2.1768348 0.41133609 0
4.4710002 2.1716776 0.41134331 0
4.4750004 2.1665061 0.41135052 0
4.4800005 2.1618614 0.41135955 0
4.4840002 2.1566591 0.41136676 0
4.4890003 2.1519802 0.41137579 0
4.4930005 2.1467471 0.411383 0
4.4980001 2.1420338 0.41139203 0
4.5020003 2.1367702 0.41139925 0
4.5070004 2.1320229 0.41140825 0
4.5110002 2.1267285 0.41141546 0
4.5160003 2.1219466 0.41142449 0
4.5200005 2.116622 0.4114317 0
4.5250001 2.1118054 0.41144073 0
4.5290003 2.1064501 0.41144794 0
4.5340004 2.1015997 0.41145694 0
4.5380001 2.0962133 0.41146418 0
4.5430002 2.0913289 0.41147318 0
4.5480003 2.086426 0.41148221 0
4.5520005 2.0809929 0.41148943 0
4.5570002 2.0760558 0.41149846 0
4.5610003 2.0705922 0.41150567 0
4.5660005 2.0656209 0.41151467 0
4.5710001 2.0606315 0.4115237 0
4.5750003 2.0551209 0.41153091 0
4.5800004 2.0500972 0.41153994 0
4.5850005 2.0450559 0.41154894 0
4.5890002 2.0394981 0.41155615 0
4.5940003 2.0344224 0.41156518 0
4.5990005 2.0293283 0.41157421 0
4.6030002 2.0237238 0.41158143 0
4.6080003 2.0185957 0.41159043 0
4.6130004 2.0134492 0.41159946 0
4.6180005 2.008285 0.41160849 0
4.6220002 2.0026174 0.4116157 0
4.6270003 1.9974189 0.4116247 0
4.6320004 1.9922023 0.41163373 0
4.6370001 1.9869676 0.41164276 0
4.6410003 1.9812369 0.41164997 0
4.6460004 1.9759681 0.41165897 0
4.6510005 1.970681 0.411668 0
4.6560001 1.9653759 0.41167703 0
4.6610003 1.960053 0.41168603 0
4.6650004 1.9542432 0.41169325 0
4.6700001 1.9488857 0.41170228 0
4.6750002 1.9435103 0.41171131 0
4.6800003 1.9381169 0.41172031 0
4.6850004 1.9327055 0.41172934 0
4.6900005 1.927276 0.41173837 0
4.6950002 1.9218285 0.41174737 0
4.7000003 1.9163629 0.4117564 0
4.7050004 1.9108795 0.4117654 0
4.7100005 1.9053777 0.41177443 0
4.7150002 1.899858 0.41178346 0
4.7190003 1.8938713 0.41179067 0
4.7240005 1.8883173 0.41179967 0
4.7290001 1.8827451 0.4118087 0
4.7340002 1.8771554 0.41181773 0
4.7390003 1.8715473 0.41182673 0
4.7450004 1.8663614 0.41183755 0
4.7500005 1.8607155 0.41184658 0
4.7550001 1.8550515 0.41185561 0
4.7600002 1.8493694 0.41186461 0
4.7650003 1.8436695 0.41187364 0
4.7700005 1.8379514 0.41188267 0
4.7750001 1.8322152 0.41189167 0
4.7800002 1.8264612 0.4119007 0
4.7850003 1.8206891 0.4119097 0
4.7900004 1.8148987 0.41191873 0
4.7950001 1.8090905 0.41192776 0
4.8010001 1.8036844 0.41193858 0
4.8060002 1.7978383 0.41194761 0
4.8110003 1.7919742 0.41195661 0
4.8160005 1.7860919 0.41196564 0
4.8210001 1.7801915 0.41197464 0
4.8270001 1.7746845 0.41198549 0
4.8320003 1.7687465 0.41199449 0
4.8370004 1.7627904 0.41200352 0
4.8420005 1.7568161 0.41201252 0
4.8480005 1.7512281 0.41202337 0
4.8530002 1.7452159 0.41203237 0
4.8580003 1.7391857 0.4120414 0
4.8630004 1.7331376 0.4120504 0
4.8690004 1.7274681 0.41206124 0
4.8740001 1.721382 0.41207024 0
4.8790002 1.7152779 0.41207927 0
4.8850002 1.7095474 0.41209009 0
4.8900003 1.7034054 0.41209912 0
4.8950005 1.6972454 0.41210812 0
4.9010005 1.6914535 0.41211894 0
4.9060001 1.6852554 0.41212797 0
4.9120002 1.6794219 0.41213879 0
4.9170003 1.6731862 0.41214782 0
4.9230003 1.6673112 0.41215864 0
4.9280005 1.6610376 0.41216767 0
4.9340005 1.6551211 0.41217849 0
4.9390001 1.6488094 0.41218749 0
4.9450002 1.6428515 0.41219833 0
4.9500003 1.6365021 0.41220734 0
4.9560003 1.6305027 0.41221815 0
4.9610004 1.6241153 0.41222718 0
4.9670005 1.6180744 0.412238 0
4.9720001 1.6116492 0.41224703 0
4.9780002 1.6055669 0.41225785 0
4.9830003 1.5991037 0.41226688 0
4.9890003 1.5929799 0.4122777 0
4.9950004 1.5868342 0.41228852 0
5.0000005 1.5803136 0.41229755 0
5.0060005 1.5741266 0.41230837 0
5.0120001 1.5679177 0.41231918 0
5.0170002 1.5613391 0.41232818 0
5.0230002 1.555089 0.41233903 0
5.0290003 1.5488172 0.41234985 0
5.0340004 1.542181 0.41235885 0
5.0400004 1.5358677 0.4123697 0
5.0460005 1.5295327 0.41238052 0
5.0520005 1.5231761 0.41239133 0
5.0570002 1.5164623 0.41240034 0
5.0630002 1.5100641 0.41241118 0
5.0690002 1.5036443 0.412422 0
5.0750003 1.497203 0.41243282 0
5.0810003 1.4907399 0.41244364 0
5.0860004 1.4839289 0.41245267 0
5.0920005 1.4774243 0.41246349 0
5.0980005 1.4708982 0.4124743 0
5.1040001 1.4643502 0.41248512 0
5.1100001 1.4577807 0.41249594 0
5.1160002 1.4511896 0.41250676 0
5.1220002 1.444577 0.41251761 0
5.1280003 1.4379425 0.41252843 0
5.1340003 1.4312865 0.41253924 0
5.1400003 1.4246087 0.41255006 0
5.1460004 1.4179094 0.41256088 0
5.1520004 1.4111884 0.4125717 0
5.1580005 1.4044458 0.41258255 0
5.1640005 1.3976816 0.41259336 0
5.1700006 1.3908957 0.41260418 0
5.1760001 1.3840879 0.412615 0
5.1820002 1.3772588 0.41262582 0
5.1880002 1.3704078 0.41263664 0
5.1940002 1.3635354 0.41264749 0
4.3970003 2.2539332 0.40400001 0
4.4020004 2.2495914 0.40400001 0
4.4060001 2.2446594 0.40400001 0
4.4100003 2.2397137 0.40400001 0
4.4140005 2.2347534 0.40400001 0
4.4190001 2.2303448 0.40400001 0
4.4230003 2.2253535 0.40400001 0
4.4270005 2.2203479 0.40400001 0
4.4320002 2.215889 0.40400001 0
4.4360003 2.2108526 0.40400001 0
4.4400001 2.205802 0.40400001 0
4.4450002 2.2012923 0.40400001 0
4.4490004 2.1962113 0.40400001 0
4.4530001 2.1911154 0.40400001 0
4.4580002 2.1865554 0.40400001 0
4.4620004 2.1814291 0.40400001 0
4.4670005 2.1768348 0.40400001 0
4.4710002 2.1716776 0.40400001 0
4.4750004 2.1665061 0.40400001 0
4.4800005 2.1618614 0.40400001 0
4.4840002 2.1566591 0.40400001 0
4.4890003 2.1519802 0.40400001 0
4.4930005 2.1467471 0.40400001 0
4.4980001 2.1420338 0.40400001 0
4.5020003 2.1367702 0.40400001 0
4.5070004 2.1320229 0.40400001 0
4.5110002 2.1267285 0.40400001 0
4.5160003 2.1219466 0.40400001 0
4.5200005 2.116622 0.40400001 0
4.5250001 2.1118054 0.40400001 0
4.5290003 2.1064501 0.40400001 0
4.5340004 2.1015997 0.40400001 0
4.5380001 2.0962133 0.40400001 0
4.5430002 2.0913289 0.40400001 0
4.5480003 2.086426 0.40400001 0
4.5520005 2.0809929 0.40400001 0
4.5570002 2.0760558 0.40400001 0
4.5610003 2.0705922 0.40400001 0
4.5660005 2.0656209 0.40400001 0
4.5710001 2.0606315 0.40400001 0
4.5750003 2.0551209 0.40400001 0
4.5800004 2.0500972 0.40400001 0
4.5850005 2.0450559 0.40400001 0
4.5890002 2.0394981 0.40400001 0
4.5940003 2.0344224 0.40400001 0
4.5990005 2.0293283 0.40400001 0
4.6030002 2.0237238 0.40400001 0
4.6080003 2.0185957 0.40400001 0
4.6130004 2.0134492 0.40400001 0
4.6180005 2.008285 0.40400001 0
4.6220002 2.0026174 0.40400001 0
4.6270003 1.9974189 0.40400001 0
4.6320004 1.9922023 0.40400001 0
4.6370001 1.9869676 0.40400001 0
4.6410003 1.9812369 0.40400001 0
4.6460004 1.9759681 0.40400001 0
4.6510005 1.970681 0.40400001 0
4.6560001 1.9653759 0.40400001 0
4.6610003 1.960053 0.40400001 0
4.6650004 1.9542432 0.40400001 0
4.6700001 1.9488857 0.40400001 0
4.6750002 1.9435103 0.40400001 0
4.6800003 1.9381169 0.40400001 0
4.6850004 1.9327055 0.40400001 0
4.6900005 1.927276 0.40400001 0
4.6950002 1.9218285 0.40400001 0
4.7000003 1.9163629 0.40400001 0
4.7050004 1.9108795 0.40400001 0
4.7100005 1.9053777 0.40400001 0
4.7150002 1.899858 0.40400001 0
4.7190003 1.8938713 0.40400001 0
4.7240005 1.8883173 0.40400001 0
4.7290001 1.8827451 0.40400001 0
4.7340002 1.8771554 0.40400001 0
4.7390003 1.8715473 0.40400001 0
4.7450004 1.8663614 0.40400001 0
4.7500005 1.8607155 0.40400001 0
4.7550001 1.8550515 0.40400001 0
4.7600002 1.8493694 0.40400001 0
4.7650003 1.8436695 0.40400001 0
4.7700005 1.8379514 0.40400001 0
4.7750001 1.8322152 0.40400001 0
4.7800002 1.8264612 0.40400001 0
4.7850003 1.8206891 0.40400001 0
4.7900004 1.8148987 0.40400001 0
4.7950001 1.8090905 0.40400001 0
4.8010001 1.8036844 0.40400001 0
4.8060002 1.7978383 0.40400001 0
4.8110003 1.7919742 0.40400001 0
4.8160005 1.7860919 0.40400001 0
4.8210001 1.7801915 0.40400001 0
4.8270001 1.7746845 0.40400001 0
4.8320003 1.7687465 0.40400001 0
4.8370004 1.7627904 0.40400001 0
4.8420005 1.7568161 0.40400001 0
4.8480005 1.7512281 0.40400001 0
4.8530002 1.7452159 0.40400001 0
4.8580003 1.7391857 0.40400001 0
4.8630004 1.7331376 0.40400001 0
4.8690004 1.7274681 0.40400001 0
4.8740001 1.721382 0.40400001 0
4.8790002 1.7152779 0.40400001 0
4.8850002 1.7095474 0.40400001 0
4.8900003 1.7034054 0.40400001 0
4.8950005 1.6972454 0.40400001 0
4.9010005 1.6914535 0.40400001 0
4.9060001 1.6852554 0.40400001 0
4.9120002 1.6794219 0.40400001 0
4.9170003 1.6731862 0.40400001 0
4.9230003 1.6673112 0.40400001 0
4.9280005 1.6610376 0.40400001 0
4.9340005 1.6551211 0.40400001 0
4.9390001 1.6488094 0.40400001 0
4.9450002 1.6428515 0.40400001 0
4.9500003 1.6365021 0.40400001 0
4.9560003 1.6305027 0.40400001 0
4.9610004 1.6241153 0.40400001 0
4.9670005 1.6180744 0.40400001 0
4.9720001 1.6116492 0.40400001 0
4.9780002 1.6055669 0.40400001 0
4.9830003 1.5991037 0.40400001 0
4.9890003 1.5929799 0.40400001 0
4.9950004 1.5868342 0.40400001 0
5.0000005 1.5803136 0.40400001 0
5.0060005 1.5741266 0.40400001 0
5.0120001 1.5679177 0.40400001 0
5.0170002 1.5613391 0.40400001 0
5.0230002 1.555089 0.40400001 0
5.0290003 1.5488172 0.40400001 0
5.0340004 1.542181 0.40400001 0
5.0400004 1.5358677 0.40400001 0
5.0460005 1.5295327 0.40400001 0
5.0520005 1.5231761 0.40400001 0
5.0570002 1.5164623 0.40400001 0
5.0630002 1.5100641 0.40400001 0
5.0690002 1.5036443 0.40400001 0
5.0750003 1.497203 0.40400001 0
5.0810003 1.4907399 0.40400001 0
5.0860004 1.4839289 0.40400001 0
5.0920005 1.4774243 0.40400001 0
5.0980005 1.4708982 0.40400001 0
5.1040001 1.4643502 0.40400001 0
5.1100001 1.4577807 0.40400001 0
5.1160002 1.4511896 0.40400001 0
5.1220002 1.444577 0.40400001 0
5.1280003 1.4379425 0.40400001 0
5.1340003 1.4312865 0.40400001 0
5.1400003 1.4246087 0.40400001 0
5.1460004 1.4179094 0.40400001 0
5.1520004 1.4111884 0.40400001 0
5.1580005 1.4044458 0.40400001 0
5.1640005 1.3976816 0.40400001 0
5.1700006 1.3908957 0.40400001 0
5.1760001 1.3840879 0.40400001 0
5.1820002 1.3772588 0.40400001 0
5.1880002 1.3704078 0.40400001 0
5.1940002 1.3635354 0.40400001 0
4.3970003 2.2539332 0.39679021 0
4.4020004 2.2495914 0.39678118 0
4.4060001 2.2446594 0.39677396 0
4.4100003 2.2397137 0.39676675 0
4.4140005 2.2347534 0.39675954 0
4.4190001 2.2303448 0.39675051 0
4.4230003 2.2253535 0.3967433 0
4.4270005 2.2203479 0.39673609 0
4.4320002 2.215889 0.39672706 0
4.4360003 2.2108526 0.39671984 0
4.4400001 2.205802 0.39671263 0
4.4450002 2.2012923 0.3967036 0
4.4490004 2.1962113 0.39669639 0
4.4530001 2.1911154 0.39668918 0
4.4580002 2.1865554 0.39668015 0
4.4620004 2.1814291 0.39667293 0
4.4670005 2.1768348 0.39666393 0
4.4710002 2.1716776 0.39665672 0
4.4750004 2.1665061 0.39664951 0
4.4800005 2.1618614 0.39664048 0
4.4840002 2.1566591 0.39663327 0
4.4890003 2.1519802 0.39662424 0
4.4930005 2.1467471 0.39661703 0
4.4980001 2.1420338 0.396608 0
4.5020003 2.1367702 0.39660078 0
4.5070004 2.1320229 0.39659178 0
4.5110002 2.1267285 0.39658457 0
4.5160003 2.1219466 0.39657554 0
4.5200005 2.116622 0.39656833 0
4.5250001 2.1118054 0.3965593 0
4.5290003 2.1064501 0.39655209 0
4.5340004 2.1015997 0.39654309 0
4.5380001 2.0962133 0.39653584 0
4.5430002 2.0913289 0.39652684 0
4.5480003 2.086426 0.39651781 0
4.5520005 2.0809929 0.3965106 0
4.5570002 2.0760558 0.39650157 0
4.5610003 2.0705922 0.39649436 0
4.5660005 2.0656209 0.39648536 0
4.5710001 2.0606315 0.39647633 0
4.5750003 2.0551209 0.39646912 0
4.5800004 2.0500972 0.39646009 0
4.5850005 2.0450559 0.39645109 0
4.5890002 2.0394981 0.39644387 0
4.5940003 2.0344224 0.39643484 0
4.5990005 2.0293283 0.39642581 0
4.6030002 2.0237238 0.3964186 0
4.6080003 2.0185957 0.3964096 0
4.6130004 2.0134492 0.39640057 0
4.6180005 2.008285 0.39639154 0
4.6220002 2.0026174 0.39638433 0
4.6270003 1.9974189 0.39637533 0
4.6320004 1.9922023 0.3963663 0
4.6370001 1.9869676 0.39635727 0
4.6410003 1.9812369 0.39635006 0
4.6460004 1.9759681 0.39634106 0
4.6510005 1.970681 0.39633203 0
4.6560001 1.9653759 0.396323 0
4.6610003 1.960053 0.396314 0
4.6650004 1.9542432 0.39630678 0
4.6700001 1.9488857 0.39629775 0
4.6750002 1.9435103 0.39628872 0
4.6800003 1.9381169 0.39627972 0
4.6850004 1.9327055 0.39627069 0
4.6900005 1.927276 0.39626166 0
4.6950002 1.9218285 0.39625266 0
4.7000003 1.9163629 0.39624363 0
4.7050004 1.9108795 0.39623463 0
4.7100005 1.9053777 0.3962256 0
4.7150002 1.899858 0.39621657 0
4.7200003 1.8943205 0.39620757 0
4.7240005 1.8883173 0.39620036 0
4.7290001 1.8827451 0.39619133 0
4.7340002 1.8771554 0.3961823 0
4.7390003 1.8715473 0.3961733 0
4.7450004 1.8663614 0.39616248 0
4.7500005 1.8607155 0.39615345 0
4.7550001 1.8550515 0.39614442 0
4.7600002 1.8493694 0.39613542 0
4.7650003 1.8436695 0.39612639 0
4.7700005 1.8379514 0.39611736 0
4.7750001 1.8322152 0.39610836 0
4.7800002 1.8264612 0.39609933 0
4.7850003 1.8206891 0.39609033 0
4.7900004 1.8148987 0.3960813 0
4.7950001 1.8090905 0.39607227 0
4.8010001 1.8036844 0.39606145 0
4.8060002 1.7978383 0.39605242 0
4.8110003 1.7919742 0.39604342 0
4.8160005 1.7860919 0.39603439 0
4.8210001 1.7801915 0.39602539 0
4.8270001 1.7746845 0.39601454 0
4.8320003 1.7687465 0.39600554 0
4.8370004 1.7627904 0.39599651 0
4.8420005 1.7568161 0.39598751 0
4.8480005 1.7512281 0.39597666 0
4.8530002 1.7452159 0.39596766 0
4.8580003 1.7391857 0.39595863 0
4.8630004 1.7331376 0.39594963 0
4.8690004 1.7274681 0.39593878 0
4.8740001 1.721382 0.39592978 0
4.8790002 1.7152779 0.39592075 0
4.8850002 1.7095474 0.39590994 0
4.8900003 1.7034054 0.39590091 0
4.8960004 1.6976333 0.39589009 0
4.9010005 1.6914535 0.39588109 0
4.9060001 1.6852554 0.39587206 0
4.9120002 1.6794219 0.39586124 0
4.9170003 1.6731862 0.39585221 0
4.9230003 1.6673112 0.39584139 0
4.9280005 1.6610376 0.39583236 0
4.9340005 1.6551211 0.39582154 0
4.9390001 1.6488094 0.39581254 0
4.9450002 1.6428515 0.39580169 0
4.9500003 1.6365021 0.39579269 0
4.9560003 1.6305027 0.39578187 0
4.9610004 1.6241153 0.39577284 0
4.9670005 1.6180744 0.39576203 0
4.9720001 1.6116492 0.395753 0
4.9780002 1.6055669 0.39574218 0
4.9830003 1.5991037 0.39573315 0
4.9890003 1.5929799 0.39572233 0
4.9950004 1.5868342 0.39571151 0
5.0000005 1.5803136 0.39570248 0
5.0060005 1.5741266 0.39569166 0
5.0120001 1.5679177 0.39568084 0
5.0170002 1.5613391 0.39567184 0
5.0230002 1.555089 0.395661 0
5.0290003 1.5488172 0.39565018 0
5.0340004 1.542181 0.39564118 0
5.0400004 1.5358677 0.39563033 0
5.0460005 1.5295327 0.39561951 0
5.0520005 1.5231761 0.39560869 0
5.0570002 1.5164623 0.39559969 0
5.0630002 1.5100641 0.39558885 0
5.0690002 1.5036443 0.39557803 0
5.0750003 1.497203 0.39556721 0
5.0810003 1.4907399 0.39555639 0
5.0860004 1.4839289 0.39554736 0
5.0920005 1.4774243 0.39553654 0
5.0980005 1.4708982 0.39552572 0
5.1040001 1.4643502 0.39551491 0
5.1100001 1.4577807 0.39550409 0
5.1160002 1.4511896 0.39549327 0
5.1220002 1.444577 0.39548242 0
5.1280003 1.4379425 0.3954716 0
5.1340003 1.4312865 0.39546078 0
5.1400003 1.4246087 0.39544997 0
5.1460004 1.4179094 0.39543915 0
5.1520004 1.4111884 0.39542833 0
5.1580005 1.4044458 0.39541748 0
5.1640005 1.3976816 0.39540666 0
5.1700006 1.3908957 0.39539585 0
5.1760001 1.3840879 0.39538503 0
5.1820002 1.3772588 0.39537421 0
5.1880002 1.3704078 0.39536339 0
5.1940002 1.3635354 0.39535254 0
4.3970003 2.2539332 0.38958037 0
4.4020004 2.2495914 0.38956234 0
4.4060001 2.2446594 0.38954791 0
4.4100003 2.2397137 0.38953346 0
4.4140005 2.2347534 0.38951904 0
4.4190001 2.2303448 0.38950101 0
4.4230003 2.2253535 0.38948658 0
4.4270005 2.2203479 0.38947213 0
4.4320002 2.215889 0.3894541 0
4.4360003 2.2108526 0.38943967 0
4.4400001 2.205802 0.38942525 0
4.4450002 2.2012923 0.38940722 0
4.4490004 2.1962113 0.38939276 0
4.4530001 2.1911154 0.38937834 0
4.4580002 2.1865554 0.38936031 0
4.4620004 2.1814291 0.38934588 0
4.4670005 2.1768348 0.38932782 0
4.4710002 2.1716776 0.3893134 0
4.4750004 2.1665061 0.38929898 0
4.4800005 2.1618614 0.38928095 0
4.4840002 2.1566591 0.38926652 0
4.4890003 2.1519802 0.38924846 0
4.4930005 2.1467471 0.38923404 0
4.4980001 2.1420338 0.38921601 0
4.5020003 2.1367702 0.38920158 0
4.5070004 2.1320229 0.38918352 0
4.5110002 2.1267285 0.3891691 0
4.5160003 2.1219466 0.38915107 0
4.5200005 2.116622 0.38913664 0
4.5250001 2.1118054 0.38911861 0
4.5290003 2.1064501 0.38910416 0
4.5340004 2.1015997 0.38908613 0
4.5380001 2.0962133 0.3890717 0
4.5430002 2.0913289 0.38905367 0
4.5480003 2.086426 0.38903561 0
4.5520005 2.0809929 0.38902119 0
4.5570002 2.0760558 0.38900316 0
4.5610003 2.0705922 0.38898873 0
4.5660005 2.0656209 0.38897067 0
4.5710001 2.0606315 0.38895264 0
4.5750003 2.0551209 0.38893822 0
4.5800004 2.0500972 0.38892019 0
4.5850005 2.0450559 0.38890213 0
4.5890002 2.0394981 0.3888877 0
4.5940003 2.0344224 0.38886967 0
4.5990005 2.0293283 0.38885164 0
4.6030002 2.0237238 0.38883719 0
4.6080003 2.0185957 0.38881916 0
4.6130004 2.0134492 0.38880113 0
4.6180005 2.008285 0.3887831 0
4.6220002 2.0026174 0.38876867 0
4.6270003 1.9974189 0.38875061 0
4.6320004 1.9922023 0.38873258 0
4.6370001 1.9869676 0.38871455 0
4.6410003 1.9812369 0.38870013 0
4.6460004 1.9759681 0.38868207 0
4.6510005 1.970681 0.38866404 0
4.6560001 1.9653759 0.38864601 0
4.6610003 1.960053 0.38862795 0
4.6650004 1.9542432 0.38861352 0
4.6700001 1.9488857 0.38859549 0
4.6750002 1.9435103 0.38857746 0
4.6800003 1.9381169 0.3885594 0
4.6850004 1.9327055 0.38854137 0
4.6900005 1.927276 0.38852334 0
4.6950002 1.9218285 0.38850531 0
4.7000003 1.9163629 0.38848725 0
4.7050004 1.9108795 0.38846922 0
4.7100005 1.9053777 0.38845119 0
4.7150002 1.899858 0.38843316 0
4.7200003 1.8943205 0.3884151 0
4.7240005 1.8883173 0.38840067 0
4.7290001 1.8827451 0.38838264 0
4.7340002 1.8771554 0.38836461 0
4.7390003 1.8715473 0.38834655 0
4.7450004 1.8663614 0.38832492 0
4.7500005 1.8607155 0.38830689 0
4.7550001 1.8550515 0.38828886 0
4.7600002 1.8493694 0.3882708 0
4.7650003 1.8436695 0.38825276 0
4.7700005 1.8379514 0.38823473 0
4.7750001 1.8322152 0.3882167 0
4.7800002 1.8264612 0.38819864 0
4.7850003 1.8206891 0.38818061 0
4.7900004 1.8148987 0.38816258 0
4.7950001 1.8090905 0.38814455 0
4.8010001 1.8036844 0.38812289 0
4.8060002 1.7978383 0.38810486 0
4.8110003 1.7919742 0.38808683 0
4.8160005 1.7860919 0.38806877 0
4.8210001 1.7801915 0.38805073 0
4.8270001 1.7746845 0.3880291 0
4.8320003 1.7687465 0.38801107 0
4.8370004 1.7627904 0.38799301 0
4.8420005 1.7568161 0.38797498 0
4.8480005 1.7512281 0.38795334 0
4.8530002 1.7452159 0.38793531 0
4.8580003 1.7391857 0.38791725 0
4.8630004 1.7331376 0.38789922 0
4.8690004 1.7274681 0.38787758 0
4.8740001 1.721382 0.38785952 0
4.8790002 1.7152779 0.38784149 0
4.8850002 1.7095474 0.38781986 0
4.8900003 1.7034054 0.38780183 0
4.8960004 1.6976333 0.38778016 0
4.9010005 1.6914535 0.38776213 0
4.9060001 1.6852554 0.3877441 0
4.9120002 1.6794219 0.38772246 0
4.9170003 1.6731862 0.3877044 0
4.9230003 1.6673112 0.38768277 0
4.9280005 1.6610376 0.38766474 0
4.9340005 1.6551211 0.38764307 0
4.9390001 1.6488094 0.38762504 0
4.9450002 1.6428515 0.3876034 0
4.9500003 1.6365021 0.38758537 0
4.9560003 1.6305027 0.38756371 0
4.9610004 1.6241153 0.38754568 0
4.9670005 1.6180744 0.38752404 0
4.9720001 1.6116492 0.38750598 0
4.9780002 1.6055669 0.38748434 0
4.9830003 1.5991037 0.38746631 0
4.9890003 1.5929799 0.38744467 0
4.9950004 1.5868342 0.38742301 0
5.0000005 1.5803136 0.38740498 0
5.0060005 1.5741266 0.38738334 0
5.0120001 1.5679177 0.38736168 0
5.0170002 1.5613391 0.38734365 0
5.0230002 1.555089 0.38732201 0
5.0290003 1.5488172 0.38730037 0
5.0340004 1.542181 0.38728231 0
5.0400004 1.5358677 0.38726068 0
5.0460005 1.5295327 0.38723904 0
5.0520005 1.5231761 0.38721737 0
5.0570002 1.5164623 0.38719934 0
5.0630002 1.5100641 0.38717771 0
5.0690002 1.5036443 0.38715604 0
5.0750003 1.497203 0.3871344 0
5.0810003 1.4907399 0.38711277 0
5.0860004 1.4839289 0.38709474 0
5.0920005 1.4774243 0.38707307 0
5.0980005 1.4708982 0.38705143 0
5.1040001 1.4643502 0.3870298 0
5.1100001 1.4577807 0.38700813 0
5.1160002 1.4511896 0.38698649 0
5.1220002 1.444577 0.38696486 0
5.1280003 1.4379425 0.38694319 0
5.1340003 1.4312865 0.38692155 0
5.1400003 1.4246087 0.38689992 0
5.1460004 1.4179094 0.38687825 0
5.1520004 1.4111884 0.38685662 0
5.1580005 1.4044458 0.38683498 0
5.1640005 1.3976816 0.38681334 0
5.1700006 1.3908957 0.38679168 0
5.1760001 1.3840879 0.38677004 0
5.1820002 1.3772588 0.3867484 0
5.1880002 1.3704078 0.38672674 0
5.1940002 1.3635354 0.3867051 0
4.3970003 2.2539332 0.38237056 0
4.4020004 2.2495914 0.3823435 0
4.4060001 2.2446594 0.38232183 0
4.4100003 2.2397137 0.3823002 0
4.4140005 2.2347534 0.38227856 0
4.4190001 2.2303448 0.3822515 0
4.4230003 2.2253535 0.38222986 0
4.4270005 2.2203479 0.3822082 0
4.4320002 2.215889 0.38218114 0
4.4360003 2.2108526 0.3821595 0
4.4400001 2.205802 0.38213786 0
4.4450002 2.2012923 0.3821108 0
4.4490004 2.1962113 0.38208917 0
4.4530001 2.1911154 0.3820675 0
4.4580002 2.1865554 0.38204044 0
4.4620004 2.1814291 0.3820188 0
4.4670005 2.1768348 0.38199174 0
4.4710002 2.1716776 0.38197011 0
4.4750004 2.1665061 0.38194847 0
4.4800005 2.1618614 0.38192141 0
4.4840002 2.1566591 0.38189974 0
4.4890003 2.1519802 0.38187271 0
4.4930005 2.1467471 0.38185105 0
4.4980001 2.1420338 0.38182399 0
4.5020003 2.1367702 0.38180235 0
4.5070004 2.1320229 0.38177529 0
4.5110002 2.1267285 0.38175365 0
4.5160003 2.1219466 0.38172659 0
4.5200005 2.116622 0.38170496 0
4.5250001 2.1118054 0.3816779 0
4.5290003 2.1064501 0.38165623 0
4.5340004 2.1015997 0.38162917 0
4.5380001 2.0962133 0.38160753 0
4.5430002 2.0913289 0.38158047 0
4.5480003 2.086426 0.38155341 0
4.5520005 2.0809929 0.38153177 0
4.5570002 2.0760558 0.38150471 0
4.5610003 2.0705922 0.38148308 0
4.5660005 2.0656209 0.38145602 0
4.5710001 2.0606315 0.38142896 0
4.5750003 2.0551209 0.38140732 0
4.5800004 2.0500972 0.38138026 0
4.5850005 2.0450559 0.3813532 0
4.5890002 2.0394981 0.38133156 0
4.5940003 2.0344224 0.3813045 0
4.5990005 2.0293283 0.38127744 0
4.6030002 2.0237238 0.38125581 0
4.6080003 2.0185957 0.38122874 0
4.6130004 2.0134492 0.38120168 0
4.6180005 2.008285 0.38117462 0
4.6220002 2.0026174 0.38115299 0
4.6270003 1.9974189 0.38112593 0
4.6320004 1.9922023 0.38109887 0
4.6370001 1.9869676 0.38107181 0
4.6410003 1.9812369 0.38105017 0
4.6460004 1.9759681 0.38102311 0
4.6510005 1.970681 0.38099605 0
4.6560001 1.9653759 0.38096899 0
4.6610003 1.960053 0.38094193 0
4.6650004 1.9542432 0.38092029 0
4.6700001 1.9488857 0.38089323 0
4.6750002 1.9435103 0.38086617 0
4.6800003 1.9381169 0.38083911 0
4.6850004 1.9327055 0.38081205 0
4.6900005 1.927276 0.38078499 0
4.6950002 1.9218285 0.38075796 0
4.7000003 1.9163629 0.3807309 0
4.7050004 1.9108795 0.38070384 0
4.7100005 1.9053777 0.38067678 0
4.7150002 1.899858 0.38064972 0
4.7200003 1.8943205 0.38062266 0
4.7240005 1.8883173 0.38060102 0
4.7290001 1.8827451 0.38057396 0
4.7340002 1.8771554 0.3805469 0
4.7400002 1.8719893 0.38051444 0
4.7450004 1.8663614 0.38048738 0
4.7500005 1.8607155 0.38046032 0
4.7550001 1.8550515 0.38043326 0
4.7600002 1.8493694 0.3804062 0
4.7650003 1.8436695 0.38037914 0
4.7700005 1.8379514 0.38035208 0
4.7750001 1.8322152 0.38032502 0
4.7800002 1.8264612 0.38029796 0
4.7850003 1.8206891 0.38027093 0
4.7900004 1.8148987 0.38024387 0
4.7950001 1.8090905 0.38021681 0
4.8010001 1.8036844 0.38018432 0
4.8060002 1.7978383 0.38015729 0
4.8110003 1.7919742 0.38013023 0
4.8160005 1.7860919 0.38010317 0
4.8210001 1.7801915 0.38007611 0
4.8270001 1.7746845 0.38004363 0
4.8320003 1.7687465 0.38001657 0
4.8370004 1.7627904 0.37998953 0
4.8420005 1.7568161 0.37996247 0
4.8480005 1.7512281 0.37992999 0
4.8530002 1.7452159 0.37990293 0
4.8580003 1.7391857 0.3798759 0
4.8630004 1.7331376 0.37984884 0
4.8690004 1.7274681 0.37981635 0
4.8740001 1.721382 0.37978929 0
4.8790002 1.7152779 0.37976223 0
4.8850002 1.7095474 0.37972978 0
4.8900003 1.7034054 0.37970272 0
4.8960004 1.6976333 0.37967026 0
4.9010005 1.6914535 0.3796432 0
4.9060001 1.6852554 0.37961614 0
4.9120002 1.6794219 0.37958366 0
4.9170003 1.6731862 0.3795566 0
4.9230003 1.6673112 0.37952414 0
4.9280005 1.6610376 0.37949708 0
4.9340005 1.6551211 0.37946463 0
4.9390001 1.6488094 0.37943757 0
4.9450002 1.6428515 0.37940508 0
4.9500003 1.6365021 0.37937802 0
4.9560003 1.6305027 0.37934557 0
4.9610004 1.6241153 0.37931851 0
4.9670005 1.6180744 0.37928605 0
4.9720001 1.6116492 0.37925899 0
4.9780002 1.6055669 0.37922651 0
4.9830003 1.5991037 0.37919945 0
4.9890003 1.5929799 0.37916699 0
4.9950004 1.5868342 0.37913451 0
5.0000005 1.5803136 0.37910748 0
5.0060005 1.5741266 0.37907499 0
5.0120001 1.5679177 0.37904254 0
5.0170002 1.5613391 0.37901548 0
5.0230002 1.555089 0.37898299 0
5.0290003 1.5488172 0.37895054 0
5.0340004 1.542181 0.37892348 0
5.0400004 1.5358677 0.37889099 0
5.0460005 1.5295327 0.37885854 0
5.0520005 1.5231761 0.37882605 0
5.0570002 1.5164623 0.37879902 0
5.0630002 1.5100641 0.37876654 0
5.0690002 1.5036443 0.37873408 0
5.0750003 1.497203 0.3787016 0
5.0810003 1.4907399 0.37866914 0
5.0860004 1.4839289 0.37864208 0
5.0920005 1.4774243 0.3786096 0
5.0980005 1.4708982 0.37857714 0
5.1040001 1.4643502 0.37854469 0
5.1100001 1.4577807 0.3785122 0
5.1160002 1.4511896 0.37847975 0
5.1220002 1.444577 0.37844726 0
5.1280003 1.4379425 0.37841481 0
5.1340003 1.4312865 0.37838233 0
5.1400003 1.4246087 0.37834987 0
5.1460004 1.4179094 0.37831739 0
5.1520004 1.4111884 0.37828493 0
5.1580005 1.4044458 0.37825245 0
5.1640005 1.3976816 0.37821999 0
5.1700006 1.3908957 0.37818751 0
5.1760001 1.3840879 0.37815505 0
5.1820002 1.3772588 0.37812257 0
5.1880002 1.3704078 0.37809011 0
5.1940002 1.3635354 0.37805766 0
4.3970003 2.2539332 0.37516072 0
4.4020004 2.2495914 0.37512466 0
4.4060001 2.2446594 0.37509578 0
4.4100003 2.2397137 0.37506694 0
4.4140005 2.2347534 0.37503806 0
4.4190001 2.2303448 0.375002 0
4.4230003 2.2253535 0.37497312 0
4.4270005 2.2203479 0.37494427 0
4.4320002 2.215889 0.37490821 0
4.4360003 2.2108526 0.37487933 0
4.4400001 2.205802 0.37485048 0
4.4450002 2.2012923 0.37481439 0
4.4490004 2.1962113 0.37478554 0
4.4530001 2.1911154 0.37475666 0
4.4580002 2.1865554 0.3747206 0
4.4620004 2.1814291 0.37469172 0
4.4670005 2.1768348 0.37465566 0
4.4710002 2.1716776 0.37462682 0
4.4750004 2.1665061 0.37459794 0
4.4800005 2.1618614 0.37456188 0
4.4840002 2.1566591 0.374533 0
4.4890003 2.1519802 0.37449694 0
4.4930005 2.1467471 0.37446806 0
4.4980001 2.1420338 0.374432 0
4.5020003 2.1367702 0.37440312 0
4.5070004 2.1320229 0.37436706 0
4.5110002 2.1267285 0.37433818 0
4.5160003 2.1219466 0.37430212 0
4.5200005 2.116622 0.37427324 0
4.5250001 2.1118054 0.37423718 0
4.5290003 2.1064501 0.37420833 0
4.5340004 2.1015997 0.37417224 0
4.5380001 2.0962133 0.37414339 0
4.5430002 2.0913289 0.3741073 0
4.5480003 2.086426 0.37407124 0
4.5520005 2.0809929 0.37404236 0
4.5570002 2.0760558 0.3740063 0
4.5610003 2.0705922 0.37397742 0
4.5660005 2.0656209 0.37394136 0
4.5710001 2.0606315 0.37390527 0
4.5750003 2.0551209 0.37387642 0
4.5800004 2.0500972 0.37384033 0
4.5850005 2.0450559 0.37380427 0
4.5890002 2.0394981 0.37377539 0
4.5940003 2.0344224 0.37373933 0
4.5990005 2.0293283 0.37370324 0
4.6030002 2.0237238 0.37367439 0
4.6080003 2.0185957 0.3736383 0
4.6130004 2.0134492 0.37360224 0
4.6180005 2.008285 0.37356615 0
4.6220002 2.0026174 0.3735373 0
4.6270003 1.9974189 0.37350121 0
4.6320004 1.9922023 0.37346515 0
4.6370001 1.9869676 0.37342906 0
4.6410003 1.9812369 0.37340021 0
4.6460004 1.9759681 0.37336412 0
4.6510005 1.970681 0.37332806 0
4.6560001 1.9653759 0.37329197 0
4.6610003 1.960053 0.37325591 0
4.6650004 1.9542432 0.37322706 0
4.6700001 1.9488857 0.37319097 0
4.6750002 1.9435103 0.37315488 0
4.6800003 1.9381169 0.37311882 0
4.6850004 1.9327055 0.37308273 0
4.6900005 1.927276 0.37304667 0
4.6950002 1.9218285 0.37301058 0
4.7000003 1.9163629 0.37297451 0
4.7050004 1.9108795 0.37293842 0
4.7100005 1.9053777 0.37290236 0
4.7150002 1.899858 0.37286627 0
4.7200003 1.8943205 0.37283021 0
4.7240005 1.8883173 0.37280133 0
4.7290001 1.8827451 0.37276527 0
4.7340002 1.8771554 0.37272918 0
4.7400002 1.8719893 0.37268591 0
4.7450004 1.8663614 0.37264982 0
4.7500005 1.8607155 0.37261376 0
4.7550001 1.8550515 0.37257767 0
4.7600002 1.8493694 0.37254161 0
4.7650003 1.8436695 0.37250552 0
4.7700005 1.8379514 0.37246946 0
4.7750001 1.8322152 0.37243336 0
4.7800002 1.8264612 0.3723973 0
4.7850003 1.8206891 0.37236121 0
4.7900004 1.8148987 0.37232515 0
4.7950001 1.8090905 0.37228906 0
4.8010001 1.8036844 0.37224579 0
4.8060002 1.7978383 0.3722097 0
4.8110003 1.7919742 0.37217361 0
4.8160005 1.7860919 0.37213755 0
4.8210001 1.7801915 0.37210149 0
4.8270001 1.7746845 0.37205818 0
4.8320003 1.7687465 0.37202209 0
4.8370004 1.7627904 0.37198603 0
4.8420005 1.7568161 0.37194994 0
4.8480005 1.7512281 0.37190667 0
4.8530002 1.7452159 0.37187058 0
4.8580003 1.7391857 0.37183452 0
4.8630004 1.7331376 0.37179843 0
4.8690004 1.7274681 0.37175512 0
4.8740001 1.721382 0.37171906 0
4.8790002 1.7152779 0.371683 0
4.8850002 1.7095474 0.3716397 0
4.8900003 1.7034054 0.37160361 0
4.8960004 1.6976333 0.37156034 0
4.9010005 1.6914535 0.37152424 0
4.9060001 1.6852554 0.37148818 0
4.9120002 1.6794219 0.37144488 0
4.9170003 1.6731862 0.37140882 0
4.9230003 1.6673112 0.37136552 0
4.9280005 1.6610376 0.37132943 0
4.9340005 1.6551211 0.37128615 0
4.9390001 1.6488094 0.37125006 0
4.9450002 1.6428515 0.37120679 0
4.9500003 1.6365021 0.3711707 0
4.9560003 1.6305027 0.37112743 0
4.9610004 1.6241153 0.37109134 0
4.9670005 1.6180744 0.37104803 0
4.9720001 1.6116492 0.37101197 0
4.9780002 1.6055669 0.37096867 0
4.9830003 1.5991037 0.37093261 0
4.9890003 1.5929799 0.37088931 0
4.9950004 1.5868342 0.37084603 0
5.0000005 1.5803136 0.37080994 0
5.0060005 1.5741266 0.37076664 0
5.0120001 1.5679177 0.37072337 0
5.0170002 1.5613391 0.37068728 0
5.0230002 1.555089 0.370644 0
5.0290003 1.5488172 0.3706007 0
5.0340004 1.542181 0.37056464 0
5.0400004 1.5358677 0.37052134 0
5.0460005 1.5295327 0.37047803 0
5.0520005 1.5231761 0.37043476 0
5.0570002 1.5164623 0.37039867 0
5.0630002 1.5100641 0.37035537 0
5.0690002 1.5036443 0.37031209 0
5.0750003 1.497203 0.37026879 0
5.0810003 1.4907399 0.37022552 0
5.0860004 1.4839289 0.37018943 0
5.0920005 1.4774243 0.37014616 0
5.0980005 1.4708982 0.37010285 0
5.1040001 1.4643502 0.37005955 0
5.1100001 1.4577807 0.37001628 0
5.1160002 1.4511896 0.36997297 0
5.1220002 1.444577 0.36992967 0
5.1280003 1.4379425 0.3698864 0
5.1340003 1.4312865 0.3698431 0
5.1400003 1.4246087 0.36979982 0
5.1460004 1.4179094 0.36975652 0
5.1520004 1.4111884 0.36971322 0
5.1580005 1.4044458 0.36966994 0
5.1640005 1.3976816 0.36962664 0
5.1700006 1.3908957 0.36958334 0
5.1760001 1.3840879 0.36954007 0
5.1820002 1.3772588 0.36949676 0
5.1880002 1.3704078 0.36945349 0
5.1940002 1.3635354 0.36941019 0
4.3970003 2.2539332 0.36795092 0
4.4020004 2.2495914 0.3679058 0
4.4060001 2.2446594 0.36786973 0
4.4100003 2.2397137 0.36783367 0
4.4140005 2.2347534 0.36779758 0
4.4190001 2.2303448 0.36775249 0
4.4230003 2.2253535 0.3677164 0
4.4270005 2.2203479 0.36768034 0
4.4320002 2.215889 0.36763525 0
4.4360003 2.2108526 0.36759916 0
4.4400001 2.205802 0.3675631 0
4.4450002 2.2012923 0.36751801 0
4.4490004 2.1962113 0.36748192 0
4.4530001 2.1911154 0.36744583 0
4.4580002 2.1865554 0.36740074 0
4.4620004 2.1814291 0.36736467 0
4.4670005 2.1768348 0.36731958 0
4.4710002 2.1716776 0.36728349 0
4.4750004 2.1665061 0.36724743 0
4.4800005 2.1618614 0.36720234 0
4.4840002 2.1566591 0.36716625 0
4.4890003 2.1519802 0.36712116 0
4.4930005 2.1467471 0.36708507 0
4.4980001 2.1420338 0.36703998 0
4.5020003 2.1367702 0.36700392 0
4.5070004 2.1320229 0.3669588 0
4.5110002 2.1267285 0.36692274 0
4.5160003 2.1219466 0.36687765 0
4.5200005 2.116622 0.36684155 0
4.5250001 2.1118054 0.36679646 0
4.5290003 2.1064501 0.3667604 0
4.5340004 2.1015997 0.36671531 0
4.5380001 2.0962133 0.36667922 0
4.5430002 2.0913289 0.36663413 0
4.5480003 2.086426 0.36658904 0
4.5520005 2.0809929 0.36655295 0
4.5570002 2.0760558 0.36650786 0
4.5610003 2.0705922 0.3664718 0
4.5660005 2.0656209 0.36642668 0
4.5710001 2.0606315 0.36638159 0
4.5750003 2.0551209 0.36634552 0
4.5800004 2.0500972 0.36630043 0
4.5850005 2.0450559 0.36625531 0
4.5890002 2.0394981 0.36621925 0
4.5940003 2.0344224 0.36617416 0
4.5990005 2.0293283 0.36612904 0
4.6030002 2.0237238 0.36609298 0
4.6080003 2.0185957 0.36604789 0
4.6130004 2.0134492 0.3660028 0
4.6180005 2.008285 0.36595771 0
4.6220002 2.0026174 0.36592162 0
4.6270003 1.9974189 0.36587653 0
4.6320004 1.9922023 0.36583143 0
4.6370001 1.9869676 0.36578634 0
4.6410003 1.9812369 0.36575025 0
4.6460004 1.9759681 0.36570516 0
4.6510005 1.970681 0.36566007 0
4.6560001 1.9653759 0.36561498 0
4.6610003 1.960053 0.36556989 0
4.6650004 1.9542432 0.3655338 0
4.6700001 1.9488857 0.36548871 0
4.6750002 1.9435103 0.36544362 0
4.6800003 1.9381169 0.36539853 0
4.6850004 1.9327055 0.36535344 0
4.6900005 1.927276 0.36530831 0
4.6950002 1.9218285 0.36526322 0
4.7000003 1.9163629 0.36521813 0
4.7050004 1.9108795 0.36517304 0
4.7100005 1.9053777 0.36512795 0
4.7150002 1.899858 0.36508286 0
4.7200003 1.8943205 0.36503777 0
4.7250004 1.8887647 0.36499265 0
4.7290001 1.8827451 0.36495659 0
4.7340002 1.8771554 0.3649115 0
4.7400002 1.8719893 0.36485738 0
4.7450004 1.8663614 0.36481228 0
4.7500005 1.8607155 0.36476719 0
4.7550001 1.8550515 0.3647221 0
4.7600002 1.8493694 0.36467698 0
4.7650003 1.8436695 0.36463189 0
4.7700005 1.8379514 0.3645868 0
4.7750001 1.8322152 0.36454171 0
4.7800002 1.8264612 0.36449662 0
4.7850003 1.8206891 0.36445153 0
4.7900004 1.8148987 0.36440644 0
4.7950001 1.8090905 0.36436135 0
4.8010001 1.8036844 0.36430722 0
4.8060002 1.7978383 0.3642621 0
4.8110003 1.7919742 0.36421701 0
4.8160005 1.7860919 0.36417192 0
4.8210001 1.7801915 0.36412683 0
4.8270001 1.7746845 0.36407271 0
4.8320003 1.7687465 0.36402762 0
4.8370004 1.7627904 0.36398253 0
4.8420005 1.7568161 0.36393744 0
4.8480005 1.7512281 0.36388332 0
4.8530002 1.7452159 0.36383823 0
4.8580003 1.7391857 0.36379313 0
4.8630004 1.7331376 0.36374804 0
4.8690004 1.7274681 0.36369392 0
4.8740001 1.721382 0.36364883 0
4.8790002 1.7152779 0.36360374 0
4.8850002 1.7095474 0.36354962 0
4.8900003 1.7034054 0.36350453 0
4.8960004 1.6976333 0.36345041 0
4.9010005 1.6914535 0.36340532 0
4.9060001 1.6852554 0.36336023 0
4.9120002 1.6794219 0.36330611 0
4.9170003 1.6731862 0.36326101 0
4.9230003 1.6673112 0.36320689 0
4.9280005 1.6610376 0.3631618 0
4.9340005 1.6551211 0.36310768 0
4.9390001 1.6488094 0.36306259 0
4.9450002 1.6428515 0.36300847 0
4.9500003 1.6365021 0.36296338 0
4.9560003 1.6305027 0.36290926 0
4.9610004 1.6241153 0.36286417 0
4.9670005 1.6180744 0.36281005 0
4.9720001 1.6116492 0.36276495 0
4.9780002 1.6055669 0.36271083 0
4.9830003 1.5991037 0.36266574 0
4.9890003 1.5929799 0.36261162 0
4.9950004 1.5868342 0.36255753 0
5.0000005 1.5803136 0.36251241 0
5.0060005 1.5741266 0.36245832 0
5.0120001 1.5679177 0.3624042 0
5.0170002 1.5613391 0.36235911 0
5.0230002 1.555089 0.36230499 0
5.0290003 1.5488172 0.36225086 0
5.0340004 1.542181 0.36220577 0
5.0400004 1.5358677 0.36215165 0
5.0460005 1.5295327 0.36209756 0
5.0520005 1.5231761 0.36204344 0
5.0570002 1.5164623 0.36199835 0
5.0630002 1.5100641 0.36194423 0
5.0690002 1.5036443 0.36189011 0
5.0750003 1.497203 0.36183599 0
5.0810003 1.4907399 0.3617819 0
5.0860004 1.4839289 0.36173677 0
5.0920005 1.4774243 0.36168265 0
5.0980005 1.4708982 0.36162856 0
5.1040001 1.4643502 0.36157444 0
5.1100001 1.4577807 0.36152035 0
5.1160002 1.4511896 0.36146623 0
5.1220002 1.444577 0.36141211 0
5.1280003 1.4379425 0.36135799 0
5.1340003 1.4312865 0.36130387 0
5.1400003 1.4246087 0.36124974 0
5.1460004 1.4179094 0.36119565 0
5.1520004 1.4111884 0.36114153 0
5.1580005 1.4044458 0.36108741 0
5.1640005 1.3976816 0.36103329 0
5.1700006 1.3908957 0.3609792 0
5.1760001 1.3840879 0.36092508 0
5.1820002 1.3772588 0.36087096 0
5.1880002 1.3704078 0.36081684 0
5.1940002 1.3635354 0.36076272 0
4.3970003 2.2539332 0.36074108 0
4.4020004 2.2495914 0.36068696 0
4.4060001 2.2446594 0.36064368 0
4.4100003 2.2397137 0.36060038 0
4.4140005 2.2347534 0.36055708 0
4.4190001 2.2303448 0.36050299 0
4.4230003 2.2253535 0.36045969 0
4.4270005 2.2203479 0.36041641 0
4.4320002 2.215889 0.36036229 0
4.4360003 2.2108526 0.36031899 0
4.4400001 2.205802 0.36027572 0
4.4450002 2.2012923 0.36022159 0
4.4490004 2.1962113 0.36017829 0
4.4530001 2.1911154 0.36013502 0
4.4580002 2.1865554 0.3600809 0
4.4620004 2.1814291 0.3600376 0
4.4670005 2.1768348 0.35998347 0
4.4710002 2.1716776 0.3599402 0
4.4750004 2.1665061 0.3598969 0
4.4800005 2.1618614 0.35984278 0
4.4840002 2.1566591 0.3597995 0
4.4890003 2.1519802 0.35974538 0
4.4930005 2.1467471 0.35970208 0
4.4980001 2.1420338 0.35964799 0
4.5020003 2.1367702 0.35960469 0
4.5070004 2.1320229 0.35955057 0
4.5110002 2.1267285 0.35950729 0
4.5160003 2.1219466 0.35945317 0
4.5200005 2.116622 0.35940987 0
4.5250001 2.1118054 0.35935575 0
4.5290003 2.1064501 0.35931247 0
4.5340004 2.1015997 0.35925835 0
4.5380001 2.0962133 0.35921508 0
4.5430002 2.0913289 0.35916096 0
4.5480003 2.086426 0.35910684 0
4.5520005 2.0809929 0.35906354 0
4.5570002 2.0760558 0.35900944 0
4.5610003 2.0705922 0.35896614 0
4.5660005 2.0656209 0.35891202 0
4.5710001 2.0606315 0.3588579 0
4.5750003 2.0551209 0.35881463 0
4.5800004 2.0500972 0.35876051 0
4.5850005 2.0450559 0.35870638 0
4.5890002 2.0394981 0.35866308 0
4.5940003 2.0344224 0.35860899 0
4.5990005 2.0293283 0.35855487 0
4.6030002 2.0237238 0.35851157 0
4.6080003 2.0185957 0.35845748 0
4.6130004 2.0134492 0.35840335 0
4.6180005 2.008285 0.35834923 0
4.6220002 2.0026174 0.35830593 0
4.6270003 1.9974189 0.35825184 0
4.6320004 1.9922023 0.35819772 0
4.6370001 1.9869676 0.3581436 0
4.6410003 1.9812369 0.3581003 0
4.6460004 1.9759681 0.3580462 0
4.6510005 1.970681 0.35799208 0
4.6560001 1.9653759 0.35793796 0
4.6610003 1.960053 0.35788384 0
4.6660004 1.9547119 0.35782975 0
4.6700001 1.9488857 0.35778645 0
4.6750002 1.9435103 0.35773233 0
4.6800003 1.9381169 0.35767823 0
4.6850004 1.9327055 0.35762411 0
4.6900005 1.927276 0.35756999 0
4.6950002 1.9218285 0.35751587 0
4.7000003 1.9163629 0.35746175 0
4.7050004 1.9108795 0.35740766 0
4.7100005 1.9053777 0.35735354 0
4.7150002 1.899858 0.35729942 0
4.7200003 1.8943205 0.3572453 0
4.7250004 1.8887647 0.35719121 0
4.7300005 1.8831911 0.35713708 0
4.7350001 1.8775991 0.35708296 0
4.7400002 1.8719893 0.35702884 0
4.7450004 1.8663614 0.35697472 0
4.7500005 1.8607155 0.35692063 0
4.7550001 1.8550515 0.35686651 0
4.7600002 1.8493694 0.35681239 0
4.7650003 1.8436695 0.35675827 0
4.7700005 1.8379514 0.35670418 0
4.7750001 1.8322152 0.35665005 0
4.7800002 1.8264612 0.35659593 0
4.7850003 1.8206891 0.35654181 0
4.7900004 1.8148987 0.35648769 0
4.7950001 1.8090905 0.3564336 0
4.8010001 1.8036844 0.35636866 0
4.8060002 1.7978383 0.35631454 0
4.8110003 1.7919742 0.35626042 0
4.8160005 1.7860919 0.3562063 0
4.8210001 1.7801915 0.35615221 0
4.8270001 1.7746845 0.35608727 0
4.8320003 1.7687465 0.35603315 0
4.8370004 1.7627904 0.35597903 0
4.8420005 1.7568161 0.3559249 0
4.8480005 1.7512281 0.35585997 0
4.8530002 1.7452159 0.35580587 0
4.8580003 1.7391857 0.35575175 0
4.8630004 1.7331376 0.35569763 0
4.8690004 1.7274681 0.35563269 0
4.8740001 1.721382 0.3555786 0
4.8790002 1.7152779 0.35552448 0
4.8850002 1.7095474 0.35545954 0
4.8900003 1.7034054 0.35540542 0
4.8960004 1.6976333 0.35534048 0
4.9010005 1.6914535 0.35528636 0
4.9060001 1.6852554 0.35523227 0
4.9120002 1.6794219 0.35516733 0
4.9170003 1.6731862 0.35511321 0
4.9230003 1.6673112 0.35504827 0
4.9280005 1.6610376 0.35499415 0
4.9340005 1.6551211 0.35492921 0
4.9390001 1.6488094 0.35487509 0
4.9450002 1.6428515 0.35481018 0
4.9500003 1.6365021 0.35475606 0
4.9560003 1.6305027 0.35469112 0
4.9610004 1.6241153 0.354637 0
4.9670005 1.6180744 0.35457206 0
4.9720001 1.6116492 0.35451794 0
4.9780002 1.6055669 0.35445303 0
4.9830003 1.5991037 0.35439891 0
4.9890003 1.5929799 0.35433397 0
4.9950004 1.5868342 0.35426903 0
5.0000005 1.5803136 0.35421491 0
5.0060005 1.5741266 0.35414997 0
5.0120001 1.5679177 0.35408503 0
5.0170002 1.5613391 0.35403091 0
5.0230002 1.555089 0.353966 0
5.0290003 1.5488172 0.35390103 0
5.0340004 1.542181 0.35384694 0
5.0400004 1.5358677 0.353782 0
5.0460005 1.5295327 0.35371706 0
5.0520005 1.5231761 0.35365212 0
5.0570002 1.5164623 0.353598 0
5.0630002 1.5100641 0.35353306 0
5.0690002 1.5036443 0.35346812 0
5.0750003 1.497203 0.35340318 0
5.0810003 1.4907399 0.35333824 0
5.0860004 1.4839289 0.35328415 0
5.0920005 1.4774243 0.35321921 0
5.0980005 1.4708982 0.35315427 0
5.1040001 1.4643502 0.35308933 0
5.1100001 1.4577807 0.35302439 0
5.1160002 1.4511896 0.35295945 0
5.1220002 1.444577 0.35289451 0
5.1280003 1.4379425 0.35282958 0
5.1340003 1.4312865 0.35276464 0
5.1400003 1.4246087 0.3526997 0
5.1460004 1.4179094 0.35263476 0
5.1520004 1.4111884 0.35256982 0
5.1580005 1.4044458 0.35250491 0
5.1640005 1.3976816 0.35243994 0
5.1700006 1.3908957 0.35237503 0
5.1760001 1.3840879 0.35231009 0
5.1820002 1.3772588 0.35224515 0
5.1880002 1.3704078 0.35218021 0
5.1940002 1.3635354 0.35211527 0
4.3970003 2.2539332 0.35353127 0
4.4020004 2.2495914 0.35346812 0
4.4060001 2.2446594 0.35341763 0
4.4100003 2.2397137 0.35336712 0
4.4140005 2.2347534 0.35331661 0
4.4190001 2.2303448 0.35325348 0
4.4230003 2.2253535 0.35320297 0
4.4270005 2.2203479 0.35315245 0
4.4320002 2.215889 0.35308933 0
4.4360003 2.2108526 0.35303882 0
4.4400001 2.205802 0.35298833 0
4.4450002 2.2012923 0.35292518 0
4.4490004 2.1962113 0.35287467 0
4.4530001 2.1911154 0.35282418 0
4.4580002 2.1865554 0.35276103 0
4.4620004 2.1814291 0.35271055 0
4.4670005 2.1768348 0.35264739 0
4.4710002 2.1716776 0.35259688 0
4.4760003 2.1670492 0.35253376 0
4.4800005 2.1618614 0.35248324 0
4.4840002 2.1566591 0.35243273 0
4.4890003 2.1519802 0.35236961 0
4.4930005 2.1467471 0.35231909 0
4.4980001 2.1420338 0.35225597 0
4.5020003 2.1367702 0.35220546 0
4.5070004 2.1320229 0.35214233 0
4.5110002 2.1267285 0.35209182 0
4.5160003 2.1219466 0.3520287 0
4.5200005 2.116622 0.35197818 0
4.5250001 2.1118054 0.35191506 0
4.5290003 2.1064501 0.35186455 0
4.5340004 2.1015997 0.3518014 0
4.5380001 2.0962133 0.35175091 0
4.5430002 2.0913289 0.35168776 0
4.5480003 2.086426 0.35162464 0
4.5520005 2.0809929 0.35157412 0
4.5570002 2.0760558 0.351511 0
4.5610003 2.0705922 0.35146049 0
4.5660005 2.0656209 0.35139737 0
4.5710001 2.0606315 0.35133421 0
4.5750003 2.0551209 0.35128373 0
4.5800004 2.0500972 0.35122058 0
4.5850005 2.0450559 0.35115746 0
4.5890002 2.0394981 0.35110694 0
4.5940003 2.0344224 0.35104382 0
4.5990005 2.0293283 0.35098067 0
4.6030002 2.0237238 0.35093018 0
4.6080003 2.0185957 0.35086703 0
4.6130004 2.0134492 0.35080391 0
4.6180005 2.008285 0.35074076 0
4.6220002 2.0026174 0.35069028 0
4.6270003 1.9974189 0.35062712 0
4.6320004 1.9922023 0.350564 0
4.6370001 1.9869676 0.35050088 0
4.6410003 1.9812369 0.35045037 0
4.6460004 1.9759681 0.35038722 0
4.6510005 1.970681 0.35032409 0
4.6560001 1.9653759 0.35026097 0
4.6610003 1.960053 0.35019782 0
4.6660004 1.9547119 0.3501347 0
