# .PCD v0.7 - Point Cloud Data file format
VERSION 0.7
FIELDS x y z intensity
SIZE 4 4 4 4
TYPE F F F F
COUNT 1 1 1 1
WIDTH 1387
HEIGHT 1
VIEWPOINT 0 0 0 1 0 0 0
POINTS 1387
DATA ascii
2.9900002 0.21562433 0.93192053 0
2.9900002 0.21095249 0.93192053 0
2.9910002 0.20637801 0.93212438 0
2.9920001 0.20179996 0.93232822 0
2.9930003 0.1972183 0.93253207 0
2.9930003 0.19254102 0.93253207 0
2.9940002 0.18795393 0.93273592 0
2.9950001 0.18336321 0.93293977 0
2.9960003 0.17876893 0.93314362 0
2.9960003 0.17408626 0.93314362 0
2.9970002 0.16948654 0.93334734 0
2.9980001 0.16488321 0.93355119 0
2.9980001 0.16019692 0.93355119 0
2.9990003 0.15558821 0.93375504 0
3.0000002 0.15097585 0.93395889 0
3.0010002 0.14635991 0.93416262 0
3.0010002 0.1416682 0.93416262 0
3.0020003 0.13704686 0.93436658 0
3.0030003 0.1324219 0.93457031 0
3.0040002 0.12779331 0.93477416 0
3.0040002 0.1230962 0.93477416 0
3.0050001 0.1184622 0.93497801 0
3.0060003 0.11382462 0.93518186 0
3.0070002 0.10918343 0.9353857 0
3.0080001 0.1045386 0.93558955 0
3.0080001 0.099834278 0.93558955 0
3.0090003 0.095184073 0.9357934 0
3.0100002 0.090530246 0.93599725 0
3.0110002 0.085872799 0.93620098 0
3.0110002 0.081163064 0.93620098 0
3.0120003 0.076500222 0.93640482 0
3.0130002 0.071833774 0.93660867 0
3.0140002 0.067163706 0.93681252 0
3.0150001 0.062490042 0.93701625 0
3.0150001 0.05777308 0.93701625 0
3.0160003 0.053094011 0.93722022 0
3.0170002 0.048411328 0.93742394 0
3.0180001 0.043725025 0.93762779 0
3.0190003 0.03903513 0.93783164 0
3.0190003 0.034310956 0.93783164 0
3.0200002 0.029615644 0.93803549 0
3.0210001 0.02491672 0.93823934 0
3.0220003 0.020214196 0.93844318 0
3.0220003 0.015484609 0.93844318 0
3.0230002 0.010776669 0.93864703 0
3.0240002 0.0060651191 0.93885076 0
3.0250003 0.001349967 0.93905461 0
3.0260003 -0.0033687986 0.93925846 0
3.0260003 -0.0081055947 0.93925846 0
3.0270002 -0.012829773 0.9394623 0
3.0280001 -0.017557554 0.93966603 0
3.0290003 -0.022288941 0.93987 0
3.0300002 -0.027023938 0.94007373 0
3.0300002 -0.031767953 0.94007373 0
3.0310001 -0.036508363 0.94027758 0
3.0330002 -0.041250572 0.94068527 0
3.0360003 -0.046 0.94129682 0
3.0010002 0.24957743 0.92947102 0
2.9960003 0.24432653 0.92846084 0
2.9930003 0.23931375 0.92785478 0
2.9880002 0.23409534 0.92684472 0
2.9870002 0.22932068 0.92664266 0
2.9860003 0.22454959 0.9264406 0
2.9850001 0.21978211 0.92623854 0
2.9850001 0.21511927 0.92623854 0
2.9860003 0.21055564 0.9264406 0
2.9870002 0.20598841 0.92664266 0
2.9890003 0.20151316 0.92704666 0
2.9900002 0.19693689 0.92724872 0
2.9910002 0.19235702 0.92745078 0
2.9910002 0.18768334 0.92745078 0
2.9920001 0.18309806 0.92765272 0
2.9930003 0.17850918 0.92785478 0
2.9930003 0.17383191 0.92785478 0
2.9940002 0.16923761 0.92805684 0
2.9950001 0.1646397 0.9282589 0
2.9960003 0.16003819 0.92846084 0
2.9960003 0.1553555 0.92846084 0
2.9970002 0.15074858 0.9286629 0
2.9980001 0.14613804 0.92886496 0
2.9990003 0.1415239 0.9290669 0
2.9990003 0.13683581 0.9290669 0
3.0000002 0.13221624 0.92926896 0
3.0010002 0.12759309 0.92947102 0
3.0010002 0.12290138 0.92947102 0
3.0020003 0.11827281 0.92967308 0
3.0030003 0.11364064 0.92987502 0
3.0040002 0.10900486 0.93007708 0
3.0040002 0.10430773 0.93007708 0
3.0050001 0.099666521 0.93027914 0
3.0060003 0.095021725 0.93048108 0
3.0070002 0.090373307 0.93068314 0
3.0070002 0.085670784 0.93068314 0
3.0080001 0.081016958 0.9308852 0
3.0090003 0.07635954 0.93108726 0
3.0090003 0.071653396 0.93108726 0
3.0100002 0.066990554 0.9312892 0
3.0110002 0.062324096 0.93149126 0
3.0120003 0.057654042 0.93169332 0
3.0120003 0.052942496 0.93169332 0
3.0130002 0.048267018 0.93189526 0
3.0140002 0.043587934 0.93209732 0
3.0150001 0.038905252 0.93229938 0
3.0150001 0.034188297 0.93229938 0
3.0160003 0.029500198 0.93250144 0
3.0170002 0.024808493 0.93270338 0
3.0170002 0.020087924 0.93270338 0
3.0180001 0.015390806 0.93290544 0
3.0190003 0.010690086 0.9331075 0
3.0200002 0.0059857517 0.93330944 0
3.0200002 0.001259774 0.93330944 0
3.0210001 -0.003449969 0.9335115 0
3.0220003 -0.008163318 0.93371356 0
3.0230002 -0.012880277 0.93391562 0
3.0230002 -0.017611666 0.93391562 0
3.0240002 -0.022334035 0.93411756 0
3.0250003 -0.027060013 0.93431962 0
3.0260003 -0.031789601 0.93452168 0
3.0270002 -0.036522791 0.93472362 0
3.0280001 -0.041259594 0.93492568 0
3.0300002 -0.046 0.93532979 0
3.0340002 -0.050751232 0.9361378 0
3.0380001 -0.055516891 0.93694592 0
2.9970002 0.24912286 0.92397845 0
2.9910002 0.24376735 0.92277706 0
2.9880002 0.23876357 0.92217636 0
2.9860003 0.23387891 0.92177594 0
2.9840002 0.22900137 0.92137551 0
2.9830003 0.22423574 0.92117524 0
2.9820001 0.21947366 0.92097497 0
2.9820001 0.21481621 0.92097497 0
2.9830003 0.21025801 0.92117524 0
2.9840002 0.2056962 0.92137551 0
2.9860003 0.20122635 0.92177594 0
2.9880002 0.19674928 0.92217636 0
2.9890003 0.19217305 0.92237663 0
2.9890003 0.18750298 0.92237663 0
2.9900002 0.18292129 0.9225769 0
2.9910002 0.17833601 0.92277706 0
2.9910002 0.17366233 0.92277706 0
2.9920001 0.16907166 0.92297733 0
2.9930003 0.16447736 0.92317748 0
2.9930003 0.1598001 0.92317748 0
2.9940002 0.15520038 0.92337775 0
2.9950001 0.15059704 0.9235779 0
2.9950001 0.14591618 0.9235779 0
2.9960003 0.14130746 0.92377818 0
2.9970002 0.1366951 0.92397845 0
2.9980001 0.13207915 0.9241786 0
2.9980001 0.12739286 0.9241786 0
2.9990003 0.12277152 0.92437887 0
3.0000002 0.11814655 0.92457902 0
3.0000002 0.11345664 0.92457902 0
3.0010002 0.10882626 0.9247793 0
3.0020003 0.10419229 0.92497957 0
3.0020003 0.099498793 0.92497957 0
3.0030003 0.094859377 0.92517972 0
3.0040002 0.090216383 0.92537999 0
3.0040002 0.085519254 0.92537999 0
3.0050001 0.080870837 0.92558014 0
3.0060003 0.076218829 0.92578042 0
3.0070002 0.071563199 0.92598069 0
3.0070002 0.066860676 0.92598069 0
3.0080001 0.062199634 0.92618084 0
3.0090003 0.057534982 0.92638111 0
3.0100002 0.052866723 0.92658126 0
3.0100002 0.048158791 0.92658126 0
3.0110002 0.043485124 0.92678154 0
3.0120003 0.03880785 0.92698181 0
3.0120003 0.034096304 0.92698181 0
3.0130002 0.029413614 0.92718196 0
3.0140002 0.024727326 0.92738223 0
3.0150001 0.020037416 0.92758238 0
3.0150001 0.015320458 0.92758238 0
3.0160003 0.01062515 0.92778265 0
3.0170002 0.0059262253 0.92798281 0
3.0180001 0.0012236983 0.92818308 0
3.0180001 -0.0034986734 0.92818308 0
3.0190003 -0.0082066096 0.92838335 0
3.0200002 -0.012918159 0.9285835 0
3.0210001 -0.017633313 0.92878377 0
3.0210001 -0.022361094 0.92878377 0
3.0210001 -0.027088875 0.92878377 0
3.0210001 -0.031816658 0.92878377 0
3.0220003 -0.036540829 0.92898393 0
3.0230002 -0.041268609 0.9291842 0
3.0270002 -0.046 0.92998505 0
3.0290003 -0.050742213 0.93038559 0
3.0330002 -0.055498853 0.93118644 0
3.0380001 -0.060275339 0.93218744 0
3.0000002 0.2541537 0.91988921 0
2.9930003 0.24866831 0.91850019 0
2.9880002 0.24343187 0.91750813 0
2.9850001 0.23843348 0.91691291 0
2.9830003 0.23355421 0.91651607 0
2.9810002 0.2286821 0.91611922 0
2.9800003 0.22392187 0.91592085 0
2.9790003 0.21916521 0.91572237 0
2.9790003 0.21451321 0.91572237 0
2.9800003 0.2099604 0.91592085 0
2.9810002 0.20540395 0.91611922 0
2.9830003 0.20093957 0.91651607 0
2.9850001 0.19646789 0.91691291 0
2.9870002 0.19198905 0.91730976 0
2.9880002 0.18741278 0.91750813 0
2.9880002 0.18274452 0.91750813 0
2.9890003 0.17816286 0.91770661 0
2.9900002 0.17357758 0.91790497 0
2.9910002 0.16898869 0.91810334 0
2.9910002 0.16431502 0.91810334 0
2.9920001 0.15972072 0.91830182 0
2.9930003 0.15512282 0.91850019 0
2.9930003 0.15044554 0.91850019 0
2.9940002 0.14584221 0.91869867 0
2.9950001 0.14123529 0.91889703 0
2.9950001 0.13655441 0.91889703 0
2.9960003 0.13194208 0.91909552 0
2.9970002 0.12732613 0.91929388 0
2.9970002 0.12264164 0.91929388 0
2.9980001 0.11802027 0.91949224 0
2.9990003 0.11339532 0.91969073 0
2.9990003 0.10870722 0.91969073 0
3.0000002 0.10407685 0.91988921 0
3.0010002 0.099442855 0.92008758 0
3.0020003 0.09480527 0.92028606 0
3.0020003 0.090111762 0.92028606 0
3.0030003 0.085468754 0.92048442 0
3.0040002 0.08082214 0.92068279 0
3.0040002 0.076125026 0.92068279 0
3.0050001 0.071473002 0.92088127 0
3.0060003 0.066817388 0.92107975 0
3.0060003 0.062116656 0.92107975 0
3.0070002 0.057455618 0.92127812 0
3.0080001 0.052790966 0.92147648 0
3.0080001 0.048086632 0.92147648 0
3.0090003 0.043416578 0.92167497 0
3.0100002 0.038742911 0.92187333 0
3.0110002 0.03406563 0.92207181 0
3.0110002 0.029355887 0.92207181 0
3.0120003 0.024673212 0.9222703 0
3.0130002 0.019986909 0.92246866 0
3.0130002 0.015273564 0.92246866 0
3.0140002 0.010581855 0.92266703 0
3.0150001 0.0058865398 0.92286539 0
3.0150001 0.001169581 0.92286539 0
3.0160003 -0.0035311356 0.92306387 0
3.0170002 -0.0082354695 0.92326236 0
3.0170002 -0.012956038 0.92326236 0
3.0180001 -0.017665781 0.92346072 0
3.0190003 -0.02237913 0.92365921 0
3.0180001 -0.027110521 0.92346072 0
3.0180001 -0.031832889 0.92346072 0
3.0180001 -0.03655526 0.92346072 0
3.0200002 -0.041274022 0.92385757 0
3.0210001 -0.046 0.92405593 0
3.0240002 -0.050733194 0.92465127 0
3.0270002 -0.055477209 0.92524648 0
3.0340002 -0.060253695 0.92663538 0
2.9960003 0.25369191 0.91441286 0
2.9900002 0.2483274 0.91323316 0
2.9860003 0.2432082 0.91244662 0
2.9820001 0.23810339 0.91166019 0
2.9800003 0.23322949 0.91126704 0
2.9780002 0.22836283 0.91087377 0
2.9770002 0.22360799 0.91067708 0
2.9760003 0.21885678 0.9104805 0
2.9760003 0.21421015 0.9104805 0
2.9770002 0.20966274 0.91067708 0
2.9780002 0.20511174 0.91087377 0
2.9790003 0.20055714 0.91107035 0
2.9820001 0.19618651 0.91166019 0
2.9850001 0.19180505 0.91225004 0
2.9870002 0.18732259 0.91264319 0
2.9880002 0.18274452 0.91283989 0
2.9880002 0.17807625 0.91283989 0
2.9890003 0.1734928 0.91303647 0
2.9900002 0.16890571 0.91323316 0
2.9900002 0.16423385 0.91323316 0
2.9910002 0.15964136 0.91342974 0
2.9920001 0.15504524 0.91362631 0
2.9920001 0.15036976 0.91362631 0
2.9930003 0.14576825 0.91382301 0
2.9940002 0.14116314 0.91401958 0
2.9940002 0.13648406 0.91401958 0
2.9950001 0.13187352 0.91421616 0
2.9960003 0.12725939 0.91441286 0
2.9960003 0.12257671 0.91441286 0
2.9970002 0.11795714 0.91460943 0
2.9980001 0.11333399 0.91480601 0
2.9980001 0.10864769 0.91480601 0
2.9990003 0.10401912 0.9150027 0
3.0000002 0.099386945 0.91519928 0
3.0000002 0.094697043 0.91519928 0
3.0010002 0.090059444 0.91539586 0
3.0010002 0.085367739 0.91539586 0
3.0020003 0.080724746 0.91559255 0
3.0030003 0.076078132 0.91578913 0
3.0030003 0.071382821 0.91578913 0
3.0040002 0.066730797 0.9159857 0
3.0050001 0.062075164 0.91618228 0
3.0060003 0.057415936 0.91637897 0
3.0060003 0.052715216 0.91637897 0
3.0070002 0.048050564 0.91657555 0
3.0080001 0.043382306 0.91677213 0
3.0080001 0.038677972 0.91677213 0
3.0090003 0.034004312 0.91696882 0
3.0100002 0.029327031 0.9171654 0
3.0100002 0.024619091 0.9171654 0
3.0110002 0.019936401 0.91736197 0
3.0120003 0.015250113 0.91755867 0
3.0120003 0.010538567 0.91755867 0
3.0130002 0.0058468617 0.91775525 0
3.0140002 0.0011515468 0.91795182 0
3.0150001 -0.0035473742 0.91814852 0
3.0150001 -0.008264333 0.91814852 0
3.0160003 -0.012968663 0.91834509 0
3.0170002 -0.017676603 0.91854179 0
3.0160003 -0.022406189 0.91834509 0
3.0150001 -0.027132167 0.91814852 0
3.0150001 -0.031849124 0.91814852 0
3.0150001 -0.036566082 0.91814852 0
3.0170002 -0.041279435 0.91854179 0
3.0180001 -0.046 0.91873837 0
3.0210001 -0.050727781 0.91932809 0
3.0240002 -0.055466384 0.91991806 0
3.0290003 -0.060226634 0.92090118 0
3.0340002 -0.065004922 0.92188418 0
2.9930003 0.25334558 0.90914571 0
2.9870002 0.24798647 0.90797687 0
2.9830003 0.24287269 0.90719759 0
2.9790003 0.23777333 0.90641832 0
2.9770002 0.23290482 0.90602875 0
2.9750001 0.22804356 0.90563905 0
2.9740002 0.22329414 0.90544426 0
2.9730003 0.21854833 0.90524948 0
2.9730003 0.21390712 0.90524948 0
2.9740002 0.20936513 0.90544426 0
2.9750001 0.20481953 0.90563905 0
2.9760003 0.20027034 0.90583384 0
2.9790003 0.19590513 0.90641832 0
2.9820001 0.19152908 0.90700269 0
2.9860003 0.18723239 0.90778208 0
2.9870002 0.18265614 0.90797687 0
2.9880002 0.17807625 0.90817165 0
2.9890003 0.1734928 0.90836644 0
2.9890003 0.16882274 0.90836644 0
2.9900002 0.16423385 0.90856123 0
2.9900002 0.15956199 0.90856123 0
2.9910002 0.15496768 0.90875602 0
2.9920001 0.15036976 0.90895081 0
2.9920001 0.1456943 0.90895081 0
2.9930003 0.14109099 0.90914571 0
2.9940002 0.13648406 0.9093405 0
2.9940002 0.13180499 0.9093405 0
2.9950001 0.12719263 0.90953529 0
2.9960003 0.12257671 0.90973008 0
2.9960003 0.11789402 0.90973008 0
2.9970002 0.11327265 0.90992498 0
2.9980001 0.10864769 0.91011977 0
2.9980001 0.10396139 0.91011977 0
2.9990003 0.099331036 0.91031456 0
3.0000002 0.094697043 0.91050935 0
3.0000002 0.090007126 0.91050935 0
3.0010002 0.085367739 0.91070414 0
3.0020003 0.080724746 0.91089904 0
3.0020003 0.076031238 0.91089904 0
3.0030003 0.071382821 0.91109383 0
3.0040002 0.066730797 0.91128862 0
3.0040002 0.062033679 0.91128862 0
3.0050001 0.057376247 0.91148341 0
3.0060003 0.052715216 0.91167831 0
3.0060003 0.048014488 0.91167831 0
3.0070002 0.043348033 0.91187298 0
3.0080001 0.038677972 0.91206789 0
3.0080001 0.033973645 0.91206789 0
3.0090003 0.029298175 0.91226268 0
3.0100002 0.024619091 0.91245747 0
3.0100002 0.019911151 0.91245747 0
3.0110002 0.015226662 0.91265225 0
3.0120003 0.010538567 0.91284716 0
3.0120003 0.0058270209 0.91284716 0
3.0130002 0.001133509 0.91304195 0
3.0140002 -0.003563609 0.91323674 0
3.0140002 -0.0082787648 0.91323674 0
3.0150001 -0.012981292 0.91343153 0
3.0140002 -0.017709073 0.91323674 0
3.0130002 -0.022433246 0.91304195 0
3.0120003 -0.02715381 0.91284716 0
3.0120003 -0.031865358 0.91284716 0
3.0120003 -0.036576904 0.91284716 0
3.0130002 -0.041286647 0.91304195 0
3.0150001 -0.046 0.91343153 0
3.0180001 -0.050722368 0.91401601 0
3.0210001 -0.055455562 0.91460037 0
3.0250003 -0.06020499 0.91537964 0
3.0310001 -0.064983279 0.91654849 0
2.9990003 0.25872636 0.90562642 0
2.9900002 0.25299925 0.90388942 0
2.9840002 0.24764556 0.9027313 0
2.9800003 0.24253717 0.9019593 0
2.9760003 0.23744321 0.9011873 0
2.9740002 0.23258013 0.90080124 0
2.9720001 0.22772428 0.90041524 0
2.9710002 0.22298029 0.90022224 0
2.9700003 0.21823987 0.90002924 0
2.9700003 0.21360409 0.90002924 0
2.9710002 0.20906749 0.90022224 0
2.9720001 0.20452729 0.90041524 0
2.9730003 0.19998352 0.9006083 0
2.9760003 0.19562373 0.9011873 0
2.9790003 0.1912531 0.9017663 0
2.9830003 0.18696183 0.9025383 0
2.9870002 0.18265614 0.90331042 0
2.9880002 0.17807625 0.90350342 0
2.9880002 0.173408 0.90350342 0
2.9890003 0.16882274 0.90369642 0
2.9900002 0.16423385 0.90388942 0
2.9900002 0.15956199 0.90388942 0
2.9910002 0.15496768 0.90408242 0
2.9920001 0.15036976 0.90427542 0
2.9920001 0.1456943 0.90427542 0
2.9930003 0.14109099 0.90446842 0
2.9930003 0.13641371 0.90446842 0
2.9940002 0.13180499 0.90466142 0
2.9950001 0.12719263 0.90485442 0
2.9950001 0.12251174 0.90485442 0
2.9960003 0.11789402 0.90504742 0
2.9970002 0.11327265 0.90524042 0
2.9970002 0.10858816 0.90524042 0
2.9980001 0.10396139 0.90543342 0
2.9990003 0.099331036 0.90562642 0
2.9990003 0.094642937 0.90562642 0
3.0000002 0.090007126 0.90581942 0
3.0010002 0.085367739 0.90601242 0
3.0010002 0.080676034 0.90601242 0
3.0020003 0.076031238 0.90620553 0
3.0030003 0.071382821 0.90639853 0
3.0030003 0.066687509 0.90639853 0
3.0040002 0.062033679 0.90659153 0
3.0050001 0.057376247 0.90678453 0
3.0050001 0.05267733 0.90678453 0
3.0060003 0.048014488 0.90697753 0
3.0070002 0.043348033 0.90717053 0
3.0070002 0.038645502 0.90717053 0
3.0080001 0.033973645 0.90736353 0
3.0090003 0.029298175 0.90755653 0
3.0090003 0.024592038 0.90755653 0
3.0100002 0.019911151 0.90774953 0
3.0110002 0.015226662 0.90794253 0
3.0110002 0.010516919 0.90794253 0
3.0120003 0.0058270209 0.90813565 0
3.0130002 0.001133509 0.90832853 0
3.0130002 -0.0035798401 0.90832853 0
3.0140002 -0.0082787648 0.90852153 0
3.0130002 -0.013006546 0.90832853 0
3.0110002 -0.01774154 0.90794253 0
3.0100002 -0.022460302 0.90774953 0
3.0090003 -0.027175456 0.90755653 0
3.0090003 -0.031881593 0.90755653 0
3.0090003 -0.03658773 0.90755653 0
3.0100002 -0.04129206 0.90774953 0
3.0120003 -0.046 0.90813565 0
3.0140002 -0.050715156 0.90852153 0
3.0170002 -0.055441134 0.90910053 0
3.0220003 -0.060188755 0.91006565 0
3.0270002 -0.064954415 0.91103065 0
3.0340002 -0.06975615 0.91238177 0
2.9960003 0.2583746 0.90036476 0
2.9870002 0.25265291 0.89864391 0
2.9810002 0.24730465 0.8974967 0
2.9770002 0.24220166 0.89673185 0
2.9730003 0.23711312 0.89596707 0
2.9710002 0.23225546 0.89558464 0
2.9690001 0.22740501 0.89520222 0
2.9680002 0.22266638 0.89501107 0
2.9670002 0.21793142 0.89481986 0
2.9670002 0.21330106 0.89481986 0
2.9680002 0.20876986 0.89501107 0
2.9690001 0.20423508 0.89520222 0
2.9700003 0.19969672 0.89539349 0
2.9730003 0.19534232 0.89596707 0
2.9760003 0.19097711 0.8965407 0
2.9800003 0.18669127 0.89730549 0
2.9840002 0.18239097 0.89807034 0
2.9880002 0.17807625 0.89883506 0
2.9880002 0.173408 0.89883506 0
2.9890003 0.16882274 0.89902633 0
2.9900002 0.16423385 0.89921749 0
2.9900002 0.15956199 0.89921749 0
2.9910002 0.15496768 0.8994087 0
2.9920001 0.15036976 0.89959991 0
2.9920001 0.1456943 0.89959991 0
2.9930003 0.14109099 0.89979118 0
2.9930003 0.13641371 0.89979118 0
2.9940002 0.13180499 0.89998233 0
2.9950001 0.12719263 0.90017354 0
2.9950001 0.12251174 0.90017354 0
2.9960003 0.11789402 0.90036476 0
2.9970002 0.11327265 0.90055597 0
2.9970002 0.10858816 0.90055597 0
2.9980001 0.10396139 0.90074712 0
2.9990003 0.099331036 0.90093839 0
2.9990003 0.094642937 0.90093839 0
3.0000002 0.090007126 0.90112954 0
3.0010002 0.085367739 0.9013207 0
3.0010002 0.080676034 0.9013207 0
3.0020003 0.076031238 0.90151197 0
3.0030003 0.071382821 0.90170324 0
3.0030003 0.066687509 0.90170324 0
3.0040002 0.062033679 0.90189439 0
3.0040002 0.057336565 0.90189439 0
3.0050001 0.05267733 0.90208554 0
3.0060003 0.048014488 0.90227681 0
3.0060003 0.04331376 0.90227681 0
3.0070002 0.038645502 0.90246797 0
3.0080001 0.033973645 0.90265918 0
3.0080001 0.029269304 0.90265918 0
3.0090003 0.024592038 0.90285039 0
3.0100002 0.019911151 0.9030416 0
3.0100002 0.015203211 0.9030416 0
3.0110002 0.010516919 0.90323275 0
3.0120003 0.0058270209 0.90342402 0
3.0120003 0.0011154748 0.90342402 0
3.0130002 -0.0035798401 0.90361524 0
3.0130002 -0.0082931928 0.90361524 0
3.0100002 -0.013044424 0.9030416 0
3.0080001 -0.017774008 0.90265918 0
3.0070002 -0.022487359 0.90246797 0
3.0060003 -0.027197102 0.90227681 0
3.0060003 -0.031897828 0.90227681 0
3.0060003 -0.036598552 0.90227681 0
3.0070002 -0.041297473 0.90246797 0
3.0080001 -0.046 0.90265918 0
3.0110002 -0.050709743 0.90323275 0
3.0140002 -0.055430308 0.90380645 0
3.0180001 -0.060167111 0.90457118 0
3.0230002 -0.064925559 0.90552723 0
3.0300002 -0.069720075 0.9068656 0
2.9930003 0.25802287 0.89511383 0
2.9840002 0.25230658 0.89340925 0
2.9780002 0.24696371 0.89227283 0
2.9740002 0.24186614 0.89151525 0
2.9700003 0.236783 0.89075768 0
2.9680002 0.23193076 0.89037883 0
2.9660003 0.22708574 0.8900001 0
2.9650002 0.22235253 0.88981068 0
2.9640002 0.21762297 0.88962126 0
2.9640002 0.212998 0.88962126 0
2.9650002 0.20847222 0.88981068 0
2.9660003 0.20394288 0.8900001 0
2.9670002 0.19940992 0.89018941 0
2.9700003 0.19506094 0.89075768 0
2.9720001 0.19060911 0.89113641 0
2.9760003 0.18633051 0.8918941 0
2.9810002 0.18212581 0.89284104 0
2.9870002 0.17798969 0.89397746 0
2.9880002 0.173408 0.89416689 0
2.9890003 0.16882274 0.89435631 0
2.9900002 0.16423385 0.89454567 0
2.9900002 0.15956199 0.89454567 0
2.9910002 0.15496768 0.8947351 0
2.9920001 0.15036976 0.8949244 0
2.9920001 0.1456943 0.8949244 0
2.9930003 0.14109099 0.89511383 0
2.9930003 0.13641371 0.89511383 0
2.9940002 0.13180499 0.89530325 0
2.9950001 0.12719263 0.89549267 0
2.9950001 0.12251174 0.89549267 0
2.9960003 0.11789402 0.8956821 0
2.9970002 0.11327265 0.8958714 0
2.9970002 0.10858816 0.8958714 0
2.9980001 0.10396139 0.89606082 0
2.9990003 0.099331036 0.89625025 0
2.9990003 0.094642937 0.89625025 0
3.0000002 0.090007126 0.89643967 0
3.0010002 0.085367739 0.8966291 0
3.0010002 0.080676034 0.8966291 0
3.0020003 0.076031238 0.89681852 0
3.0030003 0.071382821 0.89700782 0
3.0030003 0.066687509 0.89700782 0
3.0040002 0.062033679 0.89719725 0
3.0040002 0.057336565 0.89719725 0
3.0050001 0.05267733 0.89738667 0
3.0060003 0.048014488 0.89757603 0
3.0060003 0.04331376 0.89757603 0
3.0070002 0.038645502 0.89776546 0
3.0080001 0.033973645 0.89795482 0
3.0080001 0.029269304 0.89795482 0
3.0090003 0.024592038 0.89814425 0
3.0100002 0.019911151 0.89833367 0
3.0100002 0.015203211 0.89833367 0
3.0110002 0.010516919 0.89852303 0
3.0120003 0.0058270209 0.89871246 0
3.0120003 0.0011154748 0.89871246 0
3.0130002 -0.0035798401 0.89890188 0
3.0100002 -0.0083364844 0.89833367 0
3.0070002 -0.013082303 0.89776546 0
3.0050001 -0.017806478 0.89738667 0
3.0040002 -0.022514418 0.89719725 0
3.0030003 -0.027218748 0.89700782 0
3.0030003 -0.031914063 0.89700782 0
3.0030003 -0.036609374 0.89700782 0
3.0040002 -0.041302882 0.89719725 0
3.0050001 -0.046 0.89738667 0
3.0080001 -0.05070433 0.89795482 0
3.0100002 -0.05541588 0.89833367 0
3.0150001 -0.060150877 0.89928067 0
3.0200002 -0.064903915 0.90022767 0
3.0270002 -0.069693021 0.90155351 0
2.9900002 0.25767112 0.8898738 0
2.9810002 0.25196025 0.88818544 0
2.9750001 0.24662277 0.88705987 0
2.9710002 0.24153063 0.88630944 0
2.9670002 0.23645291 0.88555908 0
2.9650002 0.2316061 0.88518393 0
2.9630003 0.22676647 0.88480878 0
2.9620001 0.22203869 0.88462108 0
2.9610002 0.21731451 0.88443351 0
2.9610002 0.21269494 0.88443351 0
2.9620001 0.20817462 0.88462108 0
2.9630003 0.20365067 0.88480878 0
2.9640002 0.19912311 0.88499629 0
2.9670002 0.19477955 0.88555908 0
2.9690001 0.19033313 0.88593423 0
2.9730003 0.18605994 0.88668466 0
2.9780002 0.18186066 0.88762259 0
2.9840002 0.17772993 0.88874823 0
2.9880002 0.173408 0.88949859 0
2.9890003 0.16882274 0.88968623 0
2.9900002 0.16423385 0.8898738 0
2.9900002 0.15956199 0.8898738 0
2.9910002 0.15496768 0.89006138 0
2.9920001 0.15036976 0.89024895 0
2.9920001 0.1456943 0.89024895 0
2.9930003 0.14109099 0.89043665 0
2.9930003 0.13641371 0.89043665 0
2.9940002 0.13180499 0.89062417 0
2.9950001 0.12719263 0.8908118 0
2.9950001 0.12251174 0.8908118 0
2.9960003 0.11789402 0.89099938 0
2.9970002 0.11327265 0.89118695 0
2.9970002 0.10858816 0.89118695 0
2.9980001 0.10396139 0.89137459 0
2.9990003 0.099331036 0.89156216 0
2.9990003 0.094642937 0.89156216 0
3.0000002 0.090007126 0.89174974 0
3.0010002 0.085367739 0.89193732 0
3.0010002 0.080676034 0.89193732 0
3.0020003 0.076031238 0.89212501 0
3.0030003 0.071382821 0.89231253 0
3.0030003 0.066687509 0.89231253 0
3.0040002 0.062033679 0.89250016 0
3.0040002 0.057336565 0.89250016 0
3.0050001 0.05267733 0.89268774 0
3.0060003 0.048014488 0.89287531 0
3.0060003 0.04331376 0.89287531 0
3.0070002 0.038645502 0.89306295 0
3.0080001 0.033973645 0.89325047 0
3.0080001 0.029269304 0.89325047 0
3.0090003 0.024592038 0.89343816 0
3.0100002 0.019911151 0.89362574 0
3.0100002 0.015203211 0.89362574 0
3.0110002 0.010516919 0.89381331 0
3.0120003 0.0058270209 0.89400089 0
3.0120003 0.0011154748 0.89400089 0
3.0110002 -0.0036123097 0.89381331 0
3.0070002 -0.008379776 0.89306295 0
3.0050001 -0.013107557 0.89268774 0
3.0020003 -0.017838946 0.89212501 0
3.0010002 -0.022541475 0.89193732 0
3.0000002 -0.027240394 0.89174974 0
3.0000002 -0.031930298 0.89174974 0
3.0000002 -0.036620196 0.89174974 0
3.0010002 -0.041308295 0.89193732 0
3.0020003 -0.046 0.89212501 0
3.0040002 -0.050697118 0.89250016 0
3.0070002 -0.055405058 0.89306295 0
3.0110002 -0.060129229 0.89381331 0
3.0160003 -0.064875051 0.89475131 0
3.0230002 -0.069656946 0.89606452 0
2.9870002 0.25731939 0.88464451 0
2.9790003 0.25172937 0.88315821 0
2.9720001 0.24628183 0.88185769 0
2.9680002 0.24119511 0.88111448 0
2.9640002 0.23612282 0.88037133 0
2.9620001 0.2312814 0.87999976 0
2.9600003 0.22644719 0.87962818 0
2.9590001 0.22172481 0.87944233 0
2.9580002 0.21700606 0.87925655 0
2.9580002 0.21239191 0.87925655 0
2.9590001 0.20787695 0.87944233 0
2.9600003 0.20335844 0.87962818 0
2.9610002 0.1988363 0.87981397 0
2.9640002 0.19449814 0.88037133 0
2.9660003 0.19005717 0.88074297 0
2.9700003 0.18578938 0.88148612 0
2.9750001 0.18159549 0.88241506 0
2.9810002 0.17747018 0.88352978 0
2.9880002 0.173408 0.88483036 0
2.9890003 0.16882274 0.8850162 0
2.9900002 0.16423385 0.88520193 0
2.9900002 0.15956199 0.88520193 0
2.9910002 0.15496768 0.88538778 0
2.9920001 0.15036976 0.88557351 0
2.9920001 0.1456943 0.88557351 0
2.9930003 0.14109099 0.88575929 0
2.9930003 0.13641371 0.88575929 0
2.9940002 0.13180499 0.88594508 0
2.9950001 0.12719263 0.88613087 0
2.9950001 0.12251174 0.88613087 0
2.9960003 0.11789402 0.88631672 0
2.9970002 0.11327265 0.8865025 0
2.9970002 0.10858816 0.8865025 0
2.9980001 0.10396139 0.88668823 0
2.9990003 0.099331036 0.88687408 0
2.9990003 0.094642937 0.88687408 0
3.0000002 0.090007126 0.88705987 0
3.0010002 0.085367739 0.88724566 0
3.0010002 0.080676034 0.88724566 0
3.0020003 0.076031238 0.88743144 0
3.0030003 0.071382821 0.88761723 0
3.0030003 0.066687509 0.88761723 0
3.0040002 0.062033679 0.88780302 0
3.0040002 0.057336565 0.88780302 0
3.0050001 0.05267733 0.88798881 0
3.0060003 0.048014488 0.88817465 0
3.0060003 0.04331376 0.88817465 0
3.0070002 0.038645502 0.88836044 0
3.0080001 0.033973645 0.88854617 0
3.0080001 0.029269304 0.88854617 0
3.0090003 0.024592038 0.88873202 0
3.0100002 0.019911151 0.8889178 0
3.0100002 0.015203211 0.8889178 0
3.0110002 0.010516919 0.88910353 0
3.0120003 0.0058270209 0.88928938 0
3.0120003 0.0011154748 0.88928938 0
3.0080001 -0.0036610141 0.88854617 0
3.0050001 -0.0084086396 0.88798881 0
3.0020003 -0.013145436 0.88743144 0
3.0000002 -0.017860591 0.88705987 0
2.9980001 -0.022568533 0.88668823 0
2.9970002 -0.027262039 0.8865025 0
2.9970002 -0.031946532 0.8865025 0
2.9970002 -0.036631018 0.8865025 0
2.9980001 -0.041313708 0.88668823 0
2.9990003 -0.046 0.88687408 0
3.0010002 -0.050691705 0.88724566 0
3.0040002 -0.055394232 0.88780302 0
3.0080001 -0.060112998 0.88854617 0
3.0120003 -0.064846188 0.88928938 0
3.0190003 -0.06962087 0.89058995 0
2.9840002 0.25696763 0.87942612 0
2.9760003 0.25138304 0.87795424 0
2.9690001 0.24594092 0.87666631 0
2.9650002 0.2408596 0.87593031 0
2.9620001 0.23590273 0.87537837 0
2.9590001 0.2309567 0.87482643 0
2.9570003 0.22612792 0.87445849 0
2.9560003 0.22141099 0.87427449 0
2.9550002 0.2166976 0.87409049 0
2.9550002 0.21208888 0.87409049 0
2.9560003 0.20757937 0.87427449 0
2.9570003 0.20306623 0.87445849 0
2.9580002 0.19854949 0.87464249 0
2.9610002 0.19421676 0.87519443 0
2.9630003 0.18978119 0.87556243 0
2.9670002 0.18551879 0.87629831 0
2.9710002 0.18124194 0.87703431 0
2.9770002 0.17712386 0.87813818 0
2.9850001 0.17315367 0.87961012 0
2.9890003 0.16882274 0.88034612 0
2.9900002 0.16423385 0.88053012 0
2.9900002 0.15956199 0.88053012 0
2.9910002 0.15496768 0.88071406 0
2.9920001 0.15036976 0.880898 0
2.9920001 0.1456943 0.880898 0
2.9930003 0.14109099 0.88108206 0
2.9930003 0.13641371 0.88108206 0
2.9940002 0.13180499 0.881266 0
2.9950001 0.12719263 0.88145 0
2.9950001 0.12251174 0.88145 0
2.9960003 0.11789402 0.881634 0
2.9970002 0.11327265 0.881818 0
2.9970002 0.10858816 0.881818 0
2.9980001 0.10396139 0.882002 0
2.9990003 0.099331036 0.882186 0
2.9990003 0.094642937 0.882186 0
3.0000002 0.090007126 0.88237 0
3.0010002 0.085367739 0.88255394 0
3.0010002 0.080676034 0.88255394 0
3.0020003 0.076031238 0.88273799 0
3.0030003 0.071382821 0.88292193 0
3.0030003 0.066687509 0.88292193 0
3.0040002 0.062033679 0.88310587 0
3.0040002 0.057336565 0.88310587 0
3.0050001 0.05267733 0.88328987 0
3.0060003 0.048014488 0.88347387 0
3.0060003 0.04331376 0.88347387 0
3.0070002 0.038645502 0.88365781 0
3.0080001 0.033973645 0.88384181 0
3.0080001 0.029269304 0.88384181 0
3.0090003 0.024592038 0.88402581 0
3.0100002 0.019911151 0.88420981 0
3.0100002 0.015203211 0.88420981 0
3.0110002 0.010516919 0.88439381 0
3.0120003 0.0058270209 0.88457781 0
3.0100002 0.0010793954 0.88420981 0
3.0060003 -0.00369348 0.88347387 0
3.0020003 -0.0084519275 0.88273799 0
2.9990003 -0.013183318 0.882186 0
2.9970002 -0.017893061 0.881818 0
2.9950001 -0.022595588 0.88145 0
2.9940002 -0.027283685 0.881266 0
2.9940002 -0.031962764 0.881266 0
2.9940002 -0.036641844 0.881266 0
2.9950001 -0.041319117 0.88145 0
2.9960003 -0.046 0.881634 0
2.9980001 -0.050686292 0.882002 0
3.0010002 -0.05538341 0.88255394 0
3.0040002 -0.06009135 0.88310587 0
3.0090003 -0.064824544 0.88402581 0
3.0160003 -0.06959381 0.88531381 0
3.0250003 -0.074409984 0.88696969 0
2.9820001 0.25673312 0.87440073 0
2.9730003 0.2510367 0.87276107 0
2.9670002 0.24571368 0.87166798 0
2.9620001 0.24052411 0.87075698 0
2.9590001 0.23557264 0.87021053 0
2.9560003 0.23063204 0.86966395 0
2.9540002 0.22580865 0.86929953 0
2.9530003 0.22109708 0.86911738 0
2.9520001 0.21638915 0.86893523 0
2.9520001 0.21178582 0.86893523 0
2.9530003 0.20728174 0.86911738 0
2.9540002 0.202774 0.86929953 0
2.9550002 0.19826269 0.86948168 0
2.9580002 0.19393535 0.87002826 0
2.9600003 0.1895052 0.87039268 0
2.9640002 0.18524823 0.87112141 0
2.9680002 0.18097678 0.87185013 0
2.9740002 0.1768641 0.87294322 0
2.9820001 0.17289934 0.87440073 0
2.9890003 0.16882274 0.87567604 0
2.9900002 0.16423385 0.87585825 0
2.9900002 0.15956199 0.87585825 0
2.9910002 0.15496768 0.8760404 0
2.9920001 0.15036976 0.87622255 0
2.9920001 0.1456943 0.87622255 0
2.9930003 0.14109099 0.87640476 0
2.9930003 0.13641371 0.87640476 0
2.9940002 0.13180499 0.87658697 0
2.9950001 0.12719263 0.87676913 0
2.9950001 0.12251174 0.87676913 0
2.9960003 0.11789402 0.87695134 0
2.9970002 0.11327265 0.87713349 0
2.9970002 0.10858816 0.87713349 0
2.9980001 0.10396139 0.87731564 0
2.9990003 0.099331036 0.87749791 0
2.9990003 0.094642937 0.87749791 0
3.0000002 0.090007126 0.87768006 0
3.0010002 0.085367739 0.87786222 0
3.0010002 0.080676034 0.87786222 0
3.0020003 0.076031238 0.87804449 0
3.0030003 0.071382821 0.87822664 0
3.0030003 0.066687509 0.87822664 0
3.0040002 0.062033679 0.87840879 0
3.0040002 0.057336565 0.87840879 0
3.0050001 0.05267733 0.87859094 0
3.0060003 0.048014488 0.87877321 0
3.0060003 0.04331376 0.87877321 0
3.0070002 0.038645502 0.87895536 0
3.0080001 0.033973645 0.87913752 0
3.0080001 0.029269304 0.87913752 0
3.0090003 0.024592038 0.87931979 0
3.0100002 0.019911151 0.87950194 0
3.0100002 0.015203211 0.87950194 0
3.0110002 0.010516919 0.87968409 0
3.0120003 0.0058270209 0.87986624 0
3.0080001 0.001043316 0.87913752 0
3.0030003 -0.0037421845 0.87822664 0
2.9990003 -0.0084952191 0.87749791 0
2.9960003 -0.013221197 0.87695134 0
2.9940002 -0.017925529 0.87658697 0
2.9920001 -0.022622647 0.87622255 0
2.9910002 -0.027305331 0.8760404 0
2.9910002 -0.031978998 0.8760404 0
2.9910002 -0.036652666 0.8760404 0
2.9920001 -0.04132453 0.87622255 0
2.9930003 -0.046 0.87640476 0
2.9950001 -0.050680883 0.87676913 0
2.9970002 -0.055368982 0.87713349 0
3.0010002 -0.060075115 0.87786222 0
3.0050001 -0.06479568 0.87859094 0
3.0120003 -0.069557741 0.87986624 0
3.0210001 -0.074366689 0.88150597 0
2.9790003 0.25638139 0.86920214 0
2.9700003 0.25069037 0.86757874 0
2.9640002 0.24537274 0.86649644 0
2.9590001 0.2401886 0.86559451 0
2.9560003 0.23524258 0.86505342 0
2.9530003 0.23030734 0.86451226 0
2.9510002 0.22548935 0.86415148 0
2.9500003 0.22078323 0.86397111 0
2.9490001 0.2160807 0.86379075 0
2.9490001 0.21148279 0.86379075 0
2.9500003 0.2069841 0.86397111 0
2.9510002 0.20248181 0.86415148 0
2.9520001 0.19797586 0.86433184 0
2.9550002 0.19365394 0.86487299 0
2.9570003 0.18922924 0.86523378 0
2.9610002 0.18497764 0.86595529 0
2.9650002 0.18071163 0.86667681 0
2.9710002 0.17660436 0.86775911 0
2.9780002 0.17256021 0.86902177 0
2.9890003 0.16882274 0.87100601 0
2.9900002 0.16423385 0.87118632 0
2.9900002 0.15956199 0.87118632 0
2.9910002 0.15496768 0.87136674 0
2.9920001 0.15036976 0.8715471 0
2.9920001 0.1456943 0.8715471 0
2.9930003 0.14109099 0.87172747 0
2.9930003 0.13641371 0.87172747 0
2.9940002 0.13180499 0.87190789 0
2.9950001 0.12719263 0.87208819 0
2.9950001 0.12251174 0.87208819 0
2.9960003 0.11789402 0.87226862 0
2.9970002 0.11327265 0.87244904 0
2.9970002 0.10858816 0.87244904 0
2.9980001 0.10396139 0.8726294 0
2.9990003 0.099331036 0.87280977 0
2.9990003 0.094642937 0.87280977 0
3.0000002 0.090007126 0.87299013 0
3.0010002 0.085367739 0.8731705 0
3.0010002 0.080676034 0.8731705 0
3.0020003 0.076031238 0.87335092 0
3.0030003 0.071382821 0.87353134 0
3.0030003 0.066687509 0.87353134 0
3.0040002 0.062033679 0.87371171 0
3.0040002 0.057336565 0.87371171 0
3.0050001 0.05267733 0.87389207 0
3.0060003 0.048014488 0.87407243 0
3.0060003 0.04331376 0.87407243 0
3.0070002 0.038645502 0.8742528 0
3.0080001 0.033973645 0.87443322 0
3.0080001 0.029269304 0.87443322 0
3.0090003 0.024592038 0.87461364 0
3.0100002 0.019911151 0.87479395 0
3.0100002 0.015203211 0.87479395 0
3.0110002 0.010516919 0.87497437 0
3.0110002 0.0058071762 0.87497437 0
3.0050001 0.00098920241 0.87389207 0
3.0000002 -0.0037908852 0.87299013 0
2.9960003 -0.0085385107 0.87226862 0
2.9930003 -0.013259076 0.87172747 0
2.9910002 -0.017957998 0.87136674 0
2.9890003 -0.0226497 0.87100601 0
2.9880002 -0.027326977 0.87082559 0
2.9880002 -0.031995233 0.87082559 0
2.9880002 -0.036663488 0.87082559 0
2.9880002 -0.041331746 0.87082559 0
2.9900002 -0.046 0.87118632 0
2.9910002 -0.050673667 0.87136674 0
2.9940002 -0.055358157 0.87190789 0
2.9980001 -0.060058881 0.8726294 0
3.0020003 -0.064774036 0.87335092 0
3.0080001 -0.069521658 0.87443322 0
3.0170002 -0.074323401 0.87605667 0
2.9760003 0.25602967 0.86401439 0
2.9670002 0.25034404 0.86240721 0
2.9610002 0.2450318 0.86133575 0
2.9570003 0.23996493 0.86062145 0
2.9530003 0.23491248 0.85990715 0
2.9500003 0.22998267 0.85937142 0
2.9480002 0.22517008 0.85901427 0
2.9470003 0.22046939 0.8588357 0
2.9460001 0.21577224 0.85865706 0
2.9470003 0.21128076 0.8588357 0
2.9470003 0.20668647 0.8588357 0
2.9480002 0.20218958 0.85901427 0
2.9490001 0.19768907 0.85919279 0
2.9520001 0.19337258 0.85972857 0
2.9540002 0.18895325 0.86008573 0
2.9580002 0.18470706 0.86080003 0
2.9620001 0.18044646 0.86151433 0
2.9680002 0.17634462 0.86258578 0
2.9750001 0.17230588 0.86383581 0
2.9850001 0.16849083 0.86562157 0
2.9900002 0.16423385 0.86651444 0
2.9900002 0.15956199 0.86651444 0
2.9910002 0.15496768 0.86669302 0
2.9920001 0.15036976 0.8668716 0
2.9920001 0.1456943 0.8668716 0
2.9930003 0.14109099 0.86705029 0
2.9930003 0.13641371 0.86705029 0
2.9940002 0.13180499 0.86722875 0
2.9950001 0.12719263 0.86740732 0
2.9950001 0.12251174 0.86740732 0
2.9960003 0.11789402 0.86758602 0
2.9970002 0.11327265 0.86776459 0
2.9970002 0.10858816 0.86776459 0
2.9980001 0.10396139 0.86794305 0
2.9990003 0.099331036 0.86812174 0
2.9990003 0.094642937 0.86812174 0
3.0000002 0.090007126 0.86830032 0
3.0010002 0.085367739 0.86847878 0
3.0010002 0.080676034 0.86847878 0
3.0020003 0.076031238 0.86865747 0
3.0030003 0.071382821 0.86883605 0
3.0030003 0.066687509 0.86883605 0
3.0040002 0.062033679 0.86901462 0
3.0040002 0.057336565 0.86901462 0
3.0050001 0.05267733 0.86919308 0
3.0060003 0.048014488 0.86937171 0
3.0060003 0.04331376 0.86937171 0
3.0070002 0.038645502 0.86955029 0
3.0080001 0.033973645 0.86972886 0
3.0080001 0.029269304 0.86972886 0
3.0090003 0.024592038 0.86990744 0
3.0100002 0.019911151 0.87008601 0
3.0100002 0.015203211 0.87008601 0
3.0110002 0.010516919 0.87026459 0
3.0090003 0.0057674907 0.86990744 0
3.0030003 0.00095313042 0.86883605 0
2.9980001 -0.0038233586 0.86794305 0
2.9940002 -0.0085673705 0.86722875 0
2.9910002 -0.013284329 0.86669302 0
2.9880002 -0.017990468 0.86615729 0
2.9870002 -0.022667741 0.86597872 0
2.9860003 -0.027341407 0.86580014 0
2.9850001 -0.032011468 0.86562157 0
2.9850001 -0.036674313 0.86562157 0
2.9850001 -0.041337155 0.86562157 0
2.9870002 -0.046 0.86597872 0
2.9880002 -0.050668254 0.86615729 0
2.9910002 -0.055347335 0.86669302 0
2.9940002 -0.060037237 0.86722875 0
2.9990003 -0.064752392 0.86812174 0
3.0050001 -0.069494605 0.86919308 0
3.0130002 -0.074280106 0.87062174 0
2.9730003 0.25567791 0.85883749 0
2.9640002 0.24999771 0.85724652 0
2.9580002 0.2446909 0.85618585 0
2.9540002 0.23962942 0.85547876 0
2.9500003 0.23458239 0.85477173 0
2.9480002 0.22976619 0.85441816 0
2.9450002 0.2248508 0.8538878 0
2.9440002 0.22015551 0.85371101 0
2.9440002 0.21556664 0.85371101 0
2.9440002 0.21097773 0.85371101 0
2.9440002 0.20638886 0.85371101 0
2.9450002 0.20189737 0.8538878 0
2.9460001 0.19740227 0.85406458 0
2.9490001 0.19309117 0.85459489 0
2.9510002 0.18867727 0.85494846 0
2.9550002 0.18443649 0.85565555 0
2.9590001 0.18018129 0.85636258 0
2.9650002 0.17608486 0.85742331 0
2.9720001 0.17205155 0.8586607 0
2.9820001 0.1682419 0.86042839 0
2.9900002 0.16423385 0.86184263 0
2.9900002 0.15956199 0.86184263 0
2.9910002 0.15496768 0.86201942 0
2.9920001 0.15036976 0.86219615 0
2.9920001 0.1456943 0.86219615 0
2.9930003 0.14109099 0.86237293 0
2.9930003 0.13641371 0.86237293 0
2.9940002 0.13180499 0.86254966 0
2.9950001 0.12719263 0.86272645 0
2.9950001 0.12251174 0.86272645 0
2.9960003 0.11789402 0.86290324 0
2.9970002 0.11327265 0.86308002 0
2.9970002 0.10858816 0.86308002 0
2.9980001 0.10396139 0.86325681 0
2.9990003 0.099331036 0.8634336 0
2.9990003 0.094642937 0.8634336 0
3.0000002 0.090007126 0.86361039 0
3.0010002 0.085367739 0.86378711 0
3.0010002 0.080676034 0.86378711 0
3.0020003 0.076031238 0.8639639 0
3.0030003 0.071382821 0.86414063 0
3.0030003 0.066687509 0.86414063 0
3.0040002 0.062033679 0.86431742 0
3.0040002 0.057336565 0.86431742 0
3.0050001 0.05267733 0.8644942 0
3.0060003 0.048014488 0.86467099 0
3.0060003 0.04331376 0.86467099 0
3.0070002 0.038645502 0.86484778 0
3.0080001 0.033973645 0.86502451 0
3.0080001 0.029269304 0.86502451 0
3.0090003 0.024592038 0.86520135 0
3.0100002 0.019911151 0.86537808 0
3.0100002 0.015203211 0.86537808 0
3.0110002 0.010516919 0.86555481 0
3.0060003 0.005707968 0.86467099 0
3.0000002 0.00089901686 0.86361039 0
2.9950001 -0.003872063 0.86272645 0
2.9910002 -0.0086106621 0.86201942 0
2.9880002 -0.013322208 0.86148906 0
2.9860003 -0.018012112 0.86113554 0
2.9840002 -0.022694798 0.86078197 0
2.9830003 -0.027363053 0.86060524 0
2.9820001 -0.032027703 0.86042839 0
2.9820001 -0.036685135 0.86042839 0
2.9820001 -0.041342568 0.86042839 0
2.9840002 -0.046 0.86078197 0
2.9850001 -0.050662845 0.8609587 0
2.9880002 -0.055336513 0.86148906 0
2.9910002 -0.060021002 0.86201942 0
2.9950001 -0.064723529 0.86272645 0
3.0010002 -0.069458529 0.86378711 0
3.0090003 -0.074236818 0.86520135 0
2.9700003 0.25532618 0.85367143 0
2.9610002 0.24965137 0.85209668 0
2.9550002 0.24434999 0.8510468 0
2.9510002 0.2392939 0.85034692 0
2.9470003 0.23425227 0.84964705 0
2.9450002 0.22944152 0.84929717 0
2.9430003 0.22463799 0.84894717 0
2.9420002 0.21994627 0.84877223 0
2.9410002 0.21525818 0.84859729 0
2.9410002 0.2106747 0.84859729 0
2.9410002 0.20609123 0.84859729 0
2.9420002 0.20160514 0.84877223 0
2.9430003 0.19711547 0.84894717 0
2.9460001 0.19280976 0.84947211 0
2.9480002 0.18840125 0.84982204 0
2.9520001 0.18416592 0.85052192 0
2.9560003 0.17991616 0.8512218 0
2.9620001 0.1758251 0.85227162 0
2.9690001 0.17179722 0.85349637 0
2.9780002 0.16791001 0.85507113 0
2.9900002 0.16423385 0.85717076 0
2.9900002 0.15956199 0.85717076 0
2.9910002 0.15496768 0.8573457 0
2.9920001 0.15036976 0.8575207 0
2.9920001 0.1456943 0.8575207 0
2.9930003 0.14109099 0.8576957 0
2.9930003 0.13641371 0.8576957 0
2.9940002 0.13180499 0.85787064 0
2.9950001 0.12719263 0.85804558 0
2.9950001 0.12251174 0.85804558 0
2.9960003 0.11789402 0.85822058 0
2.9970002 0.11327265 0.85839558 0
2.9970002 0.10858816 0.85839558 0
2.9980001 0.10396139 0.85857052 0
2.9990003 0.099331036 0.85874552 0
2.9990003 0.094642937 0.85874552 0
3.0000002 0.090007126 0.85892045 0
3.0010002 0.085367739 0.85909545 0
3.0010002 0.080676034 0.85909545 0
3.0020003 0.076031238 0.85927045 0
3.0030003 0.071382821 0.85944533 0
3.0030003 0.066687509 0.85944533 0
3.0040002 0.062033679 0.85962033 0
3.0040002 0.057336565 0.85962033 0
3.0050001 0.05267733 0.85979527 0
3.0060003 0.048014488 0.85997027 0
3.0060003 0.04331376 0.85997027 0
3.0070002 0.038645502 0.86014521 0
3.0080001 0.033973645 0.86032021 0
3.0080001 0.029269304 0.86032021 0
3.0090003 0.024592038 0.86049521 0
3.0100002 0.019911151 0.86067015 0
3.0100002 0.015203211 0.86067015 0
3.0110002 0.010516919 0.86084509 0
3.0040002 0.0056682825 0.85962033 0
2.9980001 0.0008629337 0.85857052 0
2.9920001 -0.0039207637 0.8575207 0
2.9880002 -0.0086539537 0.85682082 0
2.9850001 -0.013360091 0.85629594 0
2.9830003 -0.01804458 0.855946 0
2.9810002 -0.022721855 0.85559607 0
2.9800003 -0.027384698 0.85542107 0
2.9790003 -0.032043934 0.85524613 0
2.9790003 -0.036695957 0.85524613 0
2.9790003 -0.04134798 0.85524613 0
2.9810002 -0.046 0.85559607 0
2.9820001 -0.050657433 0.85577095 0
2.9850001 -0.055325687 0.85629594 0
2.9870002 -0.059999354 0.85664582 0
2.9920001 -0.064701885 0.8575207 0
2.9970002 -0.069422454 0.85839558 0
3.0050001 -0.074193522 0.85979527 0
2.9680002 0.25509164 0.84868926 0
2.9590001 0.24942049 0.84713078 0
2.9520001 0.24400905 0.8459186 0
2.9480002 0.23895842 0.84522593 0
2.9440002 0.23392218 0.84453332 0
2.9420002 0.22911683 0.84418696 0
2.9400003 0.22431871 0.8438406 0
2.9390001 0.21963242 0.84366745 0
2.9380002 0.2149497 0.8434943 0
2.9380002 0.21037164 0.8434943 0
2.9380002 0.20579359 0.8434943 0
2.9390001 0.20131291 0.84366745 0
2.9400003 0.19682866 0.8438406 0
2.9430003 0.19252838 0.84436011 0
2.9450002 0.18812527 0.84470642 0
2.9490001 0.18389535 0.84539914 0
2.9530003 0.17965099 0.84609175 0
2.9580002 0.17547879 0.84695756 0
2.9650002 0.1714581 0.84816974 0
2.9750001 0.16766109 0.84990144 0
2.9900002 0.16423385 0.85249889 0
2.9900002 0.15956199 0.85249889 0
2.9910002 0.15496768 0.85267204 0
2.9920001 0.15036976 0.85284519 0
2.9920001 0.1456943 0.85284519 0
2.9930003 0.14109099 0.8530184 0
2.9930003 0.13641371 0.8530184 0
2.9940002 0.13180499 0.85319155 0
2.9950001 0.12719263 0.85336471 0
2.9950001 0.12251174 0.85336471 0
2.9960003 0.11789402 0.85353792 0
2.9970002 0.11327265 0.85371101 0
2.9970002 0.10858816 0.85371101 0
2.9980001 0.10396139 0.85388422 0
2.9990003 0.099331036 0.85405743 0
2.9990003 0.094642937 0.85405743 0
3.0000002 0.090007126 0.85423052 0
3.0010002 0.085367739 0.85440373 0
3.0010002 0.080676034 0.85440373 0
3.0020003 0.076031238 0.85457689 0
3.0030003 0.071382821 0.85475004 0
3.0030003 0.066687509 0.85475004 0
3.0040002 0.062033679 0.85492325 0
3.0040002 0.057336565 0.85492325 0
3.0050001 0.05267733 0.85509634 0
3.0060003 0.048014488 0.85526955 0
3.0060003 0.04331376 0.85526955 0
3.0070002 0.038645502 0.8554427 0
3.0080001 0.033973645 0.85561585 0
3.0080001 0.029269304 0.85561585 0
3.0090003 0.024592038 0.85578907 0
3.0100002 0.019911151 0.85596222 0
3.0100002 0.015203211 0.85596222 0
3.0110002 0.010516919 0.85613537 0
3.0020003 0.0056286007 0.85457689 0
2.9950001 0.00080882385 0.85336471 0
2.9900002 -0.0039532296 0.85249889 0
2.9860003 -0.0086828135 0.85180622 0
2.9820001 -0.013397973 0.85111356 0
2.9800003 -0.018077048 0.85076725 0
2.9780002 -0.022748912 0.85042089 0
2.9770002 -0.027406344 0.85024774 0
2.9760003 -0.032060169 0.85007459 0
2.9760003 -0.036706779 0.85007459 0
2.9760003 -0.04135339 0.85007459 0
2.9770002 -0.046 0.85024774 0
2.9790003 -0.05065202 0.85059404 0
2.9810002 -0.055311259 0.85094035 0
2.9840002 -0.059983119 0.85145986 0
2.9880002 -0.064673021 0.85215253 0
2.9940002 -0.069395393 0.85319155 0
3.0010002 -0.074150234 0.85440373 0
2.9650002 0.25473991 0.84354293 0
2.9560003 0.24907416 0.84200072 0
2.9500003 0.24378181 0.84097254 0
2.9450002 0.2386229 0.84011579 0
2.9410002 0.23359206 0.83943033 0
2.9390001 0.22879213 0.83908761 0
2.9370003 0.22399944 0.83874488 0
2.9360001 0.21931854 0.83857346 0
2.9350002 0.21464127 0.83840215 0
2.9350002 0.21006861 0.83840215 0
2.9350002 0.20549595 0.83840215 0
2.9360001 0.2010207 0.83857346 0
2.9370003 0.19654188 0.83874488 0
2.9400003 0.192247 0.83925891 0
2.9420002 0.18784928 0.83960164 0
2.9460001 0.18362477 0.84028709 0
2.9500003 0.17938584 0.84097254 0
2.9550002 0.17521903 0.84182936 0
2.9620001 0.17120375 0.8430289 0
2.9710002 0.16732918 0.84457111 0
2.9890003 0.16415268 0.84765565 0
2.9900002 0.15956199 0.84782708 0
2.9910002 0.15496768 0.84799838 0
2.9920001 0.15036976 0.84816974 0
2.9920001 0.1456943 0.84816974 0
2.9930003 0.14109099 0.84834111 0
2.9930003 0.13641371 0.84834111 0
2.9940002 0.13180499 0.84851247 0
2.9950001 0.12719263 0.84868383 0
2.9950001 0.12251174 0.84868383 0
2.9960003 0.11789402 0.84885526 0
2.9970002 0.11327265 0.84902656 0
2.9970002 0.10858816 0.84902656 0
2.9980001 0.10396139 0.84919786 0
2.9990003 0.099331036 0.84936929 0
2.9990003 0.094642937 0.84936929 0
3.0000002 0.090007126 0.84954065 0
3.0010002 0.085367739 0.84971201 0
3.0010002 0.080676034 0.84971201 0
3.0020003 0.076031238 0.84988338 0
3.0030003 0.071382821 0.85005474 0
3.0030003 0.066687509 0.85005474 0
3.0040002 0.062033679 0.85022604 0
3.0040002 0.057336565 0.85022604 0
3.0050001 0.05267733 0.85039747 0
3.0060003 0.048014488 0.85056883 0
3.0060003 0.04331376 0.85056883 0
3.0070002 0.038645502 0.85074019 0
3.0080001 0.033973645 0.8509115 0
3.0080001 0.029269304 0.8509115 0
3.0090003 0.024592038 0.85108292 0
3.0100002 0.019911151 0.85125422 0
3.0100002 0.015203211 0.85125422 0
3.0090003 0.010473631 0.85108292 0
2.9990003 0.0055690743 0.84936929 0
2.9920001 0.00075470656 0.84816974 0
2.9870002 -0.0040019341 0.84731293 0
2.9830003 -0.0087261051 0.84662747 0
2.9800003 -0.013423223 0.84611344 0
2.9770002 -0.018109517 0.84559929 0
2.9750001 -0.02277597 0.84525657 0
2.9740002 -0.02742799 0.84508526 0
2.9730003 -0.032076403 0.84491384 0
2.9730003 -0.036717601 0.84491384 0
2.9730003 -0.041358802 0.84491384 0
2.9740002 -0.046 0.84508526 0
2.9760003 -0.050646611 0.84542799 0
2.9780002 -0.055300437 0.84577072 0
2.9810002 -0.059966885 0.84628475 0
2.9850001 -0.064651377 0.8469702 0
2.9900002 -0.069359317 0.84782708 0
2.9970002 -0.074106939 0.84902656 0
2.9620001 0.25438815 0.83840752 0
2.9530003 0.24872783 0.83688152 0
2.9470003 0.24344087 0.83586419 0
2.9420002 0.23828739 0.83501637 0
2.9380002 0.23326197 0.83433813 0
2.9360001 0.22846746 0.83399904 0
2.9340003 0.22368017 0.83365989 0
2.9330003 0.21900469 0.83349037 0
2.9320002 0.21433282 0.8333208 0
2.9320002 0.20976558 0.8333208 0
2.9320002 0.20519835 0.8333208 0
2.9330003 0.20072851 0.83349037 0
2.9350002 0.19635066 0.83382946 0
2.9370003 0.19196561 0.83416855 0
2.9390001 0.18757331 0.8345077 0
2.9430003 0.18335421 0.835186 0
2.9470003 0.17912067 0.83586419 0
2.9520001 0.17495929 0.83671194 0
2.9590001 0.17094941 0.83789885 0
2.9680002 0.16708025 0.83942491 0
2.9850001 0.16382799 0.84230733 0
2.9900002 0.15956199 0.84315515 0
2.9910002 0.15496768 0.84332466 0
2.9920001 0.15036976 0.8434943 0
2.9920001 0.1456943 0.8434943 0
2.9930003 0.14109099 0.84366381 0
2.9930003 0.13641371 0.84366381 0
2.9940002 0.13180499 0.84383345 0
2.9950001 0.12719263 0.84400296 0
2.9950001 0.12251174 0.84400296 0
2.9960003 0.11789402 0.84417254 0
2.9970002 0.11327265 0.84434211 0
2.9970002 0.10858816 0.84434211 0
2.9980001 0.10396139 0.84451163 0
2.9990003 0.099331036 0.8446812 0
2.9990003 0.094642937 0.8446812 0
3.0000002 0.090007126 0.84485078 0
3.0010002 0.085367739 0.84502029 0
3.0010002 0.080676034 0.84502029 0
3.0020003 0.076031238 0.84518993 0
3.0030003 0.071382821 0.84535944 0
3.0030003 0.066687509 0.84535944 0
3.0040002 0.062033679 0.84552896 0
3.0040002 0.057336565 0.84552896 0
3.0050001 0.05267733 0.84569848 0
3.0060003 0.048014488 0.84586811 0
3.0060003 0.04331376 0.84586811 0
3.0070002 0.038645502 0.84603763 0
3.0080001 0.033973645 0.8462072 0
3.0080001 0.029269304 0.8462072 0
3.0090003 0.024592038 0.84637678 0
3.0100002 0.019911151 0.84654629 0
3.0100002 0.015203211 0.84654629 0
3.0070002 0.010430336 0.84603763 0
2.9970002 0.0055293888 0.84434211 0
2.9900002 0.00071863458 0.84315515 0
2.9840002 -0.0040506385 0.84213781 0
2.9800003 -0.0087693967 0.84145963 0
2.9770002 -0.013461102 0.84095091 0
2.9740002 -0.018141987 0.84044224 0
