# .PCD v0.7 - Point Cloud Data file format
VERSION 0.7
FIELDS x y z intensity
SIZE 4 4 4 4
TYPE F F F F
COUNT 1 1 1 1
WIDTH 1394
HEIGHT 1
VIEWPOINT 0 0 0 1 0 0 0
POINTS 1394
DATA ascii
4.0300002 -0.14421736 0.52186084 0
4.0290003 -0.15073632 0.52182841 0
4.0280004 -0.15725167 0.52179593 0
4.0280004 -0.16379589 0.52179593 0
4.0290003 -0.17037438 0.52182841 0
4.0310001 -0.17699255 0.52189332 0
4.0339999 -0.18365583 0.52199072 0
4.0380001 -0.19036959 0.52212059 0
4.0440001 -0.19718078 0.52231538 0
4.0510001 -0.2040569 0.52254272 0
4.0580001 -0.21095827 0.52276993 0
4.0650001 -0.2178849 0.52299726 0
4.072 -0.22483677 0.52322453 0
3.9120002 -0.22337928 0.51802957 0
3.9070003 -0.22945271 0.51786721 0
3.9010003 -0.23545398 0.51767242 0
3.8950002 -0.24143361 0.51747757 0
3.8890002 -0.24739158 0.51728278 0
3.8860002 -0.25350648 0.51718539 0
3.8930004 -0.26022387 0.51741266 0
3.9000003 -0.26696652 0.51763994 0
3.9070003 -0.27373439 0.51786721 0
3.9140003 -0.28052753 0.51809448 0
3.9210002 -0.28734592 0.51832175 0
3.9280002 -0.29418957 0.51854903 0
3.9350002 -0.3010585 0.5187763 0
3.9420002 -0.30795264 0.51900363 0
3.9500003 -0.31494781 0.51926339 0
3.9570003 -0.32189426 0.51949066 0
3.9640002 -0.328866 0.51971793 0
3.9710002 -0.33586296 0.5199452 0
3.9790003 -0.3429682 0.52020496 0
3.9860003 -0.35001746 0.52043223 0
3.9930003 -0.35709199 0.52065951 0
4.0009999 -0.36428016 0.52091926 0
4.0080004 -0.371407 0.52114654 0
4.0160003 -0.37865111 0.52140629 0
4.0230002 -0.38583025 0.52163357 0
4.0300002 -0.39303467 0.52186084 0
4.0380001 -0.40036175 0.52212059 0
4.046 -0.40771767 0.52238035 0
4.053 -0.41500145 0.52260762 0
4.0610003 -0.42241332 0.52286738 0
4.0690002 -0.42985398 0.52312708 0
4.0760002 -0.43721715 0.52335441 0
4.0840001 -0.44471377 0.52361417 0
4.092 -0.45223925 0.52387387 0
4.1000004 -0.45979363 0.52413362 0
4.1070004 -0.46726319 0.5243609 0
4.1150002 -0.47487345 0.52462065 0
4.1230001 -0.48251259 0.52488041 0
4.131 -0.49018058 0.52514017 0
4.1389999 -0.49787739 0.52539992 0
4.1470003 -0.50560313 0.52565968 0
4.1550002 -0.51335764 0.52591944 0
4.1630001 -0.52114111 0.52617913 0
4.2800002 0.10097429 0.5229792 0
4.2740002 0.09375906 0.5227952 0
4.2710004 0.086668283 0.52270323 0
4.2670002 0.079555869 0.52258056 0
4.2600002 0.072365895 0.52236593 0
4.2530003 0.065201163 0.52215123 0
4.2460003 0.058061693 0.5219366 0
4.2380004 0.050922226 0.52169126 0
4.2309999 0.043835063 0.52147663 0
4.224 0.036773149 0.52126199 0
4.217 0.0297365 0.52104735 0
4.1670003 -0.018820217 0.51951408 0
4.1600003 -0.025653044 0.51929945 0
4.1530004 -0.032460615 0.51908481 0
4.1460004 -0.039242934 0.51887012 0
4.1400003 -0.046 0.51868618 0
4.1330004 -0.052733615 0.51847148 0
4.1259999 -0.05944198 0.51825684 0
4.119 -0.066125087 0.51804221 0
4.112 -0.072782949 0.51782751 0
4.1059999 -0.079424568 0.51764357 0
4.1090002 -0.086141944 0.51773554 0
4.1160002 -0.092920661 0.51795018 0
4.1230001 -0.099724621 0.51816487 0
4.0510001 -0.11844274 0.515957 0
4.0420003 -0.12483363 0.51568097 0
4.0370002 -0.13128586 0.51552767 0
4.033 -0.13774529 0.515405 0
4.0300002 -0.14421736 0.51531303 0
4.0290003 -0.15073632 0.51528233 0
4.0280004 -0.15725167 0.5152517 0
4.0280004 -0.16379589 0.5152517 0
4.0290003 -0.17037438 0.51528233 0
4.0310001 -0.17699255 0.51534367 0
4.0339999 -0.18365583 0.5154357 0
4.0380001 -0.19036959 0.51555836 0
4.0440001 -0.19718078 0.5157423 0
4.0510001 -0.2040569 0.515957 0
4.0580001 -0.21095827 0.51617163 0
4.0650001 -0.2178849 0.51638627 0
4.072 -0.22483677 0.51660097 0
3.9120002 -0.22337928 0.51169455 0
3.9070003 -0.22945271 0.51154125 0
3.9010003 -0.23545398 0.51135725 0
3.8950002 -0.24143361 0.51117325 0
3.8890002 -0.24739158 0.51098931 0
3.8860002 -0.25350648 0.51089728 0
3.8930004 -0.26022387 0.51111197 0
3.9000003 -0.26696652 0.51132661 0
3.9070003 -0.27373439 0.51154125 0
3.9140003 -0.28052753 0.51175594 0
3.9210002 -0.28734592 0.51197058 0
3.9280002 -0.29418957 0.51218522 0
3.9350002 -0.3010585 0.51239985 0
3.9420002 -0.30795264 0.51261449 0
3.9500003 -0.31494781 0.51285982 0
3.9570003 -0.32189426 0.51307452 0
3.9640002 -0.328866 0.51328915 0
3.9710002 -0.33586296 0.51350379 0
3.9790003 -0.3429682 0.51374912 0
3.9860003 -0.35001746 0.51396376 0
3.9930003 -0.35709199 0.5141784 0
4.0009999 -0.36428016 0.51442373 0
4.0080004 -0.371407 0.51463842 0
4.0160003 -0.37865111 0.5148837 0
4.0230002 -0.38583025 0.51509839 0
4.0300002 -0.39303467 0.51531303 0
4.0380001 -0.40036175 0.51555836 0
4.046 -0.40771767 0.51580364 0
4.053 -0.41500145 0.51601833 0
4.0610003 -0.42241332 0.5162636 0
4.0690002 -0.42985398 0.51650894 0
4.0760002 -0.43721715 0.51672357 0
4.0840001 -0.44471377 0.51696891 0
4.092 -0.45223925 0.51721424 0
4.1000004 -0.45979363 0.51745957 0
4.1070004 -0.46726319 0.51767421 0
4.1150002 -0.47487345 0.51791954 0
4.1230001 -0.48251259 0.51816487 0
4.131 -0.49018058 0.51841015 0
4.1389999 -0.49787739 0.51865548 0
4.1470003 -0.50560313 0.51890081 0
4.1550002 -0.51335764 0.51914608 0
4.1630001 -0.52114111 0.51939142 0
4.2780004 0.10089853 0.51592273 0
4.2710004 0.093650833 0.51572067 0
4.2639999 0.086428374 0.51551867 0
4.256 0.079198718 0.51528776 0
4.2490001 0.072028592 0.51508576 0
4.2420001 0.064883694 0.5148837 0
4.2350001 0.057764072 0.5146817 0
4.2280002 0.050669689 0.51447964 0
4.2210002 0.043600563 0.51427764 0
4.2140002 0.036556695 0.51407564 0
4.2070003 0.029538076 0.51387358 0
4.2000003 0.022544708 0.51367158 0
4.1930003 0.015576601 0.51346952 0
4.1860003 0.008633744 0.51326752 0
4.1790004 0.0017161407 0.51306546 0
4.1719999 -0.0051762126 0.51286346 0
4.165 -0.012043312 0.5126614 0
4.158 -0.018885154 0.5124594 0
4.152 -0.025696335 0.51228625 0
4.145 -0.032489479 0.51208419 0
4.138 -0.039257366 0.51188219 0
4.131 -0.046 0.51168013 0
4.125 -0.052719187 0.51150697 0
4.118 -0.05941312 0.51130497 0
4.1110001 -0.0660818 0.51110291 0
4.105 -0.072732434 0.51092976 0
4.1020002 -0.079388484 0.51084316 0
4.1090002 -0.086141944 0.51104522 0
4.1160002 -0.092920661 0.51124722 0
4.1230001 -0.099724621 0.51144928 0
4.0510001 -0.11844274 0.50937128 0
4.0420003 -0.12483363 0.50911152 0
4.0370002 -0.13128586 0.50896722 0
4.033 -0.13774529 0.50885177 0
4.0300002 -0.14421736 0.50876522 0
4.0290003 -0.15073632 0.50873631 0
4.0280004 -0.15725167 0.50870746 0
4.0280004 -0.16379589 0.50870746 0
4.0290003 -0.17037438 0.50873631 0
4.0310001 -0.17699255 0.50879407 0
4.0339999 -0.18365583 0.50888062 0
4.0380001 -0.19036959 0.50899607 0
4.0440001 -0.19718078 0.50916922 0
4.0510001 -0.2040569 0.50937128 0
4.0580001 -0.21095827 0.50957328 0
4.0650001 -0.2178849 0.50977534 0
4.072 -0.22483677 0.50997734 0
3.9120002 -0.22337928 0.50535959 0
3.9070003 -0.22945271 0.50521529 0
3.9010003 -0.23545398 0.50504214 0
3.8950002 -0.24143361 0.50486898 0
3.8890002 -0.24739158 0.50469577 0
3.8860002 -0.25350648 0.50460923 0
3.8930004 -0.26022387 0.50481123 0
3.9000003 -0.26696652 0.50501329 0
3.9070003 -0.27373439 0.50521529 0
3.9140003 -0.28052753 0.50541735 0
3.9210002 -0.28734592 0.50561935 0
3.9280002 -0.29418957 0.50582135 0
3.9350002 -0.3010585 0.50602341 0
3.9420002 -0.30795264 0.50622541 0
3.9500003 -0.31494781 0.50645632 0
3.9570003 -0.32189426 0.50665832 0
3.9640002 -0.328866 0.50686038 0
3.9710002 -0.33586296 0.50706238 0
3.9790003 -0.3429682 0.50729328 0
3.9860003 -0.35001746 0.50749528 0
3.9930003 -0.35709199 0.50769734 0
4.0009999 -0.36428016 0.50792825 0
4.0080004 -0.371407 0.50813025 0
4.0150003 -0.37855911 0.50833225 0
4.0230002 -0.38583025 0.50856316 0
4.0300002 -0.39303467 0.50876522 0
4.0380001 -0.40036175 0.50899607 0
4.046 -0.40771767 0.50922698 0
4.053 -0.41500145 0.50942898 0
4.0610003 -0.42241332 0.50965989 0
4.0690002 -0.42985398 0.50989079 0
4.0760002 -0.43721715 0.51009279 0
4.0840001 -0.44471377 0.5103237 0
4.092 -0.45223925 0.51055455 0
4.099 -0.45968178 0.51075661 0
4.1070004 -0.46726319 0.51098752 0
4.1150002 -0.47487345 0.51121837 0
4.1230001 -0.48251259 0.51144928 0
4.131 -0.49018058 0.51168013 0
4.1389999 -0.49787739 0.51191103 0
4.1470003 -0.50560313 0.51214194 0
4.1550002 -0.51335764 0.51237279 0
4.1630001 -0.52114111 0.5126037 0
4.2780004 0.10789371 0.50892752 0
4.27 0.10059549 0.5087111 0
4.263 0.093362212 0.50852168 0
4.256 0.086154193 0.50833225 0
4.2490001 0.078971446 0.50814289 0
4.2420001 0.071813926 0.50795346 0
4.2350001 0.064681679 0.5077641 0
4.2280002 0.057574671 0.50757468 0
4.2210002 0.050492916 0.50738525 0
4.2140002 0.043436419 0.50719589 0
4.2070003 0.036405172 0.50700647 0
4.2000003 0.029399183 0.5068171 0
4.1930003 0.022418443 0.50662768 0
4.1860003 0.015462961 0.50643826 0
4.1800003 0.0085471608 0.50627595 0
4.1730003 0.0016403794 0.50608653 0
4.1660004 -0.0052411482 0.50589716 0
4.1589999 -0.012097426 0.50570774 0
4.1530004 -0.01892123 0.50554538 0
4.1460004 -0.025728803 0.50535601 0
4.1389999 -0.032511123 0.50516659 0
4.132 -0.039268188 0.50497723 0
4.1259999 -0.046 0.50481486 0
4.119 -0.052708361 0.50462544 0
4.1129999 -0.059395079 0.50446308 0
4.1059999 -0.066054739 0.50427371 0
4.1000004 -0.072696365 0.50411135 0
4.1020002 -0.079388484 0.50416547 0
4.1090002 -0.086141944 0.50435489 0
4.1160002 -0.092920661 0.50454426 0
4.1230001 -0.099724621 0.50473368 0
4.0510001 -0.11844274 0.50278556 0
4.0430002 -0.12485528 0.50256908 0
4.0370002 -0.13128586 0.50240678 0
4.033 -0.13774529 0.50229853 0
4.0300002 -0.14421736 0.50221735 0
4.0290003 -0.15073632 0.50219029 0
4.0280004 -0.15725167 0.50216329 0
4.0280004 -0.16379589 0.50216329 0
4.0290003 -0.17037438 0.50219029 0
4.0310001 -0.17699255 0.50224441 0
4.0339999 -0.18365583 0.50232559 0
4.0380001 -0.19036959 0.50243384 0
4.0440001 -0.19718078 0.5025962 0
4.0510001 -0.2040569 0.50278556 0
4.0580001 -0.21095827 0.50297499 0
4.0650001 -0.2178849 0.50316435 0
4.072 -0.22483677 0.50335377 0
3.9120002 -0.22337928 0.49902463 0
3.9070003 -0.22945271 0.49888936 0
3.9010003 -0.23545398 0.49872699 0
3.8950002 -0.24143361 0.49856466 0
3.8890002 -0.24739158 0.49840233 0
3.8860002 -0.25350648 0.49832115 0
3.8930004 -0.26022387 0.49851054 0
3.9000003 -0.26696652 0.49869996 0
3.9070003 -0.27373439 0.49888936 0
3.9140003 -0.28052753 0.49907875 0
3.9210002 -0.28734592 0.49926814 0
3.9280002 -0.29418957 0.49945754 0
3.9350002 -0.3010585 0.49964696 0
3.9420002 -0.30795264 0.49983633 0
3.9500003 -0.31494781 0.50005281 0
3.9570003 -0.32189426 0.50024223 0
3.9640002 -0.328866 0.5004316 0
3.9710002 -0.33586296 0.50062102 0
3.9790003 -0.3429682 0.50083745 0
3.9860003 -0.35001746 0.50102687 0
3.9930003 -0.35709199 0.50121629 0
4.0009999 -0.36428016 0.50143272 0
4.0080004 -0.371407 0.50162214 0
4.0150003 -0.37855911 0.5018115 0
4.0230002 -0.38583025 0.50202799 0
4.0300002 -0.39303467 0.50221735 0
4.0380001 -0.40036175 0.50243384 0
4.046 -0.40771767 0.50265026 0
4.053 -0.41500145 0.50283968 0
4.0610003 -0.42241332 0.50305617 0
4.0680003 -0.4297494 0.50324553 0
4.0760002 -0.43721715 0.50346202 0
4.0840001 -0.44471377 0.50367844 0
4.092 -0.45223925 0.50389493 0
4.099 -0.45968178 0.50408429 0
4.1070004 -0.46726319 0.50430077 0
4.1150002 -0.47487345 0.5045172 0
4.1230001 -0.48251259 0.50473368 0
4.131 -0.49018058 0.50495017 0
4.1389999 -0.49787739 0.50516659 0
4.1470003 -0.50560313 0.50538307 0
4.1550002 -0.51335764 0.5055995 0
4.1630001 -0.52114111 0.50581598 0
4.2720003 0.1076556 0.50178087 0
4.2650003 0.1004061 0.50160408 0
4.2580004 0.093181834 0.50142729 0
4.2509999 0.085982829 0.50125051 0
4.244 0.078809097 0.50107378 0
4.237 0.071660608 0.50089699 0
4.23 0.064537361 0.5007202 0
4.223 0.057439383 0.50054342 0
4.2160001 0.050366651 0.50036669 0
4.2090001 0.043319169 0.5001899 0
4.2020001 0.036296953 0.50001311 0
4.1960001 0.029319819 0.4998616 0
4.1890001 0.022346299 0.49968484 0
4.1820002 0.015398026 0.49950805 0
4.1750002 0.0084750056 0.4993313 0
4.1690001 0.0015898719 0.49917975 0
4.1620002 -0.0052844435 0.49900299 0
4.1550002 -0.012133498 0.49882621 0
4.1490002 -0.018950092 0.49867469 0
4.1420002 -0.025750451 0.4984979 0
4.1350002 -0.032525554 0.49832115 0
4.1290002 -0.039273597 0.49816963 0
4.1220002 -0.046 0.49799284 0
4.1160002 -0.052702952 0.49784133 0
4.1090002 -0.059380651 0.49766457 0
4.1030002 -0.066038504 0.49751306 0
4.0960002 -0.072667502 0.49733627 0
4.1020002 -0.079388484 0.49748778 0
4.1090002 -0.086141944 0.49766457 0
4.1160002 -0.092920661 0.49784133 0
4.1230001 -0.099724621 0.49801812 0
4.1300001 -0.10655385 0.49819487 0
4.0510001 -0.11844274 0.49619988 0
4.0430002 -0.12485528 0.49599785 0
4.0370002 -0.13128586 0.49584633 0
4.033 -0.13774529 0.4957453 0
4.0300002 -0.14421736 0.49566954 0
4.0290003 -0.15073632 0.4956443 0
4.0280004 -0.15725167 0.49561906 0
4.0280004 -0.16379589 0.49561906 0
4.0290003 -0.17037438 0.4956443 0
4.0310001 -0.17699255 0.49569482 0
4.0339999 -0.18365583 0.49577057 0
4.0380001 -0.19036959 0.49587157 0
4.0440001 -0.19718078 0.49602309 0
4.0510001 -0.2040569 0.49619988 0
4.0580001 -0.21095827 0.49637663 0
4.0650001 -0.2178849 0.49655342 0
4.072 -0.22483677 0.49673018 0
3.9120002 -0.22337928 0.49268967 0
3.9070003 -0.22945271 0.4925634 0
3.9010003 -0.23545398 0.49241188 0
3.8950002 -0.24143361 0.49226034 0
3.8890002 -0.24739158 0.49210882 0
3.8860002 -0.25350648 0.49203306 0
3.8930004 -0.26022387 0.49220985 0
3.9000003 -0.26696652 0.49238661 0
3.9070003 -0.27373439 0.4925634 0
3.9140003 -0.28052753 0.49274015 0
3.9210002 -0.28734592 0.49291694 0
3.9280002 -0.29418957 0.4930937 0
3.9350002 -0.3010585 0.49327049 0
3.9420002 -0.30795264 0.49344724 0
3.9500003 -0.31494781 0.4936493 0
3.9570003 -0.32189426 0.49382606 0
3.9640002 -0.328866 0.49400282 0
3.9710002 -0.33586296 0.49417961 0
3.9790003 -0.3429682 0.49438164 0
3.9860003 -0.35001746 0.49455839 0
3.9930003 -0.35709199 0.49473518 0
4.0009999 -0.36428016 0.49493721 0
4.0080004 -0.371407 0.49511397 0
4.0150003 -0.37855911 0.49529076 0
4.0230002 -0.38583025 0.49549276 0
4.0300002 -0.39303467 0.49566954 0
4.0380001 -0.40036175 0.49587157 0
4.046 -0.40771767 0.4960736 0
4.053 -0.41500145 0.49625039 0
4.0610003 -0.42241332 0.49645239 0
4.0680003 -0.4297494 0.49662918 0
4.0760002 -0.43721715 0.49683121 0
4.0840001 -0.44471377 0.49703324 0
4.092 -0.45223925 0.49723524 0
4.099 -0.45968178 0.49741203 0
4.1070004 -0.46726319 0.49761406 0
4.1150002 -0.47487345 0.49781609 0
4.1230001 -0.48251259 0.49801812 0
4.131 -0.49018058 0.49822015 0
4.1389999 -0.49787739 0.49842215 0
4.1470003 -0.50560313 0.49862421 0
4.1550002 -0.51335764 0.49882621 0
4.1630001 -0.52114111 0.49902824 0
4.2690001 0.10753654 0.49472615 0
4.2620001 0.10029246 0.494562 0
4.2550001 0.093073621 0.49439788 0
4.2480001 0.085880026 0.49423373 0
4.2410002 0.078711689 0.49406958 0
4.2340002 0.071568608 0.49390543 0
4.2270002 0.064450786 0.49374127 0
4.2200003 0.057358209 0.49357712 0
4.2130003 0.050290894 0.49341297 0
4.2060003 0.043248829 0.49324885 0
4.2000003 0.036253657 0.49310815 0
4.1930003 0.029260296 0.492944 0
4.1860003 0.022292178 0.49277985 0
4.1790004 0.015349321 0.4926157 0
4.1719999 0.008431714 0.49245155 0
4.1660004 0.0015519932 0.49231085 0
4.1589999 -0.0053169094 0.4921467 0
4.152 -0.012160558 0.49198258 0
4.1460004 -0.018971737 0.49184188 0
4.1389999 -0.025766684 0.49167773 0
4.1330004 -0.032532766 0.49153703 0
4.1259999 -0.03927901 0.49137288 0
4.1200004 -0.046 0.49123219 0
4.1129999 -0.052697539 0.49106804 0
4.1070004 -0.059373435 0.49092734 0
4.1000004 -0.066022269 0.49076319 0
4.0950003 -0.072660282 0.49064595 0
4.1020002 -0.079388484 0.4908101 0
4.1090002 -0.086141944 0.49097425 0
4.1160002 -0.092920661 0.4911384 0
4.1230001 -0.099724621 0.49130252 0
4.1300001 -0.10655385 0.49146667 0
4.0510001 -0.11844274 0.48961416 0
4.0430002 -0.12485528 0.48942655 0
4.0370002 -0.13128586 0.48928589 0
4.033 -0.13774529 0.48919207 0
4.0300002 -0.14421736 0.48912174 0
4.0290003 -0.15073632 0.48909828 0
4.0280004 -0.15725167 0.48907483 0
4.0280004 -0.16379589 0.48907483 0
4.0290003 -0.17037438 0.48909828 0
4.0310001 -0.17699255 0.48914516 0
4.0339999 -0.18365583 0.48921552 0
4.0380001 -0.19036959 0.48930931 0
4.0440001 -0.19718078 0.48945004 0
4.0510001 -0.2040569 0.48961416 0
4.0580001 -0.21095827 0.48977831 0
4.0650001 -0.2178849 0.48994246 0
4.072 -0.22483677 0.49010661 0
3.9120002 -0.22337928 0.48635468 0
3.9070003 -0.22945271 0.48623744 0
3.9010003 -0.23545398 0.48609674 0
3.8950002 -0.24143361 0.48595604 0
3.8890002 -0.24739158 0.48581535 0
3.8860002 -0.25350648 0.48574498 0
3.8930004 -0.26022387 0.48590916 0
3.9000003 -0.26696652 0.48607329 0
3.9070003 -0.27373439 0.48623744 0
3.9140003 -0.28052753 0.48640159 0
3.9210002 -0.28734592 0.48656574 0
3.9280002 -0.29418957 0.48672986 0
3.9350002 -0.3010585 0.48689401 0
3.9420002 -0.30795264 0.48705816 0
3.9500003 -0.31494781 0.48724577 0
3.9570003 -0.32189426 0.48740992 0
3.9640002 -0.328866 0.48757404 0
3.9710002 -0.33586296 0.48773819 0
3.9790003 -0.3429682 0.4879258 0
3.9860003 -0.35001746 0.48808995 0
3.9930003 -0.35709199 0.4882541 0
4.0009999 -0.36428016 0.48844168 0
4.0080004 -0.371407 0.48860583 0
4.0150003 -0.37855911 0.48876998 0
4.0230002 -0.38583025 0.48895758 0
4.0300002 -0.39303467 0.48912174 0
4.0380001 -0.40036175 0.48930931 0
4.046 -0.40771767 0.48949692 0
4.053 -0.41500145 0.48966107 0
4.0610003 -0.42241332 0.48984867 0
4.0680003 -0.4297494 0.49001279 0
4.0760002 -0.43721715 0.4902004 0
4.0840001 -0.44471377 0.49038801 0
4.092 -0.45223925 0.49057561 0
4.099 -0.45968178 0.49073973 0
4.1070004 -0.46726319 0.49092734 0
4.1150002 -0.47487345 0.49111491 0
4.1230001 -0.48251259 0.49130252 0
4.131 -0.49018058 0.49149013 0
4.1389999 -0.49787739 0.49167773 0
4.1470003 -0.50560313 0.49186531 0
4.1550002 -0.51335764 0.49205291 0
4.1630001 -0.52114111 0.49224052 0
4.276 0.11480589 0.48789874 0
4.2670002 0.10745718 0.48770392 0
4.2600002 0.10021669 0.4875524 0
4.2530003 0.093001455 0.48740089 0
4.2470002 0.085845754 0.48727101 0
4.2400002 0.078679219 0.4871195 0
4.2330003 0.071537942 0.48696798 0
4.2260003 0.064421922 0.48681647 0
4.2190003 0.057331156 0.48666495 0
4.2120004 0.050265644 0.48651344 0
4.2049999 0.043225367 0.48636189 0
4.198 0.036210362 0.48621038 0
4.1920004 0.029240448 0.48608053 0
4.1849999 0.02227414 0.48592898 0
4.178 0.01533309 0.48577747 0
4.171 0.008417286 0.48562595 0
4.165 0.0015393645 0.48549607 0
4.158 -0.0053277351 0.48534453 0
4.152 -0.012160558 0.48521468 0
4.145 -0.018978953 0.48506317 0
4.138 -0.025772095 0.48491162 0
4.132 -0.032536376 0.48478174 0
4.125 -0.039280813 0.48463023 0
4.119 -0.046 0.48450038 0
4.112 -0.052695736 0.48434883 0
4.1059999 -0.059369825 0.48421896 0
4.099 -0.06601686 0.48406744 0
4.0950003 -0.072660282 0.48398086 0
4.1020002 -0.079388484 0.48413241 0
4.1090002 -0.086141944 0.48428392 0
4.1160002 -0.092920661 0.48443544 0
4.1230001 -0.099724621 0.48458695 0
4.1300001 -0.10655385 0.48473847 0
4.0510001 -0.11844274 0.48302847 0
4.0430002 -0.12485528 0.48285529 0
4.0370002 -0.13128586 0.48272541 0
4.033 -0.13774529 0.48263884 0
4.0300002 -0.14421736 0.4825739 0
4.0290003 -0.15073632 0.48255226 0
4.0280004 -0.15725167 0.48253059 0
4.0280004 -0.16379589 0.48253059 0
4.0290003 -0.17037438 0.48255226 0
4.0310001 -0.17699255 0.48259556 0
4.0339999 -0.18365583 0.48266047 0
4.0380001 -0.19036959 0.48274708 0
4.0440001 -0.19718078 0.48287696 0
4.0510001 -0.2040569 0.48302847 0
4.0580001 -0.21095827 0.48317999 0
4.0650001 -0.2178849 0.4833315 0
4.072 -0.22483677 0.48348302 0
3.9120002 -0.22337928 0.48001969 0
3.9070003 -0.22945271 0.47991148 0
3.9010003 -0.23545398 0.4797816 0
3.8950002 -0.24143361 0.47965175 0
3.8890002 -0.24739158 0.47952187 0
3.8860002 -0.25350648 0.4794569 0
3.8930004 -0.26022387 0.47960845 0
3.9000003 -0.26696652 0.47975996 0
3.9070003 -0.27373439 0.47991148 0
3.9140003 -0.28052753 0.48006299 0
3.9210002 -0.28734592 0.48021454 0
3.9280002 -0.29418957 0.48036605 0
3.9350002 -0.3010585 0.48051757 0
3.9420002 -0.30795264 0.48066908 0
3.9500003 -0.31494781 0.48084223 0
3.9570003 -0.32189426 0.48099375 0
3.9640002 -0.328866 0.48114529 0
3.9710002 -0.33586296 0.48129681 0
3.9790003 -0.3429682 0.48146996 0
3.9860003 -0.35001746 0.4816215 0
3.9930003 -0.35709199 0.48177302 0
4.0009999 -0.36428016 0.48194617 0
4.0080004 -0.371407 0.48209769 0
4.0150003 -0.37855911 0.48224923 0
4.0230002 -0.38583025 0.48242238 0
4.0300002 -0.39303467 0.4825739 0
4.0380001 -0.40036175 0.48274708 0
4.046 -0.40771767 0.48292023 0
4.053 -0.41500145 0.48307174 0
4.0610003 -0.42241332 0.48324493 0
4.0680003 -0.4297494 0.48339644 0
4.0760002 -0.43721715 0.48356959 0
4.0840001 -0.44471377 0.48374277 0
4.092 -0.45223925 0.48391593 0
4.099 -0.45968178 0.48406744 0
4.1070004 -0.46726319 0.48424062 0
4.1150002 -0.47487345 0.4844138 0
4.1230001 -0.48251259 0.48458695 0
4.131 -0.49018058 0.48476011 0
4.1389999 -0.49787739 0.48493329 0
4.1470003 -0.50560313 0.48510647 0
4.1550002 -0.51335764 0.48527962 0
4.1630001 -0.52114111 0.48545277 0
4.2750001 0.11476441 0.48088735 0
4.2670002 0.10745718 0.4807286 0
4.2600002 0.10021669 0.48058972 0
4.2530003 0.093001455 0.48045081 0
4.2460003 0.085811481 0.48031193 0
4.2390003 0.078646764 0.48017305 0
4.2320004 0.07150729 0.48003414 0
4.2260003 0.064421922 0.47991508 0
4.2190003 0.057331156 0.4797762 0
4.2120004 0.050265644 0.4796373 0
4.2049999 0.043225367 0.47949839 0
4.198 0.036210362 0.47935951 0
4.1920004 0.029240448 0.47924048 0
4.1849999 0.02227414 0.47910157 0
4.178 0.01533309 0.47896266 0
4.1719999 0.008431714 0.47884363 0
4.165 0.0015393645 0.47870472 0
4.158 -0.0053277351 0.47856584 0
4.152 -0.012160558 0.47844678 0
4.145 -0.018978953 0.4783079 0
4.1389999 -0.025766684 0.47818884 0
4.132 -0.032536376 0.47804993 0
4.1259999 -0.03927901 0.4779309 0
4.119 -0.046 0.47779199 0
4.1129999 -0.052697539 0.47767296 0
4.1059999 -0.059369825 0.47753406 0
4.1000004 -0.066022269 0.47741503 0
4.0950003 -0.072660282 0.47731578 0
4.1020002 -0.079388484 0.47745469 0
4.1090002 -0.086141944 0.4775936 0
4.1160002 -0.092920661 0.47773248 0
4.1230001 -0.099724621 0.47787136 0
4.1300001 -0.10655385 0.47801027 0
4.0510001 -0.11844274 0.47644275 0
4.0430002 -0.12485528 0.47628403 0
4.0370002 -0.13128586 0.47616497 0
4.033 -0.13774529 0.4760856 0
4.0300002 -0.14421736 0.47602606 0
4.0290003 -0.15073632 0.47600624 0
4.0280004 -0.15725167 0.47598639 0
4.0280004 -0.16379589 0.47598639 0
4.0290003 -0.17037438 0.47600624 0
4.0310001 -0.17699255 0.47604591 0
4.033 -0.18361793 0.4760856 0
4.0380001 -0.19036959 0.47618482 0
4.0440001 -0.19718078 0.47630388 0
4.0510001 -0.2040569 0.47644275 0
4.0580001 -0.21095827 0.47658163 0
4.0650001 -0.2178849 0.47672054 0
4.072 -0.22483677 0.47685945 0
3.9070003 -0.22945271 0.47358552 0
3.9010003 -0.23545398 0.47346646 0
3.8950002 -0.24143361 0.47334743 0
3.8890002 -0.24739158 0.47322837 0
3.8860002 -0.25350648 0.47316885 0
3.8930004 -0.26022387 0.47330773 0
3.9000003 -0.26696652 0.47344664 0
3.9070003 -0.27373439 0.47358552 0
3.9140003 -0.28052753 0.47372442 0
3.9210002 -0.28734592 0.4738633 0
3.9280002 -0.29418957 0.47400221 0
3.9350002 -0.3010585 0.47414109 0
3.9420002 -0.30795264 0.47428 0
3.9500003 -0.31494781 0.47443873 0
3.9570003 -0.32189426 0.47457761 0
3.9640002 -0.328866 0.47471651 0
3.9710002 -0.33586296 0.47485542 0
3.9790003 -0.3429682 0.47501415 0
3.9860003 -0.35001746 0.47515303 0
3.9930003 -0.35709199 0.47529194 0
4.0009999 -0.36428016 0.47545066 0
4.0080004 -0.371407 0.47558957 0
4.0150003 -0.37855911 0.47572845 0
4.0230002 -0.38583025 0.47588718 0
4.0300002 -0.39303467 0.47602606 0
4.0380001 -0.40036175 0.47618482 0
4.046 -0.40771767 0.47634354 0
4.053 -0.41500145 0.47648245 0
4.0610003 -0.42241332 0.47664118 0
4.0680003 -0.4297494 0.47678006 0
4.0760002 -0.43721715 0.47693878 0
4.0840001 -0.44471377 0.47709754 0
4.092 -0.45223925 0.47725627 0
4.099 -0.45968178 0.47739518 0
4.1070004 -0.46726319 0.4775539 0
4.1150002 -0.47487345 0.47771263 0
4.1230001 -0.48251259 0.47787136 0
4.131 -0.49018058 0.47803012 0
4.1389999 -0.49787739 0.47818884 0
4.1470003 -0.50560313 0.47834757 0
4.1550002 -0.51335764 0.47850633 0
4.1630001 -0.52114111 0.47866505 0
4.2750001 0.11476441 0.47389758 0
4.2670002 0.10745718 0.47375327 0
4.2610002 0.10025458 0.47364506 0
4.2540002 0.093037531 0.47351879 0
4.2470002 0.085845754 0.47339252 0
4.2400002 0.078679219 0.47326624 0
4.2330003 0.071537942 0.47314 0
4.2270002 0.064450786 0.47303176 0
4.2200003 0.057358209 0.47290549 0
4.2130003 0.050290894 0.47277921 0
4.2060003 0.043248829 0.47265297 0
4.2000003 0.036253657 0.47254473 0
4.1930003 0.029260296 0.47241846 0
4.1860003 0.022292178 0.47229218 0
4.1800003 0.015365552 0.47218397 0
4.1730003 0.0084461495 0.4720577 0
4.1660004 0.0015519932 0.47193143 0
4.1600003 -0.0053060874 0.47182322 0
4.1530004 -0.012151539 0.47169694 0
4.1470003 -0.018964522 0.4715887 0
4.1400003 -0.025761271 0.47146243 0
4.1340003 -0.03252916 0.47135422 0
4.1270003 -0.039277207 0.47122794 0
4.1210003 -0.046 0.4711197 0
4.1140003 -0.052699342 0.47099346 0
4.1080003 -0.059377041 0.47088522 0
4.1020002 -0.066033095 0.47077698 0
4.0950003 -0.072660282 0.47065073 0
4.1020002 -0.079388484 0.47077698 0
4.1090002 -0.086141944 0.47090325 0
4.1160002 -0.092920661 0.47102952 0
4.1230001 -0.099724621 0.47115579 0
4.1300001 -0.10655385 0.47128206 0
4.0510001 -0.11844274 0.46985704 0
4.0430002 -0.12485528 0.46971273 0
4.0370002 -0.13128586 0.46960452 0
4.033 -0.13774529 0.46953237 0
4.0300002 -0.14421736 0.46947825 0
4.0290003 -0.15073632 0.46946022 0
4.0280004 -0.15725167 0.46944219 0
4.0280004 -0.16379589 0.46944219 0
4.0290003 -0.17037438 0.46946022 0
4.0310001 -0.17699255 0.46949628 0
4.033 -0.18361793 0.46953237 0
4.0380001 -0.19036959 0.46962255 0
4.0440001 -0.19718078 0.46973079 0
4.0510001 -0.2040569 0.46985704 0
4.0580001 -0.21095827 0.46998331 0
4.0650001 -0.2178849 0.47010958 0
4.072 -0.22483677 0.47023585 0
3.9070003 -0.22945271 0.46725959 0
3.9010003 -0.23545398 0.46715134 0
3.8950002 -0.24143361 0.4670431 0
3.8890002 -0.24739158 0.46693489 0
3.8860002 -0.25350648 0.46688077 0
3.8930004 -0.26022387 0.46700704 0
3.9000003 -0.26696652 0.46713331 0
3.9070003 -0.27373439 0.46725959 0
3.9140003 -0.28052753 0.46738583 0
3.9210002 -0.28734592 0.4675121 0
3.9280002 -0.29418957 0.46763837 0
3.9350002 -0.3010585 0.46776465 0
3.9420002 -0.30795264 0.46789092 0
3.9500003 -0.31494781 0.46803522 0
3.9570003 -0.32189426 0.46816146 0
3.9640002 -0.328866 0.46828774 0
3.9710002 -0.33586296 0.46841401 0
3.9790003 -0.3429682 0.46855831 0
3.9860003 -0.35001746 0.46868458 0
3.9930003 -0.35709199 0.46881086 0
4.0009999 -0.36428016 0.46895516 0
4.0080004 -0.371407 0.4690814 0
4.0150003 -0.37855911 0.46920767 0
4.0230002 -0.38583025 0.46935201 0
4.0300002 -0.39303467 0.46947825 0
4.0380001 -0.40036175 0.46962255 0
4.046 -0.40771767 0.46976686 0
4.053 -0.41500145 0.46989313 0
4.0610003 -0.42241332 0.47003743 0
4.0680003 -0.4297494 0.4701637 0
4.0760002 -0.43721715 0.47030801 0
4.0840001 -0.44471377 0.47045231 0
4.092 -0.45223925 0.47059661 0
4.099 -0.45968178 0.47072288 0
4.1070004 -0.46726319 0.47086719 0
4.1150002 -0.47487345 0.47101149 0
4.1230001 -0.48251259 0.47115579 0
4.131 -0.49018058 0.4713001 0
4.1389999 -0.49787739 0.4714444 0
4.1470003 -0.50560313 0.4715887 0
4.1550002 -0.51335764 0.47173303 0
4.1630001 -0.52114111 0.47187731 0
4.2750001 0.11476441 0.46690783 0
4.2670002 0.10745718 0.46677795 0
4.2610002 0.10025458 0.46668056 0
4.257 0.093145758 0.46661562 0
4.25 0.085948572 0.46650195 0
4.243 0.078776628 0.46638834 0
4.2360001 0.071629941 0.46627468 0
4.23 0.064537361 0.46617728 0
4.223 0.057439383 0.46606365 0
4.2160001 0.050366651 0.46595001 0
4.2090001 0.043319169 0.46583638 0
4.2030001 0.036318589 0.46573895 0
4.1960001 0.029319819 0.46562532 0
4.1890001 0.022346299 0.46551168 0
4.1820002 0.015398026 0.46539804 0
4.1760001 0.0084894411 0.46530062 0
4.1690001 0.0015898719 0.46518698 0
4.1630001 -0.0052736178 0.46508959 0
4.1560001 -0.012124483 0.46497595 0
4.1500001 -0.018942876 0.46487856 0
4.1430001 -0.025745036 0.46476489 0
4.1370001 -0.032518338 0.4646675 0
4.1300001 -0.039271794 0.46455386 0
4.1240001 -0.046 0.46445644 0
4.1170001 -0.052704755 0.4643428 0
4.1110001 -0.059387863 0.46424541 0
4.1040001 -0.066043913 0.46413177 0
4.098 -0.072681934 0.46403435 0
4.1020002 -0.079388484 0.46409929 0
4.1090002 -0.086141944 0.46421292 0
4.1160002 -0.092920661 0.46432656 0
4.1230001 -0.099724621 0.46444023 0
4.0510001 -0.11844274 0.46327135 0
4.0430002 -0.12485528 0.46314147 0
4.0370002 -0.13128586 0.46304408 0
4.033 -0.13774529 0.46297914 0
4.0300002 -0.14421736 0.46293044 0
4.0290003 -0.15073632 0.4629142 0
4.0280004 -0.15725167 0.46289796 0
4.0280004 -0.16379589 0.46289796 0
4.0290003 -0.17037438 0.4629142 0
4.0310001 -0.17699255 0.46294665 0
4.033 -0.18361793 0.46297914 0
4.0380001 -0.19036959 0.46306029 0
4.0440001 -0.19718078 0.46315771 0
4.0510001 -0.2040569 0.46327135 0
4.0580001 -0.21095827 0.46338499 0
4.0650001 -0.2178849 0.46349862 0
4.072 -0.22483677 0.46361226 0
3.9070003 -0.22945271 0.46093363 0
3.9010003 -0.23545398 0.4608362 0
3.8950002 -0.24143361 0.46073881 0
3.8890002 -0.24739158 0.46064138 0
3.8860002 -0.25350648 0.46059269 0
3.8930004 -0.26022387 0.46070632 0
3.9000003 -0.26696652 0.46081996 0
3.9070003 -0.27373439 0.46093363 0
3.9140003 -0.28052753 0.46104726 0
3.9210002 -0.28734592 0.4611609 0
3.9280002 -0.29418957 0.46127453 0
3.9350002 -0.3010585 0.46138817 0
3.9420002 -0.30795264 0.46150181 0
3.9500003 -0.31494781 0.46163169 0
3.9570003 -0.32189426 0.46174532 0
3.9640002 -0.328866 0.46185896 0
3.9710002 -0.33586296 0.46197259 0
3.9790003 -0.3429682 0.46210247 0
3.9860003 -0.35001746 0.46221611 0
3.9930003 -0.35709199 0.46232975 0
4.0009999 -0.36428016 0.46245962 0
4.0080004 -0.371407 0.46257329 0
4.0150003 -0.37855911 0.46268693 0
4.0230002 -0.38583025 0.46281677 0
4.0300002 -0.39303467 0.46293044 0
4.0380001 -0.40036175 0.46306029 0
4.046 -0.40771767 0.46319017 0
4.053 -0.41500145 0.4633038 0
4.0610003 -0.42241332 0.46343368 0
4.0680003 -0.4297494 0.46354732 0
4.0760002 -0.43721715 0.4636772 0
4.0840001 -0.44471377 0.46380708 0
4.092 -0.45223925 0.46393695 0
4.099 -0.45968178 0.46405059 0
4.1070004 -0.46726319 0.46418047 0
4.1150002 -0.47487345 0.46431035 0
4.1230001 -0.48251259 0.46444023 0
4.131 -0.49018058 0.46457011 0
4.1389999 -0.49787739 0.46469995 0
4.1470003 -0.50560313 0.46482983 0
4.1550002 -0.51335764 0.46495971 0
4.1630001 -0.52114111 0.46508959 0
4.2750001 0.11476441 0.45991808 0
4.2670002 0.10745718 0.45980263 0
4.2610002 0.10025458 0.45971605 0
4.2580004 0.093181834 0.45967275 0
4.2550001 0.086119935 0.45962948 0
4.2480001 0.078938976 0.45952845 0
4.2410002 0.071783274 0.45942742 0
4.2340002 0.064652815 0.45932642 0
4.2270002 0.05754761 0.45922542 0
4.2210002 0.050492916 0.45913881 0
4.2140002 0.043436419 0.45903781 0
4.2070003 0.036405172 0.45893681 0
4.2000003 0.029399183 0.45883578 0
4.1940002 0.022436488 0.4587492 0
4.1870003 0.015479192 0.4586482 0
4.1800003 0.0085471608 0.45854717 0
4.1740003 0.0016530044 0.4584606 0
4.1670003 -0.0052303262 0.45835957 0
4.1610003 -0.012079388 0.45827299 0
4.1540003 -0.018914016 0.45817199 0
4.1480002 -0.025717981 0.45808539 0
4.1410003 -0.032503907 0.45798439 0
4.1350002 -0.039262775 0.45789781 0
4.1280003 -0.046 0.45779678 0
4.1220002 -0.052713774 0.45771021 0
4.1150002 -0.059402294 0.45760921 0
4.1090002 -0.066070974 0.4575226 0
4.1030002 -0.072718009 0.45743603 0
4.1020002 -0.079388484 0.4574216 0
4.1090002 -0.086141944 0.4575226 0
4.1160002 -0.092920661 0.45762363 0
4.1230001 -0.099724621 0.45772463 0
4.0510001 -0.11844274 0.45668566 0
4.0430002 -0.12485528 0.45657021 0
4.0370002 -0.13128586 0.4564836 0
4.033 -0.13774529 0.45642591 0
4.0300002 -0.14421736 0.4563826 0
4.0290003 -0.15073632 0.45636818 0
4.0280004 -0.15725167 0.45635375 0
4.0280004 -0.16379589 0.45635375 0
4.0290003 -0.17037438 0.45636818 0
4.0310001 -0.17699255 0.45639703 0
4.033 -0.18361793 0.45642591 0
4.0380001 -0.19036959 0.45649806 0
4.0440001 -0.19718078 0.45658463 0
4.0510001 -0.2040569 0.45668566 0
4.0580001 -0.21095827 0.45678666 0
4.0650001 -0.2178849 0.45688766 0
4.072 -0.22483677 0.45698869 0
3.9070003 -0.22945271 0.45460767 0
3.9010003 -0.23545398 0.45452106 0
3.8950002 -0.24143361 0.45443448 0
3.8890002 -0.24739158 0.45434791 0
3.8860002 -0.25350648 0.45430461 0
3.8930004 -0.26022387 0.45440564 0
3.9000003 -0.26696652 0.45450664 0
3.9070003 -0.27373439 0.45460767 0
3.9140003 -0.28052753 0.45470867 0
3.9210002 -0.28734592 0.4548097 0
3.9280002 -0.29418957 0.4549107 0
3.9350002 -0.3010585 0.45501173 0
3.9420002 -0.30795264 0.45511273 0
3.9500003 -0.31494781 0.45522818 0
3.9570003 -0.32189426 0.45532918 0
3.9640002 -0.328866 0.45543021 0
3.9710002 -0.33586296 0.45553121 0
3.9790003 -0.3429682 0.45564666 0
3.9860003 -0.35001746 0.45574766 0
3.9930003 -0.35709199 0.45584869 0
4.0009999 -0.36428016 0.45596412 0
4.0080004 -0.371407 0.45606515 0
4.0150003 -0.37855911 0.45616615 0
4.0230002 -0.38583025 0.4562816 0
4.0300002 -0.39303467 0.4563826 0
4.0380001 -0.40036175 0.45649806 0
4.046 -0.40771767 0.45661348 0
4.053 -0.41500145 0.45671451 0
4.0610003 -0.42241332 0.45682997 0
4.0680003 -0.4297494 0.45693097 0
4.0760002 -0.43721715 0.45704639 0
4.0840001 -0.44471377 0.45716184 0
4.092 -0.45223925 0.4572773 0
4.099 -0.45968178 0.4573783 0
4.1070004 -0.46726319 0.45749375 0
4.1150002 -0.47487345 0.45760921 0
4.1230001 -0.48251259 0.45772463 0
4.131 -0.49018058 0.45784009 0
4.1389999 -0.49787739 0.45795554 0
4.1470003 -0.50560313 0.45807096 0
4.1550002 -0.51335764 0.45818642 0
4.1630001 -0.52114111 0.45830184 0
4.276 0.11480589 0.45294094 0
4.2670002 0.10745718 0.4528273 0
4.2610002 0.10025458 0.45275155 0
4.2580004 0.093181834 0.45271367 0
4.2550001 0.086119935 0.45267579 0
4.2540002 0.079133779 0.45266315 0
4.2470002 0.071967259 0.45257476 0
4.2400002 0.064825982 0.45248637 0
4.2340002 0.057737011 0.45241061 0
4.2270002 0.050644439 0.45232224 0
4.2200003 0.043577116 0.45223385 0
4.2130003 0.036535051 0.45214546 0
4.2070003 0.029538076 0.4520697 0
4.2000003 0.022544708 0.45198131 0
4.1930003 0.015576601 0.45189291 0
4.1870003 0.0086481757 0.45181715 0
4.1800003 0.0017287657 0.45172879 0
4.1740003 -0.005154565 0.451653 0
4.1670003 -0.012025271 0.45156464 0
4.1610003 -0.018863508 0.45148888 0
4.1540003 -0.025685512 0.45140049 0
4.1480002 -0.032478653 0.45132473 0
4.1410003 -0.039251953 0.45123634 0
4.1350002 -0.046 0.45116058 0
4.1280003 -0.052724596 0.45107219 0
4.1220002 -0.059427548 0.45099643 0
4.1160002 -0.066108853 0.45092067 0
4.1090002 -0.072761297 0.45083228 0
4.1030002 -0.079397507 0.45075652 0
4.1090002 -0.086141944 0.45083228 0
4.1160002 -0.092920661 0.45092067 0
4.1230001 -0.099724621 0.45100906 0
4.0510001 -0.11844274 0.45009995 0
4.0430002 -0.12485528 0.44999892 0
4.0370002 -0.13128586 0.44992316 0
4.033 -0.13774529 0.44987267 0
4.0300002 -0.14421736 0.44983476 0
4.0290003 -0.15073632 0.44982216 0
4.0280004 -0.15725167 0.44980952 0
4.0280004 -0.16379589 0.44980952 0
4.0290003 -0.17037438 0.44982216 0
4.0310001 -0.17699255 0.4498474 0
4.033 -0.18361793 0.44987267 0
4.0380001 -0.19036959 0.44993579 0
4.0440001 -0.19718078 0.45001155 0
4.0510001 -0.2040569 0.45009995 0
4.0580001 -0.21095827 0.45018834 0
4.0650001 -0.2178849 0.4502767 0
3.9070003 -0.22945271 0.44828171 0
3.9010003 -0.23545398 0.44820595 0
3.8950002 -0.24143361 0.44813019 0
3.8890002 -0.24739158 0.44805443 0
3.8860002 -0.25350648 0.44801655 0
3.8930004 -0.26022387 0.44810492 0
3.9000003 -0.26696652 0.44819331 0
3.9070003 -0.27373439 0.44828171 0
3.9140003 -0.28052753 0.4483701 0
3.9210002 -0.28734592 0.44845846 0
3.9280002 -0.29418957 0.44854686 0
3.9350002 -0.3010585 0.44863525 0
3.9420002 -0.30795264 0.44872364 0
3.9490004 -0.31487206 0.44881201 0
3.9570003 -0.32189426 0.44891304 0
3.9640002 -0.328866 0.44900143 0
3.9710002 -0.33586296 0.44908983 0
3.9790003 -0.3429682 0.44919083 0
3.9860003 -0.35001746 0.44927922 0
3.9930003 -0.35709199 0.44936758 0
4.0009999 -0.36428016 0.44946861 0
4.0080004 -0.371407 0.44955701 0
4.0150003 -0.37855911 0.44964537 0
4.0230002 -0.38583025 0.4497464 0
4.0300002 -0.39303467 0.44983476 0
4.0380001 -0.40036175 0.44993579 0
4.046 -0.40771767 0.45003682 0
4.053 -0.41500145 0.45012519 0
4.0610003 -0.42241332 0.45022622 0
4.0680003 -0.4297494 0.45031458 0
4.0760002 -0.43721715 0.45041561 0
4.0840001 -0.44471377 0.45051661 0
4.092 -0.45223925 0.45061764 0
4.099 -0.45968178 0.45070601 0
4.1070004 -0.46726319 0.45080703 0
4.1150002 -0.47487345 0.45090804 0
4.1230001 -0.48251259 0.45100906 0
4.131 -0.49018058 0.45111006 0
4.1389999 -0.49787739 0.45121109 0
4.1470003 -0.50560313 0.45131209 0
4.1550002 -0.51335764 0.45141309 0
4.1630001 -0.52114111 0.45151412 0
4.276 0.11480589 0.44594938 0
4.2670002 0.10745718 0.44585198 0
4.2610002 0.10025458 0.44578704 0
4.2580004 0.093181834 0.44575456 0
4.2550001 0.086119935 0.4457221 0
4.2540002 0.079133779 0.44571128 0
4.2530003 0.072151244 0.44570047 0
4.25 0.065114588 0.44566798 0
4.243 0.057980526 0.44559222 0
4.2360001 0.050871719 0.44551647 0
4.2290001 0.043788169 0.44544071 0
4.223 0.036751505 0.44537577 0
4.2160001 0.029716652 0.44530001 0
4.2090001 0.022707056 0.44522426 0
4.2030001 0.015738942 0.44515932 0
4.1960001 0.0087780505 0.44508356 0
4.1900001 0.0018550307 0.44501862 0
4.1830001 -0.0050571598 0.44494286 0
4.1760001 -0.0119441 0.4448671 0
4.1700001 -0.018798571 0.44480217 0
4.1630001 -0.025636809 0.44472641 0
4.1570001 -0.032446183 0.44466147 0
4.151 -0.039233916 0.44459653 0
4.1440001 -0.046 0.44452077 0
4.138 -0.052742634 0.44445583 0
4.131 -0.059460018 0.44438007 0
4.125 -0.066157557 0.44431514 0
4.119 -0.072833449 0.4442502 0
4.112 -0.079478681 0.44417444 0
4.1090002 -0.086141944 0.44414195 0
4.1160002 -0.092920661 0.44421771 0
4.0510001 -0.11844274 0.44351423 0
4.0430002 -0.12485528 0.44342765 0
4.0370002 -0.13128586 0.44336271 0
4.033 -0.13774529 0.44331944 0
4.0300002 -0.14421736 0.44328696 0
4.0290003 -0.15073632 0.44327614 0
4.0280004 -0.15725167 0.44326532 0
4.0280004 -0.16379589 0.44326532 0
4.0290003 -0.17037438 0.44327614 0
4.0310001 -0.17699255 0.44329777 0
4.033 -0.18361793 0.44331944 0
4.0380001 -0.19036959 0.44337353 0
4.0440001 -0.19718078 0.44343847 0
4.0510001 -0.2040569 0.44351423 0
4.0580001 -0.21095827 0.44358999 0
4.0650001 -0.2178849 0.44366574 0
3.9070003 -0.22945271 0.44195575 0
3.9010003 -0.23545398 0.44189081 0
3.8950002 -0.24143361 0.44182587 0
3.8890002 -0.24739158 0.44176093 0
3.8860002 -0.25350648 0.44172847 0
3.8930004 -0.26022387 0.44180423 0
3.9000003 -0.26696652 0.44187999 0
3.9070003 -0.27373439 0.44195575 0
3.9140003 -0.28052753 0.4420315 0
3.9210002 -0.28734592 0.44210726 0
3.9280002 -0.29418957 0.44218302 0
3.9350002 -0.3010585 0.44225878 0
3.9420002 -0.30795264 0.44233453 0
3.9490004 -0.31487206 0.44241032 0
3.9570003 -0.32189426 0.4424969 0
3.9640002 -0.328866 0.44257265 0
3.9710002 -0.33586296 0.44264841 0
3.9780002 -0.34288517 0.44272417 0
3.9860003 -0.35001746 0.44281074 0
3.9930003 -0.35709199 0.4428865 0
4.0009999 -0.36428016 0.44297311 0
4.0080004 -0.371407 0.44304886 0
4.0150003 -0.37855911 0.44312462 0
4.0230002 -0.38583025 0.4432112 0
4.0300002 -0.39303467 0.44328696 0
4.0380001 -0.40036175 0.44337353 0
4.046 -0.40771767 0.44346011 0
4.053 -0.41500145 0.44353589 0
4.0610003 -0.42241332 0.44362247 0
4.0680003 -0.4297494 0.44369823 0
4.0760002 -0.43721715 0.4437848 0
4.0840001 -0.44471377 0.44387138 0
4.092 -0.45223925 0.44395798 0
4.099 -0.45968178 0.44403374 0
4.1070004 -0.46726319 0.44412032 0
4.1150002 -0.47487345 0.44420689 0
4.1230001 -0.48251259 0.4442935 0
4.131 -0.49018058 0.44438007 0
4.1389999 -0.49787739 0.44446665 0
4.1470003 -0.50560313 0.44455323 0
4.1550002 -0.51335764 0.4446398 0
4.1630001 -0.52114111 0.44472641 0
4.276 0.11480589 0.43895781 0
4.2670002 0.10745718 0.43887666 0
4.2610002 0.10025458 0.43882254 0
4.2580004 0.093181834 0.43879548 0
4.2550001 0.086119935 0.43876842 0
4.2540002 0.079133779 0.43875939 0
4.2530003 0.072151244 0.43875039 0
4.2540002 0.065230027 0.43875939 0
4.256 0.058332268 0.43877745 0
4.25 0.051225264 0.43872333 0
4.244 0.044139903 0.4386692 0
4.237 0.03705455 0.43860608 0
4.1270003 -0.079613969 0.43761399 0
4.0510001 -0.11844274 0.43692854 0
4.0430002 -0.12485528 0.43685639 0
4.0370002 -0.13128586 0.43680227 0
4.033 -0.13774529 0.43676621 0
4.0300002 -0.14421736 0.43673915 0
4.0290003 -0.15073632 0.43673012 0
4.0280004 -0.15725167 0.43672109 0
4.0280004 -0.16379589 0.43672109 0
4.0290003 -0.17037438 0.43673012 0
4.0310001 -0.17699255 0.43674815 0
4.033 -0.18361793 0.43676621 0
4.0380001 -0.19036959 0.4368113 0
4.0440001 -0.19718078 0.43686539 0
4.0510001 -0.2040569 0.43692854 0
4.0580001 -0.21095827 0.43699166 0
3.9070003 -0.22945271 0.43562979 0
3.9010003 -0.23545398 0.43557566 0
3.8950002 -0.24143361 0.43552157 0
3.8890002 -0.24739158 0.43546745 0
3.8860002 -0.25350648 0.43544039 0
3.8930004 -0.26022387 0.43550354 0
3.9000003 -0.26696652 0.43556666 0
3.9070003 -0.27373439 0.43562979 0
3.9140003 -0.28052753 0.43569294 0
3.9210002 -0.28734592 0.43575606 0
3.9280002 -0.29418957 0.43581921 0
3.9350002 -0.3010585 0.43588233 0
3.9420002 -0.30795264 0.43594545 0
3.9490004 -0.31487206 0.4360086 0
3.9570003 -0.32189426 0.43608075 0
3.9640002 -0.328866 0.43614388 0
3.9710002 -0.33586296 0.436207 0
3.9780002 -0.34288517 0.43627015 0
3.9860003 -0.35001746 0.4363423 0
3.9930003 -0.35709199 0.43640542 0
4.0009999 -0.36428016 0.43647757 0
4.0080004 -0.371407 0.43654072 0
4.0150003 -0.37855911 0.43660384 0
4.0230002 -0.38583025 0.436676 0
4.0300002 -0.39303467 0.43673915 0
4.0380001 -0.40036175 0.4368113 0
4.046 -0.40771767 0.43688345 0
4.053 -0.41500145 0.43694657 0
4.0610003 -0.42241332 0.43701872 0
4.0680003 -0.4297494 0.43708184 0
4.0760002 -0.43721715 0.437154 0
4.0840001 -0.44471377 0.43722618 0
4.092 -0.45223925 0.4372983 0
4.099 -0.45968178 0.43736145 0
4.1070004 -0.46726319 0.4374336 0
4.1150002 -0.47487345 0.43750575 0
4.1230001 -0.48251259 0.4375779 0
4.131 -0.49018058 0.43765005 0
4.1389999 -0.49787739 0.43772221 0
4.1470003 -0.50560313 0.43779436 0
4.1550002 -0.51335764 0.43786651 0
4.1630001 -0.52114111 0.43793866 0
4.276 0.11480589 0.43196625 0
4.2670002 0.10745718 0.43190131 0
4.2610002 0.10025458 0.43185803 0
4.2580004 0.093181834 0.4318364 0
4.2550001 0.086119935 0.43181473 0
4.2540002 0.079133779 0.43180752 0
4.2530003 0.072151244 0.43180031 0
4.2540002 0.065230027 0.43180752 0
4.256 0.058332268 0.43182194 0
4.2590003 0.051452544 0.43184361 0
4.263 0.044585448 0.43187246 0
4.0510001 -0.11844274 0.43034282 0
4.0430002 -0.12485528 0.4302851 0
4.0370002 -0.13128586 0.43024182 0
4.033 -0.13774529 0.43021294 0
4.0300002 -0.14421736 0.43019131 0
4.0290003 -0.15073632 0.4301841 0
4.0280004 -0.15725167 0.43017688 0
4.0280004 -0.16379589 0.43017688 0
4.0290003 -0.17037438 0.4301841 0
4.0310001 -0.17699255 0.43019852 0
4.033 -0.18361793 0.43021294 0
4.0380001 -0.19036959 0.43024904 0
4.0440001 -0.19718078 0.43029231 0
4.0510001 -0.2040569 0.43034282 0
3.9070003 -0.22945271 0.42930382 0
3.9010003 -0.23545398 0.42926055 0
3.8950002 -0.24143361 0.42921725 0
3.8890002 -0.24739158 0.42917395 0
3.8860002 -0.25350648 0.42915231 0
3.8930004 -0.26022387 0.42920282 0
3.9000003 -0.26696652 0.42925334 0
3.9070003 -0.27373439 0.42930382 0
3.9140003 -0.28052753 0.42935434 0
3.9210002 -0.28734592 0.42940485 0
3.9280002 -0.29418957 0.42945534 0
3.9350002 -0.3010585 0.42950585 0
3.9420002 -0.30795264 0.42955637 0
3.9490004 -0.31487206 0.42960688 0
3.9570003 -0.32189426 0.42966461 0
3.9640002 -0.328866 0.4297151 0
3.9710002 -0.33586296 0.42976561 0
3.9780002 -0.34288517 0.42981613 0
3.9860003 -0.35001746 0.42987382 0
3.9930003 -0.35709199 0.42992434 0
4.0009999 -0.36428016 0.42998207 0
4.0080004 -0.371407 0.43003258 0
4.0150003 -0.37855911 0.4300831 0
4.0230002 -0.38583025 0.43014079 0
4.0300002 -0.39303467 0.43019131 0
4.0380001 -0.40036175 0.43024904 0
4.046 -0.40771767 0.43030676 0
4.053 -0.41500145 0.43035725 0
4.0610003 -0.42241332 0.43041497 0
4.0680003 -0.4297494 0.43046549 0
4.0760002 -0.43721715 0.43052322 0
4.0840001 -0.44471377 0.43058094 0
4.092 -0.45223925 0.43063864 0
4.099 -0.45968178 0.43068916 0
4.1070004 -0.46726319 0.43074688 0
4.1150002 -0.47487345 0.43080461 0
4.1230001 -0.48251259 0.43086234 0
4.131 -0.49018058 0.43092003 0
4.1389999 -0.49787739 0.43097776 0
4.1470003 -0.50560313 0.43103549 0
4.1550002 -0.51335764 0.43109322 0
4.1630001 -0.52114111 0.43115094 0
4.276 0.11480589 0.42497468 0
4.2670002 0.10745718 0.42492598 0
4.2610002 0.10025458 0.42489353 0
4.2580004 0.093181834 0.42487729 0
4.2550001 0.086119935 0.42486104 0
4.2540002 0.079133779 0.42485565 0
4.2530003 0.072151244 0.42485023 0
4.2540002 0.065230027 0.42485565 0
4.256 0.058332268 0.42486647 0
4.2590003 0.051452544 0.42488271 0
4.263 0.044585448 0.42490435 0
4.1290002 0.0010848045 0.42417923 0
4.1230001 -0.0057065301 0.42414674 0
4.1160002 -0.012485243 0.42410886 0
4.1100001 -0.019231485 0.42407641 0
4.1030002 -0.025961496 0.42403853 0
4.0970001 -0.032662641 0.42400604 0
4.0900002 -0.039343949 0.42396817 0
4.0840001 -0.046 0.42393571 0
4.052 -0.078937538 0.42376253 0
4.046 -0.085460111 0.42373008 0
4.039 -0.091948405 0.4236922 0
4.033 -0.09842588 0.42365971 0
4.027 -0.10488171 0.42362726 0
4.0210004 -0.11131589 0.42359477 0
4.0150003 -0.11772844 0.42356232 0
4.0080004 -0.12409769 0.42352444 0
4.0020003 -0.13046513 0.42349195 0
3.9960003 -0.13681091 0.4234595 0
3.9900002 -0.14313507 0.42342702 0
3.9840002 -0.14943758 0.42339456 0
3.9780002 -0.15571843 0.42336208 0
3.9360003 -0.1990784 0.4231348 0
3.9300003 -0.20518608 0.42310235 0
3.9240003 -0.21127214 0.42306986 0
3.9180002 -0.21733652 0.42303741 0
3.9120002 -0.22337928 0.42300493 0
3.9070003 -0.22945271 0.42297789 0
3.9010003 -0.23545398 0.42294541 0
3.8950002 -0.24143361 0.42291296 0
3.8890002 -0.24739158 0.42288047 0
3.8860002 -0.25350648 0.42286423 0
3.8930004 -0.26022387 0.42290211 0
3.9000003 -0.26696652 0.42294002 0
3.9070003 -0.27373439 0.42297789 0
3.9140003 -0.28052753 0.42301577 0
3.9210002 -0.28734592 0.42305365 0
3.9280002 -0.29418957 0.42309153 0
3.9350002 -0.3010585 0.42312941 0
3.9420002 -0.30795264 0.42316729 0
3.9490004 -0.31487206 0.42320517 0
3.9570003 -0.32189426 0.42324844 0
3.9640002 -0.328866 0.42328632 0
3.9710002 -0.33586296 0.4233242 0
3.9780002 -0.34288517 0.42336208 0
3.9860003 -0.35001746 0.42340538 0
3.9930003 -0.35709199 0.42344326 0
4.0009999 -0.36428016 0.42348656 0
4.0080004 -0.371407 0.42352444 0
4.0150003 -0.37855911 0.42356232 0
4.0230002 -0.38583025 0.42360562 0
4.0300002 -0.39303467 0.42364347 0
4.0380001 -0.40036175 0.42368677 0
4.046 -0.40771767 0.42373008 0
4.053 -0.41500145 0.42376795 0
4.0610003 -0.42241332 0.42381123 0
4.0680003 -0.4297494 0.42384911 0
4.0760002 -0.43721715 0.42389241 0
4.0840001 -0.44471377 0.42393571 0
4.092 -0.45223925 0.42397898 0
4.099 -0.45968178 0.42401686 0
4.1070004 -0.46726319 0.42406017 0
4.1150002 -0.47487345 0.42410347 0
4.1230001 -0.48251259 0.42414674 0
4.131 -0.49018058 0.42419004 0
4.1389999 -0.49787739 0.42423332 0
4.1470003 -0.50560313 0.42427662 0
4.1550002 -0.51335764 0.42431992 0
4.1630001 -0.52114111 0.4243632 0
4.276 0.11480589 0.41798314 0
4.2670002 0.10745718 0.41795066 0
4.2610002 0.10025458 0.41792902 0
4.2580004 0.093181834 0.41791821 0
4.2550001 0.086119935 0.41790739 0
4.2540002 0.079133779 0.41790378 0
4.2530003 0.072151244 0.41790015 0
4.2540002 0.065230027 0.41790378 0
4.256 0.058332268 0.41791099 0
4.2590003 0.051452544 0.41792181 0
4.263 0.044585448 0.41793624 0
4.1360002 0.0079122186 0.41747805 0
4.1290002 0.0010848045 0.41745281 0
4.1230001 -0.0057065301 0.41743118 0
4.1160002 -0.012485243 0.4174059 0
4.1100001 -0.019231485 0.41738427 0
4.1030002 -0.025961496 0.41735902 0
4.0970001 -0.032662641 0.41733736 0
4.0900002 -0.039343949 0.41731212 0
4.0840001 -0.046 0.41729048 0
4.0770001 -0.052632604 0.41726521 0
4.0710001 -0.05924356 0.41724357 0
4.0650001 -0.065832868 0.41722193 0
4.0580001 -0.072393321 0.41719666 0
4.052 -0.078937538 0.41717502 0
4.046 -0.085460111 0.41715339 0
4.039 -0.091948405 0.41712815 0
4.033 -0.09842588 0.41710648 0
4.027 -0.10488171 0.41708484 0
4.0210004 -0.11131589 0.41706321 0
4.0150003 -0.11772844 0.41704154 0
4.0080004 -0.12409769 0.4170163 0
4.0020003 -0.13046513 0.41699466 0
3.9960003 -0.13681091 0.41697299 0
3.9900002 -0.14313507 0.41695136 0
