# .PCD v0.7 - Point Cloud Data file format
VERSION 0.7
FIELDS x y z intensity
SIZE 4 4 4 4
TYPE F F F F
COUNT 1 1 1 1
WIDTH 1442
HEIGHT 1
VIEWPOINT 0 0 0 1 0 0 0
POINTS 1442
DATA ascii
4.8420005 1.6446409 0.13157445 0
4.8470001 1.6385223 0.13126785 0
4.8530002 1.6327628 0.13089985 0
4.8580003 1.6266065 0.13059318 0
4.8630004 1.620432 0.13028654 0
4.8680005 1.6142396 0.12997988 0
4.8740001 1.6083987 0.12961194 0
4.8790002 1.6021683 0.12930527 0
4.8840003 1.59592 0.12899864 0
4.8900003 1.590018 0.12863067 0
4.8950005 1.5837318 0.12832397 0
4.9010005 1.5777882 0.127956 0
4.9060001 1.5714639 0.1276494 0
4.9110003 1.5651218 0.12734273 0
4.9170003 1.559117 0.12697476 0
4.9220004 1.5527369 0.1266681 0
4.9280005 1.5466906 0.12630013 0
4.9330001 1.5402725 0.12599352 0
4.9390001 1.5341846 0.12562552 0
4.9440002 1.5277288 0.12531886 0
4.9500003 1.5215995 0.12495089 0
4.9550004 1.5151058 0.12464422 0
4.9610004 1.508935 0.12427625 0
4.9660001 1.5024034 0.12396961 0
4.9720001 1.496191 0.12360165 0
4.9770002 1.4896216 0.12329498 0
4.9830003 1.4833678 0.12292701 0
4.9890003 1.4770924 0.12255904 0
4.9940004 1.4704653 0.12225237 0
5.0000005 1.4641483 0.12188441 0
5.0060005 1.4578098 0.12151641 0
5.0110002 1.4511247 0.1212098 0
5.0170002 1.4447446 0.12084183 0
5.0230002 1.4383429 0.12047383 0
5.0280004 1.4316003 0.1201672 0
5.0340004 1.4251572 0.1197992 0
5.0400004 1.4186924 0.11943123 0
5.0450006 1.4118921 0.11912456 0
5.0510001 1.4053855 0.11875662 0
5.0570002 1.3988576 0.11838865 0
5.0630002 1.392308 0.11802065 0
5.0690002 1.3857367 0.11765268 0
5.0740004 1.378839 0.11734602 0
5.0800004 1.3722262 0.11697805 0
5.0860004 1.3655919 0.11661008 0
5.0920005 1.3589358 0.11624208 0
5.0980005 1.3522581 0.11587411 0
5.1040001 1.3455586 0.11550614 0
5.1100001 1.3388376 0.11513817 0
5.1150002 1.3318028 0.11483154 0
5.1210003 1.3250403 0.11446354 0
5.1270003 1.3182563 0.11409557 0
5.1330004 1.3114505 0.11372757 0
5.1390004 1.304623 0.1133596 0
5.1450005 1.297774 0.1129916 0
4.3380003 2.2199836 0.15538113 0
4.3429999 2.2157481 0.15506546 0
4.3470001 2.2109232 0.15481293 0
4.3510003 2.2060835 0.1545604 0
4.355 2.2012293 0.15430787 0
4.3590002 2.1963608 0.15405533 0
4.3630004 2.191478 0.15380278 0
4.368 2.1871436 0.15348712 0
4.3720002 2.1822298 0.1532346 0
4.3759999 2.1773019 0.15298206 0
4.3800001 2.1723595 0.15272954 0
4.3840003 2.1674025 0.152477 0
4.3889999 2.1629851 0.15216133 0
4.3930001 2.1579974 0.15190879 0
4.3970003 2.1529956 0.15165627 0
4.4010005 2.1479793 0.1514037 0
4.4060001 2.1434948 0.15108806 0
4.4100003 2.1384478 0.15083554 0
4.4140005 2.1333864 0.15058297 0
4.4190001 2.1288517 0.15026733 0
4.4230003 2.1237595 0.15001479 0
4.4270005 2.1186531 0.14976227 0
4.4320002 2.1140676 0.14944661 0
4.4360003 2.1089303 0.14919406 0
4.4400001 2.1037786 0.14894155 0
4.4450002 2.0991428 0.14862588 0
4.4490004 2.0939605 0.14837334 0
4.4530001 2.0887635 0.14812082 0
4.4580002 2.0840774 0.14780515 0
4.4620004 2.07885 0.14755258 0
4.4660001 2.0736079 0.14730009 0
4.4710002 2.0688713 0.1469844 0
4.4750004 2.0635989 0.14673185 0
4.4800005 2.0588279 0.14641619 0
4.4840002 2.0535245 0.14616367 0
4.4890003 2.0487194 0.14584801 0
4.4930005 2.0433855 0.14559543 0
4.4980001 2.0385456 0.14527979 0
4.5020003 2.0331812 0.14502728 0
4.5070004 2.0283074 0.14471158 0
4.5110002 2.022912 0.14445907 0
4.5160003 2.0180039 0.1441434 0
4.5200005 2.0125782 0.14389086 0
4.5250001 2.0076356 0.14357522 0
4.5290003 2.0021791 0.14332268 0
4.5340004 1.9972024 0.14300698 0
4.5380001 1.991715 0.14275447 0
4.5430002 1.9867041 0.1424388 0
4.5470004 1.9811864 0.14218628 0
4.5520005 1.9761415 0.14187059 0
4.5570002 1.9710779 0.14155495 0
4.5610003 1.9655132 0.14130241 0
4.5660005 1.9604158 0.14098671 0
4.5700002 1.9548199 0.14073423 0
4.5750003 1.9496882 0.14041856 0
4.5800004 1.9445384 0.14010286 0
4.5840001 1.9388959 0.13985035 0
4.5890002 1.933712 0.13953468 0
4.5940003 1.9285098 0.13921899 0
4.5980005 1.9228207 0.13896647 0
4.6030002 1.9175841 0.13865083 0
4.6080003 1.9123297 0.13833514 0
4.6130004 1.9070572 0.13801944 0
4.6170001 1.9013047 0.13776696 0
4.6220002 1.8959979 0.13745129 0
4.6270003 1.8906732 0.1371356 0
4.6320004 1.8853302 0.13681993 0
4.6360002 1.8795148 0.13656741 0
4.6410003 1.8741376 0.13625172 0
4.6460004 1.8687426 0.13593605 0
4.6510005 1.8633294 0.13562039 0
4.6560001 1.8578979 0.13530475 0
4.6600003 1.8520032 0.1350522 0
4.6650004 1.8465376 0.13473654 0
4.6700001 1.841054 0.1344209 0
4.6750002 1.8355522 0.13410521 0
4.6800003 1.8300327 0.13378954 0
4.6850004 1.8244951 0.13347387 0
4.6900005 1.8189394 0.13315821 0
4.6950002 1.8133656 0.13284257 0
4.6990004 1.8073426 0.13259 0
4.7040005 1.8017346 0.13227433 0
4.7090001 1.7961085 0.13195869 0
4.7140002 1.7904643 0.131643 0
4.7190003 1.7848023 0.13132733 0
4.7240005 1.7791221 0.13101166 0
4.7290001 1.7734237 0.13069603 0
4.7340002 1.7677075 0.13038036 0
4.7390003 1.7619733 0.13006467 0
4.7440004 1.7562209 0.129749 0
4.7490001 1.7504505 0.12943336 0
4.7540002 1.744662 0.1291177 0
4.7590003 1.7388556 0.12880203 0
4.7640004 1.7330313 0.12848634 0
4.7700005 1.7275945 0.12810755 0
4.7750001 1.721732 0.12779188 0
4.7800002 1.7158517 0.12747622 0
4.7850003 1.7099532 0.12716055 0
4.7900004 1.7040367 0.12684488 0
4.7950001 1.6981021 0.12652922 0
4.8000002 1.6921496 0.12621355 0
4.8050003 1.686179 0.12589788 0
4.8110003 1.6805818 0.12551907 0
4.8160005 1.6745734 0.1252034 0
4.8210001 1.6685467 0.12488776 0
4.8260002 1.6625022 0.1245721 0
4.8310003 1.6564397 0.1242564 0
4.8370004 1.6507413 0.12387761 0
4.8420005 1.6446409 0.12356192 0
4.8470001 1.6385223 0.12324628 0
4.8530002 1.6327628 0.12286749 0
4.8580003 1.6266065 0.12255183 0
4.8630004 1.620432 0.12223613 0
4.8680005 1.6142396 0.12192047 0
4.8740001 1.6083987 0.12154171 0
4.8790002 1.6021683 0.12122604 0
4.8840003 1.59592 0.12091035 0
4.8900003 1.590018 0.12053156 0
4.8950005 1.5837318 0.12021586 0
4.9010005 1.5777882 0.11983708 0
4.9060001 1.5714639 0.11952141 0
4.9110003 1.5651218 0.11920574 0
4.9170003 1.559117 0.11882696 0
4.9220004 1.5527369 0.11851129 0
4.9280005 1.5466906 0.11813247 0
4.9330001 1.5402725 0.11781684 0
4.9390001 1.5341846 0.11743802 0
4.9440002 1.5277288 0.11712235 0
4.9500003 1.5215995 0.11674356 0
4.9550004 1.5151058 0.11642787 0
4.9610004 1.508935 0.11604908 0
4.9660001 1.5024034 0.11573344 0
4.9720001 1.496191 0.11535463 0
4.9770002 1.4896216 0.11503896 0
4.9830003 1.4833678 0.11466017 0
4.9890003 1.4770924 0.11428136 0
4.9940004 1.4704653 0.11396569 0
5.0000005 1.4641483 0.11358687 0
5.0060005 1.4578098 0.11320806 0
5.0110002 1.4511247 0.11289242 0
5.0170002 1.4447446 0.11251363 0
5.0230002 1.4383429 0.11213481 0
5.0280004 1.4316003 0.11181915 0
5.0340004 1.4251572 0.11144033 0
5.0400004 1.4186924 0.11106154 0
5.0450006 1.4118921 0.11074588 0
5.0510001 1.4053855 0.11036709 0
5.0570002 1.3988576 0.1099883 0
5.0630002 1.392308 0.10960951 0
5.0690002 1.3857367 0.1092307 0
5.0740004 1.378839 0.10891503 0
5.0800004 1.3722262 0.10853621 0
5.0860004 1.3655919 0.10815743 0
5.0920005 1.3589358 0.10777861 0
5.0980005 1.3522581 0.10739982 0
5.1040001 1.3455586 0.10702103 0
5.1100001 1.3388376 0.10664222 0
5.1150002 1.3318028 0.10632655 0
5.1210003 1.3250403 0.10594776 0
5.1270003 1.3182563 0.10556898 0
5.1330004 1.3114505 0.10519016 0
5.1390004 1.304623 0.10481137 0
5.1450005 1.297774 0.10443255 0
4.3380003 2.2199836 0.14827773 0
4.3429999 2.2157481 0.14795306 0
4.3470001 2.2109232 0.14769328 0
4.3510003 2.2060835 0.14743355 0
4.355 2.2012293 0.14717379 0
4.3590002 2.1963608 0.14691406 0
4.3630004 2.191478 0.14665428 0
4.368 2.1871436 0.14632961 0
4.3720002 2.1822298 0.14606988 0
4.3759999 2.1773019 0.14581013 0
4.3800001 2.1723595 0.14555037 0
4.3840003 2.1674025 0.14529061 0
4.3889999 2.1629851 0.14496595 0
4.3930001 2.1579974 0.14470616 0
4.3970003 2.1529956 0.14444643 0
4.4010005 2.1479793 0.14418668 0
4.4060001 2.1434948 0.14386201 0
4.4100003 2.1384478 0.14360225 0
4.4140005 2.1333864 0.14334249 0
4.4190001 2.1288517 0.14301783 0
4.4230003 2.1237595 0.14275807 0
4.4270005 2.1186531 0.14249831 0
4.4320002 2.1140676 0.14217365 0
4.4360003 2.1089303 0.14191389 0
4.4400001 2.1037786 0.14165416 0
4.4450002 2.0991428 0.14132947 0
4.4490004 2.0939605 0.14106971 0
4.4530001 2.0887635 0.14080995 0
4.4580002 2.0840774 0.14048529 0
4.4620004 2.07885 0.14022553 0
4.4660001 2.0736079 0.13996577 0
4.4710002 2.0688713 0.13964111 0
4.4750004 2.0635989 0.13938135 0
4.4800005 2.0588279 0.13905662 0
4.4840002 2.0535245 0.13879693 0
4.4890003 2.0487194 0.13847223 0
4.4930005 2.0433855 0.13821244 0
4.4980001 2.0385456 0.13788781 0
4.5020003 2.0331812 0.13762805 0
4.5070004 2.0283074 0.13730332 0
4.5110002 2.022912 0.13704363 0
4.5160003 2.0180039 0.13671893 0
4.5200005 2.0125782 0.13645917 0
4.5250001 2.0076356 0.13613451 0
4.5290003 2.0021791 0.13587475 0
4.5340004 1.9972024 0.13555005 0
4.5380001 1.991715 0.13529032 0
4.5430002 1.9867041 0.13496563 0
4.5470004 1.9811864 0.13470587 0
4.5520005 1.9761415 0.13438118 0
4.5570002 1.9710779 0.13405651 0
4.5610003 1.9655132 0.13379675 0
4.5660005 1.9604158 0.13347206 0
4.5700002 1.9548199 0.13321236 0
4.5750003 1.9496882 0.13288763 0
4.5800004 1.9445384 0.13256294 0
4.5840001 1.9388959 0.13230324 0
4.5890002 1.933712 0.13197854 0
4.5940003 1.9285098 0.13165382 0
4.5980005 1.9228207 0.13139406 0
4.6030002 1.9175841 0.13106942 0
4.6080003 1.9123297 0.13074473 0
4.6130004 1.9070572 0.13042 0
4.6170001 1.9013047 0.1301603 0
4.6220002 1.8959979 0.12983561 0
4.6270003 1.8906732 0.12951091 0
4.6320004 1.8853302 0.12918621 0
4.6360002 1.8795148 0.12892649 0
4.6410003 1.8741376 0.12860179 0
4.6460004 1.8687426 0.12827709 0
4.6510005 1.8633294 0.1279524 0
4.6560001 1.8578979 0.12762773 0
4.6600003 1.8520032 0.12736797 0
4.6650004 1.8465376 0.12704331 0
4.6700001 1.841054 0.12671861 0
4.6750002 1.8355522 0.12639391 0
4.6800003 1.8300327 0.12606925 0
4.6850004 1.8244951 0.12574455 0
4.6900005 1.8189394 0.12541986 0
4.6950002 1.8133656 0.12509522 0
4.6990004 1.8073426 0.12483543 0
4.7040005 1.8017346 0.12451074 0
4.7090001 1.7961085 0.1241861 0
4.7140002 1.7904643 0.1238614 0
4.7190003 1.7848023 0.12353671 0
4.7240005 1.7791221 0.12321198 0
4.7290001 1.7734237 0.12288734 0
4.7340002 1.7677075 0.12256265 0
4.7390003 1.7619733 0.12223795 0
4.7440004 1.7562209 0.12191325 0
4.7490001 1.7504505 0.12158862 0
4.7540002 1.744662 0.12126389 0
4.7590003 1.7388556 0.1209392 0
4.7640004 1.7330313 0.12061453 0
4.7700005 1.7275945 0.12022489 0
4.7750001 1.721732 0.11990023 0
4.7800002 1.7158517 0.11957553 0
4.7850003 1.7099532 0.11925083 0
4.7900004 1.7040367 0.11892617 0
4.7950001 1.6981021 0.1186015 0
4.8000002 1.6921496 0.11827677 0
4.8050003 1.686179 0.11795211 0
4.8110003 1.6805818 0.11756247 0
4.8160005 1.6745734 0.11723778 0
4.8210001 1.6685467 0.11691311 0
4.8260002 1.6625022 0.11658844 0
4.8310003 1.6564397 0.11626375 0
4.8370004 1.6507413 0.11587411 0
4.8420005 1.6446409 0.11554942 0
4.8470001 1.6385223 0.11522478 0
4.8530002 1.6327628 0.11483514 0
4.8580003 1.6266065 0.11451045 0
4.8630004 1.620432 0.11418575 0
4.8680005 1.6142396 0.11386105 0
4.8740001 1.6083987 0.11347148 0
4.8790002 1.6021683 0.11314678 0
4.8840003 1.59592 0.11282206 0
4.8900003 1.590018 0.11243245 0
4.8950005 1.5837318 0.11210775 0
4.9010005 1.5777882 0.11171815 0
4.9060001 1.5714639 0.11139345 0
4.9110003 1.5651218 0.11106876 0
4.9170003 1.559117 0.11067918 0
4.9220004 1.5527369 0.11035445 0
4.9280005 1.5466906 0.10996485 0
4.9330001 1.5402725 0.10964015 0
4.9390001 1.5341846 0.10925055 0
4.9440002 1.5277288 0.10892585 0
4.9500003 1.5215995 0.10853624 0
4.9550004 1.5151058 0.10821155 0
4.9610004 1.508935 0.10782191 0
4.9660001 1.5024034 0.10749725 0
4.9720001 1.496191 0.10710764 0
4.9770002 1.4896216 0.10678294 0
4.9830003 1.4833678 0.10639331 0
4.9890003 1.4770924 0.10600367 0
4.9940004 1.4704653 0.10567898 0
5.0000005 1.4641483 0.10528937 0
5.0060005 1.4578098 0.10489973 0
5.0110002 1.4511247 0.10457507 0
5.0170002 1.4447446 0.10418543 0
5.0230002 1.4383429 0.10379583 0
5.0280004 1.4316003 0.10347113 0
5.0340004 1.4251572 0.10308152 0
5.0400004 1.4186924 0.10269189 0
5.0450006 1.4118921 0.10236719 0
5.0510001 1.4053855 0.10197759 0
5.0570002 1.3988576 0.10158795 0
5.0630002 1.392308 0.10119832 0
5.0690002 1.3857367 0.10080874 0
5.0740004 1.378839 0.10048401 0
5.0800004 1.3722262 0.10009441 0
5.0860004 1.3655919 0.099704772 0
5.0920005 1.3589358 0.099315137 0
5.0980005 1.3522581 0.098925501 0
5.1040001 1.3455586 0.098535925 0
5.1100001 1.3388376 0.098146319 0
5.1150002 1.3318028 0.097821623 0
5.1210003 1.3250403 0.097431988 0
5.1270003 1.3182563 0.097042352 0
5.1330004 1.3114505 0.096652716 0
5.1390004 1.304623 0.096263111 0
5.1450005 1.297774 0.095873505 0
4.3380003 2.2199836 0.14117432 0
4.3429999 2.2157481 0.14084062 0
4.3470001 2.2109232 0.14057365 0
4.3510003 2.2060835 0.14030668 0
4.355 2.2012293 0.14003974 0
4.3590002 2.1963608 0.13977277 0
4.3630004 2.191478 0.1395058 0
4.368 2.1871436 0.13917211 0
4.3720002 2.1822298 0.13890514 0
4.3759999 2.1773019 0.1386382 0
4.3800001 2.1723595 0.1383712 0
4.3840003 2.1674025 0.13810426 0
4.3889999 2.1629851 0.13777056 0
4.3930001 2.1579974 0.13750356 0
4.3970003 2.1529956 0.13723662 0
4.4010005 2.1479793 0.13696963 0
4.4060001 2.1434948 0.13663596 0
4.4100003 2.1384478 0.13636899 0
4.4140005 2.1333864 0.13610199 0
4.4190001 2.1288517 0.13576832 0
4.4230003 2.1237595 0.13550135 0
4.4270005 2.1186531 0.13523436 0
4.4320002 2.1140676 0.13490069 0
4.4360003 2.1089303 0.13463372 0
4.4400001 2.1037786 0.13436678 0
4.4450002 2.0991428 0.13403305 0
4.4490004 2.0939605 0.13376608 0
4.4530001 2.0887635 0.13349915 0
4.4580002 2.0840774 0.13316545 0
4.4620004 2.07885 0.13289845 0
4.4660001 2.0736079 0.13263151 0
4.4710002 2.0688713 0.13229781 0
4.4750004 2.0635989 0.13203081 0
4.4800005 2.0588279 0.13169709 0
4.4840002 2.0535245 0.13143018 0
4.4890003 2.0487194 0.13109645 0
4.4930005 2.0433855 0.13082948 0
4.4980001 2.0385456 0.13049579 0
4.5020003 2.0331812 0.13022885 0
4.5070004 2.0283074 0.12989509 0
4.5110002 2.022912 0.12962818 0
4.5160003 2.0180039 0.12929446 0
4.5200005 2.0125782 0.12902746 0
4.5250001 2.0076356 0.12869379 0
4.5290003 2.0021791 0.12842682 0
4.5340004 1.9972024 0.12809312 0
4.5380001 1.991715 0.12782615 0
4.5430002 1.9867041 0.12749246 0
4.5470004 1.9811864 0.12722549 0
4.5520005 1.9761415 0.12689176 0
4.5570002 1.9710779 0.12655807 0
4.5610003 1.9655132 0.1262911 0
4.5660005 1.9604158 0.1259574 0
4.5700002 1.9548199 0.12569043 0
4.5750003 1.9496882 0.12535673 0
4.5800004 1.9445384 0.12502304 0
4.5840001 1.9388959 0.1247561 0
4.5890002 1.933712 0.12442237 0
4.5940003 1.9285098 0.12408864 0
4.5980005 1.9228207 0.12382168 0
4.6030002 1.9175841 0.12348801 0
4.6080003 1.9123297 0.12315428 0
4.6130004 1.9070572 0.12282059 0
4.6170001 1.9013047 0.12255362 0
4.6220002 1.8959979 0.12221992 0
4.6270003 1.8906732 0.12188622 0
4.6320004 1.8853302 0.1215525 0
4.6360002 1.8795148 0.12128556 0
4.6410003 1.8741376 0.12095183 0
4.6460004 1.8687426 0.12061813 0
4.6510005 1.8633294 0.12028441 0
4.6560001 1.8578979 0.11995074 0
4.6600003 1.8520032 0.11968374 0
4.6650004 1.8465376 0.11935005 0
4.6700001 1.841054 0.11901635 0
4.6750002 1.8355522 0.11868265 0
4.6800003 1.8300327 0.11834896 0
4.6850004 1.8244951 0.11801523 0
4.6900005 1.8189394 0.11768153 0
4.6950002 1.8133656 0.11734784 0
4.6990004 1.8073426 0.11708087 0
4.7040005 1.8017346 0.11674714 0
4.7090001 1.7961085 0.11641347 0
4.7140002 1.7904643 0.11607975 0
4.7190003 1.7848023 0.11574605 0
4.7240005 1.7791221 0.11541235 0
4.7290001 1.7734237 0.11507866 0
4.7340002 1.7677075 0.11474493 0
4.7390003 1.7619733 0.11441121 0
4.7440004 1.7562209 0.11407751 0
4.7490001 1.7504505 0.11374384 0
4.7540002 1.744662 0.11341012 0
4.7590003 1.7388556 0.11307642 0
4.7640004 1.7330313 0.11274269 0
4.7700005 1.7275945 0.11234224 0
4.7750001 1.721732 0.11200857 0
4.7800002 1.7158517 0.11167488 0
4.7850003 1.7099532 0.11134115 0
4.7900004 1.7040367 0.11100745 0
4.7950001 1.6981021 0.11067376 0
4.8000002 1.6921496 0.11034003 0
4.8050003 1.686179 0.11000633 0
4.8110003 1.6805818 0.10960588 0
4.8160005 1.6745734 0.10927218 0
4.8210001 1.6685467 0.10893849 0
4.8260002 1.6625022 0.10860476 0
4.8310003 1.6564397 0.10827106 0
4.8370004 1.6507413 0.10787061 0
4.8420005 1.6446409 0.10753688 0
4.8470001 1.6385223 0.10720322 0
4.8530002 1.6327628 0.10680279 0
4.8580003 1.6266065 0.10646904 0
4.8630004 1.620432 0.10613534 0
4.8680005 1.6142396 0.10580164 0
4.8740001 1.6083987 0.10540122 0
4.8790002 1.6021683 0.10506749 0
4.8840003 1.59592 0.10473379 0
4.8900003 1.590018 0.10433337 0
4.8950005 1.5837318 0.10399964 0
4.9010005 1.5777882 0.10359919 0
4.9060001 1.5714639 0.10326552 0
4.9110003 1.5651218 0.1029318 0
4.9170003 1.559117 0.10253134 0
4.9220004 1.5527369 0.10219765 0
4.9280005 1.5466906 0.10179719 0
4.9330001 1.5402725 0.10146353 0
4.9390001 1.5341846 0.10106304 0
4.9440002 1.5277288 0.10072935 0
4.9500003 1.5215995 0.10032889 0
4.9550004 1.5151058 0.099995196 0
4.9610004 1.508935 0.099594742 0
4.9660001 1.5024034 0.099261045 0
4.9720001 1.496191 0.098860621 0
4.9770002 1.4896216 0.098526895 0
4.9830003 1.4833678 0.098126441 0
4.9890003 1.4770924 0.097725987 0
4.9940004 1.4704653 0.097392291 0
5.0000005 1.4641483 0.096991837 0
5.0060005 1.4578098 0.096591413 0
5.0110002 1.4511247 0.096257716 0
5.0170002 1.4447446 0.095857263 0
5.0230002 1.4383429 0.095456809 0
5.0280004 1.4316003 0.095123112 0
5.0340004 1.4251572 0.094722658 0
5.0400004 1.4186924 0.094322205 0
5.0450006 1.4118921 0.093988478 0
5.0510001 1.4053855 0.093588084 0
5.0570002 1.3988576 0.09318763 0
5.0630002 1.392308 0.092787176 0
5.0690002 1.3857367 0.092386723 0
5.0740004 1.378839 0.092053026 0
5.0800004 1.3722262 0.091652602 0
5.0860004 1.3655919 0.091252118 0
5.0920005 1.3589358 0.090851665 0
5.0980005 1.3522581 0.090451211 0
5.1040001 1.3455586 0.090050817 0
5.1100001 1.3388376 0.089650363 0
5.1160002 1.332095 0.089249909 0
5.1210003 1.3250403 0.088916212 0
5.1270003 1.3182563 0.088515759 0
5.1330004 1.3114505 0.088115305 0
5.1390004 1.304623 0.087714851 0
5.1450005 1.297774 0.087314397 0
4.3380003 2.2199836 0.13407093 0
4.3429999 2.2157481 0.13372824 0
4.3470001 2.2109232 0.13345402 0
4.3510003 2.2060835 0.13317987 0
4.355 2.2012293 0.13290566 0
4.3590002 2.1963608 0.13263151 0
4.3630004 2.191478 0.1323573 0
4.368 2.1871436 0.13201457 0
4.3720002 2.1822298 0.13174042 0
4.3759999 2.1773019 0.13146624 0
4.3800001 2.1723595 0.13119206 0
4.3840003 2.1674025 0.13091788 0
4.3889999 2.1629851 0.13057518 0
4.3930001 2.1579974 0.13030097 0
4.3970003 2.1529956 0.13002682 0
4.4010005 2.1479793 0.12975261 0
4.4060001 2.1434948 0.12940991 0
4.4100003 2.1384478 0.12913573 0
4.4140005 2.1333864 0.12886152 0
4.4190001 2.1288517 0.12851882 0
4.4230003 2.1237595 0.12824464 0
4.4270005 2.1186531 0.12797043 0
4.4320002 2.1140676 0.12762773 0
4.4360003 2.1089303 0.12735355 0
4.4400001 2.1037786 0.12707937 0
4.4450002 2.0991428 0.12673664 0
4.4490004 2.0939605 0.12646246 0
4.4530001 2.0887635 0.12618831 0
4.4580002 2.0840774 0.12584555 0
4.4620004 2.07885 0.12557137 0
4.4660001 2.0736079 0.12529722 0
4.4710002 2.0688713 0.12495449 0
4.4750004 2.0635989 0.12468031 0
4.4800005 2.0588279 0.12433758 0
4.4840002 2.0535245 0.12406343 0
4.4890003 2.0487194 0.12372068 0
4.4930005 2.0433855 0.12344649 0
4.4980001 2.0385456 0.1231038 0
4.5020003 2.0331812 0.12282962 0
4.5070004 2.0283074 0.12248689 0
4.5110002 2.022912 0.12221271 0
4.5160003 2.0180039 0.12186998 0
4.5200005 2.0125782 0.1215958 0
4.5250001 2.0076356 0.12125307 0
4.5290003 2.0021791 0.12097889 0
4.5340004 1.9972024 0.12063617 0
4.5380001 1.991715 0.12036201 0
4.5430002 1.9867041 0.12001926 0
4.5470004 1.9811864 0.11974508 0
4.5520005 1.9761415 0.11940235 0
4.5570002 1.9710779 0.11905965 0
4.5610003 1.9655132 0.11878547 0
4.5660005 1.9604158 0.11844271 0
4.5700002 1.9548199 0.11816856 0
4.5750003 1.9496882 0.11782584 0
4.5800004 1.9445384 0.11748311 0
4.5840001 1.9388959 0.11720893 0
4.5890002 1.933712 0.1168662 0
4.5940003 1.9285098 0.11652347 0
4.5980005 1.9228207 0.11624929 0
4.6030002 1.9175841 0.1159066 0
4.6080003 1.9123297 0.11556387 0
4.6130004 1.9070572 0.11522114 0
4.6170001 1.9013047 0.11494696 0
4.6220002 1.8959979 0.11460423 0
4.6270003 1.8906732 0.11426151 0
4.6320004 1.8853302 0.11391878 0
4.6360002 1.8795148 0.11364463 0
4.6410003 1.8741376 0.1133019 0
4.6460004 1.8687426 0.11295918 0
4.6510005 1.8633294 0.11261645 0
4.6560001 1.8578979 0.11227372 0
4.6600003 1.8520032 0.11199954 0
4.6650004 1.8465376 0.11165681 0
4.6700001 1.841054 0.11131412 0
4.6750002 1.8355522 0.11097139 0
4.6800003 1.8300327 0.11062863 0
4.6850004 1.8244951 0.11028591 0
4.6900005 1.8189394 0.10994318 0
4.6950002 1.8133656 0.10960048 0
4.6990004 1.8073426 0.10932627 0
4.7040005 1.8017346 0.10898355 0
4.7090001 1.7961085 0.10864085 0
4.7140002 1.7904643 0.10829812 0
4.7190003 1.7848023 0.1079554 0
4.7240005 1.7791221 0.10761267 0
4.7290001 1.7734237 0.10726997 0
4.7340002 1.7677075 0.10692725 0
4.7390003 1.7619733 0.10658452 0
4.7440004 1.7562209 0.10624179 0
4.7490001 1.7504505 0.1058991 0
4.7540002 1.744662 0.10555637 0
4.7590003 1.7388556 0.10521361 0
4.7640004 1.7330313 0.10487089 0
4.7700005 1.7275945 0.10445961 0
4.7750001 1.721732 0.10411692 0
4.7800002 1.7158517 0.10377419 0
4.7850003 1.7099532 0.10343146 0
4.7900004 1.7040367 0.10308874 0
4.7950001 1.6981021 0.10274604 0
4.8000002 1.6921496 0.10240328 0
4.8050003 1.686179 0.10206056 0
4.8110003 1.6805818 0.10164928 0
4.8160005 1.6745734 0.10130656 0
4.8210001 1.6685467 0.10096386 0
4.8260002 1.6625022 0.10062113 0
4.8310003 1.6564397 0.10027841 0
4.8370004 1.6507413 0.099867105 0
4.8420005 1.6446409 0.099524379 0
4.8470001 1.6385223 0.099181682 0
4.8530002 1.6327628 0.09877041 0
4.8580003 1.6266065 0.098427683 0
4.8630004 1.620432 0.098084956 0
4.8680005 1.6142396 0.09774223 0
4.8740001 1.6083987 0.097330987 0
4.8790002 1.6021683 0.096988261 0
4.8840003 1.59592 0.096645504 0
4.8900003 1.590018 0.096234262 0
4.8950005 1.5837318 0.095891535 0
4.9010005 1.5777882 0.095480263 0
4.9060001 1.5714639 0.095137566 0
4.9110003 1.5651218 0.09479484 0
4.9170003 1.559117 0.094383538 0
4.9220004 1.5527369 0.094040811 0
4.9280005 1.5466906 0.093629539 0
4.9330001 1.5402725 0.093286842 0
4.9390001 1.5341846 0.0928756 0
4.9440002 1.5277288 0.092532843 0
4.9500003 1.5215995 0.092121571 0
4.9550004 1.5151058 0.091778845 0
4.9610004 1.508935 0.091367573 0
4.9660001 1.5024034 0.091024876 0
4.9720001 1.496191 0.090613574 0
4.9770002 1.4896216 0.090270847 0
4.9830003 1.4833678 0.089859605 0
4.9890003 1.4770924 0.089448333 0
4.9940004 1.4704653 0.089105606 0
5.0000005 1.4641483 0.088694304 0
5.0060005 1.4578098 0.088283062 0
5.0110002 1.4511247 0.087940365 0
5.0170002 1.4447446 0.087529093 0
5.0230002 1.4383429 0.087117791 0
5.0280004 1.4316003 0.086775064 0
5.0340004 1.4251572 0.086363822 0
5.0400004 1.4186924 0.08595255 0
5.0450006 1.4118921 0.085609823 0
5.0510001 1.4053855 0.085198551 0
5.0570002 1.3988576 0.084787309 0
5.0630002 1.392308 0.084376037 0
5.0690002 1.3857367 0.083964735 0
5.0740004 1.378839 0.083622009 0
5.0800004 1.3722262 0.083210766 0
5.0860004 1.3655919 0.082799494 0
5.0920005 1.3589358 0.082388192 0
5.0980005 1.3522581 0.08197695 0
5.1040001 1.3455586 0.081565708 0
5.1100001 1.3388376 0.081154436 0
5.1160002 1.332095 0.080743164 0
5.1210003 1.3250403 0.080400407 0
5.1270003 1.3182563 0.079989165 0
5.1330004 1.3114505 0.079577893 0
5.1390004 1.304623 0.079166621 0
5.1450005 1.297774 0.078755349 0
4.3380003 2.2199836 0.12696755 0
4.3429999 2.2157481 0.12661579 0
4.3470001 2.2109232 0.1263344 0
4.3510003 2.2060835 0.12605301 0
4.355 2.2012293 0.12577161 0
4.3590002 2.1963608 0.12549022 0
4.3630004 2.191478 0.12520882 0
4.368 2.1871436 0.12485707 0
4.3720002 2.1822298 0.1245757 0
4.3759999 2.1773019 0.12429431 0
4.3800001 2.1723595 0.12401289 0
4.3840003 2.1674025 0.12373149 0
4.3889999 2.1629851 0.12337977 0
4.3930001 2.1579974 0.12309837 0
4.3970003 2.1529956 0.12281698 0
4.4010005 2.1479793 0.12253556 0
4.4060001 2.1434948 0.12218383 0
4.4100003 2.1384478 0.12190244 0
4.4140005 2.1333864 0.12162101 0
4.4190001 2.1288517 0.12126932 0
4.4230003 2.1237595 0.12098792 0
4.4270005 2.1186531 0.12070653 0
4.4320002 2.1140676 0.1203548 0
4.4360003 2.1089303 0.12007338 0
4.4400001 2.1037786 0.11979201 0
4.4450002 2.0991428 0.11944026 0
4.4490004 2.0939605 0.11915883 0
4.4530001 2.0887635 0.11887747 0
4.4580002 2.0840774 0.11852571 0
4.4620004 2.07885 0.11824432 0
4.4660001 2.0736079 0.11796293 0
4.4710002 2.0688713 0.1176112 0
4.4750004 2.0635989 0.11732978 0
4.4800005 2.0588279 0.11697805 0
4.4840002 2.0535245 0.11669666 0
4.4890003 2.0487194 0.1163449 0
4.4930005 2.0433855 0.11606351 0
4.4980001 2.0385456 0.11571178 0
4.5020003 2.0331812 0.11543038 0
4.5070004 2.0283074 0.11507863 0
4.5110002 2.022912 0.11479723 0
4.5160003 2.0180039 0.11444551 0
4.5200005 2.0125782 0.11416411 0
4.5250001 2.0076356 0.11381239 0
4.5290003 2.0021791 0.11353096 0
4.5340004 1.9972024 0.11317921 0
4.5380001 1.991715 0.11289784 0
4.5430002 1.9867041 0.11254609 0
4.5470004 1.9811864 0.11226469 0
4.5520005 1.9761415 0.11191297 0
4.5570002 1.9710779 0.11156121 0
4.5610003 1.9655132 0.11127982 0
4.5660005 1.9604158 0.11092806 0
4.5700002 1.9548199 0.11064669 0
4.5750003 1.9496882 0.11029494 0
4.5800004 1.9445384 0.10994318 0
4.5840001 1.9388959 0.10966182 0
4.5890002 1.933712 0.10931006 0
4.5940003 1.9285098 0.1089583 0
4.5980005 1.9228207 0.10867691 0
4.6030002 1.9175841 0.10832518 0
4.6080003 1.9123297 0.10797346 0
4.6130004 1.9070572 0.1076217 0
4.6170001 1.9013047 0.10734031 0
4.6220002 1.8959979 0.10698855 0
4.6270003 1.8906732 0.10663682 0
4.6320004 1.8853302 0.10628507 0
4.6360002 1.8795148 0.10600367 0
4.6410003 1.8741376 0.10565194 0
4.6460004 1.8687426 0.10530019 0
4.6510005 1.8633294 0.10494843 0
4.6560001 1.8578979 0.1045967 0
4.6600003 1.8520032 0.10431531 0
4.6650004 1.8465376 0.10396358 0
4.6700001 1.841054 0.10361186 0
4.6750002 1.8355522 0.1032601 0
4.6800003 1.8300327 0.10290834 0
4.6850004 1.8244951 0.10255662 0
4.6900005 1.8189394 0.10220486 0
4.6950002 1.8133656 0.10185313 0
4.6990004 1.8073426 0.10157171 0
4.7040005 1.8017346 0.10121995 0
4.7090001 1.7961085 0.10086825 0
4.7140002 1.7904643 0.1005165 0
4.7190003 1.7848023 0.10016474 0
4.7240005 1.7791221 0.099812984 0
4.7290001 1.7734237 0.099461287 0
4.7340002 1.7677075 0.09910953 0
4.7390003 1.7619733 0.098757774 0
4.7440004 1.7562209 0.098406017 0
4.7490001 1.7504505 0.09805432 0
4.7540002 1.744662 0.097702563 0
4.7590003 1.7388556 0.097350806 0
4.7640004 1.7330313 0.096999049 0
4.7700005 1.7275945 0.096576989 0
4.7750001 1.721732 0.096225262 0
4.7800002 1.7158517 0.095873505 0
4.7850003 1.7099532 0.095521748 0
4.7900004 1.7040367 0.095170021 0
4.7950001 1.6981021 0.094818294 0
4.8000002 1.6921496 0.094466537 0
4.8050003 1.686179 0.09411478 0
4.8110003 1.6805818 0.09369269 0
4.8160005 1.6745734 0.093340933 0
4.8210001 1.6685467 0.092989206 0
4.8260002 1.6625022 0.092637479 0
4.8310003 1.6564397 0.092285722 0
4.8370004 1.6507413 0.091863602 0
4.8420005 1.6446409 0.091511846 0
4.8470001 1.6385223 0.091160148 0
4.8530002 1.6327628 0.090738058 0
4.8580003 1.6266065 0.090386331 0
4.8630004 1.620432 0.090034574 0
4.8680005 1.6142396 0.089682817 0
4.8740001 1.6083987 0.089260757 0
4.8790002 1.6021683 0.088909 0
4.8840003 1.59592 0.088557243 0
4.8900003 1.590018 0.088135153 0
4.8950005 1.5837318 0.087783426 0
4.9010005 1.5777882 0.087361306 0
4.9060001 1.5714639 0.087009579 0
4.9110003 1.5651218 0.086657852 0
4.9170003 1.559117 0.086235732 0
4.9220004 1.5527369 0.085883975 0
4.9280005 1.5466906 0.085461915 0
4.9330001 1.5402725 0.085110188 0
4.9390001 1.5341846 0.084688097 0
4.9440002 1.5277288 0.08433634 0
4.9500003 1.5215995 0.08391425 0
4.9550004 1.5151058 0.083562493 0
4.9610004 1.508935 0.083140403 0
4.9660001 1.5024034 0.082788676 0
4.9720001 1.496191 0.082366586 0
4.9770002 1.4896216 0.082014829 0
4.9830003 1.4833678 0.081592768 0
4.9890003 1.4770924 0.081170648 0
4.9940004 1.4704653 0.080818892 0
5.0000005 1.4641483 0.080396801 0
5.0060005 1.4578098 0.079974711 0
5.0110002 1.4511247 0.079622984 0
5.0170002 1.4447446 0.079200894 0
5.0230002 1.4383429 0.078778803 0
5.0280004 1.4316003 0.078427076 0
5.0340004 1.4251572 0.078004956 0
5.0400004 1.4186924 0.077582866 0
5.0450006 1.4118921 0.077231109 0
5.0510001 1.4053855 0.076809049 0
5.0570002 1.3988576 0.076386958 0
5.0630002 1.392308 0.075964868 0
5.0690002 1.3857367 0.075542778 0
5.0740004 1.378839 0.075191021 0
5.0800004 1.3722262 0.074768931 0
5.0860004 1.3655919 0.07434684 0
5.0920005 1.3589358 0.07392472 0
5.0980005 1.3522581 0.07350266 0
5.1040001 1.3455586 0.073080599 0
5.1100001 1.3388376 0.072658479 0
5.1160002 1.332095 0.072236419 0
5.1210003 1.3250403 0.071884662 0
5.1270003 1.3182563 0.071462542 0
5.1330004 1.3114505 0.071040481 0
5.1390004 1.304623 0.070618361 0
5.1450005 1.297774 0.070196271 0
4.3380003 2.2199836 0.11986414 0
4.3429999 2.2157481 0.11950338 0
4.3470001 2.2109232 0.11921477 0
4.3510003 2.2060835 0.11892617 0
4.355 2.2012293 0.11863753 0
4.3590002 2.1963608 0.11834896 0
4.3630004 2.191478 0.11806032 0
4.368 2.1871436 0.11769959 0
4.3720002 2.1822298 0.11741096 0
4.3759999 2.1773019 0.11712235 0
4.3800001 2.1723595 0.11683375 0
4.3840003 2.1674025 0.11654511 0
4.3889999 2.1629851 0.11618438 0
4.3930001 2.1579974 0.11589575 0
4.3970003 2.1529956 0.11560717 0
4.4010005 2.1479793 0.11531854 0
4.4060001 2.1434948 0.11495778 0
4.4100003 2.1384478 0.11466917 0
4.4140005 2.1333864 0.11438057 0
4.4190001 2.1288517 0.11401981 0
4.4230003 2.1237595 0.11373118 0
4.4270005 2.1186531 0.11344257 0
4.4320002 2.1140676 0.11308184 0
4.4360003 2.1089303 0.11279324 0
4.4400001 2.1037786 0.1125046 0
4.4450002 2.0991428 0.11214384 0
4.4490004 2.0939605 0.11185524 0
4.4530001 2.0887635 0.11156663 0
4.4580002 2.0840774 0.11120588 0
4.4620004 2.07885 0.11091724 0
4.4660001 2.0736079 0.11062866 0
4.4710002 2.0688713 0.11026791 0
4.4750004 2.0635989 0.10997927 0
4.4800005 2.0588279 0.10961851 0
4.4840002 2.0535245 0.10932991 0
4.4890003 2.0487194 0.10896912 0
4.4930005 2.0433855 0.10868052 0
4.4980001 2.0385456 0.10831979 0
4.5020003 2.0331812 0.10803115 0
4.5070004 2.0283074 0.1076704 0
4.5110002 2.022912 0.10738179 0
4.5160003 2.0180039 0.107021 0
4.5200005 2.0125782 0.1067324 0
4.5250001 2.0076356 0.10637167 0
4.5290003 2.0021791 0.10608307 0
4.5340004 1.9972024 0.10572228 0
4.5380001 1.991715 0.10543367 0
4.5430002 1.9867041 0.10507292 0
4.5470004 1.9811864 0.10478431 0
4.5520005 1.9761415 0.10442352 0
4.5570002 1.9710779 0.1040628 0
4.5610003 1.9655132 0.10377419 0
4.5660005 1.9604158 0.1034134 0
4.5700002 1.9548199 0.1031248 0
4.5750003 1.9496882 0.10276404 0
4.5800004 1.9445384 0.10240328 0
4.5840001 1.9388959 0.10211468 0
4.5890002 1.933712 0.10175392 0
4.5940003 1.9285098 0.10139313 0
4.5980005 1.9228207 0.10110453 0
4.6030002 1.9175841 0.1007438 0
4.6080003 1.9123297 0.10038301 0
4.6130004 1.9070572 0.10002223 0
4.6170001 1.9013047 0.09973368 0
4.6220002 1.8959979 0.099372894 0
4.6270003 1.8906732 0.099012107 0
4.6320004 1.8853302 0.09865135 0
4.6360002 1.8795148 0.098362744 0
4.6410003 1.8741376 0.098001987 0
4.6460004 1.8687426 0.09764123 0
4.6510005 1.8633294 0.097280473 0
4.6560001 1.8578979 0.096919715 0
4.6600003 1.8520032 0.09663108 0
4.6650004 1.8465376 0.096270323 0
4.6700001 1.841054 0.095909566 0
4.6750002 1.8355522 0.095548809 0
4.6800003 1.8300327 0.095188051 0
4.6850004 1.8244951 0.094827294 0
4.6900005 1.8189394 0.094466507 0
4.6950002 1.8133656 0.09410578 0
4.6990004 1.8073426 0.093817145 0
4.7040005 1.8017346 0.093456358 0
4.7090001 1.7961085 0.09309563 0
4.7140002 1.7904643 0.092734873 0
4.7190003 1.7848023 0.092374086 0
4.7240005 1.7791221 0.092013329 0
4.7290001 1.7734237 0.091652602 0
4.7340002 1.7677075 0.091291845 0
4.7390003 1.7619733 0.090931058 0
4.7440004 1.7562209 0.090570301 0
4.7490001 1.7504505 0.090209574 0
4.7540002 1.744662 0.089848787 0
4.7590003 1.7388556 0.089488 0
4.7640004 1.7330313 0.089127243 0
4.7700005 1.7275945 0.088694304 0
4.7750001 1.721732 0.088333577 0
4.7800002 1.7158517 0.08797279 0
4.7850003 1.7099532 0.087612063 0
4.7900004 1.7040367 0.087251306 0
4.7950001 1.6981021 0.086890548 0
4.8000002 1.6921496 0.086529791 0
4.8050003 1.686179 0.086169004 0
4.8110003 1.6805818 0.085736096 0
4.8160005 1.6745734 0.085375309 0
4.8210001 1.6685467 0.085014582 0
4.8260002 1.6625022 0.084653795 0
4.8310003 1.6564397 0.084293038 0
4.8370004 1.6507413 0.083860129 0
4.8420005 1.6446409 0.083499342 0
4.8470001 1.6385223 0.083138615 0
4.8530002 1.6327628 0.082705706 0
4.8580003 1.6266065 0.082344919 0
4.8630004 1.620432 0.081984162 0
4.8680005 1.6142396 0.081623405 0
4.8740001 1.6083987 0.081190526 0
4.8790002 1.6021683 0.08082974 0
4.8840003 1.59592 0.080468953 0
4.8900003 1.590018 0.080036074 0
4.8950005 1.5837318 0.079675287 0
4.9010005 1.5777882 0.079242378 0
4.9060001 1.5714639 0.078881621 0
4.9110003 1.5651218 0.078520864 0
4.9170003 1.559117 0.078087956 0
4.9220004 1.5527369 0.077727199 0
4.9280005 1.5466906 0.07729426 0
4.9330001 1.5402725 0.076933503 0
4.9390001 1.5341846 0.076500624 0
4.9440002 1.5277288 0.076139838 0
4.9500003 1.5215995 0.075706929 0
4.9550004 1.5151058 0.075346142 0
4.9610004 1.508935 0.074913234 0
4.9660001 1.5024034 0.074552506 0
4.9720001 1.496191 0.074119568 0
4.9770002 1.4896216 0.073758811 0
4.9830003 1.4833678 0.073325902 0
4.9890003 1.4770924 0.072892964 0
4.9940004 1.4704653 0.072532207 0
5.0000005 1.4641483 0.072099298 0
5.0060005 1.4578098 0.07166636 0
5.0110002 1.4511247 0.071305633 0
5.0170002 1.4447446 0.070872724 0
5.0230002 1.4383429 0.070439786 0
5.0280004 1.4316003 0.070079029 0
5.0340004 1.4251572 0.06964612 0
5.0400004 1.4186924 0.069213212 0
5.0450006 1.4118921 0.068852425 0
5.0510001 1.4053855 0.068419516 0
5.0570002 1.3988576 0.067986637 0
5.0630002 1.392308 0.067553699 0
5.0690002 1.3857367 0.06712079 0
5.0740004 1.378839 0.066760033 0
5.0800004 1.3722262 0.066327095 0
5.0860004 1.3655919 0.065894186 0
5.0920005 1.3589358 0.065461248 0
5.0980005 1.3522581 0.065028369 0
5.1040001 1.3455586 0.064595461 0
5.1100001 1.3388376 0.064162582 0
5.1160002 1.332095 0.063729644 0
5.1210003 1.3250403 0.063368857 0
5.1270003 1.3182563 0.062935948 0
5.1330004 1.3114505 0.06250304 0
5.1390004 1.304623 0.062070131 0
5.1450005 1.297774 0.061637193 0
4.3380003 2.2199836 0.11276075 0
4.3429999 2.2157481 0.11239097 0
4.3470001 2.2109232 0.11209515 0
4.3510003 2.2060835 0.1117993 0
4.355 2.2012293 0.11150348 0
4.3590002 2.1963608 0.11120769 0
4.3630004 2.191478 0.11091182 0
4.368 2.1871436 0.11054206 0
4.3720002 2.1822298 0.11024624 0
4.3759999 2.1773019 0.10995042 0
4.3800001 2.1723595 0.10965458 0
4.3840003 2.1674025 0.10935876 0
4.3889999 2.1629851 0.108989 0
4.3930001 2.1579974 0.10869315 0
4.3970003 2.1529956 0.10839733 0
4.4010005 2.1479793 0.10810149 0
4.4060001 2.1434948 0.10773173 0
4.4100003 2.1384478 0.10743591 0
4.4140005 2.1333864 0.10714006 0
4.4190001 2.1288517 0.10677031 0
4.4230003 2.1237595 0.10647446 0
4.4270005 2.1186531 0.10617861 0
4.4320002 2.1140676 0.10580888 0
4.4360003 2.1089303 0.10551304 0
4.4400001 2.1037786 0.10521725 0
4.4450002 2.0991428 0.10484746 0
4.4490004 2.0939605 0.10455158 0
4.4530001 2.0887635 0.1042558 0
4.4580002 2.0840774 0.10388601 0
4.4620004 2.07885 0.10359019 0
4.4670005 2.0741296 0.1032204 0
4.4710002 2.0688713 0.10292459 0
4.4750004 2.0635989 0.10262874 0
4.4800005 2.0588279 0.10225895 0
4.4840002 2.0535245 0.10196316 0
4.4890003 2.0487194 0.10159338 0
4.4930005 2.0433855 0.10129753 0
4.4980001 2.0385456 0.10092777 0
4.5020003 2.0331812 0.10063195 0
4.5070004 2.0283074 0.10026217 0
4.5110002 2.022912 0.099966347 0
4.5160003 2.0180039 0.09959653 0
4.5200005 2.0125782 0.099300712 0
4.5250001 2.0076356 0.098930955 0
4.5290003 2.0021791 0.098635137 0
4.5340004 1.9972024 0.09826532 0
4.5380001 1.991715 0.097969532 0
4.5430002 1.9867041 0.097599745 0
4.5470004 1.9811864 0.097303897 0
4.5520005 1.9761415 0.09693411 0
4.5570002 1.9710779 0.096564382 0
4.5610003 1.9655132 0.096268505 0
4.5660005 1.9604158 0.095898747 0
4.5700002 1.9548199 0.09560293 0
4.5750003 1.9496882 0.095233142 0
4.5800004 1.9445384 0.094863355 0
4.5840001 1.9388959 0.094567537 0
4.5890002 1.933712 0.09419775 0
4.5940003 1.9285098 0.093827963 0
4.5980005 1.9228207 0.093532145 0
4.6030002 1.9175841 0.093162388 0
4.6080003 1.9123297 0.092792571 0
4.6130004 1.9070572 0.092422783 0
4.6170001 1.9013047 0.092126995 0
4.6220002 1.8959979 0.091757208 0
4.6270003 1.8906732 0.091387421 0
4.6320004 1.8853302 0.091017634 0
4.6360002 1.8795148 0.090721846 0
4.6410003 1.8741376 0.090352029 0
4.6460004 1.8687426 0.089982241 0
4.6510005 1.8633294 0.089612454 0
4.6560001 1.8578979 0.089242697 0
4.6600003 1.8520032 0.088946879 0
4.6650004 1.8465376 0.088577062 0
4.6700001 1.841054 0.088207334 0
4.6750002 1.8355522 0.087837517 0
4.6800003 1.8300327 0.08746773 0
4.6850004 1.8244951 0.087097943 0
4.6900005 1.8189394 0.086728185 0
4.6950002 1.8133656 0.086358428 0
4.6990004 1.8073426 0.086062551 0
4.7040005 1.8017346 0.085692763 0
4.7090001 1.7961085 0.085323036 0
4.7140002 1.7904643 0.084953249 0
4.7190003 1.7848023 0.084583461 0
4.7240005 1.7791221 0.084213674 0
4.7290001 1.7734237 0.083843917 0
4.7340002 1.7677075 0.083474129 0
4.7390003 1.7619733 0.083104342 0
4.7440004 1.7562209 0.082734525 0
4.7490001 1.7504505 0.082364768 0
4.7540002 1.744662 0.081994981 0
4.7590003 1.7388556 0.081625223 0
4.7640004 1.7330313 0.081255436 0
4.7700005 1.7275945 0.080811679 0
4.7750001 1.721732 0.080441922 0
4.7800002 1.7158517 0.080072135 0
4.7850003 1.7099532 0.079702348 0
4.7900004 1.7040367 0.07933256 0
4.7950001 1.6981021 0.078962833 0
4.8000002 1.6921496 0.078593016 0
4.8050003 1.686179 0.078223228 0
4.8110003 1.6805818 0.077779472 0
4.8160005 1.6745734 0.077409685 0
4.8210001 1.6685467 0.077039957 0
4.8260002 1.6625022 0.07667017 0
4.8310003 1.6564397 0.076300383 0
4.8370004 1.6507413 0.075856626 0
4.8420005 1.6446409 0.075486839 0
4.8470001 1.6385223 0.075117081 0
4.8530002 1.6327628 0.074673355 0
4.8580003 1.6266065 0.074303538 0
4.8630004 1.620432 0.07393375 0
4.8680005 1.6142396 0.073563963 0
4.8740001 1.6083987 0.073120266 0
4.8790002 1.6021683 0.072750479 0
4.8840003 1.59592 0.072380692 0
4.8900003 1.590018 0.071936965 0
4.8950005 1.5837318 0.071567178 0
4.9010005 1.5777882 0.071123421 0
4.9060001 1.5714639 0.070753664 0
4.9110003 1.5651218 0.070383877 0
4.9170003 1.559117 0.06994015 0
4.9220004 1.5527369 0.069570363 0
4.9280005 1.5466906 0.069126606 0
4.9330001 1.5402725 0.068756878 0
4.9390001 1.5341846 0.068313122 0
4.9440002 1.5277288 0.067943335 0
4.9500003 1.5215995 0.067499608 0
4.9550004 1.5151058 0.067129821 0
4.9610004 1.508935 0.066686064 0
4.9660001 1.5024034 0.066316307 0
4.9720001 1.496191 0.06587258 0
4.9770002 1.4896216 0.065502763 0
4.9830003 1.4833678 0.065059036 0
4.9890003 1.4770924 0.064615309 0
4.9940004 1.4704653 0.064245492 0
5.0000005 1.4641483 0.063801765 0
5.0060005 1.4578098 0.063358009 0
5.0110002 1.4511247 0.062988281 0
5.0170002 1.4447446 0.062544554 0
5.0230002 1.4383429 0.062100798 0
5.0280004 1.4316003 0.061731011 0
5.0340004 1.4251572 0.061287254 0
5.0400004 1.4186924 0.060843527 0
5.0450006 1.4118921 0.06047374 0
5.0510001 1.4053855 0.060030043 0
5.0570002 1.3988576 0.059586316 0
5.0630002 1.392308 0.05914256 0
5.0690002 1.3857367 0.058698833 0
5.0740004 1.378839 0.058329016 0
5.0800004 1.3722262 0.057885289 0
5.0860004 1.3655919 0.057441562 0
5.0920005 1.3589358 0.056997806 0
5.0980005 1.3522581 0.056554079 0
5.1040001 1.3455586 0.056110352 0
5.1100001 1.3388376 0.055666625 0
5.1160002 1.332095 0.055222869 0
5.1210003 1.3250403 0.054853112 0
5.1270003 1.3182563 0.054409355 0
5.1330004 1.3114505 0.053965628 0
5.1390004 1.304623 0.053521872 0
5.1450005 1.297774 0.053078145 0
4.3380003 2.2199836 0.10565734 0
4.3429999 2.2157481 0.10527855 0
4.3470001 2.2109232 0.10497549 0
4.3510003 2.2060835 0.10467246 0
4.355 2.2012293 0.10436943 0
4.3590002 2.1963608 0.1040664 0
4.3630004 2.191478 0.10376334 0
4.368 2.1871436 0.10338455 0
4.3720002 2.1822298 0.10308152 0
4.3759999 2.1773019 0.10277846 0
4.3800001 2.1723595 0.10247543 0
4.3840003 2.1674025 0.1021724 0
4.3889999 2.1629851 0.10179359 0
4.3930001 2.1579974 0.10149056 0
4.3970003 2.1529956 0.1011875 0
4.4010005 2.1479793 0.10088444 0
4.4060001 2.1434948 0.10050568 0
4.4100003 2.1384478 0.10020262 0
4.4140005 2.1333864 0.09989959 0
4.4190001 2.1288517 0.099520802 0
4.4230003 2.1237595 0.099217772 0
4.4270005 2.1186531 0.098914683 0
4.4320002 2.1140676 0.098535925 0
4.4360003 2.1089303 0.098232865 0
4.4400001 2.1037786 0.097929865 0
4.4450002 2.0991428 0.097551048 0
4.4490004 2.0939605 0.097247988 0
4.4530001 2.0887635 0.096944958 0
4.4580002 2.0840774 0.09656617 0
4.4620004 2.07885 0.096263111 0
4.4670005 2.0741296 0.095884323 0
4.4710002 2.0688713 0.095581263 0
4.4750004 2.0635989 0.095278233 0
4.4800005 2.0588279 0.094899416 0
4.4840002 2.0535245 0.094596416 0
4.4890003 2.0487194 0.094217598 0
4.4930005 2.0433855 0.093914539 0
4.4980001 2.0385456 0.093535781 0
4.5020003 2.0331812 0.093232721 0
4.5070004 2.0283074 0.092853904 0
4.5110002 2.022912 0.092550874 0
4.5160003 2.0180039 0.092172086 0
4.5200005 2.0125782 0.091869026 0
4.5250001 2.0076356 0.091490239 0
4.5290003 2.0021791 0.091187179 0
4.5340004 1.9972024 0.090808392 0
4.5380001 1.991715 0.090505362 0
4.5430002 1.9867041 0.090126544 0
4.5470004 1.9811864 0.089823514 0
4.5520005 1.9761415 0.089444697 0
4.5570002 1.9710779 0.089065909 0
4.5610003 1.9655132 0.088762879 0
4.5660005 1.9604158 0.088384062 0
4.5700002 1.9548199 0.088081062 0
4.5750003 1.9496882 0.087702245 0
4.5800004 1.9445384 0.087323427 0
4.5840001 1.9388959 0.087020427 0
4.5890002 1.933712 0.08664161 0
4.5940003 1.9285098 0.086262792 0
4.5980005 1.9228207 0.085959733 0
4.6030002 1.9175841 0.085580975 0
4.6080003 1.9123297 0.085202157 0
4.6130004 1.9070572 0.08482334 0
4.6170001 1.9013047 0.08452034 0
4.6220002 1.8959979 0.084141523 0
4.6270003 1.8906732 0.083762705 0
4.6320004 1.8853302 0.083383918 0
4.6360002 1.8795148 0.083080888 0
4.6410003 1.8741376 0.08270207 0
4.6460004 1.8687426 0.082323283 0
4.6510005 1.8633294 0.081944466 0
4.6560001 1.8578979 0.081565708 0
4.6600003 1.8520032 0.081262648 0
4.6650004 1.8465376 0.080883831 0
4.6700001 1.841054 0.080505073 0
4.6750002 1.8355522 0.080126256 0
4.6800003 1.8300327 0.079747438 0
4.6850004 1.8244951 0.079368621 0
4.6900005 1.8189394 0.078989834 0
4.6950002 1.8133656 0.078611076 0
4.6990004 1.8073426 0.078307986 0
4.7040005 1.8017346 0.077929199 0
4.7090001 1.7961085 0.077550441 0
4.7140002 1.7904643 0.077171624 0
4.7190003 1.7848023 0.076792806 0
4.7240005 1.7791221 0.076413989 0
4.7290001 1.7734237 0.076035231 0
4.7340002 1.7677075 0.075656414 0
4.7390003 1.7619733 0.075277627 0
4.7440004 1.7562209 0.074898809 0
4.7490001 1.7504505 0.074520022 0
4.7540002 1.744662 0.074141204 0
4.7590003 1.7388556 0.073762417 0
4.7640004 1.7330313 0.0733836 0
4.7700005 1.7275945 0.072929054 0
4.7750001 1.721732 0.072550267 0
4.7800002 1.7158517 0.07217145 0
4.7850003 1.7099532 0.071792632 0
4.7900004 1.7040367 0.071413845 0
4.7950001 1.6981021 0.071035087 0
4.8000002 1.6921496 0.07065627 0
4.8050003 1.686179 0.070277452 0
4.8110003 1.6805818 0.069822907 0
4.8160005 1.6745734 0.06944409 0
4.8210001 1.6685467 0.069065303 0
4.8260002 1.6625022 0.068686515 0
4.8310003 1.6564397 0.068307698 0
4.8370004 1.6507413 0.067853153 0
4.8420005 1.6446409 0.067474335 0
4.8470001 1.6385223 0.067095548 0
4.8530002 1.6327628 0.066641003 0
4.8580003 1.6266065 0.066262186 0
4.8630004 1.620432 0.065883368 0
4.8680005 1.6142396 0.065504551 0
4.8740001 1.6083987 0.065050036 0
4.8790002 1.6021683 0.064671218 0
4.8840003 1.59592 0.064292431 0
4.8900003 1.590018 0.063837856 0
4.8950005 1.5837318 0.063459069 0
4.9010005 1.5777882 0.063004464 0
4.9060001 1.5714639 0.062625706 0
4.9110003 1.5651218 0.062246919 0
4.9170003 1.559117 0.061792344 0
4.9220004 1.5527369 0.061413527 0
4.9280005 1.5466906 0.060958982 0
4.9330001 1.5402725 0.060580194 0
4.9390001 1.5341846 0.060125649 0
4.9440002 1.5277288 0.059746832 0
4.9500003 1.5215995 0.059292257 0
4.9550004 1.5151058 0.05891344 0
4.9610004 1.508935 0.058458894 0
4.9660001 1.5024034 0.058080107 0
4.9720001 1.496191 0.057625562 0
4.9770002 1.4896216 0.057246745 0
4.9830003 1.4833678 0.0567922 0
4.9890003 1.4770924 0.056337625 0
4.9940004 1.4704653 0.055958807 0
5.0000005 1.4641483 0.055504262 0
5.0060005 1.4578098 0.055049688 0
5.0110002 1.4511247 0.05467093 0
5.0170002 1.4447446 0.054216355 0
5.0230002 1.4383429 0.05376181 0
5.0280004 1.4316003 0.053382993 0
5.0340004 1.4251572 0.052928418 0
5.0400004 1.4186924 0.052473843 0
5.0450006 1.4118921 0.052095026 0
5.0510001 1.4053855 0.05164054 0
5.0570002 1.3988576 0.051185936 0
5.0630002 1.392308 0.050731391 0
5.0690002 1.3857367 0.050276846 0
4.3380003 2.2199836 0.098553926 0
4.3429999 2.2157481 0.098166168 0
4.3470001 2.2109232 0.097855866 0
4.3510003 2.2060835 0.097545624 0
4.355 2.2012293 0.097235382 0
4.3590002 2.1963608 0.096925139 0
4.3630004 2.191478 0.096614838 0
4.368 2.1871436 0.09622705 0
4.3720002 2.1822298 0.095916778 0
4.3759999 2.1773019 0.095606536 0
4.3800001 2.1723595 0.095296264 0
4.3840003 2.1674025 0.094986022 0
4.3889999 2.1629851 0.094598204 0
4.3930001 2.1579974 0.094287962 0
4.3970003 2.1529956 0.09397769 0
4.4010005 2.1479793 0.093667418 0
4.4060001 2.1434948 0.09327963 0
4.4100003 2.1384478 0.092969358 0
4.4140005 2.1333864 0.092659086 0
4.4190001 2.1288517 0.092271298 0
4.4230003 2.1237595 0.091961026 0
4.4270005 2.1186531 0.091650784 0
4.4320002 2.1140676 0.091262966 0
4.4360003 2.1089303 0.090952724 0
4.4400001 2.1037786 0.090642452 0
4.4450002 2.0991428 0.090254635 0
4.4490004 2.0939605 0.089944363 0
4.4530001 2.0887635 0.08963415 0
4.4580002 2.0840774 0.089246303 0
4.4620004 2.07885 0.088936031 0
4.4670005 2.0741296 0.088548213 0
4.4710002 2.0688713 0.088237971 0
4.4750004 2.0635989 0.087927729 0
4.4800005 2.0588279 0.087539881 0
4.4840002 2.0535245 0.087229669 0
4.4890003 2.0487194 0.086841822 0
4.4930005 2.0433855 0.08653155 0
4.4980001 2.0385456 0.086143762 0
4.5020003 2.0331812 0.08583349 0
4.5070004 2.0283074 0.085445672 0
4.5110002 2.022912 0.08513543 0
4.5160003 2.0180039 0.084747612 0
4.5200005 2.0125782 0.08443734 0
4.5250001 2.0076356 0.084049553 0
4.5290003 2.0021791 0.083739281 0
4.5340004 1.9972024 0.083351463 0
4.5380001 1.991715 0.083041191 0
4.5430002 1.9867041 0.082653403 0
4.5470004 1.9811864 0.082343102 0
4.5520005 1.9761415 0.081955314 0
4.5570002 1.9710779 0.081567496 0
4.5610003 1.9655132 0.081257254 0
4.5660005 1.9604158 0.080869406 0
4.5700002 1.9548199 0.080559194 0
4.5750003 1.9496882 0.080171347 0
4.5800004 1.9445384 0.079783499 0
4.5840001 1.9388959 0.079473287 0
4.5890002 1.933712 0.079085469 0
4.5940003 1.9285098 0.078697622 0
4.5980005 1.9228207 0.07838735 0
4.6030002 1.9175841 0.077999562 0
4.6080003 1.9123297 0.077611744 0
4.6130004 1.9070572 0.077223927 0
4.6170001 1.9013047 0.076913685 0
4.6220002 1.8959979 0.076525837 0
4.6270003 1.8906732 0.07613802 0
4.6320004 1.8853302 0.075750202 0
4.6360002 1.8795148 0.07543996 0
4.6410003 1.8741376 0.075052142 0
4.6460004 1.8687426 0.074664295 0
4.6510005 1.8633294 0.074276477 0
4.6560001 1.8578979 0.073888689 0
4.6600003 1.8520032 0.073578417 0
4.6650004 1.8465376 0.07319057 0
4.6700001 1.841054 0.072802812 0
4.6750002 1.8355522 0.072414994 0
4.6800003 1.8300327 0.072027147 0
4.6850004 1.8244951 0.071639299 0
4.6900005 1.8189394 0.071251482 0
4.6950002 1.8133656 0.070863724 0
4.6990004 1.8073426 0.070553422 0
4.7040005 1.8017346 0.070165604 0
4.7090001 1.7961085 0.069777817 0
4.7140002 1.7904643 0.069389999 0
4.7190003 1.7848023 0.069002151 0
4.7240005 1.7791221 0.068614304 0
4.7290001 1.7734237 0.068226546 0
4.7340002 1.7677075 0.067838728 0
4.7390003 1.7619733 0.067450881 0
4.7440004 1.7562209 0.067063063 0
4.7490001 1.7504505 0.066675246 0
4.7540002 1.744662 0.066287458 0
4.7590003 1.7388556 0.065899611 0
4.7640004 1.7330313 0.065511793 0
4.7700005 1.7275945 0.0650464 0
4.7750001 1.721732 0.064658612 0
