# .PCD v0.7 - Point Cloud Data file format
VERSION 0.7
FIELDS x y z intensity
SIZE 4 4 4 4
TYPE F F F F
COUNT 1 1 1 1
WIDTH 1362
HEIGHT 1
VIEWPOINT 0 0 0 1 0 0 0
POINTS 1362
DATA ascii
2.7670002 -0.31925529 0.66871607 0
2.7250001 0.075621769 0.65982509 0
2.7250001 0.071427912 0.65982509 0
2.7260003 0.067282766 0.65993518 0
2.7260003 0.063087106 0.65993518 0
2.7260003 0.058891457 0.65993518 0
2.7270002 0.054739084 0.66004515 0
2.7270002 0.050541621 0.66004515 0
2.7280002 0.046383847 0.66015518 0
2.7280002 0.042184573 0.66015518 0
2.7290001 0.038021389 0.66026521 0
2.7290001 0.033820312 0.66026521 0
2.7300003 0.02965172 0.66037524 0
2.7300003 0.025448848 0.66037524 0
2.7300003 0.021245975 0.66037524 0
2.7310002 0.017070156 0.66048533 0
2.7310002 0.01286548 0.66048533 0
2.7320001 0.0086842477 0.6605953 0
2.7320001 0.0044777691 0.6605953 0
2.7330003 0.00029113144 0.66070539 0
2.7330003 -0.0039171539 0.66070539 0
2.7340002 -0.0081092045 0.66081542 0
2.7340002 -0.012319293 0.66081542 0
2.7340002 -0.016529379 0.66081542 0
2.7350001 -0.020728648 0.66092539 0
2.7350001 -0.024940539 0.66092539 0
2.7360003 -0.029145215 0.66103548 0
2.7360003 -0.033358913 0.66103548 0
2.7370002 -0.037569001 0.66114551 0
2.7370002 -0.041784499 0.66114551 0
2.7380002 -0.046 0.66125548 0
2.7380002 -0.050217304 0.66125548 0
2.7390003 -0.054438215 0.66136563 0
2.7390003 -0.058657322 0.66136563 0
2.7390003 -0.062876433 0.66136563 0
2.7400002 -0.067104556 0.6614756 0
2.7400002 -0.071325466 0.6614756 0
2.7410002 -0.075559005 0.66158563 0
2.7410002 -0.079781719 0.66158563 0
2.7420001 -0.084020667 0.66169566 0
2.7420001 -0.088245183 0.66169566 0
2.7430003 -0.092489555 0.66180569 0
2.7430003 -0.096715868 0.66180569 0
2.7430003 -0.10094219 0.66180569 0
2.7440002 -0.10519377 0.66191572 0
2.7440002 -0.10942189 0.66191572 0
2.7450001 -0.11367889 0.66202575 0
2.7450001 -0.11790882 0.66202575 0
2.7460003 -0.12217122 0.66213584 0
2.7460003 -0.12640296 0.66213584 0
2.7470002 -0.13067076 0.66224587 0
2.7470002 -0.1349043 0.66224587 0
2.7480001 -0.13917752 0.66235584 0
2.7480001 -0.14341286 0.66235584 0
2.7480001 -0.1476482 0.66235584 0
2.7490003 -0.15192865 0.66246593 0
2.7490003 -0.15616579 0.66246593 0
2.7500002 -0.16045164 0.66257596 0
2.7500002 -0.16469058 0.66257596 0
2.7510002 -0.16898184 0.66268599 0
2.7510002 -0.17322259 0.66268599 0
2.7520001 -0.17751926 0.66279602 0
2.7520001 -0.18176182 0.66279602 0
2.7530003 -0.1860639 0.66290605 0
2.7530003 -0.19030827 0.66290605 0
2.7530003 -0.19455263 0.66290605 0
2.7540002 -0.19886193 0.66301608 0
2.7540002 -0.2031081 0.66301608 0
2.7550001 -0.20742279 0.66312611 0
2.7550001 -0.21167077 0.66312611 0
2.7560003 -0.21599089 0.66323614 0
2.7560003 -0.22024067 0.66323614 0
2.7570002 -0.22456619 0.66334617 0
2.7570002 -0.22881778 0.66334617 0
2.7580001 -0.23314871 0.6634562 0
2.7580001 -0.23740208 0.6634562 0
2.7590003 -0.24173845 0.66356623 0
2.7590003 -0.24599364 0.66356623 0
2.7590003 -0.25024882 0.66356623 0
2.7600002 -0.25459239 0.66367626 0
2.7600002 -0.25884938 0.66367626 0
2.7610002 -0.26319835 0.66378629 0
2.7610002 -0.26745713 0.66378629 0
2.7620003 -0.27181154 0.66389632 0
2.7620003 -0.27607214 0.66389632 0
2.7630002 -0.28043196 0.66400635 0
2.7630002 -0.28469431 0.66400635 0
2.7640002 -0.28905955 0.66411638 0
2.7640002 -0.29332373 0.66411638 0
2.7640002 -0.29758793 0.66411638 0
2.7650001 -0.30196038 0.66422641 0
2.7650001 -0.30622637 0.66422641 0
2.7660003 -0.31060424 0.66433644 0
2.7660003 -0.31487206 0.66433644 0
2.7670002 -0.31925529 0.66444647 0
2.7250001 0.075621769 0.65563124 0
2.7250001 0.071427912 0.65563124 0
2.7260003 0.067282766 0.65573955 0
2.7260003 0.063087106 0.65573955 0
2.7260003 0.058891457 0.65573955 0
2.7270002 0.054739084 0.65584773 0
2.7270002 0.050541621 0.65584773 0
2.7280002 0.046383847 0.65595591 0
2.7280002 0.042184573 0.65595591 0
2.7290001 0.038021389 0.65606415 0
2.7290001 0.033820312 0.65606415 0
2.7300003 0.02965172 0.65617239 0
2.7300003 0.025448848 0.65617239 0
2.7300003 0.021245975 0.65617239 0
2.7310002 0.017070156 0.65628064 0
2.7310002 0.01286548 0.65628064 0
2.7320001 0.0086842477 0.65638888 0
2.7320001 0.0044777691 0.65638888 0
2.7330003 0.00029113144 0.65649712 0
2.7330003 -0.0039171539 0.65649712 0
2.7340002 -0.0081092045 0.65660536 0
2.7340002 -0.012319293 0.65660536 0
2.7340002 -0.016529379 0.65660536 0
2.7350001 -0.020728648 0.65671355 0
2.7350001 -0.024940539 0.65671355 0
2.7360003 -0.029145215 0.65682179 0
2.7360003 -0.033358913 0.65682179 0
2.7370002 -0.037569001 0.65692997 0
2.7370002 -0.041784499 0.65692997 0
2.7380002 -0.046 0.65703821 0
2.7380002 -0.050217304 0.65703821 0
2.7390003 -0.054438215 0.65714645 0
2.7390003 -0.058657322 0.65714645 0
2.7390003 -0.062876433 0.65714645 0
2.7400002 -0.067104556 0.6572547 0
2.7400002 -0.071325466 0.6572547 0
2.7410002 -0.075559005 0.65736294 0
2.7410002 -0.079781719 0.65736294 0
2.7420001 -0.084020667 0.65747118 0
2.7420001 -0.088245183 0.65747118 0
2.7430003 -0.092489555 0.65757942 0
2.7430003 -0.096715868 0.65757942 0
2.7430003 -0.10094219 0.65757942 0
2.7440002 -0.10519377 0.6576876 0
2.7440002 -0.10942189 0.6576876 0
2.7450001 -0.11367889 0.65779579 0
2.7450001 -0.11790882 0.65779579 0
2.7460003 -0.12217122 0.65790403 0
2.7460003 -0.12640296 0.65790403 0
2.7470002 -0.13067076 0.65801227 0
2.7470002 -0.1349043 0.65801227 0
2.7480001 -0.13917752 0.65812051 0
2.7480001 -0.14341286 0.65812051 0
2.7480001 -0.1476482 0.65812051 0
2.7490003 -0.15192865 0.65822875 0
2.7490003 -0.15616579 0.65822875 0
2.7500002 -0.16045164 0.658337 0
2.7500002 -0.16469058 0.658337 0
2.7510002 -0.16898184 0.65844518 0
2.7510002 -0.17322259 0.65844518 0
2.7520001 -0.17751926 0.65855342 0
2.7520001 -0.18176182 0.65855342 0
2.7530003 -0.1860639 0.65866166 0
2.7530003 -0.19030827 0.65866166 0
2.7530003 -0.19455263 0.65866166 0
2.7540002 -0.19886193 0.65876985 0
2.7540002 -0.2031081 0.65876985 0
2.7550001 -0.20742279 0.65887809 0
2.7550001 -0.21167077 0.65887809 0
2.7560003 -0.21599089 0.65898633 0
2.7560003 -0.22024067 0.65898633 0
2.7570002 -0.22456619 0.65909457 0
2.7570002 -0.22881778 0.65909457 0
2.7580001 -0.23314871 0.65920281 0
2.7580001 -0.23740208 0.65920281 0
2.7590003 -0.24173845 0.65931106 0
2.7590003 -0.24599364 0.65931106 0
2.7590003 -0.25024882 0.65931106 0
2.7600002 -0.25459239 0.6594193 0
2.7600002 -0.25884938 0.6594193 0
2.7610002 -0.26319835 0.65952748 0
2.7610002 -0.26745713 0.65952748 0
2.7620003 -0.27181154 0.65963572 0
2.7620003 -0.27607214 0.65963572 0
2.7630002 -0.28043196 0.65974396 0
2.7630002 -0.28469431 0.65974396 0
2.7640002 -0.28905955 0.65985215 0
2.7640002 -0.29332373 0.65985215 0
2.7640002 -0.29758793 0.65985215 0
2.7650001 -0.30196038 0.65996039 0
2.7650001 -0.30622637 0.65996039 0
2.7660003 -0.31060424 0.66006863 0
2.7660003 -0.31487206 0.66006863 0
2.7670002 -0.31925529 0.66017687 0
2.7250001 0.075621769 0.6514374 0
2.7250001 0.071427912 0.6514374 0
2.7260003 0.067282766 0.65154386 0
2.7260003 0.063087106 0.65154386 0
2.7260003 0.058891457 0.65154386 0
2.7270002 0.054739084 0.65165025 0
2.7270002 0.050541621 0.65165025 0
2.7280002 0.046383847 0.65175664 0
2.7280002 0.042184573 0.65175664 0
2.7290001 0.038021389 0.6518631 0
2.7290001 0.033820312 0.6518631 0
2.7300003 0.02965172 0.65196955 0
2.7300003 0.025448848 0.65196955 0
2.7300003 0.021245975 0.65196955 0
2.7310002 0.017070156 0.65207595 0
2.7310002 0.01286548 0.65207595 0
2.7320001 0.0086842477 0.65218234 0
2.7320001 0.0044777691 0.65218234 0
2.7330003 0.00029113144 0.65228879 0
2.7330003 -0.0039171539 0.65228879 0
2.7340002 -0.0081092045 0.65239525 0
2.7340002 -0.012319293 0.65239525 0
2.7340002 -0.016529379 0.65239525 0
2.7350001 -0.020728648 0.65250164 0
2.7350001 -0.024940539 0.65250164 0
2.7360003 -0.029145215 0.6526081 0
2.7360003 -0.033358913 0.6526081 0
2.7370002 -0.037569001 0.65271449 0
2.7370002 -0.041784499 0.65271449 0
2.7380002 -0.046 0.65282094 0
2.7380002 -0.050217304 0.65282094 0
2.7390003 -0.054438215 0.65292734 0
2.7390003 -0.058657322 0.65292734 0
2.7390003 -0.062876433 0.65292734 0
2.7400002 -0.067104556 0.65303379 0
2.7400002 -0.071325466 0.65303379 0
2.7410002 -0.075559005 0.65314019 0
2.7410002 -0.079781719 0.65314019 0
2.7420001 -0.084020667 0.65324664 0
2.7420001 -0.088245183 0.65324664 0
2.7430003 -0.092489555 0.6533531 0
2.7430003 -0.096715868 0.6533531 0
2.7430003 -0.10094219 0.6533531 0
2.7440002 -0.10519377 0.65345949 0
2.7440002 -0.10942189 0.65345949 0
2.7450001 -0.11367889 0.65356588 0
2.7450001 -0.11790882 0.65356588 0
2.7460003 -0.12217122 0.65367234 0
2.7460003 -0.12640296 0.65367234 0
2.7470002 -0.13067076 0.65377873 0
2.7470002 -0.1349043 0.65377873 0
2.7480001 -0.13917752 0.65388513 0
2.7480001 -0.14341286 0.65388513 0
2.7480001 -0.1476482 0.65388513 0
2.7490003 -0.15192865 0.65399164 0
2.7490003 -0.15616579 0.65399164 0
2.7500002 -0.16045164 0.65409803 0
2.7500002 -0.16469058 0.65409803 0
2.7510002 -0.16898184 0.65420443 0
2.7510002 -0.17322259 0.65420443 0
2.7520001 -0.17751926 0.65431088 0
2.7520001 -0.18176182 0.65431088 0
2.7530003 -0.1860639 0.65441728 0
2.7530003 -0.19030827 0.65441728 0
2.7530003 -0.19455263 0.65441728 0
2.7540002 -0.19886193 0.65452373 0
2.7540002 -0.2031081 0.65452373 0
2.7550001 -0.20742279 0.65463018 0
2.7550001 -0.21167077 0.65463018 0
2.7560003 -0.21599089 0.65473658 0
2.7560003 -0.22024067 0.65473658 0
2.7570002 -0.22456619 0.65484297 0
2.7570002 -0.22881778 0.65484297 0
2.7580001 -0.23314871 0.65494943 0
2.7580001 -0.23740208 0.65494943 0
2.7590003 -0.24173845 0.65505588 0
2.7590003 -0.24599364 0.65505588 0
2.7590003 -0.25024882 0.65505588 0
2.7600002 -0.25459239 0.65516227 0
2.7600002 -0.25884938 0.65516227 0
2.7610002 -0.26319835 0.65526867 0
2.7610002 -0.26745713 0.65526867 0
2.7620003 -0.27181154 0.65537512 0
2.7620003 -0.27607214 0.65537512 0
2.7630002 -0.28043196 0.65548158 0
2.7630002 -0.28469431 0.65548158 0
2.7640002 -0.28905955 0.65558791 0
2.7640002 -0.29332373 0.65558791 0
2.7640002 -0.29758793 0.65558791 0
2.7650001 -0.30196038 0.65569437 0
2.7650001 -0.30622637 0.65569437 0
2.7660003 -0.31060424 0.65580082 0
2.7660003 -0.31487206 0.65580082 0
2.7670002 -0.31925529 0.65590727 0
2.7250001 0.075621769 0.64724356 0
2.7250001 0.071427912 0.64724356 0
2.7260003 0.067282766 0.64734817 0
2.7260003 0.063087106 0.64734817 0
2.7260003 0.058891457 0.64734817 0
2.7270002 0.054739084 0.64745277 0
2.7270002 0.050541621 0.64745277 0
2.7280002 0.046383847 0.64755738 0
2.7280002 0.042184573 0.64755738 0
2.7290001 0.038021389 0.64766204 0
2.7290001 0.033820312 0.64766204 0
2.7300003 0.02965172 0.64776671 0
2.7300003 0.025448848 0.64776671 0
2.7300003 0.021245975 0.64776671 0
2.7310002 0.017070156 0.64787126 0
2.7310002 0.01286548 0.64787126 0
2.7320001 0.0086842477 0.64797586 0
2.7320001 0.0044777691 0.64797586 0
2.7330003 0.00029113144 0.64808053 0
2.7330003 -0.0039171539 0.64808053 0
2.7340002 -0.0081092045 0.64818513 0
2.7340002 -0.012319293 0.64818513 0
2.7340002 -0.016529379 0.64818513 0
2.7350001 -0.020728648 0.6482898 0
2.7350001 -0.024940539 0.6482898 0
2.7360003 -0.029145215 0.64839441 0
2.7360003 -0.033358913 0.64839441 0
2.7370002 -0.037569001 0.64849901 0
2.7370002 -0.041784499 0.64849901 0
2.7380002 -0.046 0.64860362 0
2.7380002 -0.050217304 0.64860362 0
2.7390003 -0.054438215 0.64870828 0
2.7390003 -0.058657322 0.64870828 0
2.7390003 -0.062876433 0.64870828 0
2.7400002 -0.067104556 0.64881289 0
2.7400002 -0.071325466 0.64881289 0
2.7410002 -0.075559005 0.6489175 0
2.7410002 -0.079781719 0.6489175 0
2.7420001 -0.084020667 0.6490221 0
2.7420001 -0.088245183 0.6490221 0
2.7430003 -0.092489555 0.64912677 0
2.7430003 -0.096715868 0.64912677 0
2.7430003 -0.10094219 0.64912677 0
2.7440002 -0.10519377 0.64923137 0
2.7440002 -0.10942189 0.64923137 0
2.7450001 -0.11367889 0.64933598 0
2.7450001 -0.11790882 0.64933598 0
2.7460003 -0.12217122 0.64944059 0
2.7460003 -0.12640296 0.64944059 0
2.7470002 -0.13067076 0.64954519 0
2.7470002 -0.1349043 0.64954519 0
2.7480001 -0.13917752 0.64964986 0
2.7480001 -0.14341286 0.64964986 0
2.7480001 -0.1476482 0.64964986 0
2.7490003 -0.15192865 0.64975446 0
2.7490003 -0.15616579 0.64975446 0
2.7500002 -0.16045164 0.64985907 0
2.7500002 -0.16469058 0.64985907 0
2.7510002 -0.16898184 0.64996368 0
2.7510002 -0.17322259 0.64996368 0
2.7520001 -0.17751926 0.65006828 0
2.7520001 -0.18176182 0.65006828 0
2.7530003 -0.1860639 0.65017295 0
2.7530003 -0.19030827 0.65017295 0
2.7530003 -0.19455263 0.65017295 0
2.7540002 -0.19886193 0.65027755 0
2.7540002 -0.2031081 0.65027755 0
2.7550001 -0.20742279 0.65038216 0
2.7550001 -0.21167077 0.65038216 0
2.7560003 -0.21599089 0.65048683 0
2.7560003 -0.22024067 0.65048683 0
2.7570002 -0.22456619 0.65059143 0
2.7570002 -0.22881778 0.65059143 0
2.7580001 -0.23314871 0.65069604 0
2.7580001 -0.23740208 0.65069604 0
2.7590003 -0.24173845 0.65080065 0
2.7590003 -0.24599364 0.65080065 0
2.7590003 -0.25024882 0.65080065 0
2.7600002 -0.25459239 0.65090525 0
2.7600002 -0.25884938 0.65090525 0
2.7610002 -0.26319835 0.65100992 0
2.7610002 -0.26745713 0.65100992 0
2.7620003 -0.27181154 0.65111458 0
2.7620003 -0.27607214 0.65111458 0
2.7630002 -0.28043196 0.65121913 0
2.7630002 -0.28469431 0.65121913 0
2.7640002 -0.28905955 0.65132374 0
2.7640002 -0.29332373 0.65132374 0
2.7640002 -0.29758793 0.65132374 0
2.7650001 -0.30196038 0.65142834 0
2.7650001 -0.30622637 0.65142834 0
2.7660003 -0.31060424 0.65153301 0
2.7660003 -0.31487206 0.65153301 0
2.7670002 -0.31925529 0.65163767 0
2.7250001 0.075621769 0.64304972 0
2.7250001 0.071427912 0.64304972 0
2.7260003 0.067282766 0.64315253 0
2.7260003 0.063087106 0.64315253 0
2.7260003 0.058891457 0.64315253 0
2.7270002 0.054739084 0.64325535 0
2.7270002 0.050541621 0.64325535 0
2.7280002 0.046383847 0.64335811 0
2.7280002 0.042184573 0.64335811 0
2.7290001 0.038021389 0.64346099 0
2.7290001 0.033820312 0.64346099 0
2.7300003 0.02965172 0.64356381 0
2.7300003 0.025448848 0.64356381 0
2.7300003 0.021245975 0.64356381 0
2.7310002 0.017070156 0.64366663 0
2.7310002 0.01286548 0.64366663 0
2.7320001 0.0086842477 0.64376938 0
2.7320001 0.0044777691 0.64376938 0
2.7330003 0.00029113144 0.64387226 0
2.7330003 -0.0039171539 0.64387226 0
2.7340002 -0.0081092045 0.64397508 0
2.7340002 -0.012319293 0.64397508 0
2.7340002 -0.016529379 0.64397508 0
2.7350001 -0.020728648 0.6440779 0
2.7350001 -0.024940539 0.6440779 0
2.7360003 -0.029145215 0.64418066 0
2.7360003 -0.033358913 0.64418066 0
2.7370002 -0.037569001 0.64428353 0
2.7370002 -0.041784499 0.64428353 0
2.7380002 -0.046 0.64438629 0
2.7380002 -0.050217304 0.64438629 0
2.7390003 -0.054438215 0.64448917 0
2.7390003 -0.058657322 0.64448917 0
2.7390003 -0.062876433 0.64448917 0
2.7400002 -0.067104556 0.64459193 0
2.7400002 -0.071325466 0.64459193 0
2.7410002 -0.075559005 0.64469481 0
2.7410002 -0.079781719 0.64469481 0
2.7420001 -0.084020667 0.64479756 0
2.7420001 -0.088245183 0.64479756 0
2.7430003 -0.092489555 0.64490044 0
2.7430003 -0.096715868 0.64490044 0
2.7430003 -0.10094219 0.64490044 0
2.7440002 -0.10519377 0.6450032 0
2.7440002 -0.10942189 0.6450032 0
2.7450001 -0.11367889 0.64510608 0
2.7450001 -0.11790882 0.64510608 0
2.7460003 -0.12217122 0.6452089 0
2.7460003 -0.12640296 0.6452089 0
2.7470002 -0.13067076 0.64531171 0
2.7470002 -0.1349043 0.64531171 0
2.7480001 -0.13917752 0.64541447 0
2.7480001 -0.14341286 0.64541447 0
2.7480001 -0.1476482 0.64541447 0
2.7490003 -0.15192865 0.64551729 0
2.7490003 -0.15616579 0.64551729 0
2.7500002 -0.16045164 0.64562011 0
2.7500002 -0.16469058 0.64562011 0
2.7510002 -0.16898184 0.64572293 0
2.7510002 -0.17322259 0.64572293 0
2.7520001 -0.17751926 0.64582574 0
2.7520001 -0.18176182 0.64582574 0
2.7530003 -0.1860639 0.64592856 0
2.7530003 -0.19030827 0.64592856 0
2.7530003 -0.19455263 0.64592856 0
2.7540002 -0.19886193 0.64603138 0
2.7540002 -0.2031081 0.64603138 0
2.7550001 -0.20742279 0.6461342 0
2.7550001 -0.21167077 0.6461342 0
2.7560003 -0.21599089 0.64623702 0
2.7560003 -0.22024067 0.64623702 0
2.7570002 -0.22456619 0.64633983 0
2.7570002 -0.22881778 0.64633983 0
2.7580001 -0.23314871 0.64644265 0
2.7580001 -0.23740208 0.64644265 0
2.7590003 -0.24173845 0.64654547 0
2.7590003 -0.24599364 0.64654547 0
2.7590003 -0.25024882 0.64654547 0
2.7600002 -0.25459239 0.64664829 0
2.7600002 -0.25884938 0.64664829 0
2.7610002 -0.26319835 0.64675111 0
2.7610002 -0.26745713 0.64675111 0
2.7620003 -0.27181154 0.64685392 0
2.7620003 -0.27607214 0.64685392 0
2.7630002 -0.28043196 0.64695674 0
2.7630002 -0.28469431 0.64695674 0
2.7640002 -0.28905955 0.64705956 0
2.7640002 -0.29332373 0.64705956 0
2.7640002 -0.29758793 0.64705956 0
2.7650001 -0.30196038 0.64716238 0
2.7650001 -0.30622637 0.64716238 0
2.7660003 -0.31060424 0.6472652 0
2.7660003 -0.31487206 0.6472652 0
2.7670002 -0.31925529 0.64736801 0
2.7250001 0.075621769 0.63885581 0
2.7250001 0.071427912 0.63885581 0
2.7260003 0.067282766 0.6389569 0
2.7260003 0.063087106 0.6389569 0
2.7260003 0.058891457 0.6389569 0
2.7270002 0.054739084 0.63905787 0
2.7270002 0.050541621 0.63905787 0
2.7280002 0.046383847 0.6391589 0
2.7280002 0.042184573 0.6391589 0
2.7290001 0.038021389 0.63925987 0
2.7290001 0.033820312 0.63925987 0
2.7300003 0.02965172 0.6393609 0
2.7300003 0.025448848 0.6393609 0
2.7300003 0.021245975 0.6393609 0
2.7310002 0.017070156 0.63946193 0
2.7310002 0.01286548 0.63946193 0
2.7320001 0.0086842477 0.6395629 0
2.7320001 0.0044777691 0.6395629 0
2.7330003 0.00029113144 0.63966393 0
2.7330003 -0.0039171539 0.63966393 0
2.7340002 -0.0081092045 0.63976496 0
2.7340002 -0.012319293 0.63976496 0
2.7340002 -0.016529379 0.63976496 0
2.7350001 -0.020728648 0.63986599 0
2.7350001 -0.024940539 0.63986599 0
2.7360003 -0.029145215 0.63996696 0
2.7360003 -0.033358913 0.63996696 0
2.7370002 -0.037569001 0.64006799 0
2.7370002 -0.041784499 0.64006799 0
2.7380002 -0.046 0.64016902 0
2.7380002 -0.050217304 0.64016902 0
2.7390003 -0.054438215 0.64027005 0
2.7390003 -0.058657322 0.64027005 0
2.7390003 -0.062876433 0.64027005 0
2.7400002 -0.067104556 0.64037108 0
2.7400002 -0.071325466 0.64037108 0
2.7410002 -0.075559005 0.64047205 0
2.7410002 -0.079781719 0.64047205 0
2.7420001 -0.084020667 0.64057308 0
2.7420001 -0.088245183 0.64057308 0
2.7430003 -0.092489555 0.64067411 0
2.7430003 -0.096715868 0.64067411 0
2.7430003 -0.10094219 0.64067411 0
2.7440002 -0.10519377 0.64077508 0
2.7440002 -0.10942189 0.64077508 0
2.7450001 -0.11367889 0.64087611 0
2.7450001 -0.11790882 0.64087611 0
2.7460003 -0.12217122 0.64097714 0
2.7460003 -0.12640296 0.64097714 0
2.7470002 -0.13067076 0.64107811 0
2.7470002 -0.1349043 0.64107811 0
2.7480001 -0.13917752 0.64117914 0
2.7480001 -0.14341286 0.64117914 0
2.7480001 -0.1476482 0.64117914 0
2.7490003 -0.15192865 0.64128017 0
2.7490003 -0.15616579 0.64128017 0
2.7500002 -0.16045164 0.64138114 0
2.7500002 -0.16469058 0.64138114 0
2.7510002 -0.16898184 0.64148217 0
2.7510002 -0.17322259 0.64148217 0
2.7520001 -0.17751926 0.6415832 0
2.7520001 -0.18176182 0.6415832 0
2.7530003 -0.1860639 0.64168423 0
2.7530003 -0.19030827 0.64168423 0
2.7530003 -0.19455263 0.64168423 0
2.7540002 -0.19886193 0.64178526 0
2.7540002 -0.2031081 0.64178526 0
2.7550001 -0.20742279 0.64188623 0
2.7550001 -0.21167077 0.64188623 0
2.7560003 -0.21599089 0.64198726 0
2.7560003 -0.22024067 0.64198726 0
2.7570002 -0.22456619 0.64208829 0
2.7570002 -0.22881778 0.64208829 0
2.7580001 -0.23314871 0.64218926 0
2.7580001 -0.23740208 0.64218926 0
2.7590003 -0.24173845 0.64229029 0
2.7590003 -0.24599364 0.64229029 0
2.7590003 -0.25024882 0.64229029 0
2.7600002 -0.25459239 0.64239132 0
2.7600002 -0.25884938 0.64239132 0
2.7610002 -0.26319835 0.64249229 0
2.7610002 -0.26745713 0.64249229 0
2.7620003 -0.27181154 0.64259338 0
2.7620003 -0.27607214 0.64259338 0
2.7630002 -0.28043196 0.64269435 0
2.7630002 -0.28469431 0.64269435 0
2.7640002 -0.28905955 0.64279532 0
2.7640002 -0.29332373 0.64279532 0
2.7640002 -0.29758793 0.64279532 0
2.7650001 -0.30196038 0.64289635 0
2.7650001 -0.30622637 0.64289635 0
2.7660003 -0.31060424 0.64299738 0
2.7660003 -0.31487206 0.64299738 0
2.7670002 -0.31925529 0.64309841 0
2.7250001 0.075621769 0.63466197 0
2.7250001 0.071427912 0.63466197 0
2.7260003 0.067282766 0.63476121 0
2.7260003 0.063087106 0.63476121 0
2.7260003 0.058891457 0.63476121 0
2.7270002 0.054739084 0.6348604 0
2.7270002 0.050541621 0.6348604 0
2.7280002 0.046383847 0.63495964 0
2.7280002 0.042184573 0.63495964 0
2.7290001 0.038021389 0.63505882 0
2.7290001 0.033820312 0.63505882 0
2.7300003 0.02965172 0.63515806 0
2.7300003 0.025448848 0.63515806 0
2.7300003 0.021245975 0.63515806 0
2.7310002 0.017070156 0.63525724 0
2.7310002 0.01286548 0.63525724 0
2.7320001 0.0086842477 0.63535643 0
2.7320001 0.0044777691 0.63535643 0
2.7330003 0.00029113144 0.63545567 0
2.7330003 -0.0039171539 0.63545567 0
2.7340002 -0.0081092045 0.63555491 0
2.7340002 -0.012319293 0.63555491 0
2.7340002 -0.016529379 0.63555491 0
2.7350001 -0.020728648 0.63565409 0
2.7350001 -0.024940539 0.63565409 0
2.7360003 -0.029145215 0.63575327 0
2.7360003 -0.033358913 0.63575327 0
2.7370002 -0.037569001 0.63585252 0
2.7370002 -0.041784499 0.63585252 0
2.7380002 -0.046 0.6359517 0
2.7380002 -0.050217304 0.6359517 0
2.7390003 -0.054438215 0.63605094 0
2.7390003 -0.058657322 0.63605094 0
2.7390003 -0.062876433 0.63605094 0
2.7400002 -0.067104556 0.63615012 0
2.7400002 -0.071325466 0.63615012 0
2.7410002 -0.075559005 0.6362493 0
2.7410002 -0.079781719 0.6362493 0
2.7420001 -0.084020667 0.63634855 0
2.7420001 -0.088245183 0.63634855 0
2.7430003 -0.092489555 0.63644779 0
2.7430003 -0.096715868 0.63644779 0
2.7430003 -0.10094219 0.63644779 0
2.7440002 -0.10519377 0.63654697 0
2.7440002 -0.10942189 0.63654697 0
2.7450001 -0.11367889 0.63664615 0
2.7450001 -0.11790882 0.63664615 0
2.7460003 -0.12217122 0.63674539 0
2.7460003 -0.12640296 0.63674539 0
2.7470002 -0.13067076 0.63684464 0
2.7470002 -0.1349043 0.63684464 0
2.7480001 -0.13917752 0.63694382 0
2.7480001 -0.14341286 0.63694382 0
2.7480001 -0.1476482 0.63694382 0
2.7490003 -0.15192865 0.637043 0
2.7490003 -0.15616579 0.637043 0
2.7500002 -0.16045164 0.63714224 0
2.7500002 -0.16469058 0.63714224 0
2.7510002 -0.16898184 0.63724142 0
2.7510002 -0.17322259 0.63724142 0
2.7520001 -0.17751926 0.63734066 0
2.7520001 -0.18176182 0.63734066 0
2.7530003 -0.1860639 0.63743985 0
2.7530003 -0.19030827 0.63743985 0
2.7530003 -0.19455263 0.63743985 0
2.7540002 -0.19886193 0.63753903 0
2.7540002 -0.2031081 0.63753903 0
2.7550001 -0.20742279 0.63763827 0
2.7550001 -0.21167077 0.63763827 0
2.7560003 -0.21599089 0.63773751 0
2.7560003 -0.22024067 0.63773751 0
2.7570002 -0.22456619 0.63783669 0
2.7570002 -0.22881778 0.63783669 0
2.7580001 -0.23314871 0.63793588 0
2.7580001 -0.23740208 0.63793588 0
2.7590003 -0.24173845 0.63803512 0
2.7590003 -0.24599364 0.63803512 0
2.7590003 -0.25024882 0.63803512 0
2.7600002 -0.25459239 0.6381343 0
2.7600002 -0.25884938 0.6381343 0
2.7610002 -0.26319835 0.63823354 0
2.7610002 -0.26745713 0.63823354 0
2.7620003 -0.27181154 0.63833278 0
2.7620003 -0.27607214 0.63833278 0
2.7630002 -0.28043196 0.63843197 0
2.7630002 -0.28469431 0.63843197 0
2.7640002 -0.28905955 0.63853115 0
2.7640002 -0.29332373 0.63853115 0
2.7640002 -0.29758793 0.63853115 0
2.7650001 -0.30196038 0.63863039 0
2.7650001 -0.30622637 0.63863039 0
2.7660003 -0.31060424 0.63872957 0
2.7660003 -0.31487206 0.63872957 0
2.7670002 -0.31925529 0.63882881 0
2.7250001 0.075621769 0.63046813 0
2.7250001 0.071427912 0.63046813 0
2.7260003 0.067282766 0.63056552 0
2.7260003 0.063087106 0.63056552 0
2.7260003 0.058891457 0.63056552 0
2.7270002 0.054739084 0.63066292 0
2.7270002 0.050541621 0.63066292 0
2.7280002 0.046383847 0.63076037 0
2.7280002 0.042184573 0.63076037 0
2.7290001 0.038021389 0.63085777 0
2.7290001 0.033820312 0.63085777 0
2.7300003 0.02965172 0.63095516 0
2.7300003 0.025448848 0.63095516 0
2.7300003 0.021245975 0.63095516 0
2.7310002 0.017070156 0.63105255 0
2.7310002 0.01286548 0.63105255 0
2.7320001 0.0086842477 0.63114995 0
2.7320001 0.0044777691 0.63114995 0
2.7330003 0.00029113144 0.6312474 0
2.7330003 -0.0039171539 0.6312474 0
2.7340002 -0.0081092045 0.6313448 0
2.7340002 -0.012319293 0.6313448 0
2.7340002 -0.016529379 0.6313448 0
2.7350001 -0.020728648 0.63144219 0
2.7350001 -0.024940539 0.63144219 0
2.7360003 -0.029145215 0.63153958 0
2.7360003 -0.033358913 0.63153958 0
2.7370002 -0.037569001 0.63163698 0
2.7370002 -0.041784499 0.63163698 0
2.7380002 -0.046 0.63173443 0
2.7380002 -0.050217304 0.63173443 0
2.7390003 -0.054438215 0.63183182 0
2.7390003 -0.058657322 0.63183182 0
2.7390003 -0.062876433 0.63183182 0
2.7400002 -0.067104556 0.63192922 0
2.7400002 -0.071325466 0.63192922 0
2.7410002 -0.075559005 0.63202661 0
2.7410002 -0.079781719 0.63202661 0
2.7420001 -0.084020667 0.63212401 0
2.7420001 -0.088245183 0.63212401 0
2.7430003 -0.092489555 0.63222146 0
2.7430003 -0.096715868 0.63222146 0
2.7430003 -0.10094219 0.63222146 0
2.7440002 -0.10519377 0.63231885 0
2.7440002 -0.10942189 0.63231885 0
2.7450001 -0.11367889 0.63241625 0
2.7450001 -0.11790882 0.63241625 0
2.7460003 -0.12217122 0.63251364 0
2.7460003 -0.12640296 0.63251364 0
2.7470002 -0.13067076 0.63261104 0
2.7470002 -0.1349043 0.63261104 0
2.7480001 -0.13917752 0.63270843 0
2.7480001 -0.14341286 0.63270843 0
2.7480001 -0.1476482 0.63270843 0
2.7490003 -0.15192865 0.63280588 0
2.7490003 -0.15616579 0.63280588 0
2.7500002 -0.16045164 0.63290328 0
2.7500002 -0.16469058 0.63290328 0
2.7510002 -0.16898184 0.63300067 0
2.7510002 -0.17322259 0.63300067 0
2.7520001 -0.17751926 0.63309807 0
2.7520001 -0.18176182 0.63309807 0
2.7530003 -0.1860639 0.63319552 0
2.7530003 -0.19030827 0.63319552 0
2.7530003 -0.19455263 0.63319552 0
2.7540002 -0.19886193 0.63329291 0
2.7540002 -0.2031081 0.63329291 0
2.7550001 -0.20742279 0.63339031 0
2.7550001 -0.21167077 0.63339031 0
2.7560003 -0.21599089 0.6334877 0
2.7560003 -0.22024067 0.6334877 0
2.7570002 -0.22456619 0.6335851 0
2.7570002 -0.22881778 0.6335851 0
2.7580001 -0.23314871 0.63368249 0
2.7580001 -0.23740208 0.63368249 0
2.7590003 -0.24173845 0.63377994 0
2.7590003 -0.24599364 0.63377994 0
2.7590003 -0.25024882 0.63377994 0
2.7600002 -0.25459239 0.63387734 0
2.7600002 -0.25884938 0.63387734 0
2.7610002 -0.26319835 0.63397473 0
2.7610002 -0.26745713 0.63397473 0
2.7620003 -0.27181154 0.63407218 0
2.7620003 -0.27607214 0.63407218 0
2.7630002 -0.28043196 0.63416958 0
2.7630002 -0.28469431 0.63416958 0
2.7640002 -0.28905955 0.63426697 0
2.7640002 -0.29332373 0.63426697 0
2.7640002 -0.29758793 0.63426697 0
2.7650001 -0.30196038 0.63436437 0
2.7650001 -0.30622637 0.63436437 0
2.7660003 -0.31060424 0.63446176 0
2.7660003 -0.31487206 0.63446176 0
2.7670002 -0.31925529 0.63455915 0
2.7250001 0.075621769 0.62627429 0
2.7250001 0.071427912 0.62627429 0
2.7260003 0.067282766 0.62636989 0
2.7260003 0.063087106 0.62636989 0
2.7260003 0.058891457 0.62636989 0
2.7270002 0.054739084 0.6264655 0
2.7270002 0.050541621 0.6264655 0
2.7280002 0.046383847 0.62656111 0
2.7280002 0.042184573 0.62656111 0
2.7290001 0.038021389 0.62665665 0
2.7290001 0.033820312 0.62665665 0
2.7300003 0.02965172 0.62675226 0
2.7300003 0.025448848 0.62675226 0
2.7300003 0.021245975 0.62675226 0
2.7310002 0.017070156 0.62684786 0
2.7310002 0.01286548 0.62684786 0
2.7320001 0.0086842477 0.62694347 0
2.7320001 0.0044777691 0.62694347 0
2.7330003 0.00029113144 0.62703907 0
2.7330003 -0.0039171539 0.62703907 0
2.7340002 -0.0081092045 0.62713468 0
2.7340002 -0.012319293 0.62713468 0
2.7340002 -0.016529379 0.62713468 0
2.7350001 -0.020728648 0.62723029 0
2.7350001 -0.024940539 0.62723029 0
2.7360003 -0.029145215 0.62732589 0
2.7360003 -0.033358913 0.62732589 0
2.7370002 -0.037569001 0.6274215 0
2.7370002 -0.041784499 0.6274215 0
2.7380002 -0.046 0.6275171 0
2.7380002 -0.050217304 0.6275171 0
2.7390003 -0.054438215 0.62761271 0
2.7390003 -0.058657322 0.62761271 0
2.7390003 -0.062876433 0.62761271 0
2.7400002 -0.067104556 0.62770832 0
2.7400002 -0.071325466 0.62770832 0
2.7410002 -0.075559005 0.62780392 0
2.7410002 -0.079781719 0.62780392 0
2.7420001 -0.084020667 0.62789953 0
2.7420001 -0.088245183 0.62789953 0
2.7430003 -0.092489555 0.62799513 0
2.7430003 -0.096715868 0.62799513 0
2.7430003 -0.10094219 0.62799513 0
2.7440002 -0.10519377 0.62809074 0
2.7440002 -0.10942189 0.62809074 0
2.7450001 -0.11367889 0.62818635 0
2.7450001 -0.11790882 0.62818635 0
2.7460003 -0.12217122 0.62828195 0
2.7460003 -0.12640296 0.62828195 0
2.7470002 -0.13067076 0.62837756 0
2.7470002 -0.1349043 0.62837756 0
2.7480001 -0.13917752 0.6284731 0
2.7480001 -0.14341286 0.6284731 0
2.7480001 -0.1476482 0.6284731 0
2.7490003 -0.15192865 0.62856877 0
2.7490003 -0.15616579 0.62856877 0
2.7500002 -0.16045164 0.62866437 0
2.7500002 -0.16469058 0.62866437 0
2.7510002 -0.16898184 0.62875992 0
2.7510002 -0.17322259 0.62875992 0
2.7520001 -0.17751926 0.62885553 0
2.7520001 -0.18176182 0.62885553 0
2.7530003 -0.1860639 0.62895113 0
2.7530003 -0.19030827 0.62895113 0
2.7530003 -0.19455263 0.62895113 0
2.7540002 -0.19886193 0.62904674 0
2.7540002 -0.2031081 0.62904674 0
2.7550001 -0.20742279 0.62914234 0
2.7550001 -0.21167077 0.62914234 0
2.7560003 -0.21599089 0.62923795 0
2.7560003 -0.22024067 0.62923795 0
2.7570002 -0.22456619 0.62933356 0
2.7570002 -0.22881778 0.62933356 0
2.7580001 -0.23314871 0.6294291 0
2.7580001 -0.23740208 0.6294291 0
2.7590003 -0.24173845 0.62952477 0
2.7590003 -0.24599364 0.62952477 0
2.7590003 -0.25024882 0.62952477 0
2.7600002 -0.25459239 0.62962037 0
2.7600002 -0.25884938 0.62962037 0
2.7610002 -0.26319835 0.62971592 0
2.7610002 -0.26745713 0.62971592 0
2.7620003 -0.27181154 0.62981158 0
2.7620003 -0.27607214 0.62981158 0
2.7630002 -0.28043196 0.62990713 0
2.7630002 -0.28469431 0.62990713 0
2.7640002 -0.28905955 0.63000274 0
2.7640002 -0.29332373 0.63000274 0
2.7640002 -0.29758793 0.63000274 0
2.7650001 -0.30196038 0.63009834 0
2.7650001 -0.30622637 0.63009834 0
2.7660003 -0.31060424 0.63019395 0
2.7660003 -0.31487206 0.63019395 0
2.7670002 -0.31925529 0.63028955 0
2.7250001 0.075621769 0.62208045 0
2.7250001 0.071427912 0.62208045 0
2.7260003 0.067282766 0.62217426 0
2.7260003 0.063087106 0.62217426 0
2.7260003 0.058891457 0.62217426 0
2.7270002 0.054739084 0.62226802 0
2.7270002 0.050541621 0.62226802 0
2.7280002 0.046383847 0.62236178 0
2.7280002 0.042184573 0.62236178 0
2.7290001 0.038021389 0.6224556 0
2.7290001 0.033820312 0.6224556 0
2.7300003 0.02965172 0.62254941 0
2.7300003 0.025448848 0.62254941 0
2.7300003 0.021245975 0.62254941 0
2.7310002 0.017070156 0.62264323 0
2.7310002 0.01286548 0.62264323 0
2.7320001 0.0086842477 0.62273699 0
2.7320001 0.0044777691 0.62273699 0
2.7330003 0.00029113144 0.62283081 0
2.7330003 -0.0039171539 0.62283081 0
2.7340002 -0.0081092045 0.62292463 0
2.7340002 -0.012319293 0.62292463 0
2.7340002 -0.016529379 0.62292463 0
2.7350001 -0.020728648 0.62301838 0
2.7350001 -0.024940539 0.62301838 0
2.7360003 -0.029145215 0.6231122 0
2.7360003 -0.033358913 0.6231122 0
2.7370002 -0.037569001 0.62320602 0
2.7370002 -0.041784499 0.62320602 0
2.7380002 -0.046 0.62329984 0
2.7380002 -0.050217304 0.62329984 0
2.7390003 -0.054438215 0.6233936 0
2.7390003 -0.058657322 0.6233936 0
2.7390003 -0.062876433 0.6233936 0
2.7400002 -0.067104556 0.62348741 0
2.7400002 -0.071325466 0.62348741 0
2.7410002 -0.075559005 0.62358117 0
2.7410002 -0.079781719 0.62358117 0
2.7420001 -0.084020667 0.62367499 0
2.7420001 -0.088245183 0.62367499 0
2.7430003 -0.092489555 0.62376881 0
2.7430003 -0.096715868 0.62376881 0
2.7430003 -0.10094219 0.62376881 0
2.7440002 -0.10519377 0.62386262 0
2.7440002 -0.10942189 0.62386262 0
2.7450001 -0.11367889 0.62395638 0
2.7450001 -0.11790882 0.62395638 0
2.7460003 -0.12217122 0.6240502 0
2.7460003 -0.12640296 0.6240502 0
2.7470002 -0.13067076 0.62414396 0
2.7470002 -0.1349043 0.62414396 0
2.7480001 -0.13917752 0.62423778 0
2.7480001 -0.14341286 0.62423778 0
2.7480001 -0.1476482 0.62423778 0
2.7490003 -0.15192865 0.62433159 0
2.7490003 -0.15616579 0.62433159 0
2.7500002 -0.16045164 0.62442541 0
2.7500002 -0.16469058 0.62442541 0
2.7510002 -0.16898184 0.62451917 0
2.7510002 -0.17322259 0.62451917 0
2.7520001 -0.17751926 0.62461299 0
2.7520001 -0.18176182 0.62461299 0
2.7530003 -0.1860639 0.6247068 0
2.7530003 -0.19030827 0.6247068 0
2.7530003 -0.19455263 0.6247068 0
2.7540002 -0.19886193 0.62480056 0
2.7540002 -0.2031081 0.62480056 0
2.7550001 -0.20742279 0.62489438 0
2.7550001 -0.21167077 0.62489438 0
2.7560003 -0.21599089 0.6249882 0
2.7560003 -0.22024067 0.6249882 0
2.7570002 -0.22456619 0.62508196 0
2.7570002 -0.22881778 0.62508196 0
2.7580001 -0.23314871 0.62517577 0
2.7580001 -0.23740208 0.62517577 0
2.7590003 -0.24173845 0.62526959 0
2.7590003 -0.24599364 0.62526959 0
2.7590003 -0.25024882 0.62526959 0
2.7600002 -0.25459239 0.62536335 0
2.7600002 -0.25884938 0.62536335 0
2.7610002 -0.26319835 0.62545717 0
2.7610002 -0.26745713 0.62545717 0
2.7620003 -0.27181154 0.62555099 0
2.7620003 -0.27607214 0.62555099 0
2.7630002 -0.28043196 0.62564474 0
2.7630002 -0.28469431 0.62564474 0
2.7640002 -0.28905955 0.62573856 0
2.7640002 -0.29332373 0.62573856 0
2.7640002 -0.29758793 0.62573856 0
2.7650001 -0.30196038 0.62583232 0
2.7650001 -0.30622637 0.62583232 0
2.7660003 -0.31060424 0.62592614 0
2.7660003 -0.31487206 0.62592614 0
2.7670002 -0.31925529 0.62601995 0
2.7250001 0.075621769 0.61788654 0
2.7250001 0.071427912 0.61788654 0
2.7260003 0.067282766 0.61797857 0
2.7260003 0.063087106 0.61797857 0
2.7260003 0.058891457 0.61797857 0
2.7270002 0.054739084 0.6180706 0
2.7270002 0.050541621 0.6180706 0
2.7280002 0.046383847 0.61816257 0
2.7280002 0.042184573 0.61816257 0
2.7290001 0.038021389 0.61825454 0
2.7290001 0.033820312 0.61825454 0
2.7300003 0.02965172 0.61834657 0
2.7300003 0.025448848 0.61834657 0
2.7300003 0.021245975 0.61834657 0
2.7310002 0.017070156 0.61843854 0
2.7310002 0.01286548 0.61843854 0
2.7320001 0.0086842477 0.61853051 0
2.7320001 0.0044777691 0.61853051 0
2.7330003 0.00029113144 0.61862254 0
2.7330003 -0.0039171539 0.61862254 0
2.7340002 -0.0081092045 0.61871451 0
2.7340002 -0.012319293 0.61871451 0
2.7340002 -0.016529379 0.61871451 0
2.7350001 -0.020728648 0.61880648 0
2.7350001 -0.024940539 0.61880648 0
2.7360003 -0.029145215 0.61889851 0
2.7360003 -0.033358913 0.61889851 0
2.7370002 -0.037569001 0.61899048 0
2.7370002 -0.041784499 0.61899048 0
2.7380002 -0.046 0.61908251 0
2.7380002 -0.050217304 0.61908251 0
2.7390003 -0.054438215 0.61917448 0
2.7390003 -0.058657322 0.61917448 0
2.7390003 -0.062876433 0.61917448 0
2.7400002 -0.067104556 0.61926651 0
2.7400002 -0.071325466 0.61926651 0
2.7410002 -0.075559005 0.61935848 0
2.7410002 -0.079781719 0.61935848 0
2.7420001 -0.084020667 0.61945045 0
2.7420001 -0.088245183 0.61945045 0
2.7430003 -0.092489555 0.61954248 0
2.7430003 -0.096715868 0.61954248 0
2.7430003 -0.10094219 0.61954248 0
2.7440002 -0.10519377 0.61963445 0
2.7440002 -0.10942189 0.61963445 0
2.7450001 -0.11367889 0.61972642 0
2.7450001 -0.11790882 0.61972642 0
2.7460003 -0.12217122 0.61981845 0
2.7460003 -0.12640296 0.61981845 0
2.7470002 -0.13067076 0.61991048 0
2.7470002 -0.1349043 0.61991048 0
2.7480001 -0.13917752 0.62000245 0
2.7480001 -0.14341286 0.62000245 0
2.7480001 -0.1476482 0.62000245 0
2.7490003 -0.15192865 0.62009442 0
2.7490003 -0.15616579 0.62009442 0
2.7500002 -0.16045164 0.62018645 0
2.7500002 -0.16469058 0.62018645 0
2.7510002 -0.16898184 0.62027842 0
2.7510002 -0.17322259 0.62027842 0
2.7520001 -0.17751926 0.62037039 0
2.7520001 -0.18176182 0.62037039 0
2.7530003 -0.1860639 0.62046242 0
2.7530003 -0.19030827 0.62046242 0
2.7530003 -0.19455263 0.62046242 0
2.7540002 -0.19886193 0.62055439 0
2.7540002 -0.2031081 0.62055439 0
2.7550001 -0.20742279 0.62064642 0
2.7550001 -0.21167077 0.62064642 0
2.7560003 -0.21599089 0.62073839 0
2.7560003 -0.22024067 0.62073839 0
2.7570002 -0.22456619 0.62083042 0
2.7570002 -0.22881778 0.62083042 0
2.7580001 -0.23314871 0.62092239 0
2.7580001 -0.23740208 0.62092239 0
2.7590003 -0.24173845 0.62101436 0
2.7590003 -0.24599364 0.62101436 0
2.7590003 -0.25024882 0.62101436 0
2.7600002 -0.25459239 0.62110639 0
2.7600002 -0.25884938 0.62110639 0
2.7610002 -0.26319835 0.62119836 0
2.7610002 -0.26745713 0.62119836 0
2.7620003 -0.27181154 0.62129039 0
2.7620003 -0.27607214 0.62129039 0
2.7630002 -0.28043196 0.62138236 0
2.7630002 -0.28469431 0.62138236 0
2.7640002 -0.28905955 0.62147433 0
2.7640002 -0.29332373 0.62147433 0
2.7640002 -0.29758793 0.62147433 0
2.7650001 -0.30196038 0.6215663 0
2.7650001 -0.30622637 0.6215663 0
2.7660003 -0.31060424 0.62165833 0
2.7660003 -0.31487206 0.62165833 0
2.7670002 -0.31925529 0.62175035 0
2.7250001 0.075621769 0.6136927 0
2.7250001 0.071427912 0.6136927 0
2.7260003 0.067282766 0.61378294 0
2.7260003 0.063087106 0.61378294 0
2.7260003 0.058891457 0.61378294 0
2.7270002 0.054739084 0.61387312 0
2.7270002 0.050541621 0.61387312 0
2.7280002 0.046383847 0.61396331 0
2.7280002 0.042184573 0.61396331 0
2.7290001 0.038021389 0.61405349 0
2.7290001 0.033820312 0.61405349 0
2.7300003 0.02965172 0.61414367 0
2.7300003 0.025448848 0.61414367 0
2.7300003 0.021245975 0.61414367 0
2.7310002 0.017070156 0.61423385 0
2.7310002 0.01286548 0.61423385 0
2.7320001 0.0086842477 0.61432403 0
2.7320001 0.0044777691 0.61432403 0
2.7330003 0.00029113144 0.61441422 0
2.7330003 -0.0039171539 0.61441422 0
2.7340002 -0.0081092045 0.61450446 0
2.7340002 -0.012319293 0.61450446 0
2.7340002 -0.016529379 0.61450446 0
2.7350001 -0.020728648 0.61459458 0
2.7350001 -0.024940539 0.61459458 0
2.7360003 -0.029145215 0.61468482 0
2.7360003 -0.033358913 0.61468482 0
2.7370002 -0.037569001 0.614775 0
2.7370002 -0.041784499 0.614775 0
2.7380002 -0.046 0.61486518 0
2.7380002 -0.050217304 0.61486518 0
2.7390003 -0.054438215 0.61495543 0
2.7390003 -0.058657322 0.61495543 0
2.7390003 -0.062876433 0.61495543 0
2.7400002 -0.067104556 0.61504555 0
2.7400002 -0.071325466 0.61504555 0
2.7410002 -0.075559005 0.61513579 0
2.7410002 -0.079781719 0.61513579 0
2.7420001 -0.084020667 0.61522591 0
2.7420001 -0.088245183 0.61522591 0
2.7430003 -0.092489555 0.61531615 0
2.7430003 -0.096715868 0.61531615 0
2.7430003 -0.10094219 0.61531615 0
2.7440002 -0.10519377 0.61540633 0
2.7440002 -0.10942189 0.61540633 0
2.7450001 -0.11367889 0.61549652 0
2.7450001 -0.11790882 0.61549652 0
2.7460003 -0.12217122 0.61558676 0
2.7460003 -0.12640296 0.61558676 0
2.7470002 -0.13067076 0.61567688 0
2.7470002 -0.1349043 0.61567688 0
2.7480001 -0.13917752 0.61576712 0
2.7480001 -0.14341286 0.61576712 0
2.7480001 -0.1476482 0.61576712 0
2.7490003 -0.15192865 0.6158573 0
2.7490003 -0.15616579 0.6158573 0
2.7500002 -0.16045164 0.61594748 0
2.7500002 -0.16469058 0.61594748 0
2.7510002 -0.16898184 0.61603767 0
2.7510002 -0.17322259 0.61603767 0
2.7520001 -0.17751926 0.61612785 0
2.7520001 -0.18176182 0.61612785 0
2.7530003 -0.1860639 0.61621809 0
2.7530003 -0.19030827 0.61621809 0
2.7530003 -0.19455263 0.61621809 0
2.7540002 -0.19886193 0.61630821 0
2.7540002 -0.2031081 0.61630821 0
2.7550001 -0.20742279 0.61639845 0
2.7550001 -0.21167077 0.61639845 0
2.7560003 -0.21599089 0.61648864 0
2.7560003 -0.22024067 0.61648864 0
2.7570002 -0.22456619 0.61657882 0
2.7570002 -0.22881778 0.61657882 0
2.7580001 -0.23314871 0.616669 0
2.7580001 -0.23740208 0.616669 0
2.7590003 -0.24173845 0.61675918 0
2.7590003 -0.24599364 0.61675918 0
2.7590003 -0.25024882 0.61675918 0
2.7600002 -0.25459239 0.61684942 0
2.7600002 -0.25884938 0.61684942 0
2.7610002 -0.26319835 0.61693954 0
2.7610002 -0.26745713 0.61693954 0
2.7620003 -0.27181154 0.61702979 0
2.7620003 -0.27607214 0.61702979 0
2.7630002 -0.28043196 0.61711997 0
2.7630002 -0.28469431 0.61711997 0
2.7640002 -0.28905955 0.61721015 0
2.7640002 -0.29332373 0.61721015 0
2.7640002 -0.29758793 0.61721015 0
2.7650001 -0.30196038 0.61730033 0
2.7650001 -0.30622637 0.61730033 0
2.7660003 -0.31060424 0.61739051 0
2.7660003 -0.31487206 0.61739051 0
2.7670002 -0.31925529 0.61748075 0
2.7250001 0.075621769 0.60949886 0
2.7250001 0.071427912 0.60949886 0
2.7260003 0.067282766 0.60958725 0
2.7260003 0.063087106 0.60958725 0
2.7260003 0.058891457 0.60958725 0
2.7270002 0.054739084 0.60967565 0
2.7270002 0.050541621 0.60967565 0
2.7280002 0.046383847 0.60976404 0
2.7280002 0.042184573 0.60976404 0
2.7290001 0.038021389 0.60985243 0
2.7290001 0.033820312 0.60985243 0
2.7300003 0.02965172 0.60994077 0
2.7300003 0.025448848 0.60994077 0
2.7300003 0.021245975 0.60994077 0
2.7310002 0.017070156 0.61002916 0
2.7310002 0.01286548 0.61002916 0
2.7320001 0.0086842477 0.61011755 0
2.7320001 0.0044777691 0.61011755 0
2.7330003 0.00029113144 0.61020595 0
2.7330003 -0.0039171539 0.61020595 0
2.7340002 -0.0081092045 0.61029434 0
2.7340002 -0.012319293 0.61029434 0
2.7340002 -0.016529379 0.61029434 0
2.7350001 -0.020728648 0.61038274 0
2.7350001 -0.024940539 0.61038274 0
2.7360003 -0.029145215 0.61047113 0
2.7360003 -0.033358913 0.61047113 0
2.7370002 -0.037569001 0.61055952 0
2.7370002 -0.041784499 0.61055952 0
2.7380002 -0.046 0.61064792 0
2.7380002 -0.050217304 0.61064792 0
2.7390003 -0.054438215 0.61073625 0
2.7390003 -0.058657322 0.61073625 0
2.7390003 -0.062876433 0.61073625 0
2.7400002 -0.067104556 0.61082464 0
2.7400002 -0.071325466 0.61082464 0
2.7410002 -0.075559005 0.61091304 0
2.7410002 -0.079781719 0.61091304 0
2.7420001 -0.084020667 0.61100143 0
2.7420001 -0.088245183 0.61100143 0
2.7430003 -0.092489555 0.61108983 0
2.7430003 -0.096715868 0.61108983 0
2.7430003 -0.10094219 0.61108983 0
2.7440002 -0.10519377 0.61117822 0
2.7440002 -0.10942189 0.61117822 0
2.7450001 -0.11367889 0.61126661 0
2.7450001 -0.11790882 0.61126661 0
2.7460003 -0.12217122 0.61135501 0
2.7460003 -0.12640296 0.61135501 0
2.7470002 -0.13067076 0.6114434 0
2.7470002 -0.1349043 0.6114434 0
2.7480001 -0.13917752 0.61153173 0
2.7480001 -0.14341286 0.61153173 0
2.7480001 -0.1476482 0.61153173 0
2.7490003 -0.15192865 0.61162019 0
2.7490003 -0.15616579 0.61162019 0
2.7500002 -0.16045164 0.61170852 0
2.7500002 -0.16469058 0.61170852 0
2.7510002 -0.16898184 0.61179692 0
2.7510002 -0.17322259 0.61179692 0
2.7520001 -0.17751926 0.61188531 0
2.7520001 -0.18176182 0.61188531 0
2.7530003 -0.1860639 0.6119737 0
2.7530003 -0.19030827 0.6119737 0
2.7530003 -0.19455263 0.6119737 0
2.7540002 -0.19886193 0.6120621 0
2.7540002 -0.2031081 0.6120621 0
2.7550001 -0.20742279 0.61215043 0
2.7550001 -0.21167077 0.61215043 0
2.7560003 -0.21599089 0.61223888 0
2.7560003 -0.22024067 0.61223888 0
2.7570002 -0.22456619 0.61232722 0
2.7570002 -0.22881778 0.61232722 0
2.7580001 -0.23314871 0.61241561 0
2.7580001 -0.23740208 0.61241561 0
2.7590003 -0.24173845 0.61250401 0
2.7590003 -0.24599364 0.61250401 0
2.7590003 -0.25024882 0.61250401 0
2.7600002 -0.25459239 0.6125924 0
2.7600002 -0.25884938 0.6125924 0
2.7610002 -0.26319835 0.61268079 0
2.7610002 -0.26745713 0.61268079 0
2.7620003 -0.27181154 0.61276919 0
2.7620003 -0.27607214 0.61276919 0
2.7630002 -0.28043196 0.61285758 0
2.7630002 -0.28469431 0.61285758 0
2.7640002 -0.28905955 0.61294591 0
2.7640002 -0.29332373 0.61294591 0
2.7640002 -0.29758793 0.61294591 0
2.7650001 -0.30196038 0.61303431 0
2.7650001 -0.30622637 0.61303431 0
2.7660003 -0.31060424 0.6131227 0
2.7660003 -0.31487206 0.6131227 0
2.7670002 -0.31925529 0.6132111 0
2.7250001 0.075621769 0.60530502 0
2.7250001 0.071427912 0.60530502 0
2.7260003 0.067282766 0.60539162 0
2.7260003 0.063087106 0.60539162 0
2.7260003 0.058891457 0.60539162 0
2.7270002 0.054739084 0.60547817 0
2.7270002 0.050541621 0.60547817 0
2.7280002 0.046383847 0.60556477 0
2.7280002 0.042184573 0.60556477 0
2.7290001 0.038021389 0.60565132 0
2.7290001 0.033820312 0.60565132 0
2.7300003 0.02965172 0.60573792 0
2.7300003 0.025448848 0.60573792 0
2.7300003 0.021245975 0.60573792 0
2.7310002 0.017070156 0.60582447 0
2.7310002 0.01286548 0.60582447 0
2.7320001 0.0086842477 0.60591108 0
2.7320001 0.0044777691 0.60591108 0
2.7330003 0.00029113144 0.60599768 0
2.7330003 -0.0039171539 0.60599768 0
2.7340002 -0.0081092045 0.60608423 0
2.7340002 -0.012319293 0.60608423 0
2.7340002 -0.016529379 0.60608423 0
2.7350001 -0.020728648 0.60617083 0
2.7350001 -0.024940539 0.60617083 0
2.7360003 -0.029145215 0.60625744 0
2.7360003 -0.033358913 0.60625744 0
2.7370002 -0.037569001 0.60634398 0
2.7370002 -0.041784499 0.60634398 0
2.7380002 -0.046 0.60643059 0
2.7380002 -0.050217304 0.60643059 0
2.7390003 -0.054438215 0.6065172 0
2.7390003 -0.058657322 0.6065172 0
2.7390003 -0.062876433 0.6065172 0
2.7400002 -0.067104556 0.60660374 0
2.7400002 -0.071325466 0.60660374 0
2.7410002 -0.075559005 0.60669035 0
2.7410002 -0.079781719 0.60669035 0
2.7420001 -0.084020667 0.60677689 0
2.7420001 -0.088245183 0.60677689 0
2.7430003 -0.092489555 0.6068635 0
2.7430003 -0.096715868 0.6068635 0
2.7430003 -0.10094219 0.6068635 0
2.7440002 -0.10519377 0.6069501 0
2.7440002 -0.10942189 0.6069501 0
2.7450001 -0.11367889 0.60703665 0
2.7450001 -0.11790882 0.60703665 0
2.7460003 -0.12217122 0.60712326 0
2.7460003 -0.12640296 0.60712326 0
2.7470002 -0.13067076 0.6072098 0
2.7470002 -0.1349043 0.6072098 0
2.7480001 -0.13917752 0.60729641 0
2.7480001 -0.14341286 0.60729641 0
2.7480001 -0.1476482 0.60729641 0
2.7490003 -0.15192865 0.60738301 0
2.7490003 -0.15616579 0.60738301 0
2.7500002 -0.16045164 0.60746956 0
2.7500002 -0.16469058 0.60746956 0
2.7510002 -0.16898184 0.60755616 0
2.7510002 -0.17322259 0.60755616 0
2.7520001 -0.17751926 0.60764271 0
2.7520001 -0.18176182 0.60764271 0
2.7530003 -0.1860639 0.60772932 0
2.7530003 -0.19030827 0.60772932 0
2.7530003 -0.19455263 0.60772932 0
2.7540002 -0.19886193 0.60781592 0
2.7540002 -0.2031081 0.60781592 0
2.7550001 -0.20742279 0.60790247 0
2.7550001 -0.21167077 0.60790247 0
2.7560003 -0.21599089 0.60798907 0
2.7560003 -0.22024067 0.60798907 0
2.7570002 -0.22456619 0.60807562 0
2.7570002 -0.22881778 0.60807562 0
2.7580001 -0.23314871 0.60816222 0
2.7580001 -0.23740208 0.60816222 0
2.7590003 -0.24173845 0.60824883 0
2.7590003 -0.24599364 0.60824883 0
2.7590003 -0.25024882 0.60824883 0
2.7600002 -0.25459239 0.60833538 0
2.7600002 -0.25884938 0.60833538 0
2.7610002 -0.26319835 0.60842198 0
2.7610002 -0.26745713 0.60842198 0
2.7620003 -0.27181154 0.60850859 0
2.7620003 -0.27607214 0.60850859 0
2.7630002 -0.28043196 0.60859513 0
2.7630002 -0.28469431 0.60859513 0
2.7640002 -0.28905955 0.60868174 0
2.7640002 -0.29332373 0.60868174 0
2.7640002 -0.29758793 0.60868174 0
2.7650001 -0.30196038 0.60876834 0
2.7650001 -0.30622637 0.60876834 0
2.7660003 -0.31060424 0.60885489 0
2.7660003 -0.31487206 0.60885489 0
2.7670002 -0.31925529 0.6089415 0
2.7250001 0.075621769 0.60111117 0
2.7250001 0.071427912 0.60111117 0
2.7260003 0.067282766 0.60119593 0
2.7260003 0.063087106 0.60119593 0
2.7260003 0.058891457 0.60119593 0
2.7270002 0.054739084 0.60128069 0
2.7270002 0.050541621 0.60128069 0
2.7280002 0.046383847 0.60136551 0
2.7280002 0.042184573 0.60136551 0
2.7290001 0.038021389 0.60145026 0
2.7290001 0.033820312 0.60145026 0
2.7300003 0.02965172 0.60153508 0
2.7300003 0.025448848 0.60153508 0
2.7300003 0.021245975 0.60153508 0
2.7310002 0.017070156 0.60161984 0
2.7310002 0.01286548 0.60161984 0
2.7320001 0.0086842477 0.6017046 0
2.7320001 0.0044777691 0.6017046 0
2.7330003 0.00029113144 0.60178941 0
2.7330003 -0.0039171539 0.60178941 0
2.7340002 -0.0081092045 0.60187417 0
2.7340002 -0.012319293 0.60187417 0
2.7340002 -0.016529379 0.60187417 0
2.7350001 -0.020728648 0.60195893 0
2.7350001 -0.024940539 0.60195893 0
2.7360003 -0.029145215 0.60204375 0
2.7360003 -0.033358913 0.60204375 0
2.7370002 -0.037569001 0.60212851 0
2.7370002 -0.041784499 0.60212851 0
2.7380002 -0.046 0.60221326 0
2.7380002 -0.050217304 0.60221326 0
2.7390003 -0.054438215 0.60229808 0
2.7390003 -0.058657322 0.60229808 0
2.7390003 -0.062876433 0.60229808 0
2.7400002 -0.067104556 0.60238284 0
2.7400002 -0.071325466 0.60238284 0
2.7410002 -0.075559005 0.6024676 0
2.7410002 -0.079781719 0.6024676 0
2.7420001 -0.084020667 0.60255241 0
2.7420001 -0.088245183 0.60255241 0
2.7430003 -0.092489555 0.60263717 0
2.7430003 -0.096715868 0.60263717 0
2.7430003 -0.10094219 0.60263717 0
2.7440002 -0.10519377 0.60272193 0
2.7440002 -0.10942189 0.60272193 0
