# .PCD v0.7 - Point Cloud Data file format
VERSION 0.7
FIELDS x y z intensity
SIZE 4 4 4 4
TYPE F F F F
COUNT 1 1 1 1
WIDTH 1397
HEIGHT 1
VIEWPOINT 0 0 0 1 0 0 0
POINTS 1397
DATA ascii
2.7690003 -0.016087446 0.53646988 0
2.7700002 -0.020349845 0.53652579 0
2.7710001 -0.024615854 0.5365817 0
2.6970003 0.36419141 0.52830046 0
2.6980002 0.36022481 0.52835453 0
2.6980002 0.35607967 0.52835453 0
2.6990001 0.35210767 0.52840865 0
2.7000003 0.3481321 0.52846277 0
2.7010002 0.3441529 0.52851689 0
2.7020001 0.34017006 0.52857101 0
2.7020001 0.3360177 0.52857101 0
2.7030003 0.33202949 0.52862513 0
2.7040002 0.32803768 0.52867925 0
2.7050002 0.32404223 0.52873337 0
2.7050002 0.31988445 0.52873337 0
2.7060001 0.31588358 0.52878749 0
2.7070003 0.31187916 0.52884161 0
2.7080002 0.3078711 0.52889568 0
2.7080002 0.3037079 0.52889568 0
2.7090001 0.29969442 0.5289498 0
2.7100003 0.29567736 0.52900392 0
2.7110002 0.29165667 0.52905804 0
2.7110002 0.28748804 0.52905804 0
2.7120001 0.28346196 0.52911216 0
2.7130003 0.27943227 0.52916628 0
2.7140002 0.27539894 0.5292204 0
2.7150002 0.27136201 0.52927446 0
2.7150002 0.26718619 0.52927446 0
2.7160003 0.2631439 0.52932858 0
2.7170002 0.25909793 0.52938271 0
2.7180002 0.25504839 0.52943683 0
2.7180002 0.25086713 0.52943683 0
2.7190001 0.24681216 0.52949095 0
2.7200003 0.24275362 0.52954507 0
2.7210002 0.23869142 0.52959919 0
2.7220001 0.23462567 0.52965331 0
2.7220001 0.23043719 0.52965331 0
2.7230003 0.22636601 0.52970743 0
2.7240002 0.22229123 0.52976155 0
2.7250001 0.21821281 0.52981561 0
2.7250001 0.21401897 0.52981561 0
2.7260003 0.20993516 0.52986979 0
2.7270002 0.20584771 0.52992386 0
2.7280002 0.20175666 0.52997798 0
2.7290001 0.19766201 0.5300321 0
2.7290001 0.19346096 0.5300321 0
2.7300003 0.1893609 0.53008622 0
2.7310002 0.18525723 0.53014034 0
2.7320001 0.18114994 0.5301944 0
2.7320001 0.17694347 0.5301944 0
2.7330003 0.17283081 0.53024852 0
2.7340002 0.16871451 0.53030264 0
2.7350001 0.16459459 0.53035676 0
2.7360003 0.16047111 0.53041089 0
2.7360003 0.15625741 0.53041089 0
2.7370002 0.15212849 0.53046501 0
2.7380002 0.14799596 0.53051913 0
2.7390003 0.14385985 0.53057325 0
2.7400002 0.1397201 0.53062737 0
2.7400002 0.13549919 0.53062737 0
2.7410002 0.13135403 0.53068149 0
2.7420001 0.12720527 0.53073561 0
2.7430003 0.12305291 0.53078973 0
2.7440002 0.11889692 0.53084379 0
2.7440002 0.1146688 0.53084379 0
2.7450001 0.11050741 0.53089792 0
2.7460003 0.10634243 0.53095204 0
2.7470002 0.10217382 0.53100616 0
2.7470002 0.097940281 0.53100616 0
2.7480001 0.093766272 0.53106028 0
2.7490003 0.089588657 0.5311144 0
2.7500002 0.085407436 0.53116852 0
2.7510002 0.081222579 0.53122258 0
2.7510002 0.076981843 0.53122258 0
2.7520001 0.072791591 0.5312767 0
2.7530003 0.068597749 0.53133082 0
2.7540002 0.064400285 0.53138494 0
2.7550001 0.060199205 0.53143907 0
2.7550001 0.055951234 0.53143907 0
2.7560003 0.051744763 0.53149319 0
2.7570002 0.047534678 0.53154731 0
2.7580001 0.043320972 0.53160143 0
2.7590003 0.039103676 0.53165555 0
2.7590003 0.034848493 0.53165555 0
2.7600002 0.030625779 0.53170967 0
2.7610002 0.026399452 0.53176373 0
2.7620003 0.022169527 0.53181785 0
2.7630002 0.017935988 0.53187197 0
2.7630002 0.013673581 0.53187197 0
2.7640002 0.009434633 0.5319261 0
2.7650001 0.0051920786 0.53198022 0
2.7660003 0.00094591081 0.53203434 0
2.7670002 -0.0033038594 0.5320884 0
2.7680001 -0.0075572394 0.53214252 0
2.7680001 -0.011828657 0.53214252 0
2.7690003 -0.016087446 0.53219664 0
2.7700002 -0.020349845 0.53225076 0
2.7710001 -0.024615854 0.53230488 0
2.6970003 0.36419141 0.52415711 0
2.6980002 0.36022481 0.52420938 0
2.6980002 0.35607967 0.52420938 0
2.6990001 0.35210767 0.52426171 0
2.7000003 0.3481321 0.52431405 0
2.7010002 0.3441529 0.52436632 0
2.7020001 0.34017006 0.52441865 0
2.7020001 0.3360177 0.52441865 0
2.7030003 0.33202949 0.52447093 0
2.7040002 0.32803768 0.52452326 0
2.7050002 0.32404223 0.52457559 0
2.7050002 0.31988445 0.52457559 0
2.7060001 0.31588358 0.52462786 0
2.7070003 0.31187916 0.5246802 0
2.7080002 0.3078711 0.52473247 0
2.7080002 0.3037079 0.52473247 0
2.7090001 0.29969442 0.5247848 0
2.7100003 0.29567736 0.52483714 0
2.7110002 0.29165667 0.52488947 0
2.7110002 0.28748804 0.52488947 0
2.7120001 0.28346196 0.52494174 0
2.7130003 0.27943227 0.52499408 0
2.7140002 0.27539894 0.52504635 0
2.7150002 0.27136201 0.52509868 0
2.7150002 0.26718619 0.52509868 0
2.7160003 0.2631439 0.52515101 0
2.7170002 0.25909793 0.52520329 0
2.7180002 0.25504839 0.52525562 0
2.7180002 0.25086713 0.52525562 0
2.7190001 0.24681216 0.52530789 0
2.7200003 0.24275362 0.52536023 0
2.7210002 0.23869142 0.52541256 0
2.7220001 0.23462567 0.52546483 0
2.7220001 0.23043719 0.52546483 0
2.7230003 0.22636601 0.52551717 0
2.7240002 0.22229123 0.5255695 0
2.7250001 0.21821281 0.52562177 0
2.7250001 0.21401897 0.52562177 0
2.7260003 0.20993516 0.5256741 0
2.7270002 0.20584771 0.52572638 0
2.7280002 0.20175666 0.52577871 0
2.7290001 0.19766201 0.52583104 0
2.7290001 0.19346096 0.52583104 0
2.7300003 0.1893609 0.52588332 0
2.7310002 0.18525723 0.52593565 0
2.7320001 0.18114994 0.52598792 0
2.7320001 0.17694347 0.52598792 0
2.7330003 0.17283081 0.52604026 0
2.7340002 0.16871451 0.52609259 0
2.7350001 0.16459459 0.52614486 0
2.7360003 0.16047111 0.5261972 0
2.7360003 0.15625741 0.5261972 0
2.7370002 0.15212849 0.52624953 0
2.7380002 0.14799596 0.5263018 0
2.7390003 0.14385985 0.52635413 0
2.7400002 0.1397201 0.52640641 0
2.7400002 0.13549919 0.52640641 0
2.7410002 0.13135403 0.52645874 0
2.7420001 0.12720527 0.52651107 0
2.7430003 0.12305291 0.52656341 0
2.7440002 0.11889692 0.52661568 0
2.7440002 0.1146688 0.52661568 0
2.7450001 0.11050741 0.52666795 0
2.7460003 0.10634243 0.52672029 0
2.7470002 0.10217382 0.52677262 0
2.7470002 0.097940281 0.52677262 0
2.7480001 0.093766272 0.52682495 0
2.7490003 0.089588657 0.52687722 0
2.7500002 0.085407436 0.52692956 0
2.7510002 0.081222579 0.52698183 0
2.7510002 0.076981843 0.52698183 0
2.7520001 0.072791591 0.52703416 0
2.7530003 0.068597749 0.5270865 0
2.7540002 0.064400285 0.52713877 0
2.7550001 0.060199205 0.5271911 0
2.7550001 0.055951234 0.5271911 0
2.7560003 0.051744763 0.52724344 0
2.7570002 0.047534678 0.52729571 0
2.7580001 0.043320972 0.52734804 0
2.7590003 0.039103676 0.52740031 0
2.7590003 0.034848493 0.52740031 0
2.7600002 0.030625779 0.52745265 0
2.7610002 0.026399452 0.52750498 0
2.7620003 0.022169527 0.52755725 0
2.7630002 0.017935988 0.52760959 0
2.7630002 0.013673581 0.52760959 0
2.7640002 0.009434633 0.52766186 0
2.7650001 0.0051920786 0.52771419 0
2.7660003 0.00094591081 0.52776653 0
2.7670002 -0.0033038594 0.5278188 0
2.7680001 -0.0075572394 0.52787113 0
2.7680001 -0.011828657 0.52787113 0
2.7690003 -0.016087446 0.52792346 0
2.7700002 -0.020349845 0.52797574 0
2.7710001 -0.024615854 0.52802807 0
2.6970003 0.36419141 0.52001375 0
2.6980002 0.36022481 0.52006423 0
2.6980002 0.35607967 0.52006423 0
2.6990001 0.35210767 0.52011478 0
2.7000003 0.3481321 0.52016526 0
2.7010002 0.3441529 0.52021575 0
2.7020001 0.34017006 0.52026629 0
2.7020001 0.3360177 0.52026629 0
2.7030003 0.33202949 0.52031678 0
2.7040002 0.32803768 0.52036726 0
2.7050002 0.32404223 0.52041781 0
2.7050002 0.31988445 0.52041781 0
2.7060001 0.31588358 0.52046829 0
2.7070003 0.31187916 0.52051884 0
2.7080002 0.3078711 0.52056932 0
2.7080002 0.3037079 0.52056932 0
2.7090001 0.29969442 0.52061981 0
2.7100003 0.29567736 0.52067035 0
2.7110002 0.29165667 0.52072084 0
2.7110002 0.28748804 0.52072084 0
2.7120001 0.28346196 0.52077132 0
2.7130003 0.27943227 0.52082187 0
2.7140002 0.27539894 0.52087235 0
2.7150002 0.27136201 0.52092284 0
2.7150002 0.26718619 0.52092284 0
2.7160003 0.2631439 0.52097338 0
2.7170002 0.25909793 0.52102387 0
2.7180002 0.25504839 0.52107435 0
2.7180002 0.25086713 0.52107435 0
2.7190001 0.24681216 0.5211249 0
2.7200003 0.24275362 0.52117538 0
2.7210002 0.23869142 0.52122593 0
2.7220001 0.23462567 0.52127641 0
2.7220001 0.23043719 0.52127641 0
2.7230003 0.22636601 0.5213269 0
2.7240002 0.22229123 0.52137744 0
2.7250001 0.21821281 0.52142793 0
2.7250001 0.21401897 0.52142793 0
2.7260003 0.20993516 0.52147841 0
2.7270002 0.20584771 0.52152896 0
2.7280002 0.20175666 0.52157944 0
2.7290001 0.19766201 0.52162993 0
2.7290001 0.19346096 0.52162993 0
2.7300003 0.1893609 0.52168047 0
2.7310002 0.18525723 0.52173096 0
2.7320001 0.18114994 0.52178144 0
2.7320001 0.17694347 0.52178144 0
2.7330003 0.17283081 0.52183199 0
2.7340002 0.16871451 0.52188247 0
2.7350001 0.16459459 0.52193302 0
2.7360003 0.16047111 0.5219835 0
2.7360003 0.15625741 0.5219835 0
2.7370002 0.15212849 0.52203399 0
2.7380002 0.14799596 0.52208453 0
2.7390003 0.14385985 0.52213502 0
2.7400002 0.1397201 0.52218556 0
2.7400002 0.13549919 0.52218556 0
2.7410002 0.13135403 0.52223605 0
2.7420001 0.12720527 0.52228653 0
2.7430003 0.12305291 0.52233708 0
2.7440002 0.11889692 0.52238756 0
2.7440002 0.1146688 0.52238756 0
2.7450001 0.11050741 0.52243805 0
2.7460003 0.10634243 0.52248859 0
2.7470002 0.10217382 0.52253908 0
2.7470002 0.097940281 0.52253908 0
2.7480001 0.093766272 0.52258956 0
2.7490003 0.089588657 0.52264011 0
2.7500002 0.085407436 0.52269059 0
2.7510002 0.081222579 0.52274108 0
2.7510002 0.076981843 0.52274108 0
2.7520001 0.072791591 0.52279162 0
2.7530003 0.068597749 0.52284211 0
2.7540002 0.064400285 0.52289259 0
2.7550001 0.060199205 0.52294314 0
2.7550001 0.055951234 0.52294314 0
2.7560003 0.051744763 0.52299362 0
2.7570002 0.047534678 0.52304411 0
2.7580001 0.043320972 0.52309465 0
2.7590003 0.039103676 0.52314514 0
2.7590003 0.034848493 0.52314514 0
2.7600002 0.030625779 0.52319568 0
2.7610002 0.026399452 0.52324617 0
2.7620003 0.022169527 0.52329671 0
2.7630002 0.017935988 0.5233472 0
2.7630002 0.013673581 0.5233472 0
2.7640002 0.009434633 0.52339768 0
2.7650001 0.0051920786 0.52344817 0
2.7660003 0.00094591081 0.52349871 0
2.7670002 -0.0033038594 0.5235492 0
2.7680001 -0.0075572394 0.52359974 0
2.7680001 -0.011828657 0.52359974 0
2.7690003 -0.016087446 0.52365023 0
2.7700002 -0.020349845 0.52370071 0
2.7710001 -0.024615854 0.52375126 0
2.6970003 0.36419141 0.51587039 0
2.6980002 0.36022481 0.51591909 0
2.6980002 0.35607967 0.51591909 0
2.6990001 0.35210767 0.51596779 0
2.7000003 0.3481321 0.51601648 0
2.7010002 0.3441529 0.51606524 0
2.7020001 0.34017006 0.51611388 0
2.7020001 0.3360177 0.51611388 0
2.7030003 0.33202949 0.51616263 0
2.7040002 0.32803768 0.51621133 0
2.7050002 0.32404223 0.51626003 0
2.7050002 0.31988445 0.51626003 0
2.7060001 0.31588358 0.51630872 0
2.7070003 0.31187916 0.51635742 0
2.7080002 0.3078711 0.51640612 0
2.7080002 0.3037079 0.51640612 0
2.7090001 0.29969442 0.51645482 0
2.7100003 0.29567736 0.51650357 0
2.7110002 0.29165667 0.51655221 0
2.7110002 0.28748804 0.51655221 0
2.7120001 0.28346196 0.51660097 0
2.7130003 0.27943227 0.51664966 0
2.7140002 0.27539894 0.51669836 0
2.7150002 0.27136201 0.51674706 0
2.7150002 0.26718619 0.51674706 0
2.7160003 0.2631439 0.51679575 0
2.7170002 0.25909793 0.51684445 0
2.7180002 0.25504839 0.51689315 0
2.7180002 0.25086713 0.51689315 0
2.7190001 0.24681216 0.51694185 0
2.7200003 0.24275362 0.51699054 0
2.7210002 0.23869142 0.5170393 0
2.7220001 0.23462567 0.51708794 0
2.7220001 0.23043719 0.51708794 0
2.7230003 0.22636601 0.51713669 0
2.7240002 0.22229123 0.51718539 0
2.7250001 0.21821281 0.51723409 0
2.7250001 0.21401897 0.51723409 0
2.7260003 0.20993516 0.51728278 0
2.7270002 0.20584771 0.51733148 0
2.7280002 0.20175666 0.51738018 0
2.7290001 0.19766201 0.51742887 0
2.7290001 0.19346096 0.51742887 0
2.7300003 0.1893609 0.51747757 0
2.7310002 0.18525723 0.51752627 0
2.7320001 0.18114994 0.51757497 0
2.7320001 0.17694347 0.51757497 0
2.7330003 0.17283081 0.51762372 0
2.7340002 0.16871451 0.51767242 0
2.7350001 0.16459459 0.51772112 0
2.7360003 0.16047111 0.51776981 0
2.7360003 0.15625741 0.51776981 0
2.7370002 0.15212849 0.51781851 0
2.7380002 0.14799596 0.51786721 0
2.7390003 0.14385985 0.5179159 0
2.7400002 0.1397201 0.5179646 0
2.7400002 0.13549919 0.5179646 0
2.7410002 0.13135403 0.5180133 0
2.7420001 0.12720527 0.518062 0
2.7430003 0.12305291 0.51811075 0
2.7440002 0.11889692 0.51815945 0
2.7440002 0.1146688 0.51815945 0
2.7450001 0.11050741 0.51820815 0
2.7460003 0.10634243 0.51825684 0
2.7470002 0.10217382 0.51830554 0
2.7470002 0.097940281 0.51830554 0
2.7480001 0.093766272 0.51835424 0
2.7490003 0.089588657 0.51840293 0
2.7500002 0.085407436 0.51845163 0
2.7510002 0.081222579 0.51850033 0
2.7510002 0.076981843 0.51850033 0
2.7520001 0.072791591 0.51854903 0
2.7530003 0.068597749 0.51859778 0
2.7540002 0.064400285 0.51864648 0
2.7550001 0.060199205 0.51869518 0
2.7550001 0.055951234 0.51869518 0
2.7560003 0.051744763 0.51874387 0
2.7570002 0.047534678 0.51879257 0
2.7580001 0.043320972 0.51884127 0
2.7590003 0.039103676 0.51888996 0
2.7590003 0.034848493 0.51888996 0
2.7600002 0.030625779 0.51893866 0
2.7610002 0.026399452 0.51898736 0
2.7620003 0.022169527 0.51903605 0
2.7630002 0.017935988 0.51908481 0
2.7630002 0.013673581 0.51908481 0
2.7640002 0.009434633 0.51913351 0
2.7650001 0.0051920786 0.51918221 0
2.7660003 0.00094591081 0.5192309 0
2.7670002 -0.0033038594 0.5192796 0
2.7680001 -0.0075572394 0.5193283 0
2.7680001 -0.011828657 0.5193283 0
2.7690003 -0.016087446 0.51937699 0
2.7700002 -0.020349845 0.51942569 0
2.7710001 -0.024615854 0.51947439 0
2.6970003 0.36419141 0.51172704 0
2.6980002 0.36022481 0.51177394 0
2.6980002 0.35607967 0.51177394 0
2.6990001 0.35210767 0.51182085 0
2.7000003 0.3481321 0.51186776 0
2.7010002 0.3441529 0.51191467 0
2.7020001 0.34017006 0.51196152 0
2.7020001 0.3360177 0.51196152 0
2.7030003 0.33202949 0.51200843 0
2.7040002 0.32803768 0.51205534 0
2.7050002 0.32404223 0.51210225 0
2.7050002 0.31988445 0.51210225 0
2.7060001 0.31588358 0.51214916 0
2.7070003 0.31187916 0.51219606 0
2.7080002 0.3078711 0.51224291 0
2.7080002 0.3037079 0.51224291 0
2.7090001 0.29969442 0.51228982 0
2.7100003 0.29567736 0.51233673 0
2.7110002 0.29165667 0.51238364 0
2.7110002 0.28748804 0.51238364 0
2.7120001 0.28346196 0.51243055 0
2.7130003 0.27943227 0.51247746 0
2.7140002 0.27539894 0.51252431 0
2.7150002 0.27136201 0.51257122 0
2.7150002 0.26718619 0.51257122 0
2.7160003 0.2631439 0.51261812 0
2.7170002 0.25909793 0.51266503 0
2.7180002 0.25504839 0.51271194 0
2.7180002 0.25086713 0.51271194 0
2.7190001 0.24681216 0.51275885 0
2.7200003 0.24275362 0.5128057 0
2.7210002 0.23869142 0.51285261 0
2.7220001 0.23462567 0.51289952 0
2.7220001 0.23043719 0.51289952 0
2.7230003 0.22636601 0.51294643 0
2.7240002 0.22229123 0.51299334 0
2.7250001 0.21821281 0.51304018 0
2.7250001 0.21401897 0.51304018 0
2.7260003 0.20993516 0.51308715 0
2.7270002 0.20584771 0.513134 0
2.7280002 0.20175666 0.51318091 0
2.7290001 0.19766201 0.51322782 0
2.7290001 0.19346096 0.51322782 0
2.7300003 0.1893609 0.51327473 0
2.7310002 0.18525723 0.51332164 0
2.7320001 0.18114994 0.51336849 0
2.7320001 0.17694347 0.51336849 0
2.7330003 0.17283081 0.5134154 0
2.7340002 0.16871451 0.51346231 0
2.7350001 0.16459459 0.51350921 0
2.7360003 0.16047111 0.51355612 0
2.7360003 0.15625741 0.51355612 0
2.7370002 0.15212849 0.51360303 0
2.7380002 0.14799596 0.51364994 0
2.7390003 0.14385985 0.51369679 0
2.7400002 0.1397201 0.5137437 0
2.7400002 0.13549919 0.5137437 0
2.7410002 0.13135403 0.51379061 0
2.7420001 0.12720527 0.51383752 0
2.7430003 0.12305291 0.51388443 0
2.7440002 0.11889692 0.51393127 0
2.7440002 0.1146688 0.51393127 0
2.7450001 0.11050741 0.51397818 0
2.7460003 0.10634243 0.51402509 0
2.7470002 0.10217382 0.514072 0
2.7470002 0.097940281 0.514072 0
2.7480001 0.093766272 0.51411891 0
2.7490003 0.089588657 0.51416582 0
2.7500002 0.085407436 0.51421273 0
2.7510002 0.081222579 0.51425958 0
2.7510002 0.076981843 0.51425958 0
2.7520001 0.072791591 0.51430649 0
2.7530003 0.068597749 0.51435339 0
2.7540002 0.064400285 0.5144003 0
2.7550001 0.060199205 0.51444721 0
2.7550001 0.055951234 0.51444721 0
2.7560003 0.051744763 0.51449406 0
2.7570002 0.047534678 0.51454097 0
2.7580001 0.043320972 0.51458788 0
2.7590003 0.039103676 0.51463479 0
2.7590003 0.034848493 0.51463479 0
2.7600002 0.030625779 0.5146817 0
2.7610002 0.026399452 0.51472861 0
2.7620003 0.022169527 0.51477551 0
2.7630002 0.017935988 0.51482236 0
2.7630002 0.013673581 0.51482236 0
2.7640002 0.009434633 0.51486927 0
2.7650001 0.0051920786 0.51491618 0
2.7660003 0.00094591081 0.51496309 0
2.7670002 -0.0033038594 0.51501 0
2.7680001 -0.0075572394 0.51505685 0
2.7680001 -0.011828657 0.51505685 0
2.7690003 -0.016087446 0.51510376 0
2.7700002 -0.020349845 0.51515067 0
2.7710001 -0.024615854 0.51519758 0
2.6970003 0.36419141 0.50758368 0
2.6980002 0.36022481 0.5076288 0
2.6980002 0.35607967 0.5076288 0
2.6990001 0.35210767 0.50767386 0
2.7000003 0.3481321 0.50771898 0
2.7010002 0.3441529 0.5077641 0
2.7020001 0.34017006 0.50780916 0
2.7020001 0.3360177 0.50780916 0
2.7030003 0.33202949 0.50785428 0
2.7040002 0.32803768 0.50789934 0
2.7050002 0.32404223 0.50794446 0
2.7050002 0.31988445 0.50794446 0
2.7060001 0.31588358 0.50798953 0
2.7070003 0.31187916 0.50803465 0
2.7080002 0.3078711 0.50807977 0
2.7080002 0.3037079 0.50807977 0
2.7090001 0.29969442 0.50812483 0
2.7100003 0.29567736 0.50816995 0
2.7110002 0.29165667 0.50821501 0
2.7110002 0.28748804 0.50821501 0
2.7120001 0.28346196 0.50826013 0
2.7130003 0.27943227 0.50830525 0
2.7140002 0.27539894 0.50835031 0
2.7150002 0.27136201 0.50839543 0
2.7150002 0.26718619 0.50839543 0
2.7160003 0.2631439 0.50844049 0
2.7170002 0.25909793 0.50848562 0
2.7180002 0.25504839 0.50853068 0
2.7180002 0.25086713 0.50853068 0
2.7190001 0.24681216 0.5085758 0
2.7200003 0.24275362 0.50862092 0
2.7210002 0.23869142 0.50866598 0
2.7220001 0.23462567 0.5087111 0
2.7220001 0.23043719 0.5087111 0
2.7230003 0.22636601 0.50875616 0
2.7240002 0.22229123 0.50880128 0
2.7250001 0.21821281 0.50884634 0
2.7250001 0.21401897 0.50884634 0
2.7260003 0.20993516 0.50889146 0
2.7270002 0.20584771 0.50893658 0
2.7280002 0.20175666 0.50898165 0
2.7290001 0.19766201 0.50902677 0
2.7290001 0.19346096 0.50902677 0
2.7300003 0.1893609 0.50907183 0
2.7310002 0.18525723 0.50911695 0
2.7320001 0.18114994 0.50916201 0
2.7320001 0.17694347 0.50916201 0
2.7330003 0.17283081 0.50920713 0
2.7340002 0.16871451 0.50925219 0
2.7350001 0.16459459 0.50929731 0
2.7360003 0.16047111 0.50934243 0
2.7360003 0.15625741 0.50934243 0
2.7370002 0.15212849 0.50938749 0
2.7380002 0.14799596 0.50943261 0
2.7390003 0.14385985 0.50947773 0
2.7400002 0.1397201 0.5095228 0
2.7400002 0.13549919 0.5095228 0
2.7410002 0.13135403 0.50956786 0
2.7420001 0.12720527 0.50961298 0
2.7430003 0.12305291 0.5096581 0
2.7440002 0.11889692 0.50970316 0
2.7440002 0.1146688 0.50970316 0
2.7450001 0.11050741 0.50974828 0
2.7460003 0.10634243 0.5097934 0
2.7470002 0.10217382 0.50983846 0
2.7470002 0.097940281 0.50983846 0
2.7480001 0.093766272 0.50988352 0
2.7490003 0.089588657 0.50992864 0
2.7500002 0.085407436 0.50997376 0
2.7510002 0.081222579 0.51001883 0
2.7510002 0.076981843 0.51001883 0
2.7520001 0.072791591 0.51006395 0
2.7530003 0.068597749 0.51010907 0
2.7540002 0.064400285 0.51015413 0
2.7550001 0.060199205 0.51019919 0
2.7550001 0.055951234 0.51019919 0
2.7560003 0.051744763 0.51024431 0
2.7570002 0.047534678 0.51028943 0
2.7580001 0.043320972 0.51033449 0
2.7590003 0.039103676 0.51037961 0
2.7590003 0.034848493 0.51037961 0
2.7600002 0.030625779 0.51042473 0
2.7610002 0.026399452 0.51046979 0
2.7620003 0.022169527 0.51051491 0
2.7630002 0.017935988 0.51055998 0
2.7630002 0.013673581 0.51055998 0
2.7640002 0.009434633 0.5106051 0
2.7650001 0.0051920786 0.51065016 0
2.7660003 0.00094591081 0.51069528 0
2.7670002 -0.0033038594 0.5107404 0
2.7680001 -0.0075572394 0.51078546 0
2.7680001 -0.011828657 0.51078546 0
2.7690003 -0.016087446 0.51083058 0
2.7700002 -0.020349845 0.51087564 0
2.7710001 -0.024615854 0.51092076 0
2.6970003 0.36419141 0.50344038 0
2.6980002 0.36022481 0.50348365 0
2.6980002 0.35607967 0.50348365 0
2.6990001 0.35210767 0.50352693 0
2.7000003 0.3481321 0.5035702 0
2.7010002 0.3441529 0.50361353 0
2.7020001 0.34017006 0.5036568 0
2.7020001 0.3360177 0.5036568 0
2.7030003 0.33202949 0.50370014 0
2.7040002 0.32803768 0.50374341 0
2.7050002 0.32404223 0.50378668 0
2.7050002 0.31988445 0.50378668 0
2.7060001 0.31588358 0.50382996 0
2.7070003 0.31187916 0.50387329 0
2.7080002 0.3078711 0.50391656 0
2.7080002 0.3037079 0.50391656 0
2.7090001 0.29969442 0.50395983 0
2.7100003 0.29567736 0.50400317 0
2.7110002 0.29165667 0.50404644 0
2.7110002 0.28748804 0.50404644 0
2.7120001 0.28346196 0.50408971 0
2.7130003 0.27943227 0.50413305 0
2.7140002 0.27539894 0.50417632 0
2.7150002 0.27136201 0.50421959 0
2.7150002 0.26718619 0.50421959 0
2.7160003 0.2631439 0.50426292 0
2.7170002 0.25909793 0.5043062 0
2.7180002 0.25504839 0.50434947 0
2.7180002 0.25086713 0.50434947 0
2.7190001 0.24681216 0.50439274 0
2.7200003 0.24275362 0.50443608 0
2.7210002 0.23869142 0.50447935 0
2.7220001 0.23462567 0.50452262 0
2.7220001 0.23043719 0.50452262 0
2.7230003 0.22636601 0.50456595 0
2.7240002 0.22229123 0.50460923 0
2.7250001 0.21821281 0.5046525 0
2.7250001 0.21401897 0.5046525 0
2.7260003 0.20993516 0.50469583 0
2.7270002 0.20584771 0.50473911 0
2.7280002 0.20175666 0.50478238 0
2.7290001 0.19766201 0.50482565 0
2.7290001 0.19346096 0.50482565 0
2.7300003 0.1893609 0.50486898 0
2.7310002 0.18525723 0.50491226 0
2.7320001 0.18114994 0.50495553 0
2.7320001 0.17694347 0.50495553 0
2.7330003 0.17283081 0.50499886 0
2.7340002 0.16871451 0.50504214 0
2.7350001 0.16459459 0.50508541 0
2.7360003 0.16047111 0.50512874 0
2.7360003 0.15625741 0.50512874 0
2.7370002 0.15212849 0.50517201 0
2.7380002 0.14799596 0.50521529 0
2.7390003 0.14385985 0.50525862 0
2.7400002 0.1397201 0.50530189 0
2.7400002 0.13549919 0.50530189 0
2.7410002 0.13135403 0.50534517 0
2.7420001 0.12720527 0.50538844 0
2.7430003 0.12305291 0.50543177 0
2.7440002 0.11889692 0.50547504 0
2.7440002 0.1146688 0.50547504 0
2.7450001 0.11050741 0.50551832 0
2.7460003 0.10634243 0.50556165 0
2.7470002 0.10217382 0.50560492 0
2.7470002 0.097940281 0.50560492 0
2.7480001 0.093766272 0.5056482 0
2.7490003 0.089588657 0.50569153 0
2.7500002 0.085407436 0.5057348 0
2.7510002 0.081222579 0.50577807 0
2.7510002 0.076981843 0.50577807 0
2.7520001 0.072791591 0.50582135 0
2.7530003 0.068597749 0.50586468 0
2.7540002 0.064400285 0.50590795 0
2.7550001 0.060199205 0.50595123 0
2.7550001 0.055951234 0.50595123 0
2.7560003 0.051744763 0.50599456 0
2.7570002 0.047534678 0.50603783 0
2.7580001 0.043320972 0.5060811 0
2.7590003 0.039103676 0.50612444 0
2.7590003 0.034848493 0.50612444 0
2.7600002 0.030625779 0.50616771 0
2.7610002 0.026399452 0.50621098 0
2.7620003 0.022169527 0.50625432 0
2.7630002 0.017935988 0.50629759 0
2.7630002 0.013673581 0.50629759 0
2.7640002 0.009434633 0.50634086 0
2.7650001 0.0051920786 0.50638419 0
2.7660003 0.00094591081 0.50642747 0
2.7670002 -0.0033038594 0.50647074 0
2.7680001 -0.0075572394 0.50651407 0
2.7680001 -0.011828657 0.50651407 0
2.7690003 -0.016087446 0.50655735 0
2.7700002 -0.020349845 0.50660062 0
2.7710001 -0.024615854 0.50664389 0
2.6970003 0.36419141 0.49929702 0
2.6980002 0.36022481 0.49933851 0
2.6980002 0.35607967 0.49933851 0
2.6990001 0.35210767 0.49937999 0
2.7000003 0.3481321 0.49942148 0
2.7010002 0.3441529 0.49946296 0
2.7020001 0.34017006 0.49950445 0
2.7020001 0.3360177 0.49950445 0
2.7030003 0.33202949 0.49954593 0
2.7040002 0.32803768 0.49958742 0
2.7050002 0.32404223 0.4996289 0
2.7050002 0.31988445 0.4996289 0
2.7060001 0.31588358 0.49967039 0
2.7070003 0.31187916 0.49971187 0
2.7080002 0.3078711 0.49975336 0
2.7080002 0.3037079 0.49975336 0
2.7090001 0.29969442 0.49979484 0
2.7100003 0.29567736 0.49983636 0
2.7110002 0.29165667 0.49987784 0
2.7110002 0.28748804 0.49987784 0
2.7120001 0.28346196 0.49991933 0
2.7130003 0.27943227 0.49996081 0
2.7140002 0.27539894 0.50000226 0
2.7150002 0.27136201 0.50004381 0
2.7150002 0.26718619 0.50004381 0
2.7160003 0.2631439 0.50008529 0
2.7170002 0.25909793 0.50012678 0
2.7180002 0.25504839 0.50016826 0
2.7180002 0.25086713 0.50016826 0
2.7190001 0.24681216 0.50020975 0
2.7200003 0.24275362 0.50025123 0
2.7210002 0.23869142 0.50029272 0
2.7220001 0.23462567 0.5003342 0
2.7220001 0.23043719 0.5003342 0
2.7230003 0.22636601 0.50037569 0
2.7240002 0.22229123 0.50041717 0
2.7250001 0.21821281 0.50045866 0
2.7250001 0.21401897 0.50045866 0
2.7260003 0.20993516 0.50050014 0
2.7270002 0.20584771 0.50054163 0
2.7280002 0.20175666 0.50058311 0
2.7290001 0.19766201 0.5006246 0
2.7290001 0.19346096 0.5006246 0
2.7300003 0.1893609 0.50066608 0
2.7310002 0.18525723 0.50070757 0
2.7320001 0.18114994 0.50074905 0
2.7320001 0.17694347 0.50074905 0
2.7330003 0.17283081 0.5007906 0
2.7340002 0.16871451 0.50083208 0
2.7350001 0.16459459 0.50087357 0
2.7360003 0.16047111 0.50091505 0
2.7360003 0.15625741 0.50091505 0
2.7370002 0.15212849 0.50095654 0
2.7380002 0.14799596 0.50099802 0
2.7390003 0.14385985 0.50103951 0
2.7400002 0.1397201 0.50108099 0
2.7400002 0.13549919 0.50108099 0
2.7410002 0.13135403 0.50112247 0
2.7420001 0.12720527 0.50116396 0
2.7430003 0.12305291 0.50120544 0
2.7440002 0.11889692 0.50124693 0
2.7440002 0.1146688 0.50124693 0
2.7450001 0.11050741 0.50128841 0
2.7460003 0.10634243 0.5013299 0
2.7470002 0.10217382 0.50137138 0
2.7470002 0.097940281 0.50137138 0
2.7480001 0.093766272 0.50141287 0
2.7490003 0.089588657 0.50145435 0
2.7500002 0.085407436 0.50149584 0
2.7510002 0.081222579 0.50153732 0
2.7510002 0.076981843 0.50153732 0
2.7520001 0.072791591 0.50157881 0
2.7530003 0.068597749 0.50162029 0
2.7540002 0.064400285 0.50166178 0
2.7550001 0.060199205 0.50170326 0
2.7550001 0.055951234 0.50170326 0
2.7560003 0.051744763 0.50174475 0
2.7570002 0.047534678 0.50178623 0
2.7580001 0.043320972 0.50182772 0
2.7590003 0.039103676 0.50186926 0
2.7590003 0.034848493 0.50186926 0
2.7600002 0.030625779 0.50191075 0
2.7610002 0.026399452 0.50195223 0
2.7620003 0.022169527 0.50199372 0
2.7630002 0.017935988 0.5020352 0
2.7630002 0.013673581 0.5020352 0
2.7640002 0.009434633 0.50207669 0
2.7650001 0.0051920786 0.50211817 0
2.7660003 0.00094591081 0.50215966 0
2.7670002 -0.0033038594 0.50220114 0
2.7680001 -0.0075572394 0.50224262 0
2.7680001 -0.011828657 0.50224262 0
2.7690003 -0.016087446 0.50228411 0
2.7700002 -0.020349845 0.50232559 0
2.7710001 -0.024615854 0.50236708 0
2.6970003 0.36419141 0.49515367 0
2.6980002 0.36022481 0.49519336 0
2.6980002 0.35607967 0.49519336 0
2.6990001 0.35210767 0.49523303 0
2.7000003 0.3481321 0.49527273 0
2.7010002 0.3441529 0.49531239 0
2.7020001 0.34017006 0.49535209 0
2.7020001 0.3360177 0.49535209 0
2.7030003 0.33202949 0.49539176 0
2.7040002 0.32803768 0.49543145 0
2.7050002 0.32404223 0.49547112 0
2.7050002 0.31988445 0.49547112 0
2.7060001 0.31588358 0.49551082 0
2.7070003 0.31187916 0.49555051 0
2.7080002 0.3078711 0.49559018 0
2.7080002 0.3037079 0.49559018 0
2.7090001 0.29969442 0.49562985 0
2.7100003 0.29567736 0.49566954 0
2.7110002 0.29165667 0.49570924 0
2.7110002 0.28748804 0.49570924 0
2.7120001 0.28346196 0.49574891 0
2.7130003 0.27943227 0.4957886 0
2.7140002 0.27539894 0.49582827 0
2.7150002 0.27136201 0.49586797 0
2.7150002 0.26718619 0.49586797 0
2.7160003 0.2631439 0.49590766 0
2.7170002 0.25909793 0.49594733 0
2.7180002 0.25504839 0.49598703 0
2.7180002 0.25086713 0.49598703 0
2.7190001 0.24681216 0.49602669 0
2.7200003 0.24275362 0.49606639 0
2.7210002 0.23869142 0.49610609 0
2.7220001 0.23462567 0.49614576 0
2.7220001 0.23043719 0.49614576 0
2.7230003 0.22636601 0.49618542 0
2.7240002 0.22229123 0.49622512 0
2.7250001 0.21821281 0.49626482 0
2.7250001 0.21401897 0.49626482 0
2.7260003 0.20993516 0.49630448 0
2.7270002 0.20584771 0.49634418 0
2.7280002 0.20175666 0.49638385 0
2.7290001 0.19766201 0.49642354 0
2.7290001 0.19346096 0.49642354 0
2.7300003 0.1893609 0.49646324 0
2.7310002 0.18525723 0.49650291 0
2.7320001 0.18114994 0.49654257 0
2.7320001 0.17694347 0.49654257 0
2.7330003 0.17283081 0.49658227 0
2.7340002 0.16871451 0.49662197 0
2.7350001 0.16459459 0.49666163 0
2.7360003 0.16047111 0.49670133 0
2.7360003 0.15625741 0.49670133 0
2.7370002 0.15212849 0.496741 0
2.7380002 0.14799596 0.49678069 0
2.7390003 0.14385985 0.49682039 0
2.7400002 0.1397201 0.49686006 0
2.7400002 0.13549919 0.49686006 0
2.7410002 0.13135403 0.49689975 0
2.7420001 0.12720527 0.49693942 0
2.7430003 0.12305291 0.49697912 0
2.7440002 0.11889692 0.49701878 0
2.7440002 0.1146688 0.49701878 0
2.7450001 0.11050741 0.49705848 0
2.7460003 0.10634243 0.49709815 0
2.7470002 0.10217382 0.49713784 0
2.7470002 0.097940281 0.49713784 0
2.7480001 0.093766272 0.49717754 0
2.7490003 0.089588657 0.49721724 0
2.7500002 0.085407436 0.4972569 0
2.7510002 0.081222579 0.49729657 0
2.7510002 0.076981843 0.49729657 0
2.7520001 0.072791591 0.49733627 0
2.7530003 0.068597749 0.49737597 0
2.7540002 0.064400285 0.49741563 0
2.7550001 0.060199205 0.4974553 0
2.7550001 0.055951234 0.4974553 0
2.7560003 0.051744763 0.497495 0
2.7570002 0.047534678 0.49753469 0
2.7580001 0.043320972 0.49757436 0
2.7590003 0.039103676 0.49761406 0
2.7590003 0.034848493 0.49761406 0
2.7600002 0.030625779 0.49765372 0
2.7610002 0.026399452 0.49769342 0
2.7620003 0.022169527 0.49773312 0
2.7630002 0.017935988 0.49777278 0
2.7630002 0.013673581 0.49777278 0
2.7640002 0.009434633 0.49781248 0
2.7650001 0.0051920786 0.49785215 0
2.7660003 0.00094591081 0.49789184 0
2.7670002 -0.0033038594 0.49793154 0
2.7680001 -0.0075572394 0.49797121 0
2.7680001 -0.011828657 0.49797121 0
2.7690003 -0.016087446 0.4980109 0
2.7700002 -0.020349845 0.49805057 0
2.7710001 -0.024615854 0.49809027 0
2.6970003 0.36419141 0.49101031 0
2.6980002 0.36022481 0.49104819 0
2.6980002 0.35607967 0.49104819 0
2.6990001 0.35210767 0.49108607 0
2.7000003 0.3481321 0.49112394 0
2.7010002 0.3441529 0.49116182 0
2.7020001 0.34017006 0.4911997 0
2.7020001 0.3360177 0.4911997 0
2.7030003 0.33202949 0.49123758 0
2.7040002 0.32803768 0.49127549 0
2.7050002 0.32404223 0.49131334 0
2.7050002 0.31988445 0.49131334 0
2.7060001 0.31588358 0.49135122 0
2.7070003 0.31187916 0.4913891 0
2.7080002 0.3078711 0.491427 0
2.7080002 0.3037079 0.491427 0
2.7090001 0.29969442 0.49146485 0
2.7100003 0.29567736 0.49150276 0
2.7110002 0.29165667 0.49154064 0
2.7110002 0.28748804 0.49154064 0
2.7120001 0.28346196 0.49157852 0
2.7130003 0.27943227 0.4916164 0
2.7140002 0.27539894 0.49165428 0
2.7150002 0.27136201 0.49169216 0
2.7150002 0.26718619 0.49169216 0
2.7160003 0.2631439 0.49173003 0
2.7170002 0.25909793 0.49176791 0
2.7180002 0.25504839 0.49180579 0
2.7180002 0.25086713 0.49180579 0
2.7190001 0.24681216 0.49184367 0
2.7200003 0.24275362 0.49188155 0
2.7210002 0.23869142 0.49191943 0
2.7220001 0.23462567 0.49195731 0
2.7220001 0.23043719 0.49195731 0
2.7230003 0.22636601 0.49199519 0
2.7240002 0.22229123 0.49203306 0
2.7250001 0.21821281 0.49207094 0
2.7250001 0.21401897 0.49207094 0
2.7260003 0.20993516 0.49210882 0
2.7270002 0.20584771 0.49214673 0
2.7280002 0.20175666 0.49218458 0
2.7290001 0.19766201 0.49222246 0
2.7290001 0.19346096 0.49222246 0
2.7300003 0.1893609 0.49226034 0
2.7310002 0.18525723 0.49229825 0
2.7320001 0.18114994 0.49233609 0
2.7320001 0.17694347 0.49233609 0
2.7330003 0.17283081 0.492374 0
2.7340002 0.16871451 0.49241188 0
2.7350001 0.16459459 0.49244976 0
2.7360003 0.16047111 0.49248764 0
2.7360003 0.15625741 0.49248764 0
2.7370002 0.15212849 0.49252552 0
2.7380002 0.14799596 0.4925634 0
2.7390003 0.14385985 0.49260128 0
2.7400002 0.1397201 0.49263915 0
2.7400002 0.13549919 0.49263915 0
2.7410002 0.13135403 0.49267703 0
2.7420001 0.12720527 0.49271491 0
2.7430003 0.12305291 0.49275279 0
2.7440002 0.11889692 0.49279067 0
2.7440002 0.1146688 0.49279067 0
2.7450001 0.11050741 0.49282855 0
2.7460003 0.10634243 0.49286643 0
2.7470002 0.10217382 0.49290431 0
2.7470002 0.097940281 0.49290431 0
2.7480001 0.093766272 0.49294218 0
2.7490003 0.089588657 0.49298006 0
2.7500002 0.085407436 0.49301794 0
2.7510002 0.081222579 0.49305582 0
2.7510002 0.076981843 0.49305582 0
2.7520001 0.072791591 0.4930937 0
2.7530003 0.068597749 0.49313158 0
2.7540002 0.064400285 0.49316949 0
2.7550001 0.060199205 0.49320734 0
2.7550001 0.055951234 0.49320734 0
2.7560003 0.051744763 0.49324524 0
2.7570002 0.047534678 0.49328309 0
2.7580001 0.043320972 0.493321 0
2.7590003 0.039103676 0.49335888 0
2.7590003 0.034848493 0.49335888 0
2.7600002 0.030625779 0.49339676 0
2.7610002 0.026399452 0.49343464 0
2.7620003 0.022169527 0.49347252 0
2.7630002 0.017935988 0.4935104 0
2.7630002 0.013673581 0.4935104 0
2.7640002 0.009434633 0.49354827 0
2.7650001 0.0051920786 0.49358615 0
2.7660003 0.00094591081 0.49362403 0
2.7670002 -0.0033038594 0.49366191 0
2.7680001 -0.0075572394 0.49369979 0
2.7680001 -0.011828657 0.49369979 0
2.7690003 -0.016087446 0.49373767 0
2.7700002 -0.020349845 0.49377555 0
2.7710001 -0.024615854 0.49381343 0
2.6970003 0.36419141 0.48686695 0
2.6980002 0.36022481 0.48690304 0
2.6980002 0.35607967 0.48690304 0
2.6990001 0.35210767 0.4869391 0
2.7000003 0.3481321 0.48697519 0
2.7010002 0.3441529 0.48701128 0
2.7020001 0.34017006 0.48704734 0
2.7020001 0.3360177 0.48704734 0
2.7030003 0.33202949 0.48708344 0
2.7040002 0.32803768 0.4871195 0
2.7050002 0.32404223 0.48715556 0
2.7050002 0.31988445 0.48715556 0
2.7060001 0.31588358 0.48719165 0
2.7070003 0.31187916 0.48722774 0
2.7080002 0.3078711 0.4872638 0
2.7080002 0.3037079 0.4872638 0
2.7090001 0.29969442 0.48729986 0
2.7100003 0.29567736 0.48733595 0
2.7110002 0.29165667 0.48737204 0
2.7110002 0.28748804 0.48737204 0
2.7120001 0.28346196 0.4874081 0
2.7130003 0.27943227 0.48744419 0
2.7140002 0.27539894 0.48748025 0
2.7150002 0.27136201 0.48751634 0
2.7150002 0.26718619 0.48751634 0
2.7160003 0.2631439 0.4875524 0
2.7170002 0.25909793 0.4875885 0
2.7180002 0.25504839 0.48762456 0
2.7180002 0.25086713 0.48762456 0
2.7190001 0.24681216 0.48766065 0
2.7200003 0.24275362 0.48769671 0
2.7210002 0.23869142 0.4877328 0
2.7220001 0.23462567 0.48776886 0
2.7220001 0.23043719 0.48776886 0
2.7230003 0.22636601 0.48780495 0
2.7240002 0.22229123 0.48784101 0
2.7250001 0.21821281 0.4878771 0
2.7250001 0.21401897 0.4878771 0
2.7260003 0.20993516 0.48791319 0
2.7270002 0.20584771 0.48794925 0
2.7280002 0.20175666 0.48798531 0
2.7290001 0.19766201 0.4880214 0
2.7290001 0.19346096 0.4880214 0
2.7300003 0.1893609 0.48805749 0
2.7310002 0.18525723 0.48809355 0
2.7320001 0.18114994 0.48812962 0
2.7320001 0.17694347 0.48812962 0
2.7330003 0.17283081 0.48816571 0
2.7340002 0.16871451 0.4882018 0
2.7350001 0.16459459 0.48823786 0
2.7360003 0.16047111 0.48827395 0
2.7360003 0.15625741 0.48827395 0
2.7370002 0.15212849 0.48831001 0
2.7380002 0.14799596 0.4883461 0
2.7390003 0.14385985 0.48838216 0
2.7400002 0.1397201 0.48841825 0
2.7400002 0.13549919 0.48841825 0
2.7410002 0.13135403 0.48845431 0
2.7420001 0.12720527 0.4884904 0
2.7430003 0.12305291 0.48852646 0
2.7440002 0.11889692 0.48856252 0
2.7440002 0.1146688 0.48856252 0
2.7450001 0.11050741 0.48859861 0
2.7460003 0.10634243 0.48863471 0
2.7470002 0.10217382 0.48867077 0
2.7470002 0.097940281 0.48867077 0
2.7480001 0.093766272 0.48870683 0
2.7490003 0.089588657 0.48874292 0
2.7500002 0.085407436 0.48877901 0
2.7510002 0.081222579 0.48881507 0
2.7510002 0.076981843 0.48881507 0
2.7520001 0.072791591 0.48885116 0
2.7530003 0.068597749 0.48888725 0
2.7540002 0.064400285 0.48892331 0
2.7550001 0.060199205 0.48895937 0
2.7550001 0.055951234 0.48895937 0
2.7560003 0.051744763 0.48899546 0
2.7570002 0.047534678 0.48903155 0
2.7580001 0.043320972 0.48906761 0
2.7590003 0.039103676 0.48910367 0
2.7590003 0.034848493 0.48910367 0
2.7600002 0.030625779 0.48913977 0
2.7610002 0.026399452 0.48917583 0
2.7620003 0.022169527 0.48921192 0
2.7630002 0.017935988 0.48924798 0
2.7630002 0.013673581 0.48924798 0
2.7640002 0.009434633 0.48928407 0
2.7650001 0.0051920786 0.48932013 0
2.7660003 0.00094591081 0.48935622 0
2.7670002 -0.0033038594 0.48939228 0
2.7680001 -0.0075572394 0.48942837 0
2.7680001 -0.011828657 0.48942837 0
2.7690003 -0.016087446 0.48946446 0
2.7700002 -0.020349845 0.48950052 0
2.7710001 -0.024615854 0.48953658 0
2.6970003 0.36419141 0.48272362 0
2.6980002 0.36022481 0.4827579 0
2.6980002 0.35607967 0.4827579 0
2.6990001 0.35210767 0.48279214 0
2.7000003 0.3481321 0.48282644 0
2.7010002 0.3441529 0.48286071 0
2.7020001 0.34017006 0.48289496 0
2.7020001 0.3360177 0.48289496 0
2.7030003 0.33202949 0.48292926 0
2.7040002 0.32803768 0.48296353 0
2.7050002 0.32404223 0.4829978 0
2.7050002 0.31988445 0.4829978 0
2.7060001 0.31588358 0.48303205 0
2.7070003 0.31187916 0.48306635 0
2.7080002 0.3078711 0.48310059 0
2.7080002 0.3037079 0.48310059 0
2.7090001 0.29969442 0.4831349 0
2.7100003 0.29567736 0.48316917 0
2.7110002 0.29165667 0.48320341 0
2.7110002 0.28748804 0.48320341 0
2.7120001 0.28346196 0.48323768 0
2.7130003 0.27943227 0.48327196 0
2.7140002 0.27539894 0.48330626 0
2.7150002 0.27136201 0.4833405 0
2.7150002 0.26718619 0.4833405 0
2.7160003 0.2631439 0.4833748 0
2.7170002 0.25909793 0.48340905 0
2.7180002 0.25504839 0.48344332 0
2.7180002 0.25086713 0.48344332 0
2.7190001 0.24681216 0.48347759 0
2.7200003 0.24275362 0.48351187 0
2.7210002 0.23869142 0.48354614 0
2.7220001 0.23462567 0.48358041 0
2.7220001 0.23043719 0.48358041 0
2.7230003 0.22636601 0.48361471 0
2.7240002 0.22229123 0.48364896 0
2.7250001 0.21821281 0.48368323 0
2.7250001 0.21401897 0.48368323 0
2.7260003 0.20993516 0.4837175 0
2.7270002 0.20584771 0.48375177 0
2.7280002 0.20175666 0.48378605 0
2.7290001 0.19766201 0.48382032 0
2.7290001 0.19346096 0.48382032 0
2.7300003 0.1893609 0.48385459 0
2.7310002 0.18525723 0.48388886 0
2.7320001 0.18114994 0.48392314 0
2.7320001 0.17694347 0.48392314 0
2.7330003 0.17283081 0.48395741 0
2.7340002 0.16871451 0.48399168 0
2.7350001 0.16459459 0.48402596 0
2.7360003 0.16047111 0.48406023 0
2.7360003 0.15625741 0.48406023 0
2.7370002 0.15212849 0.4840945 0
2.7380002 0.14799596 0.48412877 0
2.7390003 0.14385985 0.48416305 0
2.7400002 0.1397201 0.48419732 0
2.7400002 0.13549919 0.48419732 0
2.7410002 0.13135403 0.48423159 0
2.7420001 0.12720527 0.48426586 0
2.7430003 0.12305291 0.48430014 0
2.7440002 0.11889692 0.48433441 0
2.7440002 0.1146688 0.48433441 0
2.7450001 0.11050741 0.48436868 0
2.7460003 0.10634243 0.48440295 0
2.7470002 0.10217382 0.48443723 0
2.7470002 0.097940281 0.48443723 0
2.7480001 0.093766272 0.4844715 0
2.7490003 0.089588657 0.48450577 0
2.7500002 0.085407436 0.48454005 0
2.7510002 0.081222579 0.48457432 0
2.7510002 0.076981843 0.48457432 0
2.7520001 0.072791591 0.48460859 0
2.7530003 0.068597749 0.48464286 0
2.7540002 0.064400285 0.48467714 0
2.7550001 0.060199205 0.48471141 0
2.7550001 0.055951234 0.48471141 0
2.7560003 0.051744763 0.48474568 0
2.7570002 0.047534678 0.48477995 0
2.7580001 0.043320972 0.48481423 0
2.7590003 0.039103676 0.4848485 0
2.7590003 0.034848493 0.4848485 0
2.7600002 0.030625779 0.48488277 0
2.7610002 0.026399452 0.48491704 0
2.7620003 0.022169527 0.48495132 0
2.7630002 0.017935988 0.48498559 0
2.7630002 0.013673581 0.48498559 0
2.7640002 0.009434633 0.48501986 0
2.7650001 0.0051920786 0.48505414 0
2.7660003 0.00094591081 0.48508841 0
2.7670002 -0.0033038594 0.48512268 0
2.7680001 -0.0075572394 0.48515695 0
2.7680001 -0.011828657 0.48515695 0
2.7690003 -0.016087446 0.48519123 0
2.7700002 -0.020349845 0.4852255 0
2.7710001 -0.024615854 0.48525977 0
2.6970003 0.36419141 0.47858027 0
2.6980002 0.36022481 0.47861272 0
2.6980002 0.35607967 0.47861272 0
2.6990001 0.35210767 0.47864521 0
2.7000003 0.3481321 0.47867769 0
2.7010002 0.3441529 0.47871014 0
2.7020001 0.34017006 0.4787426 0
2.7020001 0.3360177 0.4787426 0
2.7030003 0.33202949 0.47877508 0
2.7040002 0.32803768 0.47880757 0
2.7050002 0.32404223 0.47884002 0
2.7050002 0.31988445 0.47884002 0
2.7060001 0.31588358 0.47887248 0
2.7070003 0.31187916 0.47890496 0
2.7080002 0.3078711 0.47893742 0
2.7080002 0.3037079 0.47893742 0
2.7090001 0.29969442 0.47896987 0
2.7100003 0.29567736 0.47900236 0
2.7110002 0.29165667 0.47903484 0
2.7110002 0.28748804 0.47903484 0
2.7120001 0.28346196 0.4790673 0
2.7130003 0.27943227 0.47909975 0
2.7140002 0.27539894 0.47913224 0
2.7150002 0.27136201 0.47916472 0
2.7150002 0.26718619 0.47916472 0
2.7160003 0.2631439 0.47919717 0
2.7170002 0.25909793 0.47922963 0
2.7180002 0.25504839 0.47926211 0
2.7180002 0.25086713 0.47926211 0
2.7190001 0.24681216 0.47929457 0
2.7200003 0.24275362 0.47932705 0
2.7210002 0.23869142 0.47935951 0
2.7220001 0.23462567 0.47939199 0
2.7220001 0.23043719 0.47939199 0
2.7230003 0.22636601 0.47942445 0
2.7240002 0.22229123 0.4794569 0
2.7250001 0.21821281 0.47948939 0
2.7250001 0.21401897 0.47948939 0
2.7260003 0.20993516 0.47952187 0
2.7270002 0.20584771 0.47955433 0
2.7280002 0.20175666 0.47958678 0
2.7290001 0.19766201 0.47961926 0
2.7290001 0.19346096 0.47961926 0
2.7300003 0.1893609 0.47965175 0
2.7310002 0.18525723 0.4796842 0
2.7320001 0.18114994 0.47971666 0
2.7320001 0.17694347 0.47971666 0
2.7330003 0.17283081 0.47974914 0
2.7340002 0.16871451 0.4797816 0
2.7350001 0.16459459 0.47981405 0
2.7360003 0.16047111 0.47984654 0
2.7360003 0.15625741 0.47984654 0
2.7370002 0.15212849 0.47987902 0
2.7380002 0.14799596 0.47991148 0
2.7390003 0.14385985 0.47994396 0
2.7400002 0.1397201 0.47997642 0
2.7400002 0.13549919 0.47997642 0
2.7410002 0.13135403 0.4800089 0
2.7420001 0.12720527 0.48004135 0
2.7430003 0.12305291 0.48007381 0
2.7440002 0.11889692 0.48010629 0
2.7440002 0.1146688 0.48010629 0
2.7450001 0.11050741 0.48013875 0
2.7460003 0.10634243 0.48017123 0
2.7470002 0.10217382 0.48020369 0
2.7470002 0.097940281 0.48020369 0
2.7480001 0.093766272 0.48023617 0
2.7490003 0.089588657 0.48026866 0
2.7500002 0.085407436 0.48030111 0
2.7510002 0.081222579 0.48033357 0
2.7510002 0.076981843 0.48033357 0
2.7520001 0.072791591 0.48036605 0
2.7530003 0.068597749 0.48039851 0
2.7540002 0.064400285 0.48043096 0
2.7550001 0.060199205 0.48046345 0
2.7550001 0.055951234 0.48046345 0
2.7560003 0.051744763 0.48049593 0
2.7570002 0.047534678 0.48052838 0
2.7580001 0.043320972 0.48056084 0
2.7590003 0.039103676 0.48059332 0
2.7590003 0.034848493 0.48059332 0
2.7600002 0.030625779 0.48062581 0
2.7610002 0.026399452 0.48065826 0
2.7620003 0.022169527 0.48069072 0
2.7630002 0.017935988 0.4807232 0
2.7630002 0.013673581 0.4807232 0
2.7640002 0.009434633 0.48075566 0
2.7650001 0.0051920786 0.48078811 0
2.7660003 0.00094591081 0.4808206 0
2.7670002 -0.0033038594 0.48085308 0
2.7680001 -0.0075572394 0.48088554 0
2.7680001 -0.011828657 0.48088554 0
2.7690003 -0.016087446 0.48091799 0
2.7700002 -0.020349845 0.48095047 0
2.7710001 -0.024615854 0.48098296 0
2.6970003 0.36419141 0.47443694 0
2.6980002 0.36022481 0.47446758 0
2.6980002 0.35607967 0.47446758 0
2.6990001 0.35210767 0.47449824 0
2.7000003 0.3481321 0.47452891 0
2.7010002 0.3441529 0.47455958 0
2.7020001 0.34017006 0.47459024 0
2.7020001 0.3360177 0.47459024 0
2.7030003 0.33202949 0.47462091 0
2.7040002 0.32803768 0.47465158 0
2.7050002 0.32404223 0.47468224 0
2.7050002 0.31988445 0.47468224 0
2.7060001 0.31588358 0.47471291 0
2.7070003 0.31187916 0.47474357 0
2.7080002 0.3078711 0.47477424 0
2.7080002 0.3037079 0.47477424 0
2.7090001 0.29969442 0.47480488 0
2.7100003 0.29567736 0.47483557 0
2.7110002 0.29165667 0.47486621 0
2.7110002 0.28748804 0.47486621 0
2.7120001 0.28346196 0.47489691 0
2.7130003 0.27943227 0.47492754 0
2.7140002 0.27539894 0.47495821 0
2.7150002 0.27136201 0.47498888 0
2.7150002 0.26718619 0.47498888 0
2.7160003 0.2631439 0.47501957 0
2.7170002 0.25909793 0.47505021 0
2.7180002 0.25504839 0.47508088 0
2.7180002 0.25086713 0.47508088 0
2.7190001 0.24681216 0.47511154 0
2.7200003 0.24275362 0.47514221 0
2.7210002 0.23869142 0.47517288 0
2.7220001 0.23462567 0.47520354 0
2.7220001 0.23043719 0.47520354 0
2.7230003 0.22636601 0.47523421 0
2.7240002 0.22229123 0.47526488 0
2.7250001 0.21821281 0.47529554 0
2.7250001 0.21401897 0.47529554 0
2.7260003 0.20993516 0.47532621 0
2.7270002 0.20584771 0.47535688 0
2.7280002 0.20175666 0.47538751 0
2.7290001 0.19766201 0.47541818 0
2.7290001 0.19346096 0.47541818 0
2.7300003 0.1893609 0.47544885 0
2.7310002 0.18525723 0.47547951 0
2.7320001 0.18114994 0.47551018 0
2.7320001 0.17694347 0.47551018 0
2.7330003 0.17283081 0.47554085 0
2.7340002 0.16871451 0.47557151 0
2.7350001 0.16459459 0.47560218 0
2.7360003 0.16047111 0.47563285 0
2.7360003 0.15625741 0.47563285 0
2.7370002 0.15212849 0.47566351 0
2.7380002 0.14799596 0.47569418 0
2.7390003 0.14385985 0.47572485 0
2.7400002 0.1397201 0.47575551 0
2.7400002 0.13549919 0.47575551 0
2.7410002 0.13135403 0.47578618 0
2.7420001 0.12720527 0.47581685 0
2.7430003 0.12305291 0.47584748 0
2.7440002 0.11889692 0.47587818 0
2.7440002 0.1146688 0.47587818 0
2.7450001 0.11050741 0.47590882 0
2.7460003 0.10634243 0.47593951 0
2.7470002 0.10217382 0.47597015 0
2.7470002 0.097940281 0.47597015 0
2.7480001 0.093766272 0.47600082 0
2.7490003 0.089588657 0.47603148 0
2.7500002 0.085407436 0.47606215 0
2.7510002 0.081222579 0.47609282 0
2.7510002 0.076981843 0.47609282 0
2.7520001 0.072791591 0.47612348 0
2.7530003 0.068597749 0.47615415 0
2.7540002 0.064400285 0.47618482 0
2.7550001 0.060199205 0.47621548 0
2.7550001 0.055951234 0.47621548 0
2.7560003 0.051744763 0.47624615 0
2.7570002 0.047534678 0.47627681 0
2.7580001 0.043320972 0.47630748 0
2.7590003 0.039103676 0.47633815 0
2.7590003 0.034848493 0.47633815 0
2.7600002 0.030625779 0.47636878 0
2.7610002 0.026399452 0.47639948 0
2.7620003 0.022169527 0.47643012 0
2.7630002 0.017935988 0.47646078 0
2.7630002 0.013673581 0.47646078 0
2.7640002 0.009434633 0.47649145 0
2.7650001 0.0051920786 0.47652212 0
2.7660003 0.00094591081 0.47655278 0
2.7670002 -0.0033038594 0.47658345 0
2.7680001 -0.0075572394 0.47661412 0
2.7680001 -0.011828657 0.47661412 0
2.7690003 -0.016087446 0.47664478 0
2.7700002 -0.020349845 0.47667545 0
2.7710001 -0.024615854 0.47670612 0
2.6970003 0.36419141 0.47029358 0
2.6980002 0.36022481 0.47032243 0
2.6980002 0.35607967 0.47032243 0
2.6990001 0.35210767 0.47035128 0
2.7000003 0.3481321 0.47038016 0
2.7010002 0.3441529 0.47040904 0
2.7020001 0.34017006 0.47043788 0
2.7020001 0.3360177 0.47043788 0
2.7030003 0.33202949 0.47046673 0
2.7040002 0.32803768 0.47049561 0
2.7050002 0.32404223 0.47052446 0
2.7050002 0.31988445 0.47052446 0
2.7060001 0.31588358 0.47055331 0
2.7070003 0.31187916 0.47058219 0
2.7080002 0.3078711 0.47061104 0
2.7080002 0.3037079 0.47061104 0
2.7090001 0.29969442 0.47063988 0
2.7100003 0.29567736 0.47066876 0
2.7110002 0.29165667 0.47069764 0
2.7110002 0.28748804 0.47069764 0
2.7120001 0.28346196 0.47072649 0
2.7130003 0.27943227 0.47075534 0
2.7140002 0.27539894 0.47078422 0
2.7150002 0.27136201 0.47081307 0
2.7150002 0.26718619 0.47081307 0
2.7160003 0.2631439 0.47084194 0
2.7170002 0.25909793 0.47087079 0
2.7180002 0.25504839 0.47089964 0
2.7180002 0.25086713 0.47089964 0
2.7190001 0.24681216 0.47092852 0
2.7200003 0.24275362 0.47095737 0
2.7210002 0.23869142 0.47098625 0
2.7220001 0.23462567 0.4710151 0
2.7220001 0.23043719 0.4710151 0
2.7230003 0.22636601 0.47104394 0
2.7240002 0.22229123 0.47107282 0
2.7250001 0.21821281 0.47110167 0
2.7250001 0.21401897 0.47110167 0
2.7260003 0.20993516 0.47113055 0
2.7270002 0.20584771 0.4711594 0
2.7280002 0.20175666 0.47118825 0
2.7290001 0.19766201 0.47121713 0
2.7290001 0.19346096 0.47121713 0
2.7300003 0.1893609 0.471246 0
2.7310002 0.18525723 0.47127485 0
2.7320001 0.18114994 0.4713037 0
2.7320001 0.17694347 0.4713037 0
2.7330003 0.17283081 0.47133258 0
2.7340002 0.16871451 0.47136143 0
2.7350001 0.16459459 0.47139028 0
2.7360003 0.16047111 0.47141916 0
2.7360003 0.15625741 0.47141916 0
2.7370002 0.15212849 0.471448 0
2.7380002 0.14799596 0.47147685 0
2.7390003 0.14385985 0.47150573 0
2.7400002 0.1397201 0.47153461 0
2.7400002 0.13549919 0.47153461 0
2.7410002 0.13135403 0.47156346 0
2.7420001 0.12720527 0.47159231 0
2.7430003 0.12305291 0.47162119 0
2.7440002 0.11889692 0.47165003 0
2.7440002 0.1146688 0.47165003 0
2.7450001 0.11050741 0.47167891 0
2.7460003 0.10634243 0.47170776 0
