# .PCD v0.7 - Point Cloud Data file format
VERSION 0.7
FIELDS x y z intensity
SIZE 4 4 4 4
TYPE F F F F
COUNT 1 1 1 1
WIDTH 1401
HEIGHT 1
VIEWPOINT 0 0 0 1 0 0 0
POINTS 1401
DATA ascii
2.9980001 0.17894208 0.45086294 0
2.9980001 0.1742558 0.45086294 0
2.9990003 0.16965249 0.450881 0
3.0000002 0.16504556 0.45089903 0
3.0000002 0.16035566 0.45089903 0
3.0010002 0.15574332 0.45091707 0
3.0020003 0.15112738 0.4509351 0
3.0030003 0.14650783 0.45095316 0
3.0030003 0.14181252 0.45095316 0
3.0040002 0.13718754 0.45097119 0
3.0050001 0.13255896 0.45098922 0
3.0050001 0.12786005 0.45098922 0
3.0060003 0.12322608 0.45100725 0
2.7280002 0.092575759 0.44599268 0
2.7150002 0.0876261 0.44575816 0
2.7090001 0.083114788 0.44564995 0
2.7040002 0.078679219 0.44555974 0
2.7000003 0.074314013 0.44548762 0
2.6970003 0.070013732 0.4454335 0
2.6950002 0.06577298 0.44539741 0
2.6930003 0.061539438 0.44536135 0
2.6920002 0.057358209 0.44534329 0
2.6910002 0.053180587 0.44532526 0
2.6900003 0.049006585 0.44530722 0
2.6900003 0.044875864 0.44530722 0
2.6900003 0.040745143 0.44530722 0
2.6900003 0.036614422 0.44530722 0
2.6910002 0.032517973 0.44532526 0
2.6920002 0.028417911 0.44534329 0
2.6940002 0.02434491 0.44537938 0
2.6960001 0.020264696 0.44541544 0
2.6990001 0.016204324 0.44546956 0
2.7020001 0.012133129 0.44552368 0
2.7060001 0.008074563 0.44559583 0
2.7100003 0.0040015653 0.44566798 0
2.7170002 -2.6337802e-05 0.44579425 0
2.7270002 -0.0040253848 0.44597462 0
2.6830001 0.33698273 0.44106287 0
2.6730001 0.33120513 0.4409005 0
2.6670003 0.32612023 0.44080311 0
2.6630001 0.3213816 0.44073817 0
2.6600001 0.31681797 0.44068947 0
2.6570003 0.31226519 0.44064078 0
2.6560001 0.30803704 0.44062454 0
2.6540003 0.30365741 0.44059208 0
2.6540003 0.29959163 0.44059208 0
2.6530001 0.2953743 0.44057584 0
2.6530001 0.29131034 0.44057584 0
2.6530001 0.28724635 0.44057584 0
2.6530001 0.28318235 0.44057584 0
2.6540003 0.27926269 0.44059208 0
2.6550002 0.27533939 0.44060829 0
2.6570003 0.27155325 0.44064078 0
2.6590002 0.2677598 0.44067323 0
2.6610003 0.2639592 0.44070572 0
2.6640003 0.26028666 0.44075441 0
2.6670003 0.25660327 0.44080311 0
2.6710002 0.25304073 0.44086805 0
2.6760001 0.24959368 0.44094923 0
2.6810002 0.24612853 0.44103038 0
2.6900003 0.24315047 0.4411765 0
2.9830003 0.27548733 0.44593313 0
2.9840002 0.27095073 0.44594938 0
2.9850001 0.26641056 0.44596562 0
2.9850001 0.26174772 0.44596562 0
2.9860003 0.25720212 0.44598186 0
2.9870002 0.25265291 0.44599807 0
2.9870002 0.24798647 0.44599807 0
2.9880002 0.24343187 0.44601431 0
2.9890003 0.23887363 0.44603056 0
2.9890003 0.23420358 0.44603056 0
2.9900002 0.22963995 0.44604677 0
2.9910002 0.22507268 0.44606301 0
2.9910002 0.22039902 0.44606301 0
2.9920001 0.21582636 0.44607925 0
2.9930003 0.2112501 0.4460955 0
2.9930003 0.20657283 0.4460955 0
2.9940002 0.20199117 0.44611171 0
2.9950001 0.19740587 0.44612795 0
2.9960003 0.192817 0.44614419 0
2.9960003 0.1881343 0.44614419 0
2.9970002 0.18354 0.44616044 0
2.9980001 0.17894208 0.44617665 0
2.9980001 0.1742558 0.44617665 0
2.9990003 0.16965249 0.44619289 0
3.0000002 0.16504556 0.44620913 0
3.0000002 0.16035566 0.44620913 0
3.0010002 0.15574332 0.44622535 0
3.0020003 0.15112738 0.44624159 0
3.0030003 0.14650783 0.44625783 0
3.0030003 0.14181252 0.44625783 0
3.0040002 0.13718754 0.44627407 0
3.0050001 0.13255896 0.44629028 0
3.0050001 0.12786005 0.44629028 0
3.0060003 0.12322608 0.44630653 0
3.0070002 0.11858848 0.44632277 0
2.7280002 0.092575759 0.44179341 0
2.7150002 0.0876261 0.44158235 0
2.7090001 0.083114788 0.44148496 0
2.7040002 0.078679219 0.44140378 0
2.7000003 0.074314013 0.44133884 0
2.6970003 0.070013732 0.44129014 0
2.6950002 0.06577298 0.44125769 0
2.6930003 0.061539438 0.4412252 0
2.6920002 0.057358209 0.44120896 0
2.6910002 0.053180587 0.44119275 0
2.6900003 0.049006585 0.4411765 0
2.6900003 0.044875864 0.4411765 0
2.6900003 0.040745143 0.4411765 0
2.6900003 0.036614422 0.4411765 0
2.6910002 0.032517973 0.44119275 0
2.6920002 0.028417911 0.44120896 0
2.6940002 0.02434491 0.44124144 0
2.6960001 0.020264696 0.4412739 0
2.6990001 0.016204324 0.44132262 0
2.7020001 0.012133129 0.44137132 0
2.7060001 0.008074563 0.44143623 0
2.7100003 0.0040015653 0.4415012 0
2.7170002 -2.6337802e-05 0.44161484 0
2.7270002 -0.0040253848 0.44177717 0
2.6830001 0.33698273 0.43694475 0
2.6730001 0.33120513 0.43680045 0
2.6670003 0.32612023 0.43671387 0
2.6630001 0.3213816 0.43665615 0
2.6600001 0.31681797 0.43661287 0
2.6570003 0.31226519 0.43656957 0
2.6560001 0.30803704 0.43655515 0
2.6540003 0.30365741 0.4365263 0
2.6540003 0.29959163 0.4365263 0
2.6530001 0.2953743 0.43651184 0
2.6530001 0.29131034 0.43651184 0
2.6530001 0.28724635 0.43651184 0
2.6530001 0.28318235 0.43651184 0
2.6540003 0.27926269 0.4365263 0
2.6550002 0.27533939 0.43654072 0
2.6570003 0.27155325 0.43656957 0
2.6590002 0.2677598 0.43659842 0
2.6610003 0.2639592 0.4366273 0
2.6640003 0.26028666 0.4366706 0
2.6670003 0.25660327 0.43671387 0
2.6710002 0.25304073 0.4367716 0
2.6760001 0.24959368 0.43684375 0
2.6810002 0.24612853 0.4369159 0
2.6900003 0.24315047 0.43704578 0
2.9830003 0.27548733 0.4412739 0
2.9840002 0.27095073 0.44128835 0
2.9850001 0.26641056 0.44130278 0
2.9850001 0.26174772 0.44130278 0
2.9860003 0.25720212 0.4413172 0
2.9870002 0.25265291 0.44133162 0
2.9870002 0.24798647 0.44133162 0
2.9880002 0.24343187 0.44134605 0
2.9890003 0.23887363 0.4413605 0
2.9890003 0.23420358 0.4413605 0
2.9900002 0.22963995 0.44137493 0
2.9910002 0.22507268 0.44138935 0
2.9910002 0.22039902 0.44138935 0
2.9920001 0.21582636 0.44140378 0
2.9930003 0.2112501 0.4414182 0
2.9930003 0.20657283 0.4414182 0
2.9940002 0.20199117 0.44143265 0
2.9950001 0.19740587 0.44144708 0
2.9960003 0.192817 0.4414615 0
2.9960003 0.1881343 0.4414615 0
2.9970002 0.18354 0.44147593 0
2.9980001 0.17894208 0.44149035 0
2.9980001 0.1742558 0.44149035 0
2.9990003 0.16965249 0.44150481 0
3.0000002 0.16504556 0.44151923 0
3.0000002 0.16035566 0.44151923 0
3.0010002 0.15574332 0.44153365 0
3.0020003 0.15112738 0.44154808 0
3.0030003 0.14650783 0.44156253 0
3.0030003 0.14181252 0.44156253 0
3.0040002 0.13718754 0.44157696 0
3.0050001 0.13255896 0.44159138 0
3.0050001 0.12786005 0.44159138 0
3.0060003 0.12322608 0.44160581 0
3.0070002 0.11858848 0.44162023 0
2.7280002 0.092575759 0.43759415 0
2.7150002 0.0876261 0.43740654 0
2.7090001 0.083114788 0.43731996 0
2.7040002 0.078679219 0.43724781 0
2.7000003 0.074314013 0.43719009 0
2.6970003 0.070013732 0.43714678 0
2.6950002 0.06577298 0.43711793 0
2.6930003 0.061539438 0.43708909 0
2.6920002 0.057358209 0.43707463 0
2.6910002 0.053180587 0.43706021 0
2.6900003 0.049006585 0.43704578 0
2.6900003 0.044875864 0.43704578 0
2.6900003 0.040745143 0.43704578 0
2.6900003 0.036614422 0.43704578 0
2.6910002 0.032517973 0.43706021 0
2.6920002 0.028417911 0.43707463 0
2.6940002 0.02434491 0.43710351 0
2.6960001 0.020264696 0.43713236 0
2.6990001 0.016204324 0.43717566 0
2.7020001 0.012133129 0.43721893 0
2.7060001 0.008074563 0.43727666 0
2.7100003 0.0040015653 0.43733439 0
2.7170002 -2.6337802e-05 0.43743539 0
2.7270002 -0.0040253848 0.43757972 0
2.6830001 0.33698273 0.43282667 0
2.6730001 0.33120513 0.4327004 0
2.6670003 0.32612023 0.43262464 0
2.6630001 0.3213816 0.43257415 0
2.6600001 0.31681797 0.43253624 0
2.6570003 0.31226519 0.4324984 0
2.6560001 0.30803704 0.43248576 0
2.6540003 0.30365741 0.43246049 0
2.6540003 0.29959163 0.43246049 0
2.6530001 0.2953743 0.43244788 0
2.6530001 0.29131034 0.43244788 0
2.6530001 0.28724635 0.43244788 0
2.6530001 0.28318235 0.43244788 0
2.6540003 0.27926269 0.43246049 0
2.6550002 0.27533939 0.43247312 0
2.6570003 0.27155325 0.4324984 0
2.6590002 0.2677598 0.43252364 0
2.6610003 0.2639592 0.43254888 0
2.6640003 0.26028666 0.43258676 0
2.6670003 0.25660327 0.43262464 0
2.6710002 0.25304073 0.43267515 0
2.6760001 0.24959368 0.43273827 0
2.6810002 0.24612853 0.43280143 0
2.6900003 0.24315047 0.43291506 0
2.9830003 0.27548733 0.43661466 0
2.9840002 0.27095073 0.4366273 0
2.9850001 0.26641056 0.43663993 0
2.9850001 0.26174772 0.43663993 0
2.9860003 0.25720212 0.43665254 0
2.9870002 0.25265291 0.43666518 0
2.9870002 0.24798647 0.43666518 0
2.9880002 0.24343187 0.43667781 0
2.9890003 0.23887363 0.43669042 0
2.9890003 0.23420358 0.43669042 0
2.9900002 0.22963995 0.43670306 0
2.9910002 0.22507268 0.43671569 0
2.9910002 0.22039902 0.43671569 0
2.9920001 0.21582636 0.4367283 0
2.9930003 0.2112501 0.43674093 0
2.9930003 0.20657283 0.43674093 0
2.9940002 0.20199117 0.43675357 0
2.9950001 0.19740587 0.43676621 0
2.9960003 0.192817 0.43677881 0
2.9960003 0.1881343 0.43677881 0
2.9970002 0.18354 0.43679145 0
2.9980001 0.17894208 0.43680406 0
2.9980001 0.1742558 0.43680406 0
2.9990003 0.16965249 0.43681669 0
3.0000002 0.16504556 0.43682933 0
3.0000002 0.16035566 0.43682933 0
3.0010002 0.15574332 0.43684196 0
3.0020003 0.15112738 0.43685457 0
3.0030003 0.14650783 0.43686721 0
3.0030003 0.14181252 0.43686721 0
3.0040002 0.13718754 0.43687981 0
3.0050001 0.13255896 0.43689245 0
3.0050001 0.12786005 0.43689245 0
3.0060003 0.12322608 0.43690509 0
2.7280002 0.092575759 0.43339488 0
2.7150002 0.0876261 0.43323073 0
2.7090001 0.083114788 0.43315497 0
2.7040002 0.078679219 0.43309182 0
2.7000003 0.074314013 0.43304133 0
2.6970003 0.070013732 0.43300346 0
2.6950002 0.06577298 0.43297818 0
2.6930003 0.061539438 0.43295294 0
2.6920002 0.057358209 0.4329403 0
2.6910002 0.053180587 0.4329277 0
2.6900003 0.049006585 0.43291506 0
2.6900003 0.044875864 0.43291506 0
2.6900003 0.040745143 0.43291506 0
2.6900003 0.036614422 0.43291506 0
2.6910002 0.032517973 0.4329277 0
2.6920002 0.028417911 0.4329403 0
2.6940002 0.02434491 0.43296558 0
2.6960001 0.020264696 0.43299082 0
2.6990001 0.016204324 0.4330287 0
2.7020001 0.012133129 0.43306658 0
2.7060001 0.008074563 0.43311709 0
2.7100003 0.0040015653 0.43316761 0
2.7170002 -2.6337802e-05 0.43325597 0
2.7270002 -0.0040253848 0.43338224 0
2.6830001 0.33698273 0.42870858 0
2.6730001 0.33120513 0.42860034 0
2.6670003 0.32612023 0.4285354 0
2.6630001 0.3213816 0.42849213 0
2.6600001 0.31681797 0.42845964 0
2.6570003 0.31226519 0.42842719 0
2.6560001 0.30803704 0.42841637 0
2.6540003 0.30365741 0.42839471 0
2.6540003 0.29959163 0.42839471 0
2.6530001 0.2953743 0.42838389 0
2.6530001 0.29131034 0.42838389 0
2.6530001 0.28724635 0.42838389 0
2.6530001 0.28318235 0.42838389 0
2.6540003 0.27926269 0.42839471 0
2.6550002 0.27533939 0.42840555 0
2.6570003 0.27155325 0.42842719 0
2.6590002 0.2677598 0.42844883 0
2.6610003 0.2639592 0.42847049 0
2.6640003 0.26028666 0.42850295 0
2.6670003 0.25660327 0.4285354 0
2.6710002 0.25304073 0.4285787 0
2.6760001 0.24959368 0.42863283 0
2.6810002 0.24612853 0.42868695 0
2.6900003 0.24315047 0.42878434 0
2.9840002 0.27095073 0.43196625 0
2.9850001 0.26641056 0.43197709 0
2.9850001 0.26174772 0.43197709 0
2.9860003 0.25720212 0.43198791 0
2.9870002 0.25265291 0.43199873 0
2.9870002 0.24798647 0.43199873 0
2.9880002 0.24343187 0.43200955 0
2.9890003 0.23887363 0.43202037 0
2.9890003 0.23420358 0.43202037 0
2.9900002 0.22963995 0.43203118 0
2.9910002 0.22507268 0.432042 0
2.9910002 0.22039902 0.432042 0
2.9920001 0.21582636 0.43205285 0
2.9930003 0.2112501 0.43206367 0
2.9930003 0.20657283 0.43206367 0
2.9940002 0.20199117 0.43207449 0
2.9950001 0.19740587 0.43208531 0
2.9960003 0.192817 0.43209612 0
2.9960003 0.1881343 0.43209612 0
2.9970002 0.18354 0.43210694 0
2.9980001 0.17894208 0.43211776 0
2.9980001 0.1742558 0.43211776 0
2.9990003 0.16965249 0.43212861 0
3.0000002 0.16504556 0.43213943 0
3.0000002 0.16035566 0.43213943 0
3.0010002 0.15574332 0.43215024 0
3.0020003 0.15112738 0.43216106 0
3.0030003 0.14650783 0.43217188 0
3.0030003 0.14181252 0.43217188 0
3.0040002 0.13718754 0.43218273 0
3.0050001 0.13255896 0.43219355 0
3.0050001 0.12786005 0.43219355 0
2.7280002 0.092575759 0.42919561 0
2.7150002 0.0876261 0.42905492 0
2.7090001 0.083114788 0.42898998 0
2.7040002 0.078679219 0.42893586 0
2.7000003 0.074314013 0.42889255 0
2.6970003 0.070013732 0.4288601 0
2.6950002 0.06577298 0.42883846 0
2.6930003 0.061539438 0.4288168 0
2.6920002 0.057358209 0.42880598 0
2.6910002 0.053180587 0.42879516 0
2.6900003 0.049006585 0.42878434 0
2.6900003 0.044875864 0.42878434 0
2.6900003 0.040745143 0.42878434 0
2.6900003 0.036614422 0.42878434 0
2.6910002 0.032517973 0.42879516 0
2.6920002 0.028417911 0.42880598 0
2.6940002 0.02434491 0.42882764 0
2.6960001 0.020264696 0.42884928 0
2.6990001 0.016204324 0.42888173 0
2.7020001 0.012133129 0.42891422 0
2.7060001 0.008074563 0.42895749 0
2.7100003 0.0040015653 0.42900079 0
2.7170002 -2.6337802e-05 0.42907655 0
2.7270002 -0.0040253848 0.42918479 0
2.6830001 0.33698273 0.42459047 0
2.6730001 0.33120513 0.42450029 0
2.6670003 0.32612023 0.42444617 0
2.6630001 0.3213816 0.4244101 0
2.6600001 0.31681797 0.42438304 0
2.6570003 0.31226519 0.42435598 0
2.6560001 0.30803704 0.42434698 0
2.6540003 0.30365741 0.42432892 0
2.6540003 0.29959163 0.42432892 0
2.6530001 0.2953743 0.42431992 0
2.6530001 0.29131034 0.42431992 0
2.6530001 0.28724635 0.42431992 0
2.6530001 0.28318235 0.42431992 0
2.6540003 0.27926269 0.42432892 0
2.6550002 0.27533939 0.42433795 0
2.6570003 0.27155325 0.42435598 0
2.6590002 0.2677598 0.42437401 0
2.6610003 0.2639592 0.42439207 0
2.6640003 0.26028666 0.42441913 0
2.6670003 0.25660327 0.42444617 0
2.6710002 0.25304073 0.42448226 0
2.6760001 0.24959368 0.42452735 0
2.6810002 0.24612853 0.42457244 0
2.6900003 0.24315047 0.42465362 0
2.8350003 0.25267458 0.42596138 0
2.8360002 0.24840313 0.42597041 0
2.8360002 0.24400905 0.42597041 0
2.8370001 0.23973224 0.42597941 0
2.8370001 0.23533636 0.42597941 0
2.8380003 0.23105413 0.42598844 0
2.8390002 0.22676826 0.42599747 0
2.8390002 0.22236878 0.42599747 0
2.8400002 0.21807751 0.42600647 0
2.8410003 0.21378267 0.4260155 0
2.8410003 0.20937958 0.4260155 0
2.8420002 0.20507929 0.42602453 0
2.8430002 0.20077538 0.42603353 0
2.8430002 0.19636869 0.42603353 0
2.8440001 0.19205938 0.42604256 0
2.8450003 0.18774648 0.42605156 0
2.8450003 0.18333618 0.42605156 0
2.8460002 0.17901786 0.42606059 0
2.8470001 0.17469592 0.42606962 0
2.8470001 0.17028201 0.42606962 0
2.8480003 0.16595469 0.42607862 0
2.8490002 0.16162373 0.42608765 0
2.8490002 0.15720621 0.42608765 0
2.8500001 0.15286985 0.42609668 0
2.8510003 0.1485299 0.42610568 0
2.8510003 0.14410876 0.42610568 0
2.8520002 0.13976339 0.42611471 0
2.8530002 0.13541441 0.42612371 0
2.8530002 0.13098966 0.42612371 0
2.8540003 0.12663527 0.42613274 0
2.8540003 0.12220873 0.42613274 0
2.8550003 0.11784892 0.42614177 0
2.8560002 0.1134855 0.42615077 0
2.8560002 0.10905536 0.42615077 0
2.7280002 0.092575759 0.42499635 0
2.7150002 0.0876261 0.4248791 0
2.7090001 0.083114788 0.42482498 0
2.7040002 0.078679219 0.42477989 0
2.7000003 0.074314013 0.4247438 0
2.6970003 0.070013732 0.42471674 0
2.6950002 0.06577298 0.42469871 0
2.6930003 0.061539438 0.42468068 0
2.6920002 0.057358209 0.42467165 0
2.6910002 0.053180587 0.42466265 0
2.6900003 0.049006585 0.42465362 0
2.6900003 0.044875864 0.42465362 0
2.6900003 0.040745143 0.42465362 0
2.6900003 0.036614422 0.42465362 0
2.6910002 0.032517973 0.42466265 0
2.6920002 0.028417911 0.42467165 0
2.6940002 0.02434491 0.42468971 0
2.6960001 0.020264696 0.42470774 0
2.6990001 0.016204324 0.4247348 0
2.7020001 0.012133129 0.42476183 0
2.7060001 0.008074563 0.42479792 0
2.7100003 0.0040015653 0.42483401 0
2.7170002 -2.6337802e-05 0.42489713 0
2.7270002 -0.0040253848 0.42498732 0
2.6830001 0.33698273 0.42047238 0
2.6730001 0.33120513 0.42040023 0
2.6670003 0.32612023 0.42035696 0
2.6630001 0.3213816 0.42032808 0
2.6600001 0.31681797 0.42030644 0
2.6570003 0.31226519 0.42028481 0
2.6560001 0.30803704 0.42027757 0
2.6540003 0.30365741 0.42026314 0
2.6540003 0.29959163 0.42026314 0
2.6530001 0.2953743 0.42025593 0
2.6530001 0.29131034 0.42025593 0
2.6530001 0.28724635 0.42025593 0
2.6530001 0.28318235 0.42025593 0
2.6540003 0.27926269 0.42026314 0
2.6550002 0.27533939 0.42027035 0
2.6570003 0.27155325 0.42028481 0
2.6590002 0.2677598 0.42029923 0
2.6610003 0.2639592 0.42031366 0
2.6640003 0.26028666 0.42033529 0
2.6670003 0.25660327 0.42035696 0
2.6710002 0.25304073 0.42038581 0
2.6760001 0.24959368 0.4204219 0
2.6810002 0.24612853 0.42045796 0
2.6900003 0.24315047 0.4205229 0
2.8340001 0.25694236 0.4215619 0
2.8350003 0.25267458 0.42156911 0
2.8360002 0.24840313 0.42157632 0
2.8360002 0.24400905 0.42157632 0
2.8370001 0.23973224 0.42158353 0
2.8370001 0.23533636 0.42158353 0
2.8380003 0.23105413 0.42159075 0
2.8390002 0.22676826 0.42159796 0
2.8390002 0.22236878 0.42159796 0
2.8400002 0.21807751 0.42160517 0
2.8410003 0.21378267 0.42161241 0
2.8410003 0.20937958 0.42161241 0
2.8420002 0.20507929 0.42161962 0
2.8430002 0.20077538 0.42162684 0
2.8430002 0.19636869 0.42162684 0
2.8440001 0.19205938 0.42163405 0
2.8450003 0.18774648 0.42164126 0
2.8450003 0.18333618 0.42164126 0
2.8460002 0.17901786 0.42164847 0
2.8470001 0.17469592 0.42165568 0
2.8470001 0.17028201 0.42165568 0
2.8480003 0.16595469 0.4216629 0
2.8490002 0.16162373 0.42167011 0
2.8490002 0.15720621 0.42167011 0
2.8500001 0.15286985 0.42167732 0
2.8510003 0.1485299 0.42168456 0
2.8510003 0.14410876 0.42168456 0
2.8520002 0.13976339 0.42169178 0
2.8530002 0.13541441 0.42169899 0
2.8530002 0.13098966 0.42169899 0
2.8540003 0.12663527 0.4217062 0
2.8540003 0.12220873 0.4217062 0
2.8550003 0.11784892 0.42171341 0
2.8560002 0.1134855 0.42172062 0
2.8560002 0.10905536 0.42172062 0
2.8570001 0.10468653 0.42172784 0
2.7280002 0.092575759 0.42079708 0
2.7150002 0.0876261 0.42070329 0
2.7090001 0.083114788 0.42065999 0
2.7040002 0.078679219 0.4206239 0
2.7000003 0.074314013 0.42059505 0
2.6970003 0.070013732 0.42057341 0
2.6950002 0.06577298 0.42055899 0
2.6930003 0.061539438 0.42054453 0
2.6920002 0.057358209 0.42053732 0
2.6910002 0.053180587 0.42053011 0
2.6900003 0.049006585 0.4205229 0
2.6900003 0.044875864 0.4205229 0
2.6900003 0.040745143 0.4205229 0
2.6900003 0.036614422 0.4205229 0
2.6910002 0.032517973 0.42053011 0
2.6920002 0.028417911 0.42053732 0
2.6940002 0.02434491 0.42055175 0
2.6960001 0.020264696 0.4205662 0
2.6990001 0.016204324 0.42058784 0
2.7020001 0.012133129 0.42060947 0
2.7060001 0.008074563 0.42063835 0
2.7100003 0.0040015653 0.4206672 0
2.7170002 -2.6337802e-05 0.42071772 0
2.7270002 -0.0040253848 0.42078987 0
2.6830001 0.33698273 0.4163543 0
2.6730001 0.33120513 0.41630018 0
2.6670003 0.32612023 0.41626772 0
2.6630001 0.3213816 0.41624606 0
2.6600001 0.31681797 0.41622984 0
2.6570003 0.31226519 0.4162136 0
2.6560001 0.30803704 0.41620818 0
2.6540003 0.30365741 0.41619736 0
2.6540003 0.29959163 0.41619736 0
2.6530001 0.2953743 0.41619197 0
2.6530001 0.29131034 0.41619197 0
2.6530001 0.28724635 0.41619197 0
2.6530001 0.28318235 0.41619197 0
2.6540003 0.27926269 0.41619736 0
2.6550002 0.27533939 0.41620278 0
2.6570003 0.27155325 0.4162136 0
2.6590002 0.2677598 0.41622442 0
2.6610003 0.2639592 0.41623524 0
2.6640003 0.26028666 0.41625148 0
2.6670003 0.25660327 0.41626772 0
2.6710002 0.25304073 0.41628936 0
2.6760001 0.24959368 0.41631642 0
2.6810002 0.24612853 0.41634348 0
2.6900003 0.24315047 0.41639218 0
2.8340001 0.25694236 0.41717142 0
2.8350003 0.25267458 0.41717684 0
2.8360002 0.24840313 0.41718224 0
2.8360002 0.24400905 0.41718224 0
2.8370001 0.23973224 0.41718766 0
2.8370001 0.23533636 0.41718766 0
2.8380003 0.23105413 0.41719306 0
2.8390002 0.22676826 0.41719848 0
2.8390002 0.22236878 0.41719848 0
2.8400002 0.21807751 0.4172039 0
2.8410003 0.21378267 0.4172093 0
2.8410003 0.20937958 0.4172093 0
2.8420002 0.20507929 0.41721472 0
2.8430002 0.20077538 0.41722012 0
2.8430002 0.19636869 0.41722012 0
2.8440001 0.19205938 0.41722554 0
2.8450003 0.18774648 0.41723093 0
2.8450003 0.18333618 0.41723093 0
2.8460002 0.17901786 0.41723636 0
2.8470001 0.17469592 0.41724178 0
2.8470001 0.17028201 0.41724178 0
2.8480003 0.16595469 0.41724718 0
2.8490002 0.16162373 0.4172526 0
2.8490002 0.15720621 0.4172526 0
2.8500001 0.15286985 0.41725799 0
2.8510003 0.1485299 0.41726342 0
2.8510003 0.14410876 0.41726342 0
2.8520002 0.13976339 0.41726881 0
2.8530002 0.13541441 0.41727424 0
2.8530002 0.13098966 0.41727424 0
2.8540003 0.12663527 0.41727966 0
2.8540003 0.12220873 0.41727966 0
2.8550003 0.11784892 0.41728505 0
2.8560002 0.1134855 0.41729048 0
2.8560002 0.10905536 0.41729048 0
2.8570001 0.10468653 0.41729587 0
2.7280002 0.092575759 0.41659781 0
2.7150002 0.0876261 0.41652745 0
2.7090001 0.083114788 0.416495 0
2.7040002 0.078679219 0.41646793 0
2.7000003 0.074314013 0.4164463 0
2.6970003 0.070013732 0.41643006 0
2.6950002 0.06577298 0.41641924 0
2.6930003 0.061539438 0.41640842 0
2.6920002 0.057358209 0.416403 0
2.6910002 0.053180587 0.4163976 0
2.6900003 0.049006585 0.41639218 0
2.6900003 0.044875864 0.41639218 0
2.6900003 0.040745143 0.41639218 0
2.6900003 0.036614422 0.41639218 0
2.6910002 0.032517973 0.4163976 0
2.6920002 0.028417911 0.416403 0
2.6940002 0.02434491 0.41641381 0
2.6960001 0.020264696 0.41642463 0
2.6990001 0.016204324 0.41644087 0
2.7020001 0.012133129 0.41645712 0
2.7060001 0.008074563 0.41647875 0
2.7100003 0.0040015653 0.41650042 0
2.7170002 -2.6337802e-05 0.4165383 0
2.7270002 -0.0040253848 0.41659239 0
2.6830001 0.33698273 0.41223621 0
2.6730001 0.33120513 0.41220012 0
2.6670003 0.32612023 0.41217849 0
2.6630001 0.3213816 0.41216406 0
2.6600001 0.31681797 0.41215321 0
2.6570003 0.31226519 0.4121424 0
2.6560001 0.30803704 0.41213879 0
2.6540003 0.30365741 0.41213158 0
2.6540003 0.29959163 0.41213158 0
2.6530001 0.2953743 0.41212797 0
2.6530001 0.29131034 0.41212797 0
2.6530001 0.28724635 0.41212797 0
2.6530001 0.28318235 0.41212797 0
2.6540003 0.27926269 0.41213158 0
2.6550002 0.27533939 0.41213518 0
2.6570003 0.27155325 0.4121424 0
2.6590002 0.2677598 0.41214961 0
2.6610003 0.2639592 0.41215682 0
2.6640003 0.26028666 0.41216767 0
2.6670003 0.25660327 0.41217849 0
2.6710002 0.25304073 0.41219291 0
2.6760001 0.24959368 0.41221094 0
2.6810002 0.24612853 0.412229 0
2.6900003 0.24315047 0.41226146 0
2.8340001 0.25694236 0.41278094 0
2.8350003 0.25267458 0.41278455 0
2.8360002 0.24840313 0.41278815 0
2.8360002 0.24400905 0.41278815 0
2.8370001 0.23973224 0.41279179 0
2.8370001 0.23533636 0.41279179 0
2.8380003 0.23105413 0.41279539 0
2.8390002 0.22676826 0.412799 0
2.8390002 0.22236878 0.412799 0
2.8400002 0.21807751 0.41280261 0
2.8410003 0.21378267 0.41280621 0
2.8410003 0.20937958 0.41280621 0
2.8420002 0.20507929 0.41280982 0
2.8430002 0.20077538 0.41281343 0
2.8430002 0.19636869 0.41281343 0
2.8440001 0.19205938 0.41281703 0
2.8450003 0.18774648 0.41282064 0
2.8450003 0.18333618 0.41282064 0
2.8460002 0.17901786 0.41282424 0
2.8470001 0.17469592 0.41282785 0
2.8470001 0.17028201 0.41282785 0
2.8480003 0.16595469 0.41283146 0
2.8490002 0.16162373 0.41283506 0
2.8490002 0.15720621 0.41283506 0
2.8500001 0.15286985 0.41283867 0
2.8510003 0.1485299 0.41284227 0
2.8510003 0.14410876 0.41284227 0
2.8520002 0.13976339 0.41284588 0
2.8530002 0.13541441 0.41284949 0
2.8530002 0.13098966 0.41284949 0
2.8540003 0.12663527 0.41285309 0
2.8540003 0.12220873 0.41285309 0
2.8550003 0.11784892 0.4128567 0
2.8560002 0.1134855 0.41286033 0
2.8560002 0.10905536 0.41286033 0
2.8570001 0.10468653 0.41286394 0
2.7280002 0.092575759 0.41239855 0
2.7150002 0.0876261 0.41235164 0
2.7090001 0.083114788 0.41233 0
2.7040002 0.078679219 0.41231197 0
2.7000003 0.074314013 0.41229755 0
2.6970003 0.070013732 0.4122867 0
2.6950002 0.06577298 0.41227949 0
2.6930003 0.061539438 0.41227227 0
2.6920002 0.057358209 0.41226867 0
2.6910002 0.053180587 0.41226506 0
2.6900003 0.049006585 0.41226146 0
2.6900003 0.044875864 0.41226146 0
2.6900003 0.040745143 0.41226146 0
2.6900003 0.036614422 0.41226146 0
2.6910002 0.032517973 0.41226506 0
2.6920002 0.028417911 0.41226867 0
2.6940002 0.02434491 0.41227588 0
2.6960001 0.020264696 0.41228309 0
2.6990001 0.016204324 0.41229391 0
2.7020001 0.012133129 0.41230476 0
2.7060001 0.008074563 0.41231918 0
2.7100003 0.0040015653 0.41233361 0
2.7170002 -2.6337802e-05 0.41235885 0
2.7270002 -0.0040253848 0.41239494 0
2.6830001 0.33698273 0.4081181 0
2.6730001 0.33120513 0.40810007 0
2.6670003 0.32612023 0.40808925 0
2.6630001 0.3213816 0.40808204 0
2.6600001 0.31681797 0.40807661 0
2.6570003 0.31226519 0.40807122 0
2.6560001 0.30803704 0.4080694 0
2.6540003 0.30365741 0.4080658 0
2.6540003 0.29959163 0.4080658 0
2.6530001 0.2953743 0.40806401 0
2.6530001 0.29131034 0.40806401 0
2.6530001 0.28724635 0.40806401 0
2.6530001 0.28318235 0.40806401 0
2.6540003 0.27926269 0.4080658 0
2.6550002 0.27533939 0.40806761 0
2.6570003 0.27155325 0.40807122 0
2.6590002 0.2677598 0.40807483 0
2.6610003 0.2639592 0.40807843 0
2.6640003 0.26028666 0.40808383 0
2.6670003 0.25660327 0.40808925 0
2.6710002 0.25304073 0.40809646 0
2.6760001 0.24959368 0.40810549 0
2.6810002 0.24612853 0.40811449 0
2.6900003 0.24315047 0.40813074 0
2.8340001 0.25694236 0.40839049 0
2.8350003 0.25267458 0.40839228 0
2.8360002 0.24840313 0.4083941 0
2.8360002 0.24400905 0.4083941 0
2.8370001 0.23973224 0.40839589 0
2.8370001 0.23533636 0.40839589 0
2.8380003 0.23105413 0.4083977 0
2.8390002 0.22676826 0.40839949 0
2.8390002 0.22236878 0.40839949 0
2.8400002 0.21807751 0.40840131 0
2.8410003 0.21378267 0.4084031 0
2.8410003 0.20937958 0.4084031 0
2.8420002 0.20507929 0.40840492 0
2.8430002 0.20077538 0.4084067 0
2.8430002 0.19636869 0.4084067 0
2.8440001 0.19205938 0.40840852 0
2.8450003 0.18774648 0.40841031 0
2.8450003 0.18333618 0.40841031 0
2.8460002 0.17901786 0.40841213 0
2.8470001 0.17469592 0.40841395 0
2.8470001 0.17028201 0.40841395 0
2.8480003 0.16595469 0.40841573 0
2.8490002 0.16162373 0.40841755 0
2.8490002 0.15720621 0.40841755 0
2.8500001 0.15286985 0.40841934 0
2.8510003 0.1485299 0.40842116 0
2.8510003 0.14410876 0.40842116 0
2.8520002 0.13976339 0.40842295 0
2.8530002 0.13541441 0.40842476 0
2.8530002 0.13098966 0.40842476 0
2.8540003 0.12663527 0.40842655 0
2.8540003 0.12220873 0.40842655 0
2.8550003 0.11784892 0.40842837 0
2.8560002 0.1134855 0.40843016 0
2.8560002 0.10905536 0.40843016 0
2.8570001 0.10468653 0.40843198 0
2.7280002 0.092575759 0.40819928 0
2.7150002 0.0876261 0.40817583 0
2.7090001 0.083114788 0.40816501 0
2.7040002 0.078679219 0.40815598 0
2.7000003 0.074314013 0.40814877 0
2.6970003 0.070013732 0.40814337 0
2.6950002 0.06577298 0.40813977 0
2.6930003 0.061539438 0.40813616 0
2.6920002 0.057358209 0.40813434 0
2.6910002 0.053180587 0.40813255 0
2.6900003 0.049006585 0.40813074 0
2.6900003 0.044875864 0.40813074 0
2.6900003 0.040745143 0.40813074 0
2.6900003 0.036614422 0.40813074 0
2.6910002 0.032517973 0.40813255 0
2.6920002 0.028417911 0.40813434 0
2.6940002 0.02434491 0.40813795 0
2.6960001 0.020264696 0.40814155 0
2.6990001 0.016204324 0.40814698 0
2.7020001 0.012133129 0.40815237 0
2.7060001 0.008074563 0.40815958 0
2.7100003 0.0040015653 0.40816683 0
2.7170002 -2.6337802e-05 0.40817943 0
2.7270002 -0.0040253848 0.40819746 0
2.6830001 0.33698273 0.40400001 0
2.6730001 0.33120513 0.40400001 0
2.6670003 0.32612023 0.40400001 0
2.6630001 0.3213816 0.40400001 0
2.6600001 0.31681797 0.40400001 0
2.6570003 0.31226519 0.40400001 0
2.6560001 0.30803704 0.40400001 0
2.6540003 0.30365741 0.40400001 0
2.6540003 0.29959163 0.40400001 0
2.6530001 0.2953743 0.40400001 0
2.6530001 0.29131034 0.40400001 0
2.6530001 0.28724635 0.40400001 0
2.6530001 0.28318235 0.40400001 0
2.6540003 0.27926269 0.40400001 0
2.6550002 0.27533939 0.40400001 0
2.6570003 0.27155325 0.40400001 0
2.6590002 0.2677598 0.40400001 0
2.6610003 0.2639592 0.40400001 0
2.6640003 0.26028666 0.40400001 0
2.6670003 0.25660327 0.40400001 0
2.6710002 0.25304073 0.40400001 0
2.6760001 0.24959368 0.40400001 0
2.6810002 0.24612853 0.40400001 0
2.6900003 0.24315047 0.40400001 0
2.8340001 0.25694236 0.40400001 0
2.8350003 0.25267458 0.40400001 0
2.8360002 0.24840313 0.40400001 0
2.8360002 0.24400905 0.40400001 0
2.8370001 0.23973224 0.40400001 0
2.8370001 0.23533636 0.40400001 0
2.8380003 0.23105413 0.40400001 0
2.8390002 0.22676826 0.40400001 0
2.8390002 0.22236878 0.40400001 0
2.8400002 0.21807751 0.40400001 0
2.8410003 0.21378267 0.40400001 0
2.8410003 0.20937958 0.40400001 0
2.8420002 0.20507929 0.40400001 0
2.8430002 0.20077538 0.40400001 0
2.8430002 0.19636869 0.40400001 0
2.8440001 0.19205938 0.40400001 0
2.8450003 0.18774648 0.40400001 0
2.8450003 0.18333618 0.40400001 0
2.8460002 0.17901786 0.40400001 0
2.8470001 0.17469592 0.40400001 0
2.8470001 0.17028201 0.40400001 0
2.8480003 0.16595469 0.40400001 0
2.8490002 0.16162373 0.40400001 0
2.8490002 0.15720621 0.40400001 0
2.8500001 0.15286985 0.40400001 0
2.8510003 0.1485299 0.40400001 0
2.8510003 0.14410876 0.40400001 0
2.8520002 0.13976339 0.40400001 0
2.8530002 0.13541441 0.40400001 0
2.8530002 0.13098966 0.40400001 0
2.8540003 0.12663527 0.40400001 0
2.8540003 0.12220873 0.40400001 0
2.8550003 0.11784892 0.40400001 0
2.8560002 0.1134855 0.40400001 0
2.8560002 0.10905536 0.40400001 0
2.8570001 0.10468653 0.40400001 0
2.7280002 0.092575759 0.40400001 0
2.7150002 0.0876261 0.40400001 0
2.7090001 0.083114788 0.40400001 0
2.7040002 0.078679219 0.40400001 0
2.7000003 0.074314013 0.40400001 0
2.6970003 0.070013732 0.40400001 0
2.6950002 0.06577298 0.40400001 0
2.6930003 0.061539438 0.40400001 0
2.6920002 0.057358209 0.40400001 0
2.6910002 0.053180587 0.40400001 0
2.6900003 0.049006585 0.40400001 0
2.6900003 0.044875864 0.40400001 0
2.6900003 0.040745143 0.40400001 0
2.6900003 0.036614422 0.40400001 0
2.6910002 0.032517973 0.40400001 0
2.6920002 0.028417911 0.40400001 0
2.6940002 0.02434491 0.40400001 0
2.6960001 0.020264696 0.40400001 0
2.6990001 0.016204324 0.40400001 0
2.7020001 0.012133129 0.40400001 0
2.7060001 0.008074563 0.40400001 0
2.7100003 0.0040015653 0.40400001 0
2.7170002 -2.6337802e-05 0.40400001 0
2.7270002 -0.0040253848 0.40400001 0
2.6830001 0.33698273 0.39988193 0
2.6730001 0.33120513 0.39989996 0
2.6670003 0.32612023 0.39991078 0
2.6630001 0.3213816 0.39991799 0
2.6600001 0.31681797 0.39992341 0
2.6570003 0.31226519 0.39992881 0
2.6560001 0.30803704 0.39993063 0
2.6540003 0.30365741 0.39993423 0
2.6540003 0.29959163 0.39993423 0
2.6530001 0.2953743 0.39993602 0
2.6530001 0.29131034 0.39993602 0
2.6530001 0.28724635 0.39993602 0
2.6530001 0.28318235 0.39993602 0
2.6540003 0.27926269 0.39993423 0
2.6550002 0.27533939 0.39993241 0
2.6570003 0.27155325 0.39992881 0
2.6590002 0.2677598 0.3999252 0
2.6610003 0.2639592 0.3999216 0
2.6640003 0.26028666 0.3999162 0
2.6670003 0.25660327 0.39991078 0
2.6710002 0.25304073 0.39990357 0
2.6760001 0.24959368 0.39989454 0
2.6810002 0.24612853 0.39988554 0
2.6900003 0.24315047 0.39986929 0
2.8340001 0.25694236 0.39960954 0
2.8350003 0.25267458 0.39960775 0
2.8360002 0.24840313 0.39960593 0
2.8360002 0.24400905 0.39960593 0
2.8370001 0.23973224 0.39960414 0
2.8370001 0.23533636 0.39960414 0
2.8380003 0.23105413 0.39960232 0
2.8390002 0.22676826 0.39960054 0
2.8390002 0.22236878 0.39960054 0
2.8400002 0.21807751 0.39959872 0
2.8410003 0.21378267 0.39959693 0
2.8410003 0.20937958 0.39959693 0
2.8420002 0.20507929 0.39959511 0
2.8430002 0.20077538 0.39959332 0
2.8430002 0.19636869 0.39959332 0
2.8440001 0.19205938 0.39959151 0
2.8450003 0.18774648 0.39958972 0
2.8450003 0.18333618 0.39958972 0
2.8460002 0.17901786 0.3995879 0
2.8470001 0.17469592 0.39958608 0
2.8470001 0.17028201 0.39958608 0
2.8480003 0.16595469 0.39958429 0
2.8490002 0.16162373 0.39958248 0
2.8490002 0.15720621 0.39958248 0
2.8500001 0.15286985 0.39958069 0
2.8510003 0.1485299 0.39957887 0
2.8510003 0.14410876 0.39957887 0
2.8520002 0.13976339 0.39957708 0
2.8530002 0.13541441 0.39957526 0
2.8530002 0.13098966 0.39957526 0
2.8540003 0.12663527 0.39957348 0
2.8540003 0.12220873 0.39957348 0
2.8550003 0.11784892 0.39957166 0
2.8560002 0.1134855 0.39956987 0
2.8560002 0.10905536 0.39956987 0
2.8570001 0.10468653 0.39956805 0
2.7280002 0.092575759 0.39980075 0
2.7150002 0.0876261 0.3998242 0
2.7090001 0.083114788 0.39983502 0
2.7040002 0.078679219 0.39984405 0
2.7000003 0.074314013 0.39985126 0
2.6970003 0.070013732 0.39985666 0
2.6950002 0.06577298 0.39986026 0
2.6930003 0.061539438 0.39986387 0
2.6920002 0.057358209 0.39986569 0
2.6910002 0.053180587 0.39986748 0
2.6900003 0.049006585 0.39986929 0
2.6900003 0.044875864 0.39986929 0
2.6900003 0.040745143 0.39986929 0
2.6900003 0.036614422 0.39986929 0
2.6910002 0.032517973 0.39986748 0
2.6920002 0.028417911 0.39986569 0
2.6940002 0.02434491 0.39986208 0
2.6960001 0.020264696 0.39985847 0
2.6990001 0.016204324 0.39985305 0
2.7020001 0.012133129 0.39984766 0
2.7060001 0.008074563 0.39984044 0
2.7100003 0.0040015653 0.3998332 0
2.7170002 -2.6337802e-05 0.3998206 0
2.7270002 -0.0040253848 0.39980257 0
2.6830001 0.33698273 0.39576381 0
2.6730001 0.33120513 0.39579991 0
2.6670003 0.32612023 0.39582154 0
2.6630001 0.3213816 0.39583597 0
2.6600001 0.31681797 0.39584681 0
2.6570003 0.31226519 0.39585763 0
2.6560001 0.30803704 0.39586124 0
2.6540003 0.30365741 0.39586845 0
2.6540003 0.29959163 0.39586845 0
2.6530001 0.2953743 0.39587206 0
2.6530001 0.29131034 0.39587206 0
2.6530001 0.28724635 0.39587206 0
2.6530001 0.28318235 0.39587206 0
2.6540003 0.27926269 0.39586845 0
2.6550002 0.27533939 0.39586484 0
2.6570003 0.27155325 0.39585763 0
2.6590002 0.2677598 0.39585042 0
2.6610003 0.2639592 0.39584321 0
2.6640003 0.26028666 0.39583236 0
2.6670003 0.25660327 0.39582154 0
2.6710002 0.25304073 0.39580712 0
2.6760001 0.24959368 0.39578909 0
2.6810002 0.24612853 0.39577103 0
2.6900003 0.24315047 0.39573857 0
2.8340001 0.25694236 0.39521909 0
2.8350003 0.25267458 0.39521548 0
2.8360002 0.24840313 0.39521188 0
2.8360002 0.24400905 0.39521188 0
2.8370001 0.23973224 0.39520824 0
2.8370001 0.23533636 0.39520824 0
2.8380003 0.23105413 0.39520463 0
2.8390002 0.22676826 0.39520103 0
2.8390002 0.22236878 0.39520103 0
2.8400002 0.21807751 0.39519742 0
2.8410003 0.21378267 0.39519382 0
2.8410003 0.20937958 0.39519382 0
2.8420002 0.20507929 0.39519021 0
2.8430002 0.20077538 0.3951866 0
2.8430002 0.19636869 0.3951866 0
2.8440001 0.19205938 0.395183 0
2.8450003 0.18774648 0.39517939 0
2.8450003 0.18333618 0.39517939 0
2.8460002 0.17901786 0.39517578 0
2.8470001 0.17469592 0.39517218 0
2.8470001 0.17028201 0.39517218 0
2.8480003 0.16595469 0.39516857 0
2.8490002 0.16162373 0.39516497 0
2.8490002 0.15720621 0.39516497 0
2.8500001 0.15286985 0.39516136 0
2.8510003 0.1485299 0.39515775 0
2.8510003 0.14410876 0.39515775 0
2.8520002 0.13976339 0.39515415 0
2.8530002 0.13541441 0.39515054 0
2.8530002 0.13098966 0.39515054 0
2.8540003 0.12663527 0.39514694 0
2.8540003 0.12220873 0.39514694 0
2.8550003 0.11784892 0.39514333 0
2.8560002 0.1134855 0.39513969 0
2.8560002 0.10905536 0.39513969 0
2.8570001 0.10468653 0.39513609 0
2.7280002 0.092575759 0.39560148 0
2.7150002 0.0876261 0.39564839 0
2.7090001 0.083114788 0.39567003 0
2.7040002 0.078679219 0.39568806 0
2.7000003 0.074314013 0.39570248 0
2.6970003 0.070013732 0.39571333 0
2.6950002 0.06577298 0.39572054 0
2.6930003 0.061539438 0.39572775 0
2.6920002 0.057358209 0.39573136 0
2.6910002 0.053180587 0.39573497 0
2.6900003 0.049006585 0.39573857 0
2.6900003 0.044875864 0.39573857 0
2.6900003 0.040745143 0.39573857 0
2.6900003 0.036614422 0.39573857 0
2.6910002 0.032517973 0.39573497 0
2.6920002 0.028417911 0.39573136 0
2.6940002 0.02434491 0.39572415 0
2.6960001 0.020264696 0.39571694 0
2.6990001 0.016204324 0.39570612 0
2.7020001 0.012133129 0.39569527 0
2.7060001 0.008074563 0.39568084 0
2.7100003 0.0040015653 0.39566642 0
2.7170002 -2.6337802e-05 0.39564118 0
2.7270002 -0.0040253848 0.39560509 0
2.6830001 0.33698273 0.39164573 0
2.6730001 0.33120513 0.39169985 0
2.6670003 0.32612023 0.39173231 0
2.6630001 0.3213816 0.39175397 0
2.6600001 0.31681797 0.39177018 0
2.6570003 0.31226519 0.39178643 0
2.6560001 0.30803704 0.39179185 0
2.6540003 0.30365741 0.39180267 0
2.6540003 0.29959163 0.39180267 0
2.6530001 0.2953743 0.39180806 0
2.6530001 0.29131034 0.39180806 0
2.6530001 0.28724635 0.39180806 0
2.6530001 0.28318235 0.39180806 0
2.6540003 0.27926269 0.39180267 0
2.6550002 0.27533939 0.39179724 0
2.6570003 0.27155325 0.39178643 0
2.6590002 0.2677598 0.39177561 0
2.6610003 0.2639592 0.39176479 0
2.6640003 0.26028666 0.39174855 0
2.6670003 0.25660327 0.39173231 0
2.6710002 0.25304073 0.39171067 0
2.6760001 0.24959368 0.39168361 0
2.6810002 0.24612853 0.39165655 0
2.6900003 0.24315047 0.39160785 0
2.8350003 0.25267458 0.39082319 0
2.8360002 0.24840313 0.39081779 0
2.8360002 0.24400905 0.39081779 0
2.8370001 0.23973224 0.39081237 0
2.8370001 0.23533636 0.39081237 0
2.8380003 0.23105413 0.39080697 0
2.8390002 0.22676826 0.39080155 0
2.8390002 0.22236878 0.39080155 0
2.8400002 0.21807751 0.39079612 0
2.8410003 0.21378267 0.39079073 0
2.8410003 0.20937958 0.39079073 0
2.8420002 0.20507929 0.39078531 0
2.8430002 0.20077538 0.39077991 0
2.8430002 0.19636869 0.39077991 0
2.8440001 0.19205938 0.39077449 0
2.8450003 0.18774648 0.39076909 0
2.8450003 0.18333618 0.39076909 0
2.8460002 0.17901786 0.39076367 0
2.8470001 0.17469592 0.39075825 0
2.8470001 0.17028201 0.39075825 0
2.8480003 0.16595469 0.39075285 0
2.8490002 0.16162373 0.39074743 0
2.8490002 0.15720621 0.39074743 0
2.8500001 0.15286985 0.39074203 0
2.8510003 0.1485299 0.39073661 0
2.8510003 0.14410876 0.39073661 0
2.8520002 0.13976339 0.39073122 0
2.8530002 0.13541441 0.39072579 0
2.8530002 0.13098966 0.39072579 0
2.8540003 0.12663527 0.39072037 0
2.8540003 0.12220873 0.39072037 0
2.8550003 0.11784892 0.39071497 0
2.8560002 0.1134855 0.39070955 0
2.8560002 0.10905536 0.39070955 0
2.7280002 0.092575759 0.39140221 0
2.7150002 0.0876261 0.39147258 0
2.7090001 0.083114788 0.39150503 0
2.7040002 0.078679219 0.39153209 0
2.7000003 0.074314013 0.39155373 0
2.6970003 0.070013732 0.39156997 0
2.6950002 0.06577298 0.39158079 0
2.6930003 0.061539438 0.39159161 0
2.6920002 0.057358209 0.39159703 0
2.6910002 0.053180587 0.39160243 0
2.6900003 0.049006585 0.39160785 0
2.6900003 0.044875864 0.39160785 0
2.6900003 0.040745143 0.39160785 0
2.6900003 0.036614422 0.39160785 0
2.6910002 0.032517973 0.39160243 0
2.6920002 0.028417911 0.39159703 0
2.6940002 0.02434491 0.39158621 0
2.6960001 0.020264696 0.3915754 0
2.6990001 0.016204324 0.39155915 0
2.7020001 0.012133129 0.39154291 0
2.7060001 0.008074563 0.39152128 0
2.7100003 0.0040015653 0.39149961 0
2.7170002 -2.6337802e-05 0.39146173 0
2.7270002 -0.0040253848 0.39140764 0
2.6830001 0.33698273 0.38752764 0
2.6730001 0.33120513 0.3875998 0
2.6670003 0.32612023 0.38764307 0
2.6630001 0.3213816 0.38767195 0
2.6600001 0.31681797 0.38769358 0
2.6570003 0.31226519 0.38771522 0
2.6560001 0.30803704 0.38772246 0
2.6540003 0.30365741 0.38773689 0
2.6540003 0.29959163 0.38773689 0
2.6530001 0.2953743 0.3877441 0
2.6530001 0.29131034 0.3877441 0
2.6530001 0.28724635 0.3877441 0
2.6530001 0.28318235 0.3877441 0
2.6540003 0.27926269 0.38773689 0
2.6550002 0.27533939 0.38772967 0
2.6570003 0.27155325 0.38771522 0
2.6590002 0.2677598 0.3877008 0
2.6610003 0.2639592 0.38768637 0
2.6640003 0.26028666 0.38766474 0
2.6670003 0.25660327 0.38764307 0
2.6710002 0.25304073 0.38761422 0
2.6760001 0.24959368 0.38757813 0
2.6810002 0.24612853 0.38754207 0
2.6900003 0.24315047 0.38747713 0
3.1950002 0.27666521 0.38383344 0
3.1960003 0.27173722 0.38382623 0
3.1970003 0.26680562 0.38381901 0
3.1980002 0.26187038 0.3838118 0
3.1980002 0.25682333 0.3838118 0
3.1990001 0.2518827 0.38380459 0
3.2000003 0.24693847 0.38379735 0
3.2010002 0.24199063 0.38379014 0
3.2010002 0.23693812 0.38379014 0
3.2020001 0.23198488 0.38378292 0
3.2030003 0.22702804 0.38377571 0
3.2040002 0.22206756 0.3837685 0
3.2040002 0.21700969 0.3837685 0
3.2050002 0.21204379 0.38376129 0
3.2060003 0.20707431 0.38375407 0
3.2070003 0.2021012 0.38374686 0
3.2070003 0.19703791 0.38374686 0
3.2080002 0.19205938 0.38373965 0
3.2090001 0.18707727 0.38373244 0
3.2100003 0.18209155 0.3837252 0
3.2100003 0.17702284 0.3837252 0
3.2110002 0.1720317 0.38371798 0
3.2120001 0.16703697 0.38371077 0
3.2130003 0.16203861 0.38370356 0
3.2130003 0.1569645 0.38370356 0
3.2140002 0.15196073 0.38369635 0
2.7280002 0.092575759 0.38720295 0
2.7150002 0.0876261 0.38729674 0
2.7090001 0.083114788 0.38734004 0
2.7040002 0.078679219 0.38737613 0
2.7000003 0.074314013 0.38740498 0
2.6970003 0.070013732 0.38742661 0
2.6950002 0.06577298 0.38744104 0
2.6930003 0.061539438 0.38745549 0
2.6920002 0.057358209 0.38746271 0
2.6910002 0.053180587 0.38746992 0
2.6900003 0.049006585 0.38747713 0
2.6900003 0.044875864 0.38747713 0
2.6900003 0.040745143 0.38747713 0
2.6900003 0.036614422 0.38747713 0
2.6910002 0.032517973 0.38746992 0
2.6920002 0.028417911 0.38746271 0
2.6940002 0.02434491 0.38744828 0
2.6960001 0.020264696 0.38743383 0
2.6990001 0.016204324 0.38741219 0
2.7020001 0.012133129 0.38739055 0
2.7060001 0.008074563 0.38736168 0
2.7100003 0.0040015653 0.38733283 0
2.7170002 -2.6337802e-05 0.38728231 0
2.7270002 -0.0040253848 0.38721016 0
2.6830001 0.33698273 0.38340956 0
2.6730001 0.33120513 0.38349974 0
2.6670003 0.32612023 0.38355386 0
2.6630001 0.3213816 0.38358992 0
2.6600001 0.31681797 0.38361698 0
2.6570003 0.31226519 0.38364404 0
2.6560001 0.30803704 0.38365304 0
2.6540003 0.30365741 0.3836711 0
2.6540003 0.29959163 0.3836711 0
2.6530001 0.2953743 0.38368011 0
2.6530001 0.29131034 0.38368011 0
2.6530001 0.28724635 0.38368011 0
2.6530001 0.28318235 0.38368011 0
2.6540003 0.27926269 0.3836711 0
2.6550002 0.27533939 0.38366207 0
2.6570003 0.27155325 0.38364404 0
2.6590002 0.2677598 0.38362601 0
2.6610003 0.2639592 0.38360795 0
2.6640003 0.26028666 0.38358089 0
2.6670003 0.25660327 0.38355386 0
2.6710002 0.25304073 0.38351777 0
2.6760001 0.24959368 0.38347268 0
2.6810002 0.24612853 0.38342759 0
2.6900003 0.24315047 0.38334641 0
3.1950002 0.28170684 0.37879181 0
3.1950002 0.27666521 0.37879181 0
3.1960003 0.27173722 0.37878278 0
3.1970003 0.26680562 0.37877375 0
3.1980002 0.26187038 0.37876475 0
3.1980002 0.25682333 0.37876475 0
3.1990001 0.2518827 0.37875572 0
3.2000003 0.24693847 0.37874669 0
3.2010002 0.24199063 0.37873769 0
3.2010002 0.23693812 0.37873769 0
3.2020001 0.23198488 0.37872866 0
3.2030003 0.22702804 0.37871963 0
3.2040002 0.22206756 0.37871063 0
3.2040002 0.21700969 0.37871063 0
3.2050002 0.21204379 0.3787016 0
3.2060003 0.20707431 0.3786926 0
3.2070003 0.2021012 0.37868357 0
3.2070003 0.19703791 0.37868357 0
3.2080002 0.19205938 0.37867454 0
3.2090001 0.18707727 0.37866554 0
3.2100003 0.18209155 0.37865651 0
3.2100003 0.17702284 0.37865651 0
3.2110002 0.1720317 0.37864748 0
3.2120001 0.16703697 0.37863848 0
3.2130003 0.16203861 0.37862945 0
3.2130003 0.1569645 0.37862945 0
3.2140002 0.15196073 0.37862045 0
3.2150002 0.14695336 0.37861142 0
2.7280002 0.092575759 0.38300368 0
2.7150002 0.0876261 0.38312092 0
2.7090001 0.083114788 0.38317505 0
2.7040002 0.078679219 0.38322014 0
2.7000003 0.074314013 0.38325623 0
2.6970003 0.070013732 0.38328329 0
2.6950002 0.06577298 0.38330132 0
2.6930003 0.061539438 0.38331935 0
2.6920002 0.057358209 0.38332838 0
2.6910002 0.053180587 0.38333738 0
2.6900003 0.049006585 0.38334641 0
2.6900003 0.044875864 0.38334641 0
2.6900003 0.040745143 0.38334641 0
2.6900003 0.036614422 0.38334641 0
2.6910002 0.032517973 0.38333738 0
2.6920002 0.028417911 0.38332838 0
2.6940002 0.02434491 0.38331032 0
2.6960001 0.020264696 0.38329229 0
2.6990001 0.016204324 0.38326523 0
2.7020001 0.012133129 0.3832382 0
2.7060001 0.008074563 0.38320211 0
2.7100003 0.0040015653 0.38316602 0
2.7170002 -2.6337802e-05 0.38310289 0
2.7270002 -0.0040253848 0.38301271 0
2.6830001 0.33698273 0.37929145 0
2.6730001 0.33120513 0.37939969 0
2.6670003 0.32612023 0.37946463 0
2.6630001 0.3213816 0.3795079 0
2.6600001 0.31681797 0.37954038 0
2.6570003 0.31226519 0.37957284 0
2.6560001 0.30803704 0.37958366 0
2.6540003 0.30365741 0.37960532 0
2.6540003 0.29959163 0.37960532 0
2.6530001 0.2953743 0.37961614 0
2.6530001 0.29131034 0.37961614 0
2.6530001 0.28724635 0.37961614 0
2.6530001 0.28318235 0.37961614 0
2.6540003 0.27926269 0.37960532 0
2.6550002 0.27533939 0.37959448 0
2.6570003 0.27155325 0.37957284 0
2.6590002 0.2677598 0.3795512 0
2.6610003 0.2639592 0.37952954 0
2.6640003 0.26028666 0.37949708 0
2.6670003 0.25660327 0.37946463 0
2.6710002 0.25304073 0.37942132 0
2.6760001 0.24959368 0.3793672 0
2.6810002 0.24612853 0.37931308 0
2.6900003 0.24315047 0.37921569 0
3.1950002 0.28170684 0.37375015 0
3.1950002 0.27666521 0.37375015 0
3.1960003 0.27173722 0.37373933 0
3.1970003 0.26680562 0.37372851 0
3.1980002 0.26187038 0.3737177 0
3.1980002 0.25682333 0.3737177 0
3.1990001 0.2518827 0.37370685 0
3.2000003 0.24693847 0.37369603 0
3.2010002 0.24199063 0.37368521 0
3.2010002 0.23693812 0.37368521 0
3.2020001 0.23198488 0.37367439 0
3.2030003 0.22702804 0.37366357 0
3.2040002 0.22206756 0.37365276 0
3.2040002 0.21700969 0.37365276 0
3.2050002 0.21204379 0.37364191 0
3.2060003 0.20707431 0.37363109 0
3.2070003 0.2021012 0.37362027 0
3.2070003 0.19703791 0.37362027 0
3.2080002 0.19205938 0.37360945 0
3.2090001 0.18707727 0.37359864 0
3.2100003 0.18209155 0.37358782 0
3.2100003 0.17702284 0.37358782 0
3.2110002 0.1720317 0.373577 0
3.2120001 0.16703697 0.37356615 0
3.2130003 0.16203861 0.37355533 0
3.2130003 0.1569645 0.37355533 0
3.2140002 0.15196073 0.37354451 0
3.2150002 0.14695336 0.3735337 0
2.7280002 0.092575759 0.37880442 0
2.7150002 0.0876261 0.37894511 0
2.7090001 0.083114788 0.37901005 0
2.7040002 0.078679219 0.37906417 0
2.7000003 0.074314013 0.37910748 0
2.6970003 0.070013732 0.37913993 0
2.6950002 0.06577298 0.37916157 0
2.6930003 0.061539438 0.37918323 0
2.6920002 0.057358209 0.37919405 0
2.6910002 0.053180587 0.37920487 0
2.6900003 0.049006585 0.37921569 0
2.6900003 0.044875864 0.37921569 0
2.6900003 0.040745143 0.37921569 0
2.6900003 0.036614422 0.37921569 0
2.6910002 0.032517973 0.37920487 0
2.6920002 0.028417911 0.37919405 0
2.6940002 0.02434491 0.37917238 0
2.6960001 0.020264696 0.37915075 0
2.6990001 0.016204324 0.37911829 0
2.7020001 0.012133129 0.37908581 0
2.7060001 0.008074563 0.37904254 0
2.7100003 0.0040015653 0.37899923 0
2.7170002 -2.6337802e-05 0.37892348 0
2.7270002 -0.0040253848 0.37881523 0
2.6830001 0.33698273 0.37517336 0
2.6730001 0.33120513 0.37529963 0
2.6670003 0.32612023 0.37537539 0
2.6630001 0.3213816 0.37542588 0
2.6600001 0.31681797 0.37546378 0
2.6570003 0.31226519 0.37550163 0
2.6560001 0.30803704 0.37551427 0
2.6540003 0.30365741 0.37553954 0
2.6540003 0.29959163 0.37553954 0
2.6530001 0.2953743 0.37555215 0
2.6530001 0.29131034 0.37555215 0
2.6530001 0.28724635 0.37555215 0
2.6530001 0.28318235 0.37555215 0
2.6540003 0.27926269 0.37553954 0
2.6550002 0.27533939 0.37552691 0
2.6570003 0.27155325 0.37550163 0
2.6590002 0.2677598 0.37547639 0
2.6610003 0.2639592 0.37545115 0
2.6640003 0.26028666 0.37541327 0
2.6670003 0.25660327 0.37537539 0
2.6710002 0.25304073 0.37532488 0
2.6760001 0.24959368 0.37526175 0
2.6810002 0.24612853 0.3751986 0
2.6900003 0.24315047 0.37508497 0
3.1950002 0.28170684 0.36870849 0
3.1950002 0.27666521 0.36870849 0
3.1960003 0.27173722 0.36869588 0
3.1970003 0.26680562 0.36868325 0
3.1980002 0.26187038 0.36867064 0
3.1980002 0.25682333 0.36867064 0
3.1990001 0.2518827 0.36865801 0
3.2000003 0.24693847 0.36864537 0
3.2010002 0.24199063 0.36863273 0
3.2010002 0.23693812 0.36863273 0
3.2020001 0.23198488 0.36862013 0
3.2030003 0.22702804 0.36860749 0
3.2040002 0.22206756 0.36859486 0
3.2040002 0.21700969 0.36859486 0
3.2050002 0.21204379 0.36858225 0
3.2060003 0.20707431 0.36856961 0
3.2070003 0.2021012 0.36855698 0
3.2070003 0.19703791 0.36855698 0
3.2080002 0.19205938 0.36854437 0
3.2090001 0.18707727 0.36853173 0
3.2100003 0.18209155 0.3685191 0
3.2100003 0.17702284 0.3685191 0
3.2110002 0.1720317 0.36850649 0
3.2120001 0.16703697 0.36849385 0
3.2130003 0.16203861 0.36848122 0
3.2130003 0.1569645 0.36848122 0
3.2140002 0.15196073 0.36846858 0
3.2150002 0.14695336 0.36845598 0
2.7280002 0.092575759 0.37460515 0
2.7150002 0.0876261 0.3747693 0
2.7090001 0.083114788 0.37484506 0
2.7040002 0.078679219 0.37490821 0
2.7000003 0.074314013 0.37495869 0
2.6970003 0.070013732 0.37499657 0
