# .PCD v0.7 - Point Cloud Data file format
VERSION 0.7
FIELDS x y z intensity
SIZE 4 4 4 4
TYPE F F F F
COUNT 1 1 1 1
WIDTH 1421
HEIGHT 1
VIEWPOINT 0 0 0 1 0 0 0
POINTS 1421
DATA ascii
4.9460001 -1.3334175 0.4532007 0
4.9410005 -1.3401927 0.45314658 0
4.9360003 -1.3469498 0.45309246 0
4.9320002 -1.3539773 0.45304918 0
4.9270005 -1.3607002 0.45299506 0
4.9220004 -1.3674049 0.45294094 0
4.9170003 -1.3740917 0.45288682 0
4.9120002 -1.3807603 0.4528327 0
4.9080005 -1.3877087 0.45278943 0
4.9030004 -1.394343 0.4527353 0
4.8980002 -1.4009594 0.45268118 0
4.8930001 -1.4075576 0.45262706 0
4.8890004 -1.4144429 0.45258379 0
4.8840003 -1.4210069 0.45252967 0
4.8790002 -1.4275529 0.45247555 0
4.8740001 -1.434081 0.45242143 0
4.8700004 -1.4409029 0.45237815 0
4.8650002 -1.4473966 0.45232403 0
4.8600001 -1.4538722 0.45226991 0
4.8560004 -1.4606475 0.45222664 0
4.8510003 -1.4670888 0.45217252 0
4.8460002 -1.4735122 0.4521184 0
4.8420005 -1.4802405 0.45207512 0
4.8370004 -1.4866295 0.452021 0
4.8330002 -1.4933269 0.4519777 0
4.8280001 -1.4996817 0.45192358 0
4.8230004 -1.5060186 0.45186949 0
4.8190002 -1.5126692 0.45182618 0
4.8140001 -1.5189718 0.45177206 0
4.8100004 -1.5255919 0.45172879 0
4.8050003 -1.53186 0.45167467 0
4.8000002 -1.5381101 0.45162055 0
4.7960005 -1.5446833 0.45157728 0
4.7910004 -1.5508991 0.45152315 0
4.7870002 -1.5574415 0.45147985 0
4.7820005 -1.5636234 0.45142573 0
4.7780004 -1.570135 0.45138246 0
4.7730002 -1.5762823 0.45132834 0
4.7690005 -1.5827636 0.45128503 0
4.7640004 -1.5888766 0.45123094 0
4.7600002 -1.595327 0.45118764 0
4.7560005 -1.601763 0.45114434 0
4.7510004 -1.6078256 0.45109025 0
4.7470002 -1.6142309 0.45104694 0
4.7420001 -1.6202592 0.45099282 0
4.7380004 -1.6266339 0.45094955 0
4.7330003 -1.632628 0.45089543 0
4.7290001 -1.6389719 0.45085213 0
4.7250004 -1.6453015 0.45080882 0
4.7200003 -1.651245 0.45075473 0
4.7160001 -1.6575438 0.45071143 0
4.7110004 -1.6634532 0.45065731 0
4.7070003 -1.6697214 0.45061404 0
4.7030001 -1.6759752 0.45057073 0
4.6980004 -1.681834 0.45051661 0
4.6940002 -1.6880571 0.45047334 0
4.6900005 -1.694266 0.45043004 0
4.6850004 -1.7000741 0.45037591 0
4.6810002 -1.7062521 0.45033264 0
4.6770005 -1.7124158 0.45028934 0
4.6730003 -1.7185649 0.45024604 0
4.6680002 -1.7243065 0.45019194 0
4.6640005 -1.7304251 0.45014864 0
4.6600003 -1.7365291 0.45010537 0
4.6550002 -1.74222 0.45005125 0
4.6510005 -1.7482936 0.45000795 0
4.6470003 -1.7543526 0.44996464 0
4.6430001 -1.760397 0.44992137 0
4.6390004 -1.7664273 0.44987807 0
4.6340003 -1.7720352 0.44982395 0
4.6300001 -1.7780347 0.44978067 0
4.6260004 -1.7840198 0.44973737 0
4.6220002 -1.7899903 0.4496941 0
4.6180005 -1.7959466 0.44965079 0
4.6130004 -1.8014716 0.44959667 0
4.6090002 -1.8073971 0.4495534 0
4.6050005 -1.8133082 0.4495101 0
4.6010003 -1.8192048 0.44946679 0
4.5970001 -1.825087 0.44942352 0
4.5930004 -1.8309549 0.44938022 0
4.5890002 -1.8368082 0.44933695 0
4.5840001 -1.8422177 0.44928282 0
4.5800004 -1.8480406 0.44923952 0
4.5760002 -1.8538488 0.44919622 0
4.5720005 -1.8596426 0.44915295 0
4.5680003 -1.865422 0.44910964 0
4.5640001 -1.8711869 0.44906637 0
4.5600004 -1.8769376 0.44902307 0
4.5560002 -1.8826736 0.44897977 0
4.5520005 -1.8883954 0.44893649 0
4.5480003 -1.8941026 0.44889319 0
4.5440001 -1.8997953 0.44884992 0
4.5400004 -1.9054738 0.44880661 0
4.5360003 -1.9111376 0.44876331 0
4.5320001 -1.916787 0.44872004 0
4.5280004 -1.9224224 0.44867674 0
4.5240002 -1.928043 0.44863343 0
4.5200005 -1.9336493 0.44859016 0
4.5160003 -1.9392411 0.44854686 0
4.5120001 -1.9448184 0.44850355 0
4.5080004 -1.9503815 0.44846028 0
4.5040002 -1.9559299 0.44841698 0
4.5000005 -1.9614642 0.44837371 0
4.4960003 -1.9669837 0.4483304 0
4.4920001 -1.9724886 0.4482871 0
4.4880004 -1.9779795 0.44824383 0
4.4840002 -1.983456 0.44820052 0
4.4800005 -1.9889181 0.44815725 0
4.4760003 -1.9943653 0.44811395 0
4.4720001 -1.9997984 0.44807065 0
4.4690003 -2.0056987 0.44803819 0
4.4650002 -2.0111046 0.44799489 0
4.4610004 -2.0164964 0.44795161 0
4.4570003 -2.0218735 0.44790831 0
4.4530001 -2.0272362 0.44786501 0
4.4490004 -2.0325847 0.44782174 0
4.4450002 -2.0379183 0.44777843 0
4.4420004 -2.0437319 0.44774598 0
4.4380002 -2.0490389 0.44770268 0
4.4340005 -2.0543313 0.4476594 0
4.4300003 -2.0596092 0.4476161 0
4.4260001 -2.0648727 0.4475728 0
4.4220004 -2.0701218 0.44752952 0
4.4190001 -2.0758615 0.44749704 0
4.4150004 -2.0810835 0.44745377 0
4.4110003 -2.0862911 0.44741046 0
4.4070001 -2.0914841 0.44736716 0
4.4040003 -2.0971754 0.44733471 0
4.4000001 -2.1023412 0.4472914 0
4.3960004 -2.1074932 0.44724813 0
4.3920002 -2.1126301 0.44720483 0
4.3889999 -2.1182725 0.44717234 0
4.3850002 -2.1233828 0.44712907 0
4.381 -2.1284788 0.44708577 0
4.3770003 -2.1335599 0.4470425 0
4.3740001 -2.1391535 0.44701001 0
4.3700004 -2.1442077 0.44696674 0
4.3660002 -2.1492476 0.44692343 0
4.3630004 -2.1548052 0.44689098 0
4.3590002 -2.1598179 0.44684768 0
4.355 -2.1648161 0.44680437 0
4.3520002 -2.1703377 0.44677192 0
4.348 -2.1753089 0.44672862 0
4.3440003 -2.1802659 0.44668534 0
4.3410001 -2.1857514 0.44665286 0
4.3370004 -2.1906812 0.44660956 0
4.3330002 -2.1955962 0.44656628 0
4.3300004 -2.2010458 0.4465338 0
4.3260002 -2.205934 0.44649053 0
4.322 -2.210808 0.44644722 0
4.3190002 -2.2162213 0.44641477 0
4.3150001 -2.2210681 0.44637147 0
4.3120003 -2.2264578 0.44633901 0
4.3080001 -2.2312777 0.44629571 0
4.3050003 -2.236644 0.44626325 0
4.3010001 -2.2414367 0.44621995 0
4.2969999 -2.2462149 0.44617665 0
4.2940001 -2.2515452 0.44614419 0
4.29 -2.2562962 0.44610089 0
4.2870002 -2.2616031 0.44606844 0
4.283 -2.2663274 0.44602513 0
4.2800002 -2.2716107 0.44599268 0
4.276 -2.2763078 0.44594938 0
5.1750002 -1.0106765 0.44706595 0
5.1700006 -1.0182707 0.44702083 0
5.1650004 -1.0258466 0.44697574 0
5.1590004 -1.0331972 0.44692165 0
5.1540003 -1.0407354 0.44687653 0
5.1490002 -1.0482553 0.44683143 0
5.1430001 -1.0555445 0.44677731 0
5.1380005 -1.0630268 0.44673222 0
5.1330004 -1.070491 0.44668713 0
5.1280003 -1.077937 0.44664204 0
5.1220002 -1.085145 0.44658792 0
5.1170001 -1.0925533 0.44654283 0
5.1120005 -1.0999435 0.44649774 0
5.1070004 -1.1073158 0.44645265 0
5.1020002 -1.1146698 0.44640756 0
5.0960002 -1.1217768 0.44635344 0
5.0910001 -1.1290931 0.44630834 0
5.0860004 -1.1363913 0.44626325 0
5.0810003 -1.1436714 0.44621813 0
5.0760002 -1.1509335 0.44617304 0
5.0710001 -1.1581776 0.44612795 0
5.0650005 -1.1651639 0.44607383 0
5.0600004 -1.1723701 0.44602874 0
5.0550003 -1.1795583 0.44598365 0
5.0500002 -1.1867284 0.44593856 0
5.0450006 -1.1938804 0.44589347 0
5.0400004 -1.2010145 0.44584838 0
5.0350003 -1.2081305 0.44580328 0
5.0300002 -1.2152284 0.44575816 0
5.0250001 -1.2223084 0.44571307 0
5.0200005 -1.2293704 0.44566798 0
5.0150003 -1.2364142 0.44562289 0
5.0100002 -1.24344 0.4455778 0
5.0050001 -1.2504478 0.44553268 0
5.0000005 -1.2574376 0.44548762 0
4.9950004 -1.2644093 0.4454425 0
4.9900002 -1.271363 0.44539741 0
4.9850001 -1.2782986 0.44535232 0
4.9800005 -1.2852163 0.44530722 0
4.9750004 -1.2921159 0.44526213 0
4.9700003 -1.2989973 0.44521704 0
4.9660001 -1.3061368 0.44518095 0
4.9610004 -1.3129841 0.44513586 0
4.9560003 -1.3198134 0.44509077 0
4.9510002 -1.3266244 0.44504568 0
4.9460001 -1.3334175 0.44500059 0
4.9410005 -1.3401927 0.44495547 0
4.9360003 -1.3469498 0.44491038 0
4.9320002 -1.3539773 0.44487432 0
4.9270005 -1.3607002 0.44482923 0
4.9220004 -1.3674049 0.4447841 0
4.9170003 -1.3740917 0.44473901 0
4.9120002 -1.3807603 0.44469392 0
4.9080005 -1.3877087 0.44465786 0
4.9030004 -1.394343 0.44461274 0
4.8980002 -1.4009594 0.44456765 0
4.8930001 -1.4075576 0.44452256 0
4.8890004 -1.4144429 0.4444865 0
4.8840003 -1.4210069 0.44444141 0
4.8790002 -1.4275529 0.44439629 0
4.8740001 -1.434081 0.4443512 0
4.8700004 -1.4409029 0.44431514 0
4.8650002 -1.4473966 0.44427004 0
4.8600001 -1.4538722 0.44422492 0
4.8560004 -1.4606475 0.44418886 0
4.8510003 -1.4670888 0.44414377 0
4.8460002 -1.4735122 0.44409868 0
4.8420005 -1.4802405 0.44406259 0
4.8370004 -1.4866295 0.4440175 0
4.8330002 -1.4933269 0.44398141 0
4.8280001 -1.4996817 0.44393632 0
4.8230004 -1.5060186 0.44389123 0
4.8190002 -1.5126692 0.44385517 0
4.8140001 -1.5189718 0.44381005 0
4.8100004 -1.5255919 0.44377398 0
4.8050003 -1.53186 0.44372889 0
4.8000002 -1.5381101 0.4436838 0
4.7960005 -1.5446833 0.44364771 0
4.7910004 -1.5508991 0.44360262 0
4.7870002 -1.5574415 0.44356656 0
4.7820005 -1.5636234 0.44352144 0
4.7780004 -1.570135 0.44348538 0
4.7730002 -1.5762823 0.44344029 0
4.7690005 -1.5827636 0.4434042 0
4.7640004 -1.5888766 0.44335911 0
4.7600002 -1.595327 0.44332305 0
4.7560005 -1.601763 0.44328696 0
4.7510004 -1.6078256 0.44324186 0
4.7470002 -1.6142309 0.44320577 0
4.7420001 -1.6202592 0.44316068 0
4.7380004 -1.6266339 0.44312462 0
4.7330003 -1.632628 0.44307953 0
4.7290001 -1.6389719 0.44304344 0
4.7250004 -1.6453015 0.44300738 0
4.7200003 -1.651245 0.44296226 0
4.7160001 -1.6575438 0.4429262 0
4.7110004 -1.6634532 0.44288111 0
4.7070003 -1.6697214 0.44284502 0
4.7030001 -1.6759752 0.44280896 0
4.6980004 -1.681834 0.44276386 0
4.6940002 -1.6880571 0.44272777 0
4.6900005 -1.694266 0.44269171 0
4.6850004 -1.7000741 0.44264659 0
4.6810002 -1.7062521 0.44261053 0
4.6770005 -1.7124158 0.44257444 0
4.6730003 -1.7185649 0.44253838 0
4.6680002 -1.7243065 0.44249329 0
4.6640005 -1.7304251 0.4424572 0
4.6600003 -1.7365291 0.44242114 0
4.6550002 -1.74222 0.44237605 0
4.6510005 -1.7482936 0.44233996 0
4.6470003 -1.7543526 0.4423039 0
4.6430001 -1.760397 0.44226781 0
4.6390004 -1.7664273 0.44223171 0
4.6340003 -1.7720352 0.44218662 0
4.6300001 -1.7780347 0.44215056 0
4.6260004 -1.7840198 0.44211447 0
4.6220002 -1.7899903 0.44207841 0
4.6180005 -1.7959466 0.44204232 0
4.6130004 -1.8014716 0.44199723 0
4.6090002 -1.8073971 0.44196117 0
4.6050005 -1.8133082 0.44192508 0
4.6010003 -1.8192048 0.44188902 0
4.5970001 -1.825087 0.44185293 0
4.5930004 -1.8309549 0.44181687 0
4.5890002 -1.8368082 0.44178078 0
4.5840001 -1.8422177 0.44173568 0
4.5800004 -1.8480406 0.44169959 0
4.5760002 -1.8538488 0.44166353 0
4.5720005 -1.8596426 0.44162744 0
4.5680003 -1.865422 0.44159138 0
4.5640001 -1.8711869 0.44155529 0
4.5600004 -1.8769376 0.44151923 0
4.5560002 -1.8826736 0.44148314 0
4.5520005 -1.8883954 0.44144708 0
4.5480003 -1.8941026 0.44141099 0
4.5440001 -1.8997953 0.44137493 0
4.5400004 -1.9054738 0.44133884 0
4.5360003 -1.9111376 0.44130278 0
4.5320001 -1.916787 0.44126669 0
4.5280004 -1.9224224 0.44123062 0
4.5240002 -1.928043 0.44119453 0
4.5200005 -1.9336493 0.44115847 0
4.5160003 -1.9392411 0.44112238 0
4.5120001 -1.9448184 0.44108629 0
4.5080004 -1.9503815 0.44105023 0
4.5040002 -1.9559299 0.44101417 0
4.5000005 -1.9614642 0.44097808 0
4.4960003 -1.9669837 0.44094202 0
4.4920001 -1.9724886 0.44090593 0
4.4880004 -1.9779795 0.44086987 0
4.4840002 -1.983456 0.44083378 0
4.4800005 -1.9889181 0.44079769 0
4.4760003 -1.9943653 0.44076163 0
4.4720001 -1.9997984 0.44072556 0
4.4690003 -2.0056987 0.4406985 0
4.4650002 -2.0111046 0.44066241 0
4.4610004 -2.0164964 0.44062635 0
4.4570003 -2.0218735 0.44059026 0
4.4530001 -2.0272362 0.4405542 0
4.4490004 -2.0325847 0.44051811 0
4.4450002 -2.0379183 0.44048202 0
4.4420004 -2.0437319 0.44045499 0
4.4380002 -2.0490389 0.4404189 0
4.4340005 -2.0543313 0.44038284 0
4.4300003 -2.0596092 0.44034675 0
4.4260001 -2.0648727 0.44031069 0
4.4220004 -2.0701218 0.4402746 0
4.4190001 -2.0758615 0.44024754 0
4.4150004 -2.0810835 0.44021147 0
4.4110003 -2.0862911 0.44017538 0
4.4070001 -2.0914841 0.44013929 0
4.4040003 -2.0971754 0.44011226 0
4.4000001 -2.1023412 0.44007617 0
4.3960004 -2.1074932 0.44004011 0
4.3920002 -2.1126301 0.44000402 0
4.3889999 -2.1182725 0.43997696 0
4.3850002 -2.1233828 0.4399409 0
4.381 -2.1284788 0.43990481 0
4.3770003 -2.1335599 0.43986875 0
4.3740001 -2.1391535 0.43984169 0
4.3700004 -2.1442077 0.4398056 0
4.3660002 -2.1492476 0.43976954 0
4.3630004 -2.1548052 0.43974248 0
4.3590002 -2.1598179 0.43970639 0
4.355 -2.1648161 0.43967032 0
4.3520002 -2.1703377 0.43964326 0
4.348 -2.1753089 0.4396072 0
4.3440003 -2.1802659 0.43957111 0
4.3410001 -2.1857514 0.43954405 0
4.3370004 -2.1906812 0.43950799 0
4.3330002 -2.1955962 0.4394719 0
4.3300004 -2.2010458 0.43944484 0
4.3260002 -2.205934 0.43940878 0
4.322 -2.210808 0.43937269 0
4.3190002 -2.2162213 0.43934563 0
4.3150001 -2.2210681 0.43930957 0
4.3120003 -2.2264578 0.43928251 0
4.3080001 -2.2312777 0.43924642 0
4.3050003 -2.236644 0.43921936 0
4.3010001 -2.2414367 0.43918329 0
4.2969999 -2.2462149 0.4391472 0
4.2940001 -2.2515452 0.43912017 0
4.29 -2.2562962 0.43908408 0
4.2870002 -2.2616031 0.43905702 0
4.283 -2.2663274 0.43902096 0
4.2800002 -2.2716107 0.4389939 0
4.276 -2.2763078 0.43895781 0
5.1750002 -1.0106765 0.43845275 0
5.1700006 -1.0182707 0.43841669 0
5.1650004 -1.0258466 0.4383806 0
5.1590004 -1.0331972 0.4383373 0
5.1540003 -1.0407354 0.43830124 0
5.1490002 -1.0482553 0.43826514 0
5.1430001 -1.0555445 0.43822187 0
5.1380005 -1.0630268 0.43818578 0
5.1330004 -1.070491 0.43814972 0
5.1280003 -1.077937 0.43811363 0
5.1220002 -1.085145 0.43807036 0
5.1170001 -1.0925533 0.43803427 0
5.1120005 -1.0999435 0.43799821 0
5.1070004 -1.1073158 0.43796211 0
5.1020002 -1.1146698 0.43792605 0
5.0960002 -1.1217768 0.43788275 0
5.0910001 -1.1290931 0.43784666 0
5.0860004 -1.1363913 0.4378106 0
5.0810003 -1.1436714 0.43777451 0
5.0760002 -1.1509335 0.43773845 0
5.0710001 -1.1581776 0.43770236 0
5.0650005 -1.1651639 0.43765908 0
5.0600004 -1.1723701 0.43762299 0
5.0550003 -1.1795583 0.43758693 0
5.0500002 -1.1867284 0.43755084 0
5.0450006 -1.1938804 0.43751478 0
5.0400004 -1.2010145 0.43747869 0
5.0350003 -1.2081305 0.43744263 0
5.0300002 -1.2152284 0.43740654 0
5.0250001 -1.2223084 0.43737048 0
5.0200005 -1.2293704 0.43733439 0
5.0150003 -1.2364142 0.4372983 0
5.0100002 -1.24344 0.43726224 0
5.0050001 -1.2504478 0.43722618 0
5.0000005 -1.2574376 0.43719009 0
4.9950004 -1.2644093 0.437154 0
4.9900002 -1.271363 0.43711793 0
4.9850001 -1.2782986 0.43708184 0
4.9800005 -1.2852163 0.43704578 0
4.9750004 -1.2921159 0.43700969 0
4.9700003 -1.2989973 0.43697363 0
4.9650002 -1.3058608 0.43693754 0
4.9610004 -1.3129841 0.43690869 0
4.9560003 -1.3198134 0.4368726 0
4.9510002 -1.3266244 0.43683654 0
4.9460001 -1.3334175 0.43680045 0
4.9410005 -1.3401927 0.43676439 0
4.9360003 -1.3469498 0.4367283 0
4.9320002 -1.3539773 0.43669945 0
4.9270005 -1.3607002 0.43666339 0
4.9220004 -1.3674049 0.4366273 0
4.9170003 -1.3740917 0.43659121 0
4.9120002 -1.3807603 0.43655515 0
4.9080005 -1.3877087 0.4365263 0
4.9030004 -1.394343 0.43649021 0
4.8980002 -1.4009594 0.43645412 0
4.8930001 -1.4075576 0.43641806 0
4.8890004 -1.4144429 0.43638921 0
4.8840003 -1.4210069 0.43635312 0
4.8790002 -1.4275529 0.43631703 0
4.8740001 -1.434081 0.43628097 0
4.8700004 -1.4409029 0.43625212 0
4.8650002 -1.4473966 0.43621603 0
4.8600001 -1.4538722 0.43617994 0
4.8560004 -1.4606475 0.43615109 0
4.8510003 -1.4670888 0.43611503 0
4.8460002 -1.4735122 0.43607894 0
4.8420005 -1.4802405 0.43605009 0
4.8370004 -1.4866295 0.436014 0
4.8330002 -1.4933269 0.43598515 0
4.8280001 -1.4996817 0.43594906 0
4.8230004 -1.5060186 0.435913 0
4.8190002 -1.5126692 0.43588412 0
4.8140001 -1.5189718 0.43584806 0
4.8100004 -1.5255919 0.43581921 0
4.8050003 -1.53186 0.43578312 0
4.8000002 -1.5381101 0.43574703 0
4.7960005 -1.5446833 0.43571818 0
4.7910004 -1.5508991 0.43568212 0
4.7870002 -1.5574415 0.43565324 0
4.7820005 -1.5636234 0.43561718 0
4.7780004 -1.570135 0.4355883 0
4.7730002 -1.5762823 0.43555224 0
4.7690005 -1.5827636 0.43552336 0
4.7640004 -1.5888766 0.4354873 0
4.7600002 -1.595327 0.43545842 0
4.7560005 -1.601763 0.43542957 0
4.7510004 -1.6078256 0.43539348 0
4.7470002 -1.6142309 0.43536463 0
4.7420001 -1.6202592 0.43532854 0
4.7380004 -1.6266339 0.43529969 0
4.7330003 -1.632628 0.43526363 0
4.7290001 -1.6389719 0.43523476 0
4.7250004 -1.6453015 0.43520591 0
4.7200003 -1.651245 0.43516982 0
4.7160001 -1.6575438 0.43514097 0
4.7110004 -1.6634532 0.43510488 0
4.7070003 -1.6697214 0.43507603 0
4.7030001 -1.6759752 0.43504715 0
4.6980004 -1.681834 0.43501109 0
4.6940002 -1.6880571 0.43498221 0
4.6900005 -1.694266 0.43495336 0
4.6850004 -1.7000741 0.4349173 0
4.6810002 -1.7062521 0.43488842 0
4.6770005 -1.7124158 0.43485957 0
4.6730003 -1.7185649 0.4348307 0
4.6680002 -1.7243065 0.43479463 0
4.6640005 -1.7304251 0.43476576 0
4.6600003 -1.7365291 0.43473691 0
4.6550002 -1.74222 0.43470082 0
4.6510005 -1.7482936 0.43467197 0
4.6470003 -1.7543526 0.43464312 0
4.6430001 -1.760397 0.43461424 0
4.6390004 -1.7664273 0.43458539 0
4.6340003 -1.7720352 0.4345493 0
4.6300001 -1.7780347 0.43452045 0
4.6260004 -1.7840198 0.43449157 0
4.6220002 -1.7899903 0.43446273 0
4.6180005 -1.7959466 0.43443388 0
4.6130004 -1.8014716 0.43439779 0
4.6090002 -1.8073971 0.43436894 0
4.6050005 -1.8133082 0.43434006 0
4.6010003 -1.8192048 0.43431121 0
4.5970001 -1.825087 0.43428233 0
4.5930004 -1.8309549 0.43425348 0
4.5890002 -1.8368082 0.43422464 0
4.5840001 -1.8422177 0.43418854 0
4.5800004 -1.8480406 0.4341597 0
4.5760002 -1.8538488 0.43413082 0
4.5720005 -1.8596426 0.43410197 0
4.5680003 -1.865422 0.43407309 0
4.5640001 -1.8711869 0.43404424 0
4.5600004 -1.8769376 0.43401539 0
4.5560002 -1.8826736 0.43398651 0
4.5520005 -1.8883954 0.43395767 0
4.5480003 -1.8941026 0.43392879 0
4.5440001 -1.8997953 0.43389994 0
4.5400004 -1.9054738 0.43387109 0
4.5360003 -1.9111376 0.43384221 0
4.5320001 -1.916787 0.43381336 0
4.5280004 -1.9224224 0.43378448 0
4.5240002 -1.928043 0.43375564 0
4.5200005 -1.9336493 0.43372679 0
4.5160003 -1.9392411 0.43369791 0
4.5120001 -1.9448184 0.43366906 0
4.5080004 -1.9503815 0.43364018 0
4.5040002 -1.9559299 0.43361133 0
4.5000005 -1.9614642 0.43358248 0
4.4960003 -1.9669837 0.43355361 0
4.4920001 -1.9724886 0.43352476 0
4.4880004 -1.9779795 0.43349588 0
4.4840002 -1.983456 0.43346703 0
4.4800005 -1.9889181 0.43343815 0
4.4760003 -1.9943653 0.4334093 0
4.4720001 -1.9997984 0.43338045 0
4.4690003 -2.0056987 0.43335879 0
4.4650002 -2.0111046 0.43332994 0
4.4610004 -2.0164964 0.43330109 0
4.4570003 -2.0218735 0.43327221 0
4.4530001 -2.0272362 0.43324336 0
4.4490004 -2.0325847 0.43321449 0
4.4450002 -2.0379183 0.43318564 0
4.4420004 -2.0437319 0.433164 0
4.4380002 -2.0490389 0.43313512 0
4.4340005 -2.0543313 0.43310627 0
4.4300003 -2.0596092 0.43307739 0
4.4260001 -2.0648727 0.43304855 0
4.4220004 -2.0701218 0.43301967 0
4.4190001 -2.0758615 0.43299803 0
4.4150004 -2.0810835 0.43296918 0
4.4110003 -2.0862911 0.4329403 0
4.4070001 -2.0914841 0.43291146 0
4.4040003 -2.0971754 0.43288982 0
4.4000001 -2.1023412 0.43286094 0
4.3960004 -2.1074932 0.43283209 0
4.3920002 -2.1126301 0.43280321 0
4.3889999 -2.1182725 0.43278158 0
4.3850002 -2.1233828 0.43275273 0
4.381 -2.1284788 0.43272385 0
4.3770003 -2.1335599 0.432695 0
4.3740001 -2.1391535 0.43267334 0
4.3700004 -2.1442077 0.43264449 0
4.3660002 -2.1492476 0.43261564 0
4.3630004 -2.1548052 0.43259397 0
4.3590002 -2.1598179 0.43256512 0
4.355 -2.1648161 0.43253624 0
4.3520002 -2.1703377 0.43251461 0
4.348 -2.1753089 0.43248576 0
4.3440003 -2.1802659 0.43245688 0
4.3410001 -2.1857514 0.43243524 0
4.3370004 -2.1906812 0.4324064 0
4.3330002 -2.1955962 0.43237752 0
4.3300004 -2.2010458 0.43235588 0
4.3260002 -2.205934 0.43232703 0
4.322 -2.210808 0.43229815 0
4.3190002 -2.2162213 0.43227652 0
4.3150001 -2.2210681 0.43224764 0
4.3120003 -2.2264578 0.432226 0
4.3080001 -2.2312777 0.43219715 0
4.3050003 -2.236644 0.43217549 0
4.3010001 -2.2414367 0.43214664 0
4.2969999 -2.2462149 0.43211776 0
4.2940001 -2.2515452 0.43209612 0
4.29 -2.2562962 0.43206728 0
4.2870002 -2.2616031 0.43204564 0
4.283 -2.2663274 0.43201676 0
4.2800002 -2.2716107 0.43199512 0
4.276 -2.2763078 0.43196625 0
5.1750002 -1.0106765 0.42983955 0
5.1700006 -1.0182707 0.42981252 0
5.1650004 -1.0258466 0.42978546 0
5.1590004 -1.0331972 0.42975298 0
5.1540003 -1.0407354 0.42972592 0
5.1490002 -1.0482553 0.42969885 0
5.1430001 -1.0555445 0.4296664 0
5.1380005 -1.0630268 0.42963934 0
5.1330004 -1.070491 0.42961228 0
5.1280003 -1.077937 0.42958522 0
5.1220002 -1.085145 0.42955276 0
5.1170001 -1.0925533 0.4295257 0
5.1120005 -1.0999435 0.42949864 0
5.1070004 -1.1073158 0.42947158 0
5.1020002 -1.1146698 0.42944452 0
5.0960002 -1.1217768 0.42941207 0
5.0910001 -1.1290931 0.42938501 0
5.0860004 -1.1363913 0.42935795 0
5.0810003 -1.1436714 0.42933089 0
5.0760002 -1.1509335 0.42930382 0
5.0710001 -1.1581776 0.42927676 0
5.0650005 -1.1651639 0.42924431 0
5.0600004 -1.1723701 0.42921725 0
5.0550003 -1.1795583 0.42919019 0
5.0500002 -1.1867284 0.42916313 0
5.0450006 -1.1938804 0.4291361 0
5.0400004 -1.2010145 0.42910904 0
5.0350003 -1.2081305 0.42908198 0
5.0300002 -1.2152284 0.42905492 0
5.0250001 -1.2223084 0.42902786 0
5.0200005 -1.2293704 0.42900079 0
5.0150003 -1.2364142 0.42897373 0
5.0100002 -1.24344 0.42894667 0
5.0050001 -1.2504478 0.42891961 0
5.0000005 -1.2574376 0.42889255 0
4.9950004 -1.2644093 0.42886552 0
4.9900002 -1.271363 0.42883846 0
4.9850001 -1.2782986 0.4288114 0
4.9800005 -1.2852163 0.42878434 0
4.9750004 -1.2921159 0.42875728 0
4.9700003 -1.2989973 0.42873022 0
4.9650002 -1.3058608 0.42870316 0
4.9610004 -1.3129841 0.42868152 0
4.9560003 -1.3198134 0.42865446 0
4.9510002 -1.3266244 0.4286274 0
4.9460001 -1.3334175 0.42860034 0
4.9410005 -1.3401927 0.42857328 0
4.9360003 -1.3469498 0.42854625 0
4.9320002 -1.3539773 0.42852458 0
4.9270005 -1.3607002 0.42849752 0
4.9220004 -1.3674049 0.42847049 0
4.9170003 -1.3740917 0.42844343 0
4.9120002 -1.3807603 0.42841637 0
4.9080005 -1.3877087 0.42839471 0
4.9030004 -1.394343 0.42836767 0
4.8980002 -1.4009594 0.42834061 0
4.8930001 -1.4075576 0.42831355 0
4.8890004 -1.4144429 0.42829189 0
4.8840003 -1.4210069 0.42826486 0
4.8790002 -1.4275529 0.4282378 0
4.8740001 -1.434081 0.42821074 0
4.8700004 -1.4409029 0.42818907 0
4.8650002 -1.4473966 0.42816204 0
4.8600001 -1.4538722 0.42813498 0
4.8560004 -1.4606475 0.42811331 0
4.8510003 -1.4670888 0.42808628 0
4.8460002 -1.4735122 0.42805922 0
4.8420005 -1.4802405 0.42803755 0
4.8370004 -1.4866295 0.42801049 0
4.8330002 -1.4933269 0.42798886 0
4.8280001 -1.4996817 0.4279618 0
4.8230004 -1.5060186 0.42793474 0
4.8190002 -1.5126692 0.4279131 0
4.8140001 -1.5189718 0.42788604 0
4.8100004 -1.5255919 0.4278644 0
4.8050003 -1.53186 0.42783734 0
4.8000002 -1.5381101 0.42781028 0
4.7960005 -1.5446833 0.42778865 0
4.7910004 -1.5508991 0.42776158 0
4.7870002 -1.5574415 0.42773992 0
4.7820005 -1.5636234 0.42771289 0
4.7780004 -1.570135 0.42769122 0
4.7730002 -1.5762823 0.42766416 0
4.7690005 -1.5827636 0.42764252 0
4.7640004 -1.5888766 0.42761546 0
4.7600002 -1.595327 0.42759383 0
4.7560005 -1.601763 0.42757219 0
4.7510004 -1.6078256 0.42754513 0
4.7470002 -1.6142309 0.42752346 0
4.7420001 -1.6202592 0.42749643 0
4.7380004 -1.6266339 0.42747477 0
4.7330003 -1.632628 0.42744771 0
4.7290001 -1.6389719 0.42742607 0
4.7250004 -1.6453015 0.42740443 0
4.7200003 -1.651245 0.42737737 0
4.7160001 -1.6575438 0.42735571 0
4.7110004 -1.6634532 0.42732868 0
4.7070003 -1.6697214 0.42730701 0
4.7030001 -1.6759752 0.42728537 0
4.6980004 -1.681834 0.42725831 0
4.6940002 -1.6880571 0.42723668 0
4.6900005 -1.694266 0.42721504 0
4.6850004 -1.7000741 0.42718798 0
4.6810002 -1.7062521 0.42716631 0
4.6770005 -1.7124158 0.42714468 0
4.6730003 -1.7185649 0.42712304 0
4.6680002 -1.7243065 0.42709598 0
4.6640005 -1.7304251 0.42707434 0
4.6600003 -1.7365291 0.42705268 0
4.6550002 -1.74222 0.42702562 0
4.6510005 -1.7482936 0.42700398 0
4.6470003 -1.7543526 0.42698234 0
4.6430001 -1.760397 0.42696068 0
4.6390004 -1.7664273 0.42693904 0
4.6340003 -1.7720352 0.42691198 0
4.6300001 -1.7780347 0.42689034 0
4.6260004 -1.7840198 0.42686871 0
4.6220002 -1.7899903 0.42684704 0
4.6180005 -1.7959466 0.4268254 0
4.6130004 -1.8014716 0.42679834 0
4.6090002 -1.8073971 0.42677671 0
4.6050005 -1.8133082 0.42675507 0
4.6010003 -1.8192048 0.4267334 0
4.5970001 -1.825087 0.42671177 0
4.5930004 -1.8309549 0.42669013 0
4.5890002 -1.8368082 0.42666847 0
4.5840001 -1.8422177 0.4266414 0
4.5800004 -1.8480406 0.42661977 0
4.5760002 -1.8538488 0.42659813 0
4.5720005 -1.8596426 0.42657647 0
4.5680003 -1.865422 0.42655483 0
4.5640001 -1.8711869 0.42653319 0
4.5600004 -1.8769376 0.42651156 0
4.5560002 -1.8826736 0.42648989 0
4.5520005 -1.8883954 0.42646825 0
4.5480003 -1.8941026 0.42644662 0
4.5440001 -1.8997953 0.42642495 0
4.5400004 -1.9054738 0.42640331 0
4.5360003 -1.9111376 0.42638168 0
4.5320001 -1.916787 0.42636001 0
4.5280004 -1.9224224 0.42633837 0
4.5240002 -1.928043 0.42631674 0
4.5200005 -1.9336493 0.42629507 0
4.5160003 -1.9392411 0.42627344 0
4.5120001 -1.9448184 0.4262518 0
4.5080004 -1.9503815 0.42623013 0
4.5040002 -1.9559299 0.4262085 0
4.5000005 -1.9614642 0.42618686 0
4.4960003 -1.9669837 0.42616522 0
4.4920001 -1.9724886 0.42614356 0
4.4880004 -1.9779795 0.42612192 0
4.4840002 -1.983456 0.42610028 0
4.4800005 -1.9889181 0.42607862 0
4.4760003 -1.9943653 0.42605698 0
4.4720001 -1.9997984 0.42603534 0
4.4690003 -2.0056987 0.4260191 0
4.4650002 -2.0111046 0.42599747 0
4.4610004 -2.0164964 0.4259758 0
4.4570003 -2.0218735 0.42595416 0
4.4530001 -2.0272362 0.42593253 0
4.4490004 -2.0325847 0.42591086 0
4.4450002 -2.0379183 0.42588922 0
4.4420004 -2.0437319 0.42587298 0
4.4380002 -2.0490389 0.42585135 0
4.4340005 -2.0543313 0.42582971 0
4.4300003 -2.0596092 0.42580804 0
4.4260001 -2.0648727 0.42578641 0
4.4220004 -2.0701218 0.42576477 0
4.4190001 -2.0758615 0.42574853 0
4.4150004 -2.0810835 0.42572689 0
4.4110003 -2.0862911 0.42570525 0
4.4070001 -2.0914841 0.42568359 0
4.4040003 -2.0971754 0.42566735 0
4.4000001 -2.1023412 0.42564571 0
4.3960004 -2.1074932 0.42562407 0
4.3920002 -2.1126301 0.42560241 0
4.3889999 -2.1182725 0.42558619 0
4.3850002 -2.1233828 0.42556453 0
4.381 -2.1284788 0.42554289 0
4.3770003 -2.1335599 0.42552125 0
4.3740001 -2.1391535 0.42550501 0
4.3700004 -2.1442077 0.42548338 0
4.3660002 -2.1492476 0.42546171 0
4.3630004 -2.1548052 0.4254455 0
4.3590002 -2.1598179 0.42542386 0
4.355 -2.1648161 0.42540219 0
4.3520002 -2.1703377 0.42538595 0
4.348 -2.1753089 0.42536432 0
4.3440003 -2.1802659 0.42534268 0
4.3410001 -2.1857514 0.42532644 0
4.3370004 -2.1906812 0.4253048 0
4.3330002 -2.1955962 0.42528313 0
4.3300004 -2.2010458 0.42526692 0
4.3260002 -2.205934 0.42524526 0
4.322 -2.210808 0.42522362 0
4.3190002 -2.2162213 0.42520738 0
4.3150001 -2.2210681 0.42518574 0
4.3120003 -2.2264578 0.4251695 0
4.3080001 -2.2312777 0.42514786 0
4.3050003 -2.236644 0.42513162 0
4.3010001 -2.2414367 0.42510998 0
4.2969999 -2.2462149 0.42508835 0
4.2940001 -2.2515452 0.4250721 0
4.29 -2.2562962 0.42505047 0
4.2870002 -2.2616031 0.42503422 0
4.283 -2.2663274 0.42501259 0
4.2800002 -2.2716107 0.42499635 0
4.276 -2.2763078 0.42497468 0
5.1750002 -1.0106765 0.42122638 0
5.1700006 -1.0182707 0.42120835 0
5.1650004 -1.0258466 0.42119032 0
5.1590004 -1.0331972 0.42116866 0
5.1540003 -1.0407354 0.42115062 0
5.1490002 -1.0482553 0.42113259 0
5.1430001 -1.0555445 0.42111093 0
5.1380005 -1.0630268 0.4210929 0
5.1330004 -1.070491 0.42107487 0
5.1280003 -1.077937 0.42105684 0
5.1220002 -1.085145 0.42103517 0
5.1170001 -1.0925533 0.42101714 0
5.1120005 -1.0999435 0.42099911 0
5.1070004 -1.1073158 0.42098105 0
5.1020002 -1.1146698 0.42096302 0
5.0960002 -1.1217768 0.42094138 0
5.0910001 -1.1290931 0.42092335 0
5.0860004 -1.1363913 0.42090529 0
5.0810003 -1.1436714 0.42088726 0
5.0760002 -1.1509335 0.42086923 0
5.0710001 -1.1581776 0.4208512 0
5.0650005 -1.1651639 0.42082953 0
5.0600004 -1.1723701 0.4208115 0
5.0550003 -1.1795583 0.42079347 0
5.0500002 -1.1867284 0.42077544 0
5.0450006 -1.1938804 0.42075738 0
5.0400004 -1.2010145 0.42073935 0
5.0350003 -1.2081305 0.42072132 0
5.0300002 -1.2152284 0.42070329 0
5.0250001 -1.2223084 0.42068523 0
5.0200005 -1.2293704 0.4206672 0
5.0150003 -1.2364142 0.42064917 0
5.0100002 -1.24344 0.42063111 0
5.0050001 -1.2504478 0.42061308 0
5.0000005 -1.2574376 0.42059505 0
4.9950004 -1.2644093 0.42057702 0
4.9900002 -1.271363 0.42055899 0
4.9850001 -1.2782986 0.42054093 0
4.9800005 -1.2852163 0.4205229 0
4.9750004 -1.2921159 0.42050487 0
4.9700003 -1.2989973 0.42048681 0
4.9650002 -1.3058608 0.42046878 0
4.9610004 -1.3129841 0.42045435 0
4.9560003 -1.3198134 0.42043632 0
4.9510002 -1.3266244 0.42041826 0
4.9460001 -1.3334175 0.42040023 0
4.9410005 -1.3401927 0.4203822 0
4.9360003 -1.3469498 0.42036417 0
4.9320002 -1.3539773 0.42034972 0
4.9270005 -1.3607002 0.42033169 0
4.9220004 -1.3674049 0.42031366 0
4.9170003 -1.3740917 0.42029563 0
4.9120002 -1.3807603 0.42027757 0
4.9080005 -1.3877087 0.42026314 0
4.9030004 -1.394343 0.42024511 0
4.8980002 -1.4009594 0.42022708 0
4.8930001 -1.4075576 0.42020902 0
4.8890004 -1.4144429 0.4201946 0
4.8840003 -1.4210069 0.42017657 0
4.8790002 -1.4275529 0.42015854 0
4.8740001 -1.434081 0.4201405 0
4.8700004 -1.4409029 0.42012605 0
4.8650002 -1.4473966 0.42010802 0
4.8600001 -1.4538722 0.42008999 0
4.8560004 -1.4606475 0.42007557 0
4.8510003 -1.4670888 0.42005751 0
4.8460002 -1.4735122 0.42003947 0
4.8420005 -1.4802405 0.42002505 0
4.8370004 -1.4866295 0.42000702 0
4.8330002 -1.4933269 0.41999257 0
4.8280001 -1.4996817 0.41997454 0
4.8230004 -1.5060186 0.41995651 0
4.8190002 -1.5126692 0.41994208 0
4.8140001 -1.5189718 0.41992402 0
4.8100004 -1.5255919 0.4199096 0
4.8050003 -1.53186 0.41989157 0
4.8000002 -1.5381101 0.41987354 0
4.7960005 -1.5446833 0.41985911 0
4.7910004 -1.5508991 0.41984105 0
4.7870002 -1.5574415 0.41982663 0
4.7820005 -1.5636234 0.4198086 0
4.7780004 -1.570135 0.41979417 0
4.7730002 -1.5762823 0.41977611 0
4.7690005 -1.5827636 0.41976169 0
4.7640004 -1.5888766 0.41974366 0
4.7600002 -1.595327 0.41972923 0
4.7560005 -1.601763 0.41971478 0
4.7510004 -1.6078256 0.41969675 0
4.7470002 -1.6142309 0.41968232 0
4.7420001 -1.6202592 0.41966429 0
4.7380004 -1.6266339 0.41964984 0
4.7330003 -1.632628 0.41963181 0
4.7290001 -1.6389719 0.41961738 0
4.7250004 -1.6453015 0.41960296 0
4.7200003 -1.651245 0.41958493 0
4.7160001 -1.6575438 0.41957048 0
4.7110004 -1.6634532 0.41955245 0
4.7070003 -1.6697214 0.41953802 0
4.7030001 -1.6759752 0.4195236 0
4.6980004 -1.681834 0.41950554 0
4.6940002 -1.6880571 0.41949111 0
4.6900005 -1.694266 0.41947669 0
4.6850004 -1.7000741 0.41945866 0
4.6810002 -1.7062521 0.41944423 0
4.6770005 -1.7124158 0.41942978 0
4.6730003 -1.7185649 0.41941535 0
4.6680002 -1.7243065 0.41939732 0
4.6640005 -1.7304251 0.4193829 0
4.6600003 -1.7365291 0.41936845 0
4.6550002 -1.74222 0.41935042 0
4.6510005 -1.7482936 0.41933599 0
4.6470003 -1.7543526 0.41932157 0
4.6430001 -1.760397 0.41930714 0
4.6390004 -1.7664273 0.41929269 0
4.6340003 -1.7720352 0.41927466 0
4.6300001 -1.7780347 0.41926023 0
4.6260004 -1.7840198 0.41924581 0
4.6220002 -1.7899903 0.41923136 0
4.6180005 -1.7959466 0.41921693 0
4.6130004 -1.8014716 0.4191989 0
4.6090002 -1.8073971 0.41918448 0
4.6050005 -1.8133082 0.41917005 0
4.6010003 -1.8192048 0.4191556 0
4.5970001 -1.825087 0.41914117 0
4.5930004 -1.8309549 0.41912675 0
4.5890002 -1.8368082 0.41911232 0
4.5840001 -1.8422177 0.41909429 0
4.5800004 -1.8480406 0.41907984 0
4.5760002 -1.8538488 0.41906542 0
4.5720005 -1.8596426 0.41905099 0
4.5680003 -1.865422 0.41903657 0
4.5640001 -1.8711869 0.41902214 0
4.5600004 -1.8769376 0.41900769 0
4.5560002 -1.8826736 0.41899326 0
4.5520005 -1.8883954 0.41897884 0
4.5480003 -1.8941026 0.41896442 0
4.5440001 -1.8997953 0.41894996 0
4.5400004 -1.9054738 0.41893554 0
4.5360003 -1.9111376 0.41892111 0
4.5320001 -1.916787 0.41890669 0
4.5280004 -1.9224224 0.41889226 0
4.5240002 -1.928043 0.41887781 0
4.5200005 -1.9336493 0.41886339 0
4.5160003 -1.9392411 0.41884896 0
4.5120001 -1.9448184 0.41883454 0
4.5080004 -1.9503815 0.41882011 0
4.5040002 -1.9559299 0.41880566 0
4.5000005 -1.9614642 0.41879123 0
4.4960003 -1.9669837 0.41877681 0
4.4920001 -1.9724886 0.41876239 0
4.4880004 -1.9779795 0.41874796 0
4.4840002 -1.983456 0.41873351 0
4.4800005 -1.9889181 0.41871908 0
4.4760003 -1.9943653 0.41870466 0
4.4720001 -1.9997984 0.41869023 0
4.4690003 -2.0056987 0.41867942 0
4.4650002 -2.0111046 0.41866496 0
4.4610004 -2.0164964 0.41865054 0
4.4570003 -2.0218735 0.41863611 0
4.4530001 -2.0272362 0.41862169 0
4.4490004 -2.0325847 0.41860726 0
4.4450002 -2.0379183 0.41859281 0
4.4420004 -2.0437319 0.41858199 0
4.4380002 -2.0490389 0.41856757 0
4.4340005 -2.0543313 0.41855314 0
4.4300003 -2.0596092 0.41853872 0
4.4260001 -2.0648727 0.41852427 0
4.4220004 -2.0701218 0.41850984 0
4.4190001 -2.0758615 0.41849902 0
4.4150004 -2.0810835 0.4184846 0
4.4110003 -2.0862911 0.41847017 0
4.4070001 -2.0914841 0.41845572 0
4.4040003 -2.0971754 0.4184449 0
4.4000001 -2.1023412 0.41843048 0
4.3960004 -2.1074932 0.41841605 0
4.3920002 -2.1126301 0.41840163 0
4.3889999 -2.1182725 0.41839081 0
4.3850002 -2.1233828 0.41837636 0
4.381 -2.1284788 0.41836193 0
4.3770003 -2.1335599 0.41834751 0
4.3740001 -2.1391535 0.41833669 0
4.3700004 -2.1442077 0.41832227 0
4.3660002 -2.1492476 0.41830781 0
4.3630004 -2.1548052 0.41829699 0
4.3590002 -2.1598179 0.41828257 0
4.355 -2.1648161 0.41826814 0
4.3520002 -2.1703377 0.41825733 0
4.348 -2.1753089 0.41824287 0
4.3440003 -2.1802659 0.41822845 0
4.3410001 -2.1857514 0.41821763 0
4.3370004 -2.1906812 0.4182032 0
4.3330002 -2.1955962 0.41818878 0
4.3300004 -2.2010458 0.41817796 0
4.3260002 -2.205934 0.41816351 0
4.322 -2.210808 0.41814908 0
4.3190002 -2.2162213 0.41813827 0
4.3150001 -2.2210681 0.41812384 0
4.3120003 -2.2264578 0.41811302 0
4.3080001 -2.2312777 0.41809857 0
4.3050003 -2.236644 0.41808775 0
4.3010001 -2.2414367 0.41807333 0
4.2969999 -2.2462149 0.4180589 0
4.2940001 -2.2515452 0.41804808 0
4.29 -2.2562962 0.41803363 0
4.2870002 -2.2616031 0.41802281 0
4.283 -2.2663274 0.41800839 0
4.2800002 -2.2716107 0.41799757 0
4.276 -2.2763078 0.41798314 0
5.1750002 -1.0106765 0.41261321 0
5.1700006 -1.0182707 0.41260418 0
5.1650004 -1.0258466 0.41259515 0
5.1590004 -1.0331972 0.41258433 0
5.1540003 -1.0407354 0.4125753 0
5.1490002 -1.0482553 0.4125663 0
5.1430001 -1.0555445 0.41255549 0
5.1380005 -1.0630268 0.41254646 0
5.1330004 -1.070491 0.41253743 0
5.1280003 -1.077937 0.41252843 0
5.1220002 -1.085145 0.41251761 0
5.1170001 -1.0925533 0.41250858 0
5.1120005 -1.0999435 0.41249955 0
5.1070004 -1.1073158 0.41249055 0
5.1020002 -1.1146698 0.41248152 0
5.0960002 -1.1217768 0.4124707 0
5.0910001 -1.1290931 0.41246167 0
5.0860004 -1.1363913 0.41245267 0
5.0810003 -1.1436714 0.41244364 0
5.0760002 -1.1509335 0.41243461 0
5.0710001 -1.1581776 0.41242561 0
5.0650005 -1.1651639 0.41241479 0
5.0600004 -1.1723701 0.41240576 0
5.0550003 -1.1795583 0.41239673 0
5.0500002 -1.1867284 0.41238773 0
5.0450006 -1.1938804 0.4123787 0
5.0400004 -1.2010145 0.4123697 0
5.0350003 -1.2081305 0.41236067 0
5.0300002 -1.2152284 0.41235164 0
5.0250001 -1.2223084 0.41234264 0
5.0200005 -1.2293704 0.41233361 0
5.0150003 -1.2364142 0.41232458 0
5.0100002 -1.24344 0.41231558 0
5.0050001 -1.2504478 0.41230655 0
5.0000005 -1.2574376 0.41229755 0
4.9950004 -1.2644093 0.41228852 0
4.9900002 -1.271363 0.41227949 0
4.9850001 -1.2782986 0.41227049 0
4.9800005 -1.2852163 0.41226146 0
4.9750004 -1.2921159 0.41225243 0
4.9700003 -1.2989973 0.41224343 0
4.9650002 -1.3058608 0.4122344 0
4.9610004 -1.3129841 0.41222718 0
4.9560003 -1.3198134 0.41221815 0
4.9510002 -1.3266244 0.41220915 0
4.9460001 -1.3334175 0.41220012 0
4.9410005 -1.3401927 0.41219109 0
4.9360003 -1.3469498 0.41218209 0
4.9320002 -1.3539773 0.41217488 0
4.9270005 -1.3607002 0.41216585 0
4.9220004 -1.3674049 0.41215682 0
4.9170003 -1.3740917 0.41214782 0
4.9120002 -1.3807603 0.41213879 0
4.9080005 -1.3877087 0.41213158 0
4.9030004 -1.394343 0.41212255 0
4.8980002 -1.4009594 0.41211355 0
4.8930001 -1.4075576 0.41210452 0
4.8890004 -1.4144429 0.41209731 0
4.8840003 -1.4210069 0.41208827 0
4.8790002 -1.4275529 0.41207927 0
4.8740001 -1.434081 0.41207024 0
4.8700004 -1.4409029 0.41206303 0
4.8650002 -1.4473966 0.41205403 0
4.8600001 -1.4538722 0.412045 0
4.8560004 -1.4606475 0.41203779 0
4.8510003 -1.4670888 0.41202876 0
4.8460002 -1.4735122 0.41201976 0
4.8420005 -1.4802405 0.41201252 0
4.8370004 -1.4866295 0.41200352 0
4.8330002 -1.4933269 0.4119963 0
4.8280001 -1.4996817 0.41198727 0
4.8230004 -1.5060186 0.41197824 0
4.8190002 -1.5126692 0.41197103 0
4.8140001 -1.5189718 0.41196203 0
4.8100004 -1.5255919 0.41195482 0
4.8050003 -1.53186 0.41194579 0
4.8000002 -1.5381101 0.41193676 0
4.7960005 -1.5446833 0.41192955 0
4.7910004 -1.5508991 0.41192055 0
4.7870002 -1.5574415 0.41191334 0
4.7820005 -1.5636234 0.41190431 0
4.7780004 -1.570135 0.41189709 0
4.7730002 -1.5762823 0.41188806 0
4.7690005 -1.5827636 0.41188085 0
4.7640004 -1.5888766 0.41187182 0
4.7600002 -1.595327 0.41186461 0
4.7560005 -1.601763 0.4118574 0
4.7510004 -1.6078256 0.4118484 0
4.7470002 -1.6142309 0.41184115 0
4.7420001 -1.6202592 0.41183215 0
4.7380004 -1.6266339 0.41182494 0
4.7330003 -1.632628 0.41181591 0
4.7290001 -1.6389719 0.4118087 0
4.7250004 -1.6453015 0.41180149 0
4.7200003 -1.651245 0.41179246 0
4.7160001 -1.6575438 0.41178524 0
4.7110004 -1.6634532 0.41177624 0
4.7070003 -1.6697214 0.411769 0
4.7030001 -1.6759752 0.41176179 0
4.6980004 -1.681834 0.41175279 0
4.6940002 -1.6880571 0.41174558 0
4.6900005 -1.694266 0.41173837 0
4.6850004 -1.7000741 0.41172934 0
4.6810002 -1.7062521 0.41172212 0
4.6770005 -1.7124158 0.41171491 0
4.6730003 -1.7185649 0.4117077 0
4.6680002 -1.7243065 0.41169867 0
4.6640005 -1.7304251 0.41169146 0
4.6600003 -1.7365291 0.41168424 0
4.6550002 -1.74222 0.41167521 0
4.6510005 -1.7482936 0.411668 0
4.6470003 -1.7543526 0.41166079 0
4.6430001 -1.760397 0.41165358 0
4.6390004 -1.7664273 0.41164637 0
4.6340003 -1.7720352 0.41163734 0
4.6300001 -1.7780347 0.41163012 0
4.6260004 -1.7840198 0.41162291 0
4.6220002 -1.7899903 0.4116157 0
4.6180005 -1.7959466 0.41160849 0
4.6130004 -1.8014716 0.41159946 0
4.6090002 -1.8073971 0.41159225 0
4.6050005 -1.8133082 0.41158503 0
4.6010003 -1.8192048 0.41157782 0
4.5970001 -1.825087 0.41157061 0
4.5930004 -1.8309549 0.4115634 0
4.5890002 -1.8368082 0.41155615 0
4.5840001 -1.8422177 0.41154715 0
4.5800004 -1.8480406 0.41153994 0
4.5760002 -1.8538488 0.41153273 0
4.5720005 -1.8596426 0.41152549 0
4.5680003 -1.865422 0.41151828 0
4.5640001 -1.8711869 0.41151106 0
4.5600004 -1.8769376 0.41150385 0
4.5560002 -1.8826736 0.41149664 0
4.5520005 -1.8883954 0.41148943 0
4.5480003 -1.8941026 0.41148221 0
4.5440001 -1.8997953 0.411475 0
4.5400004 -1.9054738 0.41146779 0
4.5360003 -1.9111376 0.41146058 0
4.5320001 -1.916787 0.41145334 0
4.5280004 -1.9224224 0.41144612 0
4.5240002 -1.928043 0.41143891 0
4.5200005 -1.9336493 0.4114317 0
4.5160003 -1.9392411 0.41142449 0
4.5120001 -1.9448184 0.41141728 0
4.5080004 -1.9503815 0.41141006 0
4.5040002 -1.9559299 0.41140285 0
4.5000005 -1.9614642 0.41139564 0
4.4960003 -1.9669837 0.41138843 0
4.4920001 -1.9724886 0.41138119 0
4.4880004 -1.9779795 0.41137397 0
4.4840002 -1.983456 0.41136676 0
4.4800005 -1.9889181 0.41135955 0
4.4760003 -1.9943653 0.41135234 0
4.4720001 -1.9997984 0.41134512 0
4.4690003 -2.0056987 0.4113397 0
4.4650002 -2.0111046 0.41133249 0
4.4610004 -2.0164964 0.41132528 0
4.4570003 -2.0218735 0.41131806 0
4.4530001 -2.0272362 0.41131085 0
4.4490004 -2.0325847 0.41130364 0
4.4450002 -2.0379183 0.41129643 0
4.4420004 -2.0437319 0.411291 0
4.4380002 -2.0490389 0.41128379 0
4.4340005 -2.0543313 0.41127658 0
4.4300003 -2.0596092 0.41126937 0
4.4260001 -2.0648727 0.41126215 0
4.4220004 -2.0701218 0.41125494 0
4.4190001 -2.0758615 0.41124952 0
4.4150004 -2.0810835 0.41124231 0
4.4110003 -2.0862911 0.41123509 0
4.4070001 -2.0914841 0.41122788 0
4.4040003 -2.0971754 0.41122246 0
4.4000001 -2.1023412 0.41121525 0
4.3960004 -2.1074932 0.41120803 0
4.3920002 -2.1126301 0.41120082 0
4.3889999 -2.1182725 0.4111954 0
4.3850002 -2.1233828 0.41118819 0
4.381 -2.1284788 0.41118097 0
4.3770003 -2.1335599 0.41117376 0
4.3740001 -2.1391535 0.41116834 0
4.3700004 -2.1442077 0.41116112 0
4.3660002 -2.1492476 0.41115391 0
4.3630004 -2.1548052 0.41114852 0
4.3590002 -2.1598179 0.41114128 0
4.355 -2.1648161 0.41113406 0
4.3520002 -2.1703377 0.41112867 0
4.348 -2.1753089 0.41112146 0
4.3440003 -2.1802659 0.41111425 0
4.3410001 -2.1857514 0.41110882 0
4.3370004 -2.1906812 0.41110161 0
4.3330002 -2.1955962 0.4110944 0
4.3300004 -2.2010458 0.41108897 0
4.3260002 -2.205934 0.41108176 0
4.322 -2.210808 0.41107455 0
4.3190002 -2.2162213 0.41106912 0
4.3150001 -2.2210681 0.41106191 0
4.3120003 -2.2264578 0.41105652 0
4.3080001 -2.2312777 0.41104931 0
4.3050003 -2.236644 0.41104388 0
4.3010001 -2.2414367 0.41103667 0
4.2969999 -2.2462149 0.41102946 0
4.2940001 -2.2515452 0.41102403 0
4.29 -2.2562962 0.41101682 0
4.2870002 -2.2616031 0.41101143 0
4.283 -2.2663274 0.41100422 0
4.2800002 -2.2716107 0.41099879 0
4.276 -2.2763078 0.41099158 0
5.1750002 -1.0106765 0.40400001 0
5.1700006 -1.0182707 0.40400001 0
5.1650004 -1.0258466 0.40400001 0
5.1590004 -1.0331972 0.40400001 0
5.1540003 -1.0407354 0.40400001 0
5.1490002 -1.0482553 0.40400001 0
5.1430001 -1.0555445 0.40400001 0
5.1380005 -1.0630268 0.40400001 0
5.1330004 -1.070491 0.40400001 0
5.1280003 -1.077937 0.40400001 0
5.1220002 -1.085145 0.40400001 0
5.1170001 -1.0925533 0.40400001 0
5.1120005 -1.0999435 0.40400001 0
5.1070004 -1.1073158 0.40400001 0
5.1020002 -1.1146698 0.40400001 0
5.0960002 -1.1217768 0.40400001 0
5.0910001 -1.1290931 0.40400001 0
5.0860004 -1.1363913 0.40400001 0
5.0810003 -1.1436714 0.40400001 0
5.0760002 -1.1509335 0.40400001 0
5.0710001 -1.1581776 0.40400001 0
5.0650005 -1.1651639 0.40400001 0
5.0600004 -1.1723701 0.40400001 0
5.0550003 -1.1795583 0.40400001 0
5.0500002 -1.1867284 0.40400001 0
5.0450006 -1.1938804 0.40400001 0
5.0400004 -1.2010145 0.40400001 0
5.0350003 -1.2081305 0.40400001 0
5.0300002 -1.2152284 0.40400001 0
5.0250001 -1.2223084 0.40400001 0
5.0200005 -1.2293704 0.40400001 0
5.0150003 -1.2364142 0.40400001 0
5.0100002 -1.24344 0.40400001 0
5.0050001 -1.2504478 0.40400001 0
5.0000005 -1.2574376 0.40400001 0
4.9950004 -1.2644093 0.40400001 0
4.9900002 -1.271363 0.40400001 0
4.9850001 -1.2782986 0.40400001 0
4.9800005 -1.2852163 0.40400001 0
4.9750004 -1.2921159 0.40400001 0
4.9700003 -1.2989973 0.40400001 0
4.9650002 -1.3058608 0.40400001 0
4.9610004 -1.3129841 0.40400001 0
4.9560003 -1.3198134 0.40400001 0
4.9510002 -1.3266244 0.40400001 0
4.9460001 -1.3334175 0.40400001 0
4.9410005 -1.3401927 0.40400001 0
4.9360003 -1.3469498 0.40400001 0
4.9320002 -1.3539773 0.40400001 0
4.9270005 -1.3607002 0.40400001 0
4.9220004 -1.3674049 0.40400001 0
4.9170003 -1.3740917 0.40400001 0
4.9120002 -1.3807603 0.40400001 0
4.9080005 -1.3877087 0.40400001 0
4.9030004 -1.394343 0.40400001 0
4.8980002 -1.4009594 0.40400001 0
4.8930001 -1.4075576 0.40400001 0
4.8890004 -1.4144429 0.40400001 0
4.8840003 -1.4210069 0.40400001 0
4.8790002 -1.4275529 0.40400001 0
4.8740001 -1.434081 0.40400001 0
4.8700004 -1.4409029 0.40400001 0
4.8650002 -1.4473966 0.40400001 0
4.8600001 -1.4538722 0.40400001 0
4.8560004 -1.4606475 0.40400001 0
4.8510003 -1.4670888 0.40400001 0
4.8460002 -1.4735122 0.40400001 0
4.8420005 -1.4802405 0.40400001 0
4.8370004 -1.4866295 0.40400001 0
4.8330002 -1.4933269 0.40400001 0
4.8280001 -1.4996817 0.40400001 0
4.8230004 -1.5060186 0.40400001 0
4.8190002 -1.5126692 0.40400001 0
4.8140001 -1.5189718 0.40400001 0
4.8100004 -1.5255919 0.40400001 0
4.8050003 -1.53186 0.40400001 0
4.8000002 -1.5381101 0.40400001 0
4.7960005 -1.5446833 0.40400001 0
4.7910004 -1.5508991 0.40400001 0
4.7870002 -1.5574415 0.40400001 0
4.7820005 -1.5636234 0.40400001 0
4.7780004 -1.570135 0.40400001 0
4.7730002 -1.5762823 0.40400001 0
4.7690005 -1.5827636 0.40400001 0
4.7640004 -1.5888766 0.40400001 0
4.7600002 -1.595327 0.40400001 0
4.7560005 -1.601763 0.40400001 0
4.7510004 -1.6078256 0.40400001 0
4.7470002 -1.6142309 0.40400001 0
4.7420001 -1.6202592 0.40400001 0
4.7380004 -1.6266339 0.40400001 0
4.7330003 -1.632628 0.40400001 0
4.7290001 -1.6389719 0.40400001 0
4.7250004 -1.6453015 0.40400001 0
4.7200003 -1.651245 0.40400001 0
4.7160001 -1.6575438 0.40400001 0
4.7110004 -1.6634532 0.40400001 0
4.7070003 -1.6697214 0.40400001 0
4.7030001 -1.6759752 0.40400001 0
4.6980004 -1.681834 0.40400001 0
4.6940002 -1.6880571 0.40400001 0
4.6900005 -1.694266 0.40400001 0
4.6850004 -1.7000741 0.40400001 0
4.6810002 -1.7062521 0.40400001 0
4.6770005 -1.7124158 0.40400001 0
4.6730003 -1.7185649 0.40400001 0
4.6680002 -1.7243065 0.40400001 0
4.6640005 -1.7304251 0.40400001 0
4.6600003 -1.7365291 0.40400001 0
4.6550002 -1.74222 0.40400001 0
4.6510005 -1.7482936 0.40400001 0
4.6470003 -1.7543526 0.40400001 0
4.6430001 -1.760397 0.40400001 0
4.6390004 -1.7664273 0.40400001 0
4.6340003 -1.7720352 0.40400001 0
4.6300001 -1.7780347 0.40400001 0
4.6260004 -1.7840198 0.40400001 0
4.6220002 -1.7899903 0.40400001 0
4.6180005 -1.7959466 0.40400001 0
4.6130004 -1.8014716 0.40400001 0
4.6090002 -1.8073971 0.40400001 0
4.6050005 -1.8133082 0.40400001 0
4.6010003 -1.8192048 0.40400001 0
4.5970001 -1.825087 0.40400001 0
4.5930004 -1.8309549 0.40400001 0
4.5890002 -1.8368082 0.40400001 0
4.5840001 -1.8422177 0.40400001 0
4.5800004 -1.8480406 0.40400001 0
4.5760002 -1.8538488 0.40400001 0
4.5720005 -1.8596426 0.40400001 0
4.5680003 -1.865422 0.40400001 0
4.5640001 -1.8711869 0.40400001 0
4.5600004 -1.8769376 0.40400001 0
4.5560002 -1.8826736 0.40400001 0
4.5520005 -1.8883954 0.40400001 0
4.5480003 -1.8941026 0.40400001 0
4.5440001 -1.8997953 0.40400001 0
4.5400004 -1.9054738 0.40400001 0
4.5360003 -1.9111376 0.40400001 0
4.5320001 -1.916787 0.40400001 0
4.5280004 -1.9224224 0.40400001 0
4.5240002 -1.928043 0.40400001 0
4.5200005 -1.9336493 0.40400001 0
4.5160003 -1.9392411 0.40400001 0
4.5120001 -1.9448184 0.40400001 0
4.5080004 -1.9503815 0.40400001 0
4.5040002 -1.9559299 0.40400001 0
4.5000005 -1.9614642 0.40400001 0
4.4960003 -1.9669837 0.40400001 0
4.4920001 -1.9724886 0.40400001 0
4.4880004 -1.9779795 0.40400001 0
4.4840002 -1.983456 0.40400001 0
4.4800005 -1.9889181 0.40400001 0
4.4760003 -1.9943653 0.40400001 0
4.4720001 -1.9997984 0.40400001 0
4.4690003 -2.0056987 0.40400001 0
4.4650002 -2.0111046 0.40400001 0
4.4610004 -2.0164964 0.40400001 0
4.4570003 -2.0218735 0.40400001 0
4.4530001 -2.0272362 0.40400001 0
4.4490004 -2.0325847 0.40400001 0
4.4450002 -2.0379183 0.40400001 0
4.4420004 -2.0437319 0.40400001 0
4.4380002 -2.0490389 0.40400001 0
4.4340005 -2.0543313 0.40400001 0
4.4300003 -2.0596092 0.40400001 0
4.4260001 -2.0648727 0.40400001 0
4.4220004 -2.0701218 0.40400001 0
4.4190001 -2.0758615 0.40400001 0
4.4150004 -2.0810835 0.40400001 0
4.4110003 -2.0862911 0.40400001 0
4.4070001 -2.0914841 0.40400001 0
4.4040003 -2.0971754 0.40400001 0
4.4000001 -2.1023412 0.40400001 0
4.3960004 -2.1074932 0.40400001 0
4.3920002 -2.1126301 0.40400001 0
4.3889999 -2.1182725 0.40400001 0
4.3850002 -2.1233828 0.40400001 0
4.381 -2.1284788 0.40400001 0
4.3770003 -2.1335599 0.40400001 0
4.3740001 -2.1391535 0.40400001 0
4.3700004 -2.1442077 0.40400001 0
4.3660002 -2.1492476 0.40400001 0
4.3630004 -2.1548052 0.40400001 0
4.3590002 -2.1598179 0.40400001 0
4.355 -2.1648161 0.40400001 0
4.3520002 -2.1703377 0.40400001 0
4.348 -2.1753089 0.40400001 0
4.3440003 -2.1802659 0.40400001 0
4.3410001 -2.1857514 0.40400001 0
4.3370004 -2.1906812 0.40400001 0
4.3330002 -2.1955962 0.40400001 0
4.3300004 -2.2010458 0.40400001 0
4.3260002 -2.205934 0.40400001 0
4.322 -2.210808 0.40400001 0
4.3190002 -2.2162213 0.40400001 0
4.3150001 -2.2210681 0.40400001 0
4.3120003 -2.2264578 0.40400001 0
4.3080001 -2.2312777 0.40400001 0
4.3050003 -2.236644 0.40400001 0
4.3010001 -2.2414367 0.40400001 0
4.2969999 -2.2462149 0.40400001 0
4.2940001 -2.2515452 0.40400001 0
4.29 -2.2562962 0.40400001 0
4.2870002 -2.2616031 0.40400001 0
4.283 -2.2663274 0.40400001 0
4.2800002 -2.2716107 0.40400001 0
4.276 -2.2763078 0.40400001 0
5.1750002 -1.0106765 0.39538682 0
5.1700006 -1.0182707 0.39539585 0
5.1650004 -1.0258466 0.39540488 0
5.1590004 -1.0331972 0.39541569 0
5.1540003 -1.0407354 0.39542472 0
5.1490002 -1.0482553 0.39543372 0
5.1430001 -1.0555445 0.39544454 0
5.1380005 -1.0630268 0.39545357 0
5.1330004 -1.070491 0.3954626 0
5.1280003 -1.077937 0.3954716 0
