# .PCD v0.7 - Point Cloud Data file format
VERSION 0.7
FIELDS x y z intensity
SIZE 4 4 4 4
TYPE F F F F
COUNT 1 1 1 1
WIDTH 1398
HEIGHT 1
VIEWPOINT 0 0 0 1 0 0 0
POINTS 1398
DATA ascii
2.8270001 -1.2367733 0.60975862 0
2.6320002 -1.1491514 0.59322673 0
2.6270001 -1.1506972 0.59280282 0
2.6220002 -1.1522251 0.59237891 0
2.6180003 -1.1542345 0.59203982 0
2.6150002 -1.156731 0.59178549 0
2.6120002 -1.1592166 0.59153116 0
2.6090002 -1.1616914 0.59127676 0
2.6060002 -1.1641555 0.59102249 0
2.6040001 -1.1671174 0.59085286 0
2.6010003 -1.1695615 0.59059858 0
2.5990002 -1.1725072 0.59042901 0
2.5970001 -1.1754454 0.59025943 0
2.5950003 -1.1783767 0.59008992 0
2.5930002 -1.1813008 0.58992034 0
2.5910003 -1.1842175 0.58975077 0
2.5890002 -1.187127 0.58958119 0
2.5870001 -1.1900293 0.58941162 0
2.5850003 -1.1929245 0.5892421 0
2.5840001 -1.196339 0.58915734 0
2.5820003 -1.1992215 0.58898777 0
2.5800002 -1.2020968 0.58881819 0
2.5790002 -1.205497 0.58873343 0
2.5770001 -1.2083596 0.58856386 0
2.5760002 -1.2117507 0.5884791 0
2.5750003 -1.2151384 0.58839428 0
2.5740001 -1.2185222 0.58830953 0
2.5720003 -1.2213615 0.58814001 0
2.5710001 -1.2247363 0.58805519 0
2.5690002 -1.2275629 0.58788562 0
2.5660002 -1.2298357 0.58763134 0
2.5630002 -1.2320976 0.58737695 0
2.5610001 -1.2348989 0.58720738 0
2.5590003 -1.2376932 0.58703786 0
2.5560002 -1.2399262 0.58678353 0
2.5550003 -1.2432597 0.58669877 0
2.5530002 -1.2460321 0.58652914 0
2.5510001 -1.2487973 0.58635962 0
2.5500002 -1.2521163 0.58627486 0
2.5490003 -1.2554318 0.58619004 0
2.5480001 -1.2587435 0.58610529 0
2.5470002 -1.2620517 0.58602047 0
2.5460002 -1.2653564 0.58593571 0
2.5450003 -1.2686573 0.58585095 0
2.5450003 -1.2725266 0.58585095 0
2.5450003 -1.2763957 0.58585095 0
2.5450003 -1.2802649 0.58585095 0
2.6770003 -0.7524507 0.59293449 0
2.6580002 -0.75062883 0.59135795 0
2.6570003 -0.75438803 0.59127498 0
2.6560001 -0.75814348 0.59119201 0
2.6550002 -0.76189542 0.59110904 0
2.6550002 -0.76596296 0.59110904 0
2.6540003 -0.76970953 0.59102607 0
2.6530001 -0.7734524 0.5909431 0
2.6520002 -0.7771917 0.59086013 0
2.6510003 -0.78092742 0.59077716 0
2.6500001 -0.78465945 0.59069419 0
2.6950002 -0.91120565 0.59442806 0
2.6820002 -0.91042095 0.59334934 0
2.6740003 -0.91149247 0.59268558 0
2.6680002 -0.91329992 0.5921877 0
2.6630001 -0.91546983 0.59177285 0
2.6580002 -0.91762179 0.59135795 0
2.6550002 -0.92053133 0.59110904 0
2.6510003 -0.92304045 0.59077716 0
2.6490002 -0.92631793 0.59061122 0
2.6460001 -0.92919505 0.59036225 0
2.6440003 -0.93245631 0.59019631 0
2.6420002 -0.93571037 0.59003037 0
2.6400001 -0.93895721 0.58986437 0
2.6380002 -0.94219691 0.58969843 0
2.6370001 -0.94583148 0.58961546 0
2.6360002 -0.94946259 0.58953249 0
2.6360002 -0.95349592 0.58953249 0
2.6350002 -0.95712155 0.58944952 0
2.6350002 -0.96115309 0.58944952 0
2.6350002 -0.96518457 0.58944952 0
2.6360002 -0.96962917 0.58953249 0
2.6370001 -0.97407734 0.58961546 0
2.6390002 -0.97894591 0.5897814 0
2.6410003 -0.98382157 0.5899474 0
2.6450002 -0.98954505 0.59027928 0
2.6500001 -0.99570501 0.59069419 0
2.8830001 -1.1791506 0.61002737 0
2.8770003 -1.1808804 0.60952955 0
2.8720002 -1.1830486 0.60911465 0
2.8670001 -1.1851987 0.6086998 0
2.8640003 -1.1882579 0.60845089 0
2.8600001 -1.190841 0.60811895 0
2.8570001 -1.1938767 0.60787004 0
2.8540003 -1.1969018 0.60762113 0
2.8510003 -1.199916 0.60737216 0
2.8480003 -1.2029194 0.60712326 0
2.8460002 -1.2063862 0.60695732 0
2.8440001 -1.2098459 0.60679138 0
2.8410003 -1.2128204 0.60654247 0
2.8390002 -1.2162639 0.60637647 0
2.8370001 -1.2197001 0.60621053 0
2.8350003 -1.2231293 0.60604459 0
2.8330002 -1.2265511 0.60587859 0
2.8310003 -1.2299657 0.60571265 0
2.8300002 -1.2338618 0.60562968 0
2.8280003 -1.2372639 0.60546374 0
2.8260002 -1.2406586 0.6052978 0
2.8250003 -1.2445405 0.60521483 0
2.6360002 -1.1551616 0.58953249 0
2.6300001 -1.1562078 0.58903468 0
2.6250002 -1.1577321 0.58861977 0
2.6210003 -1.1597397 0.58828789 0
2.6170001 -1.1617329 0.58795595 0
2.6130002 -1.1637117 0.58762407 0
2.6100001 -1.1661829 0.58737516 0
2.6070001 -1.1686434 0.58712626 0
2.6050003 -1.1716034 0.58696032 0
2.6020002 -1.174044 0.58671135 0
2.6000001 -1.1769878 0.58654541 0
2.5970001 -1.1794084 0.5862965 0
2.5950003 -1.1823361 0.58613056 0
2.5930002 -1.1852565 0.58596456 0
2.5910003 -1.1881696 0.58579862 0
2.5890002 -1.1910756 0.58563268 0
2.5870001 -1.1939741 0.58546674 0
2.5850003 -1.1968658 0.5853008 0
2.5840001 -1.2002784 0.58521783 0
2.5820003 -1.2031574 0.58505189 0
2.5800002 -1.2060291 0.5848859 0
2.5790002 -1.2094275 0.58480293 0
2.5770001 -1.2122865 0.58463699 0
2.5760002 -1.215676 0.58455402 0
2.5750003 -1.2190616 0.58447105 0
2.5730002 -1.2219026 0.58430505 0
2.5710001 -1.2247363 0.58413911 0
2.5680003 -1.2270182 0.5838902 0
2.5650003 -1.2292892 0.58364129 0
2.5630002 -1.2320976 0.58347535 0
2.5600002 -1.2343489 0.58322638 0
2.5580001 -1.2371411 0.58306044 0
2.5560002 -1.2399262 0.5828945 0
2.5540001 -1.242704 0.58272851 0
2.5520003 -1.2454748 0.58256263 0
2.5510001 -1.2487973 0.5824796 0
2.5490003 -1.2515554 0.58231366 0
2.5480001 -1.254869 0.58223069 0
2.5470002 -1.2581789 0.58214772 0
2.5460002 -1.2614855 0.58206475 0
2.5450003 -1.2647882 0.58198178 0
2.5450003 -1.2686573 0.58198178 0
2.5450003 -1.2725266 0.58198178 0
2.5450003 -1.2763957 0.58198178 0
2.5450003 -1.2802649 0.58198178 0
2.6770003 -0.7524507 0.58882725 0
2.6580002 -0.75062883 0.58728498 0
2.6570003 -0.75438803 0.5872038 0
2.6560001 -0.75814348 0.58712262 0
2.6550002 -0.76189542 0.58704144 0
2.6550002 -0.76596296 0.58704144 0
2.6540003 -0.76970953 0.58696032 0
2.6530001 -0.7734524 0.58687913 0
2.6520002 -0.7771917 0.58679795 0
2.6510003 -0.78092742 0.58671677 0
2.6500001 -0.78465945 0.58663559 0
2.6950002 -0.91120565 0.59028828 0
2.6820002 -0.91042095 0.58923304 0
2.6740003 -0.91149247 0.58858371 0
2.6680002 -0.91329992 0.58809668 0
2.6630001 -0.91546983 0.58769083 0
2.6580002 -0.91762179 0.58728498 0
2.6550002 -0.92053133 0.58704144 0
2.6510003 -0.92304045 0.58671677 0
2.6490002 -0.92631793 0.58655441 0
2.6460001 -0.92919505 0.58631092 0
2.6440003 -0.93245631 0.58614856 0
2.6420002 -0.93571037 0.58598626 0
2.6400001 -0.93895721 0.58582389 0
2.6380002 -0.94219691 0.58566153 0
2.6370001 -0.94583148 0.58558035 0
2.6360002 -0.94946259 0.58549917 0
2.6360002 -0.95349592 0.58549917 0
2.6350002 -0.95712155 0.58541805 0
2.6350002 -0.96115309 0.58541805 0
2.6350002 -0.96518457 0.58541805 0
2.6360002 -0.96962917 0.58549917 0
2.6370001 -0.97407734 0.58558035 0
2.6390002 -0.97894591 0.58574271 0
2.6410003 -0.98382157 0.58590508 0
2.6450002 -0.98954505 0.58622974 0
2.6500001 -0.99570501 0.58663559 0
2.8810003 -1.1871883 0.6053862 0
2.8750002 -1.188893 0.60489917 0
2.8700001 -1.1910393 0.60449326 0
2.8650002 -1.1931679 0.60408747 0
2.8620002 -1.1962128 0.60384393 0
2.8580003 -1.1987779 0.60351926 0
2.8550003 -1.2017992 0.60327572 0
2.8520002 -1.2048097 0.60303223 0
2.8490002 -1.2078094 0.60278869 0
2.8460002 -1.2107984 0.6025452 0
2.8440001 -1.2142544 0.60238284 0
2.8420002 -1.2177033 0.60222054 0
2.8390002 -1.2206633 0.60197699 0
2.8370001 -1.2240961 0.60181463 0
2.8350003 -1.2275215 0.60165226 0
2.8330002 -1.2309396 0.60148996 0
2.8310003 -1.2343508 0.60132766 0
2.8300002 -1.2382451 0.60124648 0
2.8280003 -1.2416435 0.60108411 0
2.8260002 -1.2450347 0.60092175 0
2.8250003 -1.2489147 0.60084057 0
2.8230002 -1.2522932 0.60067821 0
2.6340003 -1.1622291 0.58533686 0
2.6280003 -1.16325 0.58484983 0
2.6230001 -1.1647526 0.58444399 0
2.6190002 -1.1667421 0.58411926 0
2.6150002 -1.1687173 0.58379459 0
2.6120002 -1.1711868 0.58355111 0
2.6090002 -1.1736453 0.58330756 0
2.6050003 -1.1755807 0.5829829 0
2.6030002 -1.1785301 0.58282053 0
2.6000001 -1.1809561 0.58257699 0
2.5980003 -1.1838892 0.58241469 0
2.5950003 -1.1862954 0.5821712 0
2.5930002 -1.1892122 0.58200884 0
2.5910003 -1.1921217 0.58184648 0
2.5890002 -1.195024 0.58168411 0
2.5870001 -1.1979191 0.58152181 0
2.5850003 -1.2008071 0.58135945 0
2.5830002 -1.2036877 0.58119714 0
2.5820003 -1.2070934 0.58111596 0
2.5800002 -1.2099614 0.5809536 0
2.5790002 -1.2133579 0.58087242 0
2.5770001 -1.2162133 0.58071005 0
2.5750003 -1.2190616 0.58054775 0
2.5740001 -1.2224437 0.58046657 0
2.5710001 -1.2247363 0.58022308 0
2.5680003 -1.2270182 0.57997954 0
2.5650003 -1.2292892 0.57973605 0
2.5620003 -1.2315494 0.57949251 0
2.5600002 -1.2343489 0.57933021 0
2.5580001 -1.2371411 0.57916784 0
2.5560002 -1.2399262 0.57900548 0
2.5540001 -1.242704 0.57884312 0
2.5520003 -1.2454748 0.57868081 0
2.5510001 -1.2487973 0.57859963 0
2.5490003 -1.2515554 0.57843733 0
2.5480001 -1.254869 0.57835615 0
2.5470002 -1.2581789 0.57827497 0
2.5460002 -1.2614855 0.57819378 0
2.5450003 -1.2647882 0.5781126 0
2.5450003 -1.2686573 0.5781126 0
2.5440001 -1.2719547 0.57803142 0
2.5440001 -1.2758219 0.57803142 0
2.5440001 -1.2796894 0.57803142 0
2.6770003 -0.7524507 0.58471996 0
2.6580002 -0.75062883 0.58321196 0
2.6570003 -0.75438803 0.58313262 0
2.6560001 -0.75814348 0.58305323 0
2.6550002 -0.76189542 0.58297384 0
2.6550002 -0.76596296 0.58297384 0
2.6540003 -0.76970953 0.5828945 0
2.6530001 -0.7734524 0.58281511 0
2.6520002 -0.7771917 0.58273578 0
2.6510003 -0.78092742 0.58265638 0
2.6500001 -0.78465945 0.58257699 0
2.6950002 -0.91120565 0.58614856 0
2.6820002 -0.91042095 0.5851168 0
2.6740003 -0.91149247 0.58448184 0
2.6680002 -0.91329992 0.58400565 0
2.6630001 -0.91546983 0.58360881 0
2.6580002 -0.91762179 0.58321196 0
2.6550002 -0.92053133 0.58297384 0
2.6510003 -0.92304045 0.58265638 0
2.6490002 -0.92631793 0.58249766 0
2.6460001 -0.92919505 0.58225954 0
2.6440003 -0.93245631 0.58210081 0
2.6420002 -0.93571037 0.58194208 0
2.6400001 -0.93895721 0.58178335 0
2.6380002 -0.94219691 0.58162463 0
2.6370001 -0.94583148 0.58154523 0
2.6360002 -0.94946259 0.5814659 0
2.6360002 -0.95349592 0.5814659 0
2.6350002 -0.95712155 0.58138651 0
2.6350002 -0.96115309 0.58138651 0
2.6350002 -0.96518457 0.58138651 0
2.6360002 -0.96962917 0.5814659 0
2.6370001 -0.97407734 0.58154523 0
2.6390002 -0.97894591 0.58170402 0
2.6410003 -0.98382157 0.58186269 0
2.6450002 -0.98954505 0.5821802 0
2.6500001 -0.99570501 0.58257699 0
2.8780003 -1.1947482 0.60067284 0
2.8720002 -1.1964256 0.6001966 0
2.8680003 -1.1990159 0.59987915 0
2.8630002 -1.2011226 0.5994823 0
2.8600001 -1.2041531 0.59924424 0
2.8560002 -1.2067001 0.59892672 0
2.8530002 -1.209707 0.59868866 0
2.8500001 -1.2127031 0.59845054 0
2.8470001 -1.2156885 0.59821242 0
2.8440001 -1.2186629 0.5979743 0
2.8420002 -1.2221082 0.59781563 0
2.8400002 -1.2255464 0.59765685 0
2.8370001 -1.2284919 0.59741879 0
2.8350003 -1.2319138 0.59726 0
2.8330002 -1.2353283 0.59710127 0
2.8310003 -1.2387358 0.59694254 0
2.8290002 -1.242136 0.59678382 0
2.8280003 -1.2460231 0.59670448 0
2.8260002 -1.2494106 0.5965457 0
2.8240001 -1.2527909 0.59638697 0
2.8230002 -1.2566638 0.59630764 0
2.8210001 -1.2600315 0.59614885 0
2.6320002 -1.1692818 0.58114839 0
2.6260002 -1.1702776 0.5806722 0
2.6210003 -1.1717587 0.58027536 0
2.6170001 -1.1737301 0.5799579 0
2.6130002 -1.1756872 0.57964039 0
2.6100001 -1.1781422 0.57940233 0
2.6070001 -1.1805863 0.57916421 0
2.6040001 -1.1830196 0.57892609 0
2.6010003 -1.1854423 0.57868803 0
2.5990002 -1.1883733 0.5785293 0
2.5960002 -1.1907761 0.57829118 0
2.5940001 -1.193691 0.57813245 0
2.5910003 -1.1960739 0.57789433 0
2.5900002 -1.1994994 0.57781494 0
2.5880003 -1.2023926 0.57765627 0
2.5860002 -1.2052786 0.57749748 0
2.5840001 -1.2081575 0.57733876 0
2.5820003 -1.2110293 0.57718003 0
2.5800002 -1.2138937 0.5770213 0
2.5790002 -1.2172885 0.57694197 0
2.5770001 -1.2201402 0.57678318 0
2.5740001 -1.2224437 0.57654512 0
2.5700002 -1.2241935 0.57622761 0
2.5680003 -1.2270182 0.57606888 0
2.5650003 -1.2292892 0.57583082 0
2.5620003 -1.2315494 0.5755927 0
2.5600002 -1.2343489 0.57543397 0
2.5580001 -1.2371411 0.57527518 0
2.5560002 -1.2399262 0.57511652 0
2.5540001 -1.242704 0.57495773 0
2.5520003 -1.2454748 0.574799 0
2.5500002 -1.2482381 0.57464027 0
2.5490003 -1.2515554 0.57456088 0
2.5480001 -1.254869 0.57448155 0
2.5470002 -1.2581789 0.57440215 0
2.5460002 -1.2614855 0.57432282 0
2.5450003 -1.2647882 0.57424343 0
2.5450003 -1.2686573 0.57424343 0
2.5440001 -1.2719547 0.57416403 0
2.5440001 -1.2758219 0.57416403 0
2.5440001 -1.2796894 0.57416403 0
2.6770003 -0.7524507 0.58061266 0
2.6580002 -0.75062883 0.57913899 0
2.6570003 -0.75438803 0.57906139 0
2.6560001 -0.75814348 0.57898384 0
2.6550002 -0.76189542 0.5789063 0
2.6550002 -0.76596296 0.5789063 0
2.6540003 -0.76970953 0.57882869 0
2.6530001 -0.7734524 0.57875115 0
2.6520002 -0.7771917 0.5786736 0
2.6510003 -0.78092742 0.578596 0
2.6500001 -0.78465945 0.57851845 0
2.6950002 -0.91120565 0.58200884 0
2.6820002 -0.91042095 0.58100051 0
2.6740003 -0.91149247 0.58037996 0
2.6680002 -0.91329992 0.57991457 0
2.6630001 -0.91546983 0.57952678 0
2.6580002 -0.91762179 0.57913899 0
2.6550002 -0.92053133 0.5789063 0
2.6510003 -0.92304045 0.578596 0
2.6490002 -0.92631793 0.5784409 0
2.6460001 -0.92919505 0.57820821 0
2.6440003 -0.93245631 0.57805312 0
2.6420002 -0.93571037 0.57789797 0
2.6400001 -0.93895721 0.57774282 0
2.6380002 -0.94219691 0.57758772 0
2.6370001 -0.94583148 0.57751012 0
2.6360002 -0.94946259 0.57743257 0
2.6360002 -0.95349592 0.57743257 0
2.6350002 -0.95712155 0.57735503 0
2.6350002 -0.96115309 0.57735503 0
2.6350002 -0.96518457 0.57735503 0
2.6360002 -0.96962917 0.57743257 0
2.6370001 -0.97407734 0.57751012 0
2.6390002 -0.97894591 0.57766527 0
2.6410003 -0.98382157 0.57782042 0
2.6450002 -0.98954505 0.57813066 0
2.6500001 -0.99570501 0.57851845 0
2.8760002 -1.2027533 0.59604788 0
2.8700001 -1.2044057 0.59558249 0
2.8650002 -1.2065071 0.5951947 0
2.8610003 -1.2090631 0.5948844 0
2.8580003 -1.212079 0.5946517 0
2.8540003 -1.2146081 0.59434146 0
2.8510003 -1.2176006 0.59410876 0
2.8480003 -1.2205822 0.59387612 0
2.8450003 -1.2235532 0.59364343 0
2.8420002 -1.2265131 0.59341073 0
2.8400002 -1.2299474 0.59325558 0
2.8380003 -1.2333748 0.59310043 0
2.8360002 -1.2367948 0.59294534 0
2.8330002 -1.2397169 0.59271264 0
2.8310003 -1.2431209 0.59255755 0
2.8290002 -1.2465173 0.59240234 0
2.8280003 -1.2504028 0.59232479 0
2.8260002 -1.2537867 0.5921697 0
2.8240001 -1.2571634 0.59201455 0
2.8220003 -1.260533 0.59185946 0
2.8210001 -1.2643985 0.59178185 0
2.8190002 -1.2677555 0.59162676 0
2.6300001 -1.1763203 0.57696718 0
2.6240003 -1.1772909 0.57650185 0
2.6190002 -1.1787502 0.576114 0
2.6150002 -1.1807036 0.57580376 0
2.6110003 -1.1826428 0.57549345 0
2.6080003 -1.1850833 0.57526076 0
2.6050003 -1.187513 0.57502812 0
2.6020002 -1.1899319 0.57479537 0
2.5990002 -1.19234 0.57456273 0
2.5970001 -1.1952603 0.57440758 0
2.5940001 -1.1976485 0.57417488 0
2.5920002 -1.2005527 0.57401979 0
2.5900002 -1.2034496 0.57386464 0
2.5880003 -1.2063394 0.57370949 0
2.5860002 -1.2092218 0.5735544 0
2.5840001 -1.212097 0.57339925 0
2.5820003 -1.2149652 0.57324409 0
2.5800002 -1.217826 0.573089 0
2.5770001 -1.2201402 0.57285631 0
2.5740001 -1.2224437 0.57262361 0
2.5700002 -1.2241935 0.57231337 0
2.5680003 -1.2270182 0.57215822 0
2.5650003 -1.2292892 0.57192552 0
2.5620003 -1.2315494 0.57169288 0
2.5600002 -1.2343489 0.57153773 0
2.5580001 -1.2371411 0.57138258 0
2.5560002 -1.2399262 0.57122749 0
2.5540001 -1.242704 0.57107234 0
2.5520003 -1.2454748 0.57091725 0
2.5510001 -1.2487973 0.57083964 0
2.5490003 -1.2515554 0.57068455 0
2.5480001 -1.254869 0.57060695 0
2.5470002 -1.2581789 0.5705294 0
2.5460002 -1.2614855 0.57045186 0
2.5450003 -1.2647882 0.57037425 0
2.5450003 -1.2686573 0.57037425 0
2.5440001 -1.2719547 0.5702967 0
2.5440001 -1.2758219 0.5702967 0
2.5440001 -1.2796894 0.5702967 0
2.6770003 -0.7524507 0.57650542 0
2.6580002 -0.75062883 0.57506597 0
2.6570003 -0.75438803 0.57499021 0
2.6560001 -0.75814348 0.57491446 0
2.6550002 -0.76189542 0.5748387 0
2.6550002 -0.76596296 0.5748387 0
2.6540003 -0.76970953 0.57476294 0
2.6530001 -0.7734524 0.57468718 0
2.6520002 -0.7771917 0.57461143 0
2.6510003 -0.78092742 0.57453567 0
2.6500001 -0.78465945 0.57445991 0
2.6950002 -0.91120565 0.57786906 0
2.6820002 -0.91042095 0.57688421 0
2.6740003 -0.91149247 0.57627815 0
2.6680002 -0.91329992 0.57582355 0
2.6630001 -0.91546983 0.57544476 0
2.6580002 -0.91762179 0.57506597 0
2.6550002 -0.92053133 0.5748387 0
2.6510003 -0.92304045 0.57453567 0
2.6490002 -0.92631793 0.57438409 0
2.6460001 -0.92919505 0.57415688 0
2.6440003 -0.93245631 0.57400537 0
2.6420002 -0.93571037 0.57385379 0
2.6400001 -0.93895721 0.57370228 0
2.6380002 -0.94219691 0.57355076 0
2.6370001 -0.94583148 0.573475 0
2.6360002 -0.94946259 0.57339925 0
2.6360002 -0.95349592 0.57339925 0
2.6350002 -0.95712155 0.57332349 0
2.6350002 -0.96115309 0.57332349 0
2.6350002 -0.96518457 0.57332349 0
2.6360002 -0.96962917 0.57339925 0
2.6370001 -0.97407734 0.573475 0
2.6390002 -0.97894591 0.57362652 0
2.6410003 -0.98382157 0.57377803 0
2.6450002 -0.98954505 0.57408106 0
2.6500001 -0.99570501 0.57445991 0
2.8740003 -1.2107443 0.59143013 0
2.8680003 -1.2123712 0.59097558 0
2.8630002 -1.2144511 0.59059674 0
2.8590002 -1.216989 0.59029371 0
2.8560002 -1.2199905 0.59006643 0
2.8520002 -1.2225015 0.5897634 0
2.8490002 -1.2254796 0.58953613 0
2.8460002 -1.2284467 0.58930886 0
2.8430002 -1.2314032 0.58908153 0
2.8400002 -1.2343488 0.58885431 0
2.8380003 -1.2377726 0.5887028 0
2.8360002 -1.2411889 0.58855122 0
2.8340001 -1.244598 0.58839971 0
2.8310003 -1.2475059 0.58817244 0
2.8290002 -1.2508988 0.58802092 0
2.8270001 -1.2542845 0.58786941 0
2.8260002 -1.2581627 0.58779365 0
2.8240001 -1.2615359 0.58764213 0
2.8220003 -1.2649018 0.58749062 0
2.8200002 -1.2682605 0.58733904 0
2.8190002 -1.2721188 0.58726335 0
2.8170002 -1.2754648 0.58711183 0
2.6280003 -1.1833444 0.57279319 0
2.6220002 -1.1842896 0.57233858 0
2.6170001 -1.1857272 0.57195979 0
2.6130002 -1.1876627 0.57165676 0
2.6090002 -1.1895838 0.57135373 0
2.6060002 -1.1920098 0.57112646 0
2.6030002 -1.1944251 0.57089919 0
2.6000001 -1.1968296 0.57067192 0
2.5980003 -1.1997483 0.5705204 0
2.5950003 -1.2021329 0.57029307 0
2.5930002 -1.2050351 0.57014155 0
2.5900002 -1.2074 0.56991428 0
2.5880003 -1.2102861 0.56976277 0
2.5860002 -1.2131649 0.56961125 0
2.5840001 -1.2160366 0.56945974 0
2.5810001 -1.2183634 0.56923246 0
2.5770001 -1.2201402 0.56892943 0
2.5740001 -1.2224437 0.5687021 0
2.5710001 -1.2247363 0.56847483 0
2.5680003 -1.2270182 0.56824756 0
2.5650003 -1.2292892 0.56802028 0
2.5630002 -1.2320976 0.56786877 0
2.5600002 -1.2343489 0.5676415 0
2.5580001 -1.2371411 0.56748998 0
2.5560002 -1.2399262 0.56733847 0
2.5540001 -1.242704 0.56718695 0
2.5520003 -1.2454748 0.56703544 0
2.5510001 -1.2487973 0.56695962 0
2.5500002 -1.2521163 0.56688392 0
2.5480001 -1.254869 0.56673241 0
2.5470002 -1.2581789 0.56665659 0
2.5460002 -1.2614855 0.56658089 0
2.5460002 -1.2653564 0.56658089 0
2.5450003 -1.2686573 0.56650507 0
2.5450003 -1.2725266 0.56650507 0
2.5450003 -1.2763957 0.56650507 0
2.5450003 -1.2802649 0.56650507 0
2.6770003 -0.7524507 0.57239819 0
2.6580002 -0.75062883 0.57099295 0
2.6570003 -0.75438803 0.57091904 0
2.6560001 -0.75814348 0.57084507 0
2.6550002 -0.76189542 0.5707711 0
2.6550002 -0.76596296 0.5707711 0
2.6540003 -0.76970953 0.57069719 0
2.6530001 -0.7734524 0.57062316 0
2.6520002 -0.7771917 0.57054925 0
2.6510003 -0.78092742 0.57047528 0
2.6500001 -0.78465945 0.57040131 0
2.6950002 -0.91120565 0.57372934 0
2.6820002 -0.91042095 0.57276791 0
2.6740003 -0.91149247 0.57217628 0
2.6680002 -0.91329992 0.57173252 0
2.6630001 -0.91546983 0.57136273 0
2.6580002 -0.91762179 0.57099295 0
2.6550002 -0.92053133 0.5707711 0
2.6510003 -0.92304045 0.57047528 0
2.6490002 -0.92631793 0.57032734 0
2.6460001 -0.92919505 0.57010549 0
2.6440003 -0.93245631 0.56995761 0
2.6420002 -0.93571037 0.56980968 0
2.6400001 -0.93895721 0.56966174 0
2.6380002 -0.94219691 0.56951386 0
2.6370001 -0.94583148 0.56943989 0
2.6360002 -0.94946259 0.56936592 0
2.6360002 -0.95349592 0.56936592 0
2.6350002 -0.95712155 0.56929195 0
2.6350002 -0.96115309 0.56929195 0
2.6350002 -0.96518457 0.56929195 0
2.6360002 -0.96962917 0.56936592 0
2.6370001 -0.97407734 0.56943989 0
2.6390002 -0.97894591 0.56958783 0
2.6410003 -0.98382157 0.56973571 0
2.6450002 -0.98954505 0.57003152 0
2.6500001 -0.99570501 0.57040131 0
2.8710003 -1.2182463 0.58674562 0
2.8660002 -1.2203225 0.58637583 0
2.8610003 -1.2223806 0.58600605 0
2.8570001 -1.2249005 0.58571023 0
2.8530002 -1.2274059 0.58541441 0
2.8500001 -1.2303805 0.58519256 0
2.8470001 -1.2333441 0.58497071 0
2.8440001 -1.2362969 0.5847488 0
2.8410003 -1.239239 0.58452696 0
2.8380003 -1.2421702 0.58430505 0
2.8360002 -1.2455829 0.58415717 0
2.8340001 -1.2489885 0.58400923 0
2.8320003 -1.2523869 0.58386135 0
2.8290002 -1.2552803 0.5836395 0
2.8270001 -1.2586623 0.58349156 0
2.8250003 -1.2620373 0.58334363 0
2.8240001 -1.2659082 0.58326972 0
2.8220003 -1.2692705 0.58312178 0
2.8200002 -1.2726257 0.58297384 0
2.8180003 -1.2759736 0.58282596 0
2.8170002 -1.2798246 0.58275199 0
2.8140001 -1.2826476 0.58253014 0
2.6260002 -1.190354 0.5686264 0
2.6200001 -1.1912738 0.56818265 0
2.6150002 -1.1926899 0.56781286 0
2.6110003 -1.1946074 0.56751704 0
2.6080003 -1.1970317 0.56729519 0
2.6040001 -1.1989219 0.56699932 0
2.6010003 -1.201323 0.56677747 0
2.5980003 -1.2037131 0.56655562 0
2.5960002 -1.2066207 0.56640768 0
2.5930002 -1.2089909 0.56618583 0
2.5910003 -1.2118826 0.56603789 0
2.5880003 -1.2142329 0.56581604 0
2.5860002 -1.217108 0.56566811 0
2.5820003 -1.218901 0.56537229 0
2.5780003 -1.2206796 0.56507647 0
2.5740001 -1.2224437 0.56478065 0
2.5710001 -1.2247363 0.5645588 0
2.5680003 -1.2270182 0.5643369 0
2.5660002 -1.2298357 0.56418902 0
2.5630002 -1.2320976 0.56396711 0
2.5610001 -1.2348989 0.56381923 0
2.5590003 -1.2376932 0.56367135 0
2.5570002 -1.2404801 0.56352341 0
2.5550003 -1.2432597 0.56337547 0
2.5530002 -1.2460321 0.56322759 0
2.5520003 -1.2493566 0.56315362 0
2.5500002 -1.2521163 0.56300569 0
2.5490003 -1.2554318 0.56293178 0
2.5480001 -1.2587435 0.56285781 0
2.5470002 -1.2620517 0.56278384 0
2.5460002 -1.2653564 0.56270993 0
2.5460002 -1.2692274 0.56270993 0
2.5460002 -1.2730983 0.56270993 0
2.5450003 -1.2763957 0.5626359 0
2.5460002 -1.2808403 0.56270993 0
2.6770003 -0.7524507 0.56829089 0
2.6580002 -0.75062883 0.56691998 0
2.6570003 -0.75438803 0.5668478 0
2.6560001 -0.75814348 0.56677568 0
2.6550002 -0.76189542 0.5667035 0
2.6550002 -0.76596296 0.5667035 0
2.6540003 -0.76970953 0.56663138 0
2.6530001 -0.7734524 0.5665592 0
2.6520002 -0.7771917 0.56648707 0
2.6510003 -0.78092742 0.56641495 0
2.6500001 -0.78465945 0.56634271 0
2.6950002 -0.91120565 0.56958961 0
2.6820002 -0.91042095 0.56865162 0
2.6740003 -0.91149247 0.56807441 0
2.6680002 -0.91329992 0.5676415 0
2.6630001 -0.91546983 0.56728077 0
2.6580002 -0.91762179 0.56691998 0
2.6550002 -0.92053133 0.5667035 0
2.6510003 -0.92304045 0.56641495 0
2.6490002 -0.92631793 0.56627059 0
2.6460001 -0.92919505 0.56605417 0
2.6440003 -0.93245631 0.56590986 0
2.6420002 -0.93571037 0.56576556 0
2.6400001 -0.93895721 0.56562126 0
2.6380002 -0.94219691 0.56547689 0
2.6370001 -0.94583148 0.56540477 0
2.6360002 -0.94946259 0.56533265 0
2.6360002 -0.95349592 0.56533265 0
2.6350002 -0.95712155 0.56526047 0
2.6350002 -0.96115309 0.56526047 0
2.6350002 -0.96518457 0.56526047 0
2.6360002 -0.96962917 0.56533265 0
2.6370001 -0.97407734 0.56540477 0
2.6390002 -0.97894591 0.56554908 0
2.6410003 -0.98382157 0.56569338 0
2.6450002 -0.98954505 0.56598198 0
2.6500001 -0.99570501 0.56634271 0
2.8690002 -1.2262046 0.58214414 0
2.8640003 -1.2282593 0.58178335 0
2.8590002 -1.2302958 0.58142257 0
2.8550003 -1.2327976 0.58113396 0
2.8510003 -1.235285 0.58084536 0
2.8480003 -1.2382451 0.58062893 0
2.8450003 -1.2411944 0.58041245 0
2.8420002 -1.2441328 0.58019602 0
2.8390002 -1.2470603 0.57997954 0
2.8360002 -1.2499771 0.57976305 0
2.8340001 -1.253379 0.57961881 0
2.8320003 -1.2567738 0.57947445 0
2.8300002 -1.2601614 0.57933021 0
2.8270001 -1.2630402 0.57911372 0
2.8250003 -1.2664117 0.57896942 0
2.8240001 -1.2702807 0.57889724 0
2.8220003 -1.2736394 0.57875293 0
2.8200002 -1.2769909 0.57860863 0
2.8170002 -1.2798246 0.57839221 0
2.8140001 -1.2826476 0.57817572 0
2.8100002 -1.2849457 0.57788712 0
2.8070002 -1.2877452 0.57767069 0
2.6240003 -1.1973493 0.56446683 0
2.6180003 -1.1982439 0.56403387 0
2.6140001 -1.2001594 0.56374526 0
2.6090002 -1.2015376 0.56338453 0
2.6060002 -1.2039475 0.56316805 0
2.6030002 -1.2063465 0.56295156 0
2.6000001 -1.2087348 0.56273514 0
2.5970001 -1.2111123 0.56251872 0
2.5940001 -1.2134787 0.56230223 0
2.5910003 -1.2158346 0.56208575 0
2.5860002 -1.217108 0.56172502 0
2.5820003 -1.218901 0.56143641 0
2.5790002 -1.2212189 0.56121993 0
2.5750003 -1.2229849 0.56093132 0
2.5720003 -1.2252793 0.56071484 0
2.5690002 -1.2275629 0.56049842 0
2.5660002 -1.2298357 0.56028199 0
2.5640001 -1.2326461 0.56013763 0
2.5620003 -1.2354492 0.55999339 0
2.5590003 -1.2376932 0.5597769 0
2.5570002 -1.2404801 0.5596326 0
2.5550003 -1.2432597 0.5594883 0
2.5540001 -1.2465894 0.55941612 0
2.5520003 -1.2493566 0.55927181 0
2.5510001 -1.2526773 0.55919969 0
2.5500002 -1.2559946 0.55912751 0
2.5490003 -1.2593081 0.55905539 0
2.5480001 -1.2626181 0.55898321 0
2.5470002 -1.2659246 0.55891109 0
2.5470002 -1.2697973 0.55891109 0
2.5460002 -1.2730983 0.5588389 0
2.5460002 -1.2769693 0.5588389 0
2.5460002 -1.2808403 0.5588389 0
2.6770003 -0.7524507 0.56418359 0
2.6580002 -0.75062883 0.56284696 0
2.6570003 -0.75438803 0.56277663 0
2.6560001 -0.75814348 0.56270629 0
2.6550002 -0.76189542 0.5626359 0
2.6550002 -0.76596296 0.5626359 0
2.6540003 -0.76970953 0.56256557 0
2.6530001 -0.7734524 0.56249523 0
2.6520002 -0.7771917 0.5624249 0
2.6510003 -0.78092742 0.56235456 0
2.6500001 -0.78465945 0.56228417 0
2.6950002 -0.91120565 0.56544983 0
2.6820002 -0.91042095 0.56453532 0
2.6740003 -0.91149247 0.56397253 0
2.6680002 -0.91329992 0.56355047 0
2.6630001 -0.91546983 0.56319869 0
2.6580002 -0.91762179 0.56284696 0
2.6550002 -0.92053133 0.5626359 0
2.6510003 -0.92304045 0.56235456 0
2.6490002 -0.92631793 0.56221384 0
2.6460001 -0.92919505 0.56200278 0
2.6440003 -0.93245631 0.56186211 0
2.6420002 -0.93571037 0.56172138 0
2.6400001 -0.93895721 0.56158066 0
2.6380002 -0.94219691 0.56143999 0
2.6370001 -0.94583148 0.56136966 0
2.6360002 -0.94946259 0.56129932 0
2.6360002 -0.95349592 0.56129932 0
2.6350002 -0.95712155 0.56122899 0
2.6350002 -0.96115309 0.56122899 0
2.6350002 -0.96518457 0.56122899 0
2.6360002 -0.96962917 0.56129932 0
2.6370001 -0.97407734 0.56136966 0
2.6390002 -0.97894591 0.56151032 0
2.6410003 -0.98382157 0.56165105 0
2.6450002 -0.98954505 0.56193244 0
2.6500001 -0.99570501 0.56228417 0
2.8670001 -1.2341486 0.57754982 0
2.8620002 -1.2361815 0.57719809 0
2.8570001 -1.2381963 0.5768463 0
2.8530002 -1.2406802 0.57656491 0
2.8490002 -1.2431496 0.57628357 0
2.8460002 -1.2460952 0.57607251 0
2.8430002 -1.24903 0.57586145 0
2.8400002 -1.251954 0.57565039 0
2.8370001 -1.2548671 0.57543933 0
2.8340001 -1.2577695 0.57522833 0
2.8320003 -1.2611607 0.57508761 0
2.8300002 -1.2645446 0.57494694 0
2.8280003 -1.2679213 0.57480621 0
2.8250003 -1.2707858 0.57459521 0
2.8230002 -1.2741463 0.57445449 0
2.8210001 -1.2774994 0.57431376 0
2.8170002 -1.2798246 0.57403237 0
2.8140001 -1.2826476 0.57382131 0
2.8100002 -1.2849457 0.57353997 0
2.8070002 -1.2877452 0.57332891 0
2.8040001 -1.2905338 0.57311785 0
2.6220002 -1.2043298 0.56031442 0
2.6160002 -1.2051992 0.55989236 0
2.6120002 -1.2070969 0.55961096 0
2.6080003 -1.2089802 0.55932957 0
2.6040001 -1.2108488 0.55904818 0
2.6010003 -1.2132336 0.55883712 0
2.5970001 -1.2150751 0.55855572 0
2.5920002 -1.2163686 0.558204 0
2.5880003 -1.2181796 0.5579226 0
2.5840001 -1.2199761 0.55764115 0
2.5800002 -1.2217582 0.55735981 0
2.5760002 -1.223526 0.55707842 0
2.5730002 -1.2258223 0.55686736 0
2.5700002 -1.2281077 0.5566563 0
2.5670002 -1.2303822 0.55644524 0
2.5650003 -1.2331945 0.55630457 0
2.5620003 -1.2354492 0.55609351 0
2.5600002 -1.2382451 0.55595279 0
2.5580001 -1.2410337 0.55581212 0
2.5560002 -1.2438153 0.55567145 0
2.5550003 -1.247147 0.55560106 0
2.5530002 -1.2499157 0.55546039 0
2.5520003 -1.2532383 0.55539006 0
2.5510001 -1.2565573 0.55531967 0
2.5500002 -1.2598727 0.55524933 0
2.5490003 -1.2631847 0.555179 0
2.5480001 -1.2664926 0.55510867 0
2.5480001 -1.2703673 0.55510867 0
2.5480001 -1.2742418 0.55510867 0
2.5470002 -1.2775428 0.55503827 0
2.5480001 -1.281991 0.55510867 0
2.6770003 -0.7524507 0.56007636 0
2.6580002 -0.75062883 0.55877399 0
2.6570003 -0.75438803 0.55870545 0
2.6560001 -0.75814348 0.5586369 0
2.6550002 -0.76189542 0.55856836 0
2.6550002 -0.76596296 0.55856836 0
2.6540003 -0.76970953 0.55849981 0
2.6530001 -0.7734524 0.55843127 0
2.6520002 -0.7771917 0.55836272 0
2.6510003 -0.78092742 0.55829418 0
2.6500001 -0.78465945 0.55822563 0
2.6950002 -0.91120565 0.56131011 0
2.6820002 -0.91042095 0.56041908 0
2.6740003 -0.91149247 0.55987072 0
2.6680002 -0.91329992 0.55945945 0
2.6630001 -0.91546983 0.55911672 0
2.6580002 -0.91762179 0.55877399 0
2.6550002 -0.92053133 0.55856836 0
2.6510003 -0.92304045 0.55829418 0
2.6490002 -0.92631793 0.55815709 0
2.6460001 -0.92919505 0.55795145 0
2.6440003 -0.93245631 0.55781436 0
2.6420002 -0.93571037 0.55767727 0
2.6400001 -0.93895721 0.55754018 0
2.6380002 -0.94219691 0.55740309 0
2.6370001 -0.94583148 0.55733454 0
2.6360002 -0.94946259 0.557266 0
2.6360002 -0.95349592 0.557266 0
2.6350002 -0.95712155 0.55719745 0
2.6350002 -0.96115309 0.55719745 0
2.6350002 -0.96518457 0.55719745 0
2.6360002 -0.96962917 0.557266 0
2.6370001 -0.97407734 0.55733454 0
2.6390002 -0.97894591 0.55747163 0
2.6410003 -0.98382157 0.55760872 0
2.6450002 -0.98954505 0.55788291 0
2.6500001 -0.99570501 0.55822563 0
2.8640003 -1.241593 0.57289422 0
2.8590002 -1.2436024 0.57255149 0
2.8550003 -1.2460827 0.57227731 0
2.8510003 -1.2485485 0.57200313 0
2.8470001 -1.2509998 0.57172894 0
2.8440001 -1.2539309 0.57152331 0
2.8410003 -1.2568514 0.57131767 0
2.8380003 -1.259761 0.57111204 0
2.8350003 -1.2626597 0.5709064 0
2.8320003 -1.2655476 0.57070076 0
2.8300002 -1.2689278 0.57056367 0
2.8280003 -1.2723011 0.57042658 0
2.8260002 -1.275667 0.57028949 0
2.8220003 -1.2780082 0.57001531 0
2.8180003 -1.2803352 0.56974113 0
2.8140001 -1.2826476 0.56946695 0
2.8110001 -1.2854598 0.56926131 0
2.8080003 -1.2882612 0.56905568 0
2.8050003 -1.2910516 0.56885004 0
2.8020003 -1.2938313 0.5686444 0
2.8000002 -1.2971214 0.56850731 0
2.6200001 -1.2112962 0.55616927 0
2.6140001 -1.2121403 0.555758 0
2.6100001 -1.2140199 0.55548382 0
2.6050003 -1.2153548 0.55514109 0
2.5990002 -1.2161394 0.55472982 0
2.5940001 -1.2174363 0.55438709 0
2.5890002 -1.2187153 0.55404437 0
2.5850003 -1.2205137 0.55377018 0
2.5810001 -1.2222975 0.553496 0
2.5780003 -1.2246084 0.55329043 0
2.5740001 -1.2263652 0.55301619 0
2.5710001 -1.2286525 0.55281055 0
2.5690002 -1.2314754 0.55267352 0
2.5660002 -1.2337428 0.55246788 0
2.5640001 -1.2365495 0.55233079 0
2.5620003 -1.2393491 0.5521937 0
2.5590003 -1.2415876 0.55198807 0
2.5580001 -1.2449263 0.55191946 0
2.5560002 -1.2477043 0.55178243 0
2.5540001 -1.2504748 0.55164534 0
2.5530002 -1.2537993 0.55157679 0
2.5520003 -1.2571203 0.55150825 0
2.5510001 -1.2604373 0.5514397 0
2.5500002 -1.2637509 0.55137116 0
2.5490003 -1.267061 0.55130261 0
2.5490003 -1.2709373 0.55130261 0
2.5490003 -1.2748137 0.55130261 0
2.5490003 -1.2786902 0.55130261 0
2.5490003 -1.2825665 0.55130261 0
2.6770003 -0.7524507 0.55596906 0
2.6580002 -0.75062883 0.55470097 0
2.6570003 -0.75438803 0.55463421 0
2.6560001 -0.75814348 0.55456746 0
2.6550002 -0.76189542 0.55450076 0
2.6550002 -0.76596296 0.55450076 0
2.6540003 -0.76970953 0.55443406 0
2.6530001 -0.7734524 0.55436724 0
2.6520002 -0.7771917 0.55430055 0
2.6510003 -0.78092742 0.55423379 0
2.6500001 -0.78465945 0.55416703 0
2.6950002 -0.91120565 0.55717039 0
2.6820002 -0.91042095 0.55630279 0
2.6740003 -0.91149247 0.55576885 0
2.6680002 -0.91329992 0.55536842 0
2.6630001 -0.91546983 0.5550347 0
2.6580002 -0.91762179 0.55470097 0
2.6550002 -0.92053133 0.55450076 0
2.6510003 -0.92304045 0.55423379 0
2.6490002 -0.92631793 0.55410028 0
2.6460001 -0.92919505 0.55390012 0
2.6440003 -0.93245631 0.55376661 0
2.6420002 -0.93571037 0.55363309 0
2.6400001 -0.93895721 0.55349964 0
2.6380002 -0.94219691 0.55336618 0
2.6370001 -0.94583148 0.55329943 0
2.6360002 -0.94946259 0.55323267 0
2.6360002 -0.95349592 0.55323267 0
2.6350002 -0.95712155 0.55316591 0
2.6350002 -0.96115309 0.55316591 0
2.6350002 -0.96518457 0.55316591 0
2.6360002 -0.96962917 0.55323267 0
2.6370001 -0.97407734 0.55329943 0
2.6390002 -0.97894591 0.55343288 0
2.6410003 -0.98382157 0.5535664 0
2.6450002 -0.98954505 0.55383337 0
2.6500001 -0.99570501 0.55416703 0
2.8620002 -1.2495044 0.5683161 0
2.8570001 -1.2514923 0.56798244 0
2.8520002 -1.2534621 0.56764871 0
2.8490002 -1.2564023 0.5674485 0
2.8450003 -1.2588357 0.56718153 0
2.8420002 -1.2617524 0.56698132 0
2.8390002 -1.2646582 0.56678104 0
2.8360002 -1.2675533 0.56658089 0
2.8330002 -1.2704376 0.56638062 0
2.8310003 -1.2738162 0.56624717 0
2.8270001 -1.2761737 0.5659802 0
2.8220003 -1.2780082 0.56564647 0
2.8180003 -1.2803352 0.5653795 0
2.8140001 -1.2826476 0.56511253 0
2.8110001 -1.2854598 0.56491232 0
2.8080003 -1.2882612 0.56471211 0
2.8050003 -1.2910516 0.5645119 0
2.8030002 -1.2943507 0.56437838 0
2.8000002 -1.2971214 0.56417817 0
2.7980001 -1.3004042 0.56404471 0
2.7960002 -1.3036801 0.5639112 0
2.6150002 -1.2166625 0.55183113 0
2.6070001 -1.2164154 0.55129719 0
2.6010003 -1.2172037 0.55089676 0
2.5950003 -1.2179703 0.55049628 0
2.5910003 -1.2197868 0.55022931 0
2.5870001 -1.2215887 0.54996234 0
2.5830002 -1.2233763 0.54969537 0
2.5790002 -1.2251494 0.54942846 0
2.5760002 -1.2274511 0.54922819 0
2.5730002 -1.2297419 0.54902798 0
2.5700002 -1.2320219 0.54882777 0
2.5670002 -1.2342911 0.54862756 0
2.5650003 -1.2370998 0.5484941 0
2.5630002 -1.2399011 0.54836059 0
2.5610001 -1.2426951 0.54822707 0
2.5590003 -1.245482 0.54809362 0
2.5570002 -1.2482616 0.54796016 0
2.5560002 -1.2515934 0.5478934 0
2.5550003 -1.2549214 0.54782665 0
2.5530002 -1.2576829 0.54769319 0
2.5520003 -1.2610019 0.54762644 0
2.5520003 -1.2648839 0.54762644 0
2.5510001 -1.2681973 0.54755968 0
2.5510001 -1.2720773 0.54755968 0
2.5500002 -1.2753855 0.54749298 0
2.5510001 -1.2798373 0.54755968 0
2.5510001 -1.2837173 0.54755968 0
2.6770003 -0.7524507 0.55186176 0
2.6580002 -0.75062883 0.55062795 0
2.6570003 -0.75438803 0.55056304 0
2.6560001 -0.75814348 0.55049813 0
2.6550002 -0.76189542 0.55043316 0
2.6550002 -0.76596296 0.55043316 0
2.6540003 -0.76970953 0.55036825 0
2.6530001 -0.7734524 0.55030328 0
2.6520002 -0.7771917 0.55023837 0
2.6510003 -0.78092742 0.5501734 0
2.6500001 -0.78465945 0.55010849 0
2.6950002 -0.91120565 0.55303067 0
2.6820002 -0.91042095 0.55218649 0
2.6740003 -0.91149247 0.55166698 0
2.6680002 -0.91329992 0.55127734 0
2.6630001 -0.91546983 0.55095267 0
2.6580002 -0.91762179 0.55062795 0
2.6550002 -0.92053133 0.55043316 0
2.6510003 -0.92304045 0.5501734 0
2.6490002 -0.92631793 0.55004352 0
2.6460001 -0.92919505 0.54984874 0
2.6440003 -0.93245631 0.54971886 0
2.6420002 -0.93571037 0.54958898 0
2.6400001 -0.93895721 0.5494591 0
2.6380002 -0.94219691 0.54932928 0
2.6370001 -0.94583148 0.54926431 0
2.6360002 -0.94946259 0.54919934 0
2.6360002 -0.95349592 0.54919934 0
2.6350002 -0.95712155 0.54913443 0
2.6350002 -0.96115309 0.54913443 0
2.6350002 -0.96518457 0.54913443 0
2.6360002 -0.96962917 0.54919934 0
2.6370001 -0.97407734 0.54926431 0
2.6390002 -0.97894591 0.54939419 0
2.6410003 -0.98382157 0.54952407 0
2.6450002 -0.98954505 0.54978383 0
2.6500001 -0.99570501 0.55010849 0
2.8600001 -1.2574015 0.56374526 0
2.8550003 -1.2593677 0.56342059 0
2.8500001 -1.2613157 0.56309593 0
2.8470001 -1.2642416 0.56290108 0
2.8430002 -1.2666569 0.56264132 0
2.8400002 -1.2695591 0.56244653 0
2.8370001 -1.2724507 0.56225169 0
2.8320003 -1.2743212 0.56192702 0
2.8270001 -1.2761737 0.56160235 0
2.8230002 -1.2785169 0.5613426 0
2.8190002 -1.2808456 0.56108284 0
2.8150003 -1.28316 0.56082308 0
2.8120003 -1.2859739 0.56062829 0
2.8090003 -1.288777 0.56043351 0
2.8060002 -1.2915692 0.56023866 0
2.8040001 -1.2948701 0.56010878 0
2.8010001 -1.2976426 0.55991399 0
2.7990003 -1.3009274 0.55978411 0
2.7970002 -1.3042049 0.55965424 0
2.6180003 -1.218248 0.5480305 0
2.6100001 -1.2180063 0.54751098 0
2.6030002 -1.2182679 0.54705644 0
2.5980003 -1.2195721 0.54673177 0
2.5930002 -1.2208582 0.5464071 0
2.5890002 -1.2226638 0.54614735 0
2.5850003 -1.224455 0.54588759 0
2.5810001 -1.2262317 0.54562783 0
2.5780003 -1.2285371 0.54543304 0
2.5750003 -1.2308315 0.5452382 0
2.5720003 -1.2331151 0.54504341 0
2.5690002 -1.2353879 0.54484856 0
2.5670002 -1.2381999 0.54471868 0
2.5650003 -1.2410049 0.5445888 0
2.5630002 -1.2438025 0.54445899 0
2.5610001 -1.2465931 0.54432905 0
2.5590003 -1.2493764 0.54419923 0
2.5580001 -1.2527115 0.54413426 0
2.5560002 -1.2554823 0.54400438 0
2.5550003 -1.2588085 0.54393947 0
2.5540001 -1.2621311 0.5438745 0
2.5530002 -1.2654501 0.54380959 0
2.5530002 -1.2693337 0.54380959 0
2.5530002 -1.2732173 0.54380959 0
2.5530002 -1.2771009 0.54380959 0
2.5530002 -1.2809845 0.54380959 0
2.5530002 -1.2848681 0.54380959 0
2.6770003 -0.7524507 0.54775453 0
2.6580002 -0.75062883 0.54655498 0
2.6570003 -0.75438803 0.54649186 0
2.6560001 -0.75814348 0.54642868 0
2.6550002 -0.76189542 0.54636556 0
2.6550002 -0.76596296 0.54636556 0
2.6540003 -0.76970953 0.54630244 0
2.6530001 -0.7734524 0.54623932 0
2.6520002 -0.7771917 0.5461762 0
2.6510003 -0.78092742 0.54611301 0
2.6500001 -0.78465945 0.54604989 0
2.6950002 -0.91120565 0.54889095 0
2.6820002 -0.91042095 0.54807019 0
2.6740003 -0.91149247 0.5475651 0
2.6680002 -0.91329992 0.54718632 0
2.6630001 -0.91546983 0.54687065 0
2.6580002 -0.91762179 0.54655498 0
2.6550002 -0.92053133 0.54636556 0
2.6510003 -0.92304045 0.54611301 0
2.6490002 -0.92631793 0.54598677 0
2.6460001 -0.92919505 0.54579735 0
2.6440003 -0.93245631 0.54567111 0
2.6420002 -0.93571037 0.54554486 0
2.6400001 -0.93895721 0.54541856 0
2.6380002 -0.94219691 0.54529232 0
2.6370001 -0.94583148 0.5452292 0
2.6360002 -0.94946259 0.54516602 0
2.6360002 -0.95349592 0.54516602 0
2.6350002 -0.95712155 0.54510295 0
2.6350002 -0.96115309 0.54510295 0
2.6350002 -0.96518457 0.54510295 0
2.6360002 -0.96962917 0.54516602 0
2.6370001 -0.97407734 0.5452292 0
2.6390002 -0.97894591 0.54535544 0
2.6410003 -0.98382157 0.54548168 0
2.6450002 -0.98954505 0.54573423 0
2.6500001 -0.99570501 0.54604989 0
2.8580003 -1.2652843 0.55918163 0
2.8530002 -1.2672286 0.55886596 0
2.8480003 -1.2691553 0.5585503 0
2.8450003 -1.2720665 0.55836093 0
2.8390002 -1.2734572 0.55798209 0
2.8340001 -1.2753314 0.55766642 0
2.8290002 -1.2771875 0.55735075 0
2.8240001 -1.2790256 0.55703509 0
2.8200002 -1.2813561 0.5567826 0
2.8160002 -1.2836722 0.55653006 0
2.8130002 -1.2864879 0.55634063 0
2.8100002 -1.2892928 0.55615127 0
2.8070002 -1.292087 0.55596185 0
2.8050003 -1.2953898 0.5558356 0
2.8020003 -1.298164 0.55564618 0
2.8000002 -1.3014505 0.55551988 0
2.7980001 -1.3047298 0.55539364 0
2.7960002 -1.308002 0.55526739 0
2.6140001 -1.2201276 0.54377711 0
2.6070001 -1.2203964 0.5433352 0
2.6010003 -1.221174 0.54295635 0
2.5960002 -1.2224654 0.54264069 0
2.5910003 -1.223739 0.54232502 0
2.5870001 -1.2255336 0.54207253 0
2.5830002 -1.227314 0.54181999 0
2.5800002 -1.2296228 0.54163057 0
2.5770001 -1.231921 0.5414412 0
2.5740001 -1.2342081 0.54125178 0
2.5710001 -1.2364845 0.54106236 0
2.5690002 -1.2393004 0.54093611 0
2.5670002 -1.2421088 0.54080987 0
2.5640001 -1.2443564 0.54062045 0
2.5630002 -1.2477043 0.54055732 0
2.5610001 -1.2504911 0.54043102 0
2.5600002 -1.25383 0.5403679 0
2.5580001 -1.2566042 0.54024166 0
2.5570002 -1.2599341 0.54017854 0
2.5560002 -1.2632604 0.54011536 0
2.5560002 -1.2671493 0.54011536 0
2.5550003 -1.2704701 0.54005229 0
2.5550003 -1.2743573 0.54005229 0
2.5550003 -1.2782446 0.54005229 0
2.5550003 -1.2821318 0.54005229 0
2.5560002 -1.2865944 0.54011536 0
2.6770003 -0.7524507 0.54364723 0
2.6580002 -0.75062883 0.54248196 0
2.6570003 -0.75438803 0.54242063 0
2.6560001 -0.75814348 0.54235935 0
2.6550002 -0.76189542 0.54229796 0
2.6550002 -0.76596296 0.54229796 0
2.6540003 -0.76970953 0.54223669 0
2.6530001 -0.7734524 0.54217529 0
2.6520002 -0.7771917 0.54211402 0
2.6510003 -0.78092742 0.54205269 0
2.6500001 -0.78465945 0.54199135 0
2.6950002 -0.91120565 0.54475117 0
2.6820002 -0.91042095 0.5439539 0
2.6740003 -0.91149247 0.54346323 0
2.6680002 -0.91329992 0.54309529 0
2.6630001 -0.91546983 0.54278862 0
2.6580002 -0.91762179 0.54248196 0
2.6550002 -0.92053133 0.54229796 0
2.6510003 -0.92304045 0.54205269 0
2.6490002 -0.92631793 0.54193002 0
2.6460001 -0.92919505 0.54174602 0
2.6440003 -0.93245631 0.54162335 0
2.6420002 -0.93571037 0.54150069 0
2.6400001 -0.93895721 0.54137802 0
2.6380002 -0.94219691 0.54125535 0
2.6370001 -0.94583148 0.54119408 0
2.6360002 -0.94946259 0.54113275 0
2.6360002 -0.95349592 0.54113275 0
2.6350002 -0.95712155 0.54107141 0
2.6350002 -0.96115309 0.54107141 0
2.6350002 -0.96518457 0.54107141 0
2.6360002 -0.96962917 0.54113275 0
2.6370001 -0.97407734 0.54119408 0
2.6390002 -0.97894591 0.54131675 0
2.6410003 -0.98382157 0.54143941 0
2.6450002 -0.98954505 0.54168469 0
2.6500001 -0.99570501 0.54199135 0
2.8560002 -1.2731524 0.55462521 0
2.8480003 -1.2735709 0.55413461 0
2.8410003 -1.2744638 0.55370528 0
2.8360002 -1.2763414 0.55339861 0
2.8300002 -1.2776943 0.55303067 0
2.8260002 -1.2800429 0.55278534 0
2.8220003 -1.282377 0.55254 0
2.8180003 -1.2846968 0.55229473 0
2.8150003 -1.2875162 0.55211073 0
2.8110001 -1.2898088 0.5518654 0
2.8090003 -1.2931224 0.55174273 0
2.8060002 -1.2959093 0.55155873 0
2.8040001 -1.2992066 0.55143607 0
2.8020003 -1.3024968 0.5513134 0
2.8000002 -1.3057797 0.55119073 0
2.7980001 -1.3090553 0.55106807 0
2.6200001 -1.2233095 0.54015148 0
2.6110003 -1.222525 0.53959948 0
2.6040001 -1.2227756 0.53917015 0
2.5990002 -1.2240726 0.53886354 0
2.5940001 -1.2253515 0.53855687 0
2.5900002 -1.2271516 0.5383116 0
2.5860002 -1.2289375 0.53806627 0
2.5820003 -1.2307088 0.53782094 0
2.5790002 -1.2330104 0.53763694 0
2.5760002 -1.2353014 0.53745294 0
2.5740001 -1.2381296 0.53733027 0
2.5710001 -1.2404007 0.53714633 0
2.5690002 -1.2432128 0.53702366 0
2.5670002 -1.2460177 0.536901 0
2.5650003 -1.2488154 0.53677833 0
2.5630002 -1.2516059 0.53665566 0
2.5620003 -1.2549484 0.53659433 0
2.5610001 -1.2582871 0.536533 0
2.5600002 -1.2616224 0.53647172 0
2.5590003 -1.2649541 0.53641033 0
2.5580001 -1.2682821 0.53634906 0
2.5580001 -1.2721747 0.53634906 0
2.5570002 -1.2754973 0.53628772 0
2.5580001 -1.2799599 0.53634906 0
2.5580001 -1.2838526 0.53634906 0
2.5590003 -1.2883207 0.53641033 0
2.6780002 -0.75276089 0.53959948 0
2.6580002 -0.75062883 0.53840899 0
2.6570003 -0.75438803 0.53834945 0
2.6560001 -0.75814348 0.5382899 0
2.6550002 -0.76189542 0.53823042 0
2.6550002 -0.76596296 0.53823042 0
2.6540003 -0.76970953 0.53817087 0
2.6530001 -0.7734524 0.53811133 0
2.6520002 -0.7771917 0.53805184 0
2.6510003 -0.78092742 0.5379923 0
2.6500001 -0.78465945 0.53793275 0
2.6950002 -0.91120565 0.54061145 0
2.6820002 -0.91042095 0.5398376 0
2.6740003 -0.91149247 0.53936142 0
2.6680002 -0.91329992 0.53900421 0
2.6630001 -0.91546983 0.5387066 0
2.6580002 -0.91762179 0.53840899 0
2.6550002 -0.92053133 0.53823042 0
2.6510003 -0.92304045 0.5379923 0
2.6490002 -0.92631793 0.53787327 0
2.6460001 -0.92919505 0.53769469 0
2.6440003 -0.93245631 0.5375756 0
2.6420002 -0.93571037 0.53745657 0
2.6400001 -0.93895721 0.53733754 0
2.6380002 -0.94219691 0.53721845 0
2.6370001 -0.94583148 0.53715897 0
2.6360002 -0.94946259 0.53709942 0
2.6360002 -0.95349592 0.53709942 0
2.6350002 -0.95712155 0.53703988 0
2.6350002 -0.96115309 0.53703988 0
2.6350002 -0.96518457 0.53703988 0
2.6360002 -0.96962917 0.53709942 0
2.6370001 -0.97407734 0.53715897 0
2.6390002 -0.97894591 0.537278 0
2.6410003 -0.98382157 0.53739703 0
2.6450002 -0.98954505 0.53763515 0
2.6500001 -0.99570501 0.53793275 0
2.8510003 -1.2750753 0.54989743 0
2.8440001 -1.2759734 0.54948074 0
2.8380003 -1.2773517 0.54912364 0
2.8330002 -1.279215 0.54882598 0
2.8280003 -1.2810603 0.54852837 0
2.8240001 -1.2833979 0.54829025 0
2.8200002 -1.2857213 0.54805213 0
2.8160002 -1.2880303 0.54781401 0
2.8130002 -1.2908405 0.54763544 0
2.8100002 -1.29364 0.54745686 0
2.8080003 -1.2969483 0.54733783 0
2.8050003 -1.2997279 0.54715925 0
2.8030002 -1.3030199 0.54704022 0
2.8010001 -1.3063045 0.54692113 0
2.6170001 -1.2257177 0.53596842 0
2.6090002 -1.2254453 0.53549224 0
2.6030002 -1.2262155 0.53513509 0
2.5980003 -1.2275016 0.53483742 0
2.5930002 -1.2287697 0.53453982 0
2.5890002 -1.2305608 0.5343017 0
2.5850003 -1.2323377 0.53406358 0
2.5820003 -1.2346448 0.533885 0
2.5790002 -1.236941 0.53370643 0
2.5760002 -1.2392263 0.53352785 0
2.5740001 -1.2420511 0.53340882 0
2.5720003 -1.2448688 0.53328979 0
2.5700002 -1.247679 0.5331707 0
2.5680003 -1.2504822 0.53305167 0
2.5660002 -1.2532781 0.53293264 0
2.5650003 -1.256626 0.53287309 0
2.5630002 -1.2594092 0.53275406 0
2.5620003 -1.2627481 0.53269452 0
2.5610001 -1.2660832 0.53263497 0
2.5610001 -1.2699813 0.53263497 0
2.5610001 -1.2738793 0.53263497 0
2.5600002 -1.2772073 0.53257549 0
2.5610001 -1.2816753 0.53263497 0
2.5610001 -1.2855734 0.53263497 0
2.5620003 -1.2900468 0.53269452 0
2.6780002 -0.75276089 0.53549039 0
2.6580002 -0.75062883 0.53433597 0
2.6570003 -0.75438803 0.53427827 0
2.6560001 -0.75814348 0.53422052 0
2.6550002 -0.76189542 0.53416282 0
2.6550002 -0.76596296 0.53416282 0
2.6540003 -0.76970953 0.53410506 0
2.6530001 -0.7734524 0.53404737 0
2.6520002 -0.7771917 0.53398967 0
2.6510003 -0.78092742 0.53393191 0
2.6500001 -0.78465945 0.53387421 0
2.6950002 -0.91120565 0.53647172 0
2.6820002 -0.91042095 0.5357213 0
2.6740003 -0.91149247 0.53525954 0
2.6680002 -0.91329992 0.53491318 0
2.6630001 -0.91546983 0.53462458 0
2.6580002 -0.91762179 0.53433597 0
2.6550002 -0.92053133 0.53416282 0
2.6510003 -0.92304045 0.53393191 0
2.6490002 -0.92631793 0.53381646 0
2.6460001 -0.92919505 0.53364331 0
2.6440003 -0.93245631 0.53352785 0
2.6420002 -0.93571037 0.53341246 0
2.6400001 -0.93895721 0.533297 0
2.6380002 -0.94219691 0.53318155 0
2.6370001 -0.94583148 0.53312385 0
2.6360002 -0.94946259 0.53306609 0
2.6360002 -0.95349592 0.53306609 0
2.6350002 -0.95712155 0.5330084 0
2.6350002 -0.96115309 0.5330084 0
2.6350002 -0.96518457 0.5330084 0
2.6360002 -0.96962917 0.53306609 0
2.6370001 -0.97407734 0.53312385 0
2.6390002 -0.97894591 0.53323925 0
2.6410003 -0.98382157 0.5333547 0
2.6450002 -0.98954505 0.53358561 0
2.6500001 -0.99570501 0.53387421 0
2.8470001 -1.2774833 0.54524541 0
2.8410003 -1.2788669 0.54489911 0
2.8350003 -1.2802287 0.54455274 0
2.8300002 -1.2820776 0.54426414 0
2.8260002 -1.2844189 0.54403329 0
2.8220003 -1.2867459 0.54380238 0
2.8190002 -1.2895725 0.54362917 0
2.8150003 -1.2918724 0.54339832 0
2.8120003 -1.2946755 0.54322517 0
2.8100002 -1.2979872 0.54310971 0
2.8070002 -1.3007705 0.54293656 0
2.8050003 -1.3040662 0.54282111 0
2.8030002 -1.3073543 0.54270566 0
2.6160002 -1.2291827 0.53191167 0
2.6080003 -1.2288942 0.53144991 0
2.6020002 -1.2296518 0.53110355 0
2.5970001 -1.230927 0.53081495 0
2.5930002 -1.2327254 0.53058404 0
2.5890002 -1.2345095 0.53035319 0
2.5860002 -1.2368238 0.53017998 0
2.5830002 -1.2391272 0.53000683 0
2.5800002 -1.2414198 0.52983367 0
2.5770001 -1.2437016 0.52966052 0
2.5750003 -1.2465246 0.52954507 0
2.5730002 -1.2493403 0.52942961 0
2.5710001 -1.2521489 0.52931416 0
2.5690002 -1.2549503 0.52919877 0
2.5680003 -1.2583035 0.52914101 0
2.5660002 -1.2610922 0.52902555 0
2.5660002 -1.2649993 0.52902555 0
2.5650003 -1.2683418 0.52896786 0
2.5640001 -1.2716805 0.5289101 0
2.5640001 -1.275584 0.5289101 0
2.5640001 -1.2794874 0.5289101 0
2.5650003 -1.2839626 0.52896786 0
2.5650003 -1.287868 0.52896786 0
2.5670002 -1.2929239 0.52908331 0
2.6780002 -0.75276089 0.53138137 0
2.6580002 -0.75062883 0.53026295 0
2.6570003 -0.75438803 0.53020704 0
2.6560001 -0.75814348 0.53015113 0
2.6550002 -0.76189542 0.53009522 0
2.6550002 -0.76596296 0.53009522 0
2.6540003 -0.76970953 0.53003931 0
2.6530001 -0.7734524 0.5299834 0
2.6520002 -0.7771917 0.52992749 0
2.6510003 -0.78092742 0.52987158 0
2.6500001 -0.78465945 0.52981561 0
