# .PCD v0.7 - Point Cloud Data file format
VERSION 0.7
FIELDS x y z intensity
SIZE 4 4 4 4
TYPE F F F F
COUNT 1 1 1 1
WIDTH 1417
HEIGHT 1
VIEWPOINT 0 0 0 1 0 0 0
POINTS 1417
DATA ascii
3.8320003 -1.5874768 0.54638541 0
3.5910003 -1.6461548 0.53638691 0
3.5770001 -1.6448649 0.53580606 0
3.5680003 -1.6460501 0.5354327 0
3.5610003 -1.6482165 0.5351423 0
3.5550003 -1.6508663 0.53489339 0
3.5500002 -1.6540048 0.53468591 0
3.5460002 -1.6576377 0.53451997 0
3.5420003 -1.6612562 0.53435403 0
3.5380003 -1.6648602 0.53418809 0
3.5360003 -1.6694851 0.53410506 0
3.5330002 -1.6735834 0.53398061 0
3.5310001 -1.678192 0.53389764 0
3.5300002 -1.6833167 0.53385615 0
3.5290003 -1.6884378 0.53381467 0
3.5280004 -1.6935552 0.53377318 0
3.5280004 -1.6991975 0.53377318 0
3.5290003 -1.7053701 0.53381467 0
3.5310001 -1.7120785 0.53389764 0
3.5340002 -1.7193279 0.53402209 0
3.7020001 -1.8626332 0.54099202 0
3.6910002 -1.8625178 0.54053569 0
3.6830003 -1.864024 0.54020375 0
3.6760004 -1.8660569 0.53991336 0
3.6700003 -1.8686219 0.53966445 0
3.6650002 -1.8717245 0.53945696 0
3.6610003 -1.8753699 0.53929102 0
3.6570003 -1.8790011 0.53912508 0
3.6530004 -1.8826178 0.53895915 0
3.6500003 -1.8867863 0.53883469 0
3.6480002 -1.8915123 0.53875172 0
3.6460001 -1.8962309 0.53866875 0
3.6440003 -1.9009426 0.53858578 0
3.6420002 -1.9056469 0.53850281 0
3.6420002 -1.9114947 0.53850281 0
3.9970002 -1.3890778 0.54674256 0
3.9900002 -1.3929397 0.5464648 0
3.9830003 -1.3967764 0.54618698 0
3.9760003 -1.4005878 0.54590923 0
3.9740002 -1.4062771 0.54582983 0
3.9780002 -1.4142535 0.54598856 0
3.9820004 -1.4222444 0.54614735 0
3.9870002 -1.4306357 0.54634571 0
3.9910002 -1.4386572 0.5465045 0
3.9950004 -1.4466933 0.54666322 0
3.9990003 -1.4547435 0.54682195 0
4.0040002 -1.4632015 0.54702038 0
4.0080004 -1.4712827 0.5471791 0
4.0120001 -1.4793782 0.54733783 0
4.0170002 -1.4878867 0.54753625 0
4.0210004 -1.4960129 0.54769498 0
4.026 -1.5045557 0.5478934 0
4.0300002 -1.5127125 0.54805213 0
4.0339999 -1.5208838 0.54821086 0
4.039 -1.5294772 0.54840928 0
4.0430002 -1.537679 0.54856801 0
4.0480003 -1.5463067 0.54876643 0
3.8500001 -1.4959912 0.54090905 0
3.8430002 -1.4992598 0.54063129 0
3.8370004 -1.5029269 0.54039317 0
3.8320003 -1.5069981 0.54019475 0
3.8270001 -1.5110513 0.53999633 0
3.8240004 -1.515945 0.5398773 0
3.8210003 -1.520828 0.53975821 0
3.8190002 -1.5261329 0.53967887 0
3.8170002 -1.5314306 0.53959948 0
3.8160002 -1.5371578 0.53955984 0
3.8160002 -1.5433196 0.53955984 0
3.8160002 -1.5494814 0.53955984 0
3.8170002 -1.5560851 0.53959948 0
3.8200002 -1.5635799 0.53971857 0
3.8230002 -1.5710856 0.5398376 0
3.8280003 -1.5794967 0.54003602 0
3.5900002 -1.6514074 0.53059125 0
3.5760002 -1.6500906 0.53003573 0
3.5680003 -1.6517645 0.52971822 0
3.5610003 -1.6539184 0.52944046 0
3.5550003 -1.6565572 0.52920234 0
3.5510004 -1.6601992 0.52904361 0
3.5470002 -1.6638266 0.52888489 0
3.5430002 -1.6674396 0.52872616 0
3.5400002 -1.6715559 0.52860707 0
3.5380003 -1.676181 0.52852774 0
3.5360003 -1.6807985 0.52844834 0
3.5350003 -1.6859323 0.52840865 0
3.5340002 -1.6910622 0.52836895 0
3.5340002 -1.6967154 0.52836895 0
3.5340002 -1.7023685 0.52836895 0
3.5360003 -1.7090824 0.52844834 0
3.5390003 -1.7163355 0.52856743 0
3.6990004 -1.8669337 0.53491682 0
3.6890004 -1.8673468 0.53451997 0
3.6810002 -1.8688347 0.53420252 0
3.6750002 -1.8714088 0.5339644 0
3.6700003 -1.8745204 0.53376597 0
3.6650002 -1.8776139 0.53356755 0
3.6610003 -1.8812523 0.53340882 0
3.6570003 -1.884876 0.53325009 0
3.6540003 -1.8890519 0.53313106 0
3.6520002 -1.893785 0.53305167 0
3.6490002 -1.8979411 0.53293264 0
3.6480002 -1.90323 0.53289294 0
3.6470003 -1.908515 0.53285325 0
3.6460001 -1.9137964 0.53281355 0
3.9970002 -1.3890778 0.54025429 0
3.9900002 -1.3929397 0.53998911 0
3.9830003 -1.3967764 0.53972399 0
3.9760003 -1.4005878 0.53945881 0
3.9740002 -1.4062771 0.53938305 0
3.9780002 -1.4142535 0.53953457 0
3.9820004 -1.4222444 0.53968608 0
3.9870002 -1.4306357 0.53987551 0
3.9910002 -1.4386572 0.54002702 0
3.9950004 -1.4466933 0.54017854 0
3.9990003 -1.4547435 0.54033005 0
4.0040002 -1.4632015 0.54051948 0
4.0080004 -1.4712827 0.54067099 0
4.0120001 -1.4793782 0.54082251 0
4.0170002 -1.4878867 0.54101187 0
4.0210004 -1.4960129 0.54116338 0
4.026 -1.5045557 0.54135281 0
4.0300002 -1.5127125 0.54150432 0
4.0339999 -1.5208838 0.54165584 0
4.039 -1.5294772 0.54184526 0
4.0430002 -1.537679 0.54199678 0
4.0480003 -1.5463067 0.54218614 0
3.8500001 -1.4959912 0.53468591 0
3.8430002 -1.4992598 0.53442073 0
3.8370004 -1.5029269 0.53419346 0
3.8320003 -1.5069981 0.53400409 0
3.8270001 -1.5110513 0.53381467 0
3.8240004 -1.515945 0.53370106 0
3.8210003 -1.520828 0.5335874 0
3.8190002 -1.5261329 0.53351164 0
3.8170002 -1.5314306 0.53343588 0
3.8160002 -1.5371578 0.53339803 0
3.8160002 -1.5433196 0.53339803 0
3.8160002 -1.5494814 0.53339803 0
3.8170002 -1.5560851 0.53343588 0
3.8200002 -1.5635799 0.53354955 0
3.8230002 -1.5710856 0.53366315 0
3.5930002 -1.6586767 0.52495074 0
3.5770001 -1.6563263 0.52434468 0
3.5690002 -1.6579876 0.52404165 0
3.5630002 -1.6606411 0.52381438 0
3.5570002 -1.6632727 0.52358711 0
3.5530002 -1.6669111 0.52343559 0
3.5490003 -1.670535 0.52328408 0
3.5460002 -1.6746621 0.52317041 0
3.5440001 -1.6792978 0.52309465 0
3.5420003 -1.6839265 0.5230189 0
3.5410001 -1.6890708 0.52298099 0
3.5410001 -1.6947366 0.52298099 0
3.5410001 -1.7004024 0.52298099 0
3.5420003 -1.7065967 0.5230189 0
3.5450003 -1.7138553 0.52313256 0
3.6980002 -1.8723305 0.52892816 0
3.6880002 -1.8727238 0.52854937 0
3.6810002 -1.8747531 0.52828419 0
3.6750002 -1.8773162 0.52805692 0
3.6700003 -1.8804189 0.52786756 0
3.6660004 -1.8840662 0.52771604 0
3.6620002 -1.887699 0.52756447 0
3.6590002 -1.8918839 0.52745086 0
3.6560001 -1.8960578 0.52733719 0
3.6550002 -1.9013611 0.52729934 0
3.6530004 -1.9060888 0.52722359 0
3.6520002 -1.9113829 0.52718568 0
3.6510003 -1.9166737 0.52714783 0
3.9970002 -1.3890778 0.53376597 0
3.9900002 -1.3929397 0.53351343 0
3.9830003 -1.3967764 0.53326094 0
3.9760003 -1.4005878 0.5330084 0
3.9740002 -1.4062771 0.53293622 0
3.9780002 -1.4142535 0.53308052 0
3.9820004 -1.4222444 0.53322482 0
3.9870002 -1.4306357 0.53340518 0
3.9910002 -1.4386572 0.53354955 0
3.9950004 -1.4466933 0.53369385 0
3.9990003 -1.4547435 0.53383815 0
4.0040002 -1.4632015 0.53401852 0
4.0080004 -1.4712827 0.53416282 0
4.0120001 -1.4793782 0.53430712 0
4.0170002 -1.4878867 0.53448749 0
4.0210004 -1.4960129 0.53463179 0
4.026 -1.5045557 0.53481221 0
4.0300002 -1.5127125 0.53495651 0
4.0339999 -1.5208838 0.53510082 0
4.039 -1.5294772 0.53528118 0
4.0430002 -1.537679 0.53542548 0
4.0480003 -1.5463067 0.53560585 0
3.8500001 -1.4959912 0.52846277 0
3.8430002 -1.4992598 0.52821022 0
3.8370004 -1.5029269 0.5279938 0
3.8320003 -1.5069981 0.52781343 0
3.8270001 -1.5110513 0.52763301 0
3.8240004 -1.515945 0.52752483 0
3.8210003 -1.520828 0.52741659 0
3.8190002 -1.5261329 0.52734441 0
3.8170002 -1.5314306 0.52727228 0
3.8160002 -1.5371578 0.52723616 0
3.8160002 -1.5433196 0.52723616 0
3.8160002 -1.5494814 0.52723616 0
3.8170002 -1.5560851 0.52727228 0
3.8200002 -1.5635799 0.52738047 0
3.6620002 -1.617034 0.52168047 0
3.6560001 -1.6200175 0.52146399 0
3.6500003 -1.6229794 0.52124757 0
3.6440003 -1.6259196 0.52103108 0
3.6380002 -1.6288382 0.52081466 0
3.6320002 -1.631735 0.52059817 0
3.6260002 -1.6346102 0.52038175 0
3.6200004 -1.637464 0.52016526 0
3.6140003 -1.6402959 0.51994884 0
3.6080003 -1.6431063 0.51973236 0
3.6020002 -1.6458949 0.51951587 0
3.5960002 -1.648662 0.51929945 0
3.5900002 -1.6514074 0.51908296 0
3.5840003 -1.6541312 0.51886654 0
3.5780003 -1.6568333 0.51865005 0
3.5730002 -1.6600223 0.51846969 0
3.5670002 -1.6626829 0.51825321 0
3.5610003 -1.6653219 0.51803678 0
3.5560002 -1.6684533 0.51785636 0
3.5520003 -1.6720827 0.51771212 0
3.5490003 -1.6762152 0.51760387 0
3.5460002 -1.6803368 0.51749563 0
3.5440001 -1.6849689 0.51742345 0
3.5430002 -1.6901171 0.51738739 0
3.5430002 -1.6957865 0.51738739 0
3.5430002 -1.7014558 0.51738739 0
3.5450003 -1.7081822 0.51745957 0
3.5500002 -1.7165068 0.51763994 0
3.7190003 -1.871986 0.52373683 0
3.7130003 -1.8746612 0.52352035 0
3.7080002 -1.8778683 0.52333999 0
3.7020001 -1.8805017 0.5231235 0
3.6910002 -1.8803269 0.52272666 0
3.6830003 -1.8817898 0.52243805 0
3.6780002 -1.8849066 0.52225769 0
3.6730003 -1.8880057 0.52207732 0
3.6690001 -1.8916512 0.52193302 0
3.6660004 -1.8958486 0.52182478 0
3.6630003 -1.9000354 0.52171654 0
3.6610003 -1.9047811 0.52164435 0
3.6600003 -1.9100915 0.52160829 0
3.6590002 -1.9153984 0.52157223 0
3.9970002 -1.3890778 0.52727771 0
3.9900002 -1.3929397 0.5270378 0
3.9830003 -1.3967764 0.52679789 0
3.9760003 -1.4005878 0.52655792 0
3.9740002 -1.4062771 0.52648944 0
3.9780002 -1.4142535 0.52662653 0
3.9820004 -1.4222444 0.52676362 0
3.9870002 -1.4306357 0.52693498 0
3.9910002 -1.4386572 0.52707207 0
3.9950004 -1.4466933 0.52720916 0
3.9990003 -1.4547435 0.52734625 0
4.0040002 -1.4632015 0.52751756 0
4.0080004 -1.4712827 0.52765465 0
4.0120001 -1.4793782 0.52779174 0
4.0170002 -1.4878867 0.5279631 0
4.0210004 -1.4960129 0.52810019 0
4.026 -1.5045557 0.52827156 0
4.0300002 -1.5127125 0.52840865 0
4.0339999 -1.5208838 0.52854574 0
4.039 -1.5294772 0.5287171 0
4.0430002 -1.537679 0.52885419 0
4.0480003 -1.5463067 0.52902555 0
3.8500001 -1.4959912 0.52223963 0
3.8430002 -1.4992598 0.52199972 0
3.8370004 -1.5029269 0.52179408 0
3.8320003 -1.5069981 0.52162272 0
3.8270001 -1.5110513 0.52145135 0
3.8240004 -1.515945 0.5213486 0
3.8210003 -1.520828 0.52124578 0
3.8190002 -1.5261329 0.52117723 0
3.8170002 -1.5314306 0.52110863 0
3.8160002 -1.5371578 0.52107435 0
3.8160002 -1.5433196 0.52107435 0
3.8160002 -1.5494814 0.52107435 0
3.8170002 -1.5560851 0.52110863 0
3.8200002 -1.5635799 0.5212115 0
3.7540002 -1.5645431 0.51894951 0
3.7480001 -1.5678657 0.51874387 0
3.7410002 -1.5707103 0.51850396 0
3.7350004 -1.573988 0.51829833 0
3.7280002 -1.5767838 0.51805842 0
3.7220004 -1.5800163 0.51785278 0
3.7160003 -1.583227 0.51764715 0
3.7090003 -1.5859507 0.51740724 0
3.7030003 -1.5891165 0.5172016 0
3.6970003 -1.5922605 0.51699597 0
3.6910002 -1.5953829 0.51679033 0
3.6850002 -1.5984837 0.51658469 0
3.6790001 -1.6015627 0.51637906 0
3.6730003 -1.6046202 0.51617342 0
3.6660004 -1.607178 0.51593351 0
3.6600003 -1.6101904 0.51572788 0
3.6540003 -1.6131811 0.51552224 0
3.6480002 -1.6161501 0.51531661 0
3.6420002 -1.6190975 0.51511097 0
3.6370003 -1.6225104 0.51493967 0
3.6310003 -1.6254164 0.51473403 0
3.6250002 -1.6283005 0.51452839 0
3.6190002 -1.6311632 0.51432276 0
3.6130002 -1.6340041 0.51411712 0
3.6070004 -1.6368235 0.51391149 0
3.6010003 -1.6396214 0.51370585 0
3.5960002 -1.642897 0.51353449 0
3.5900002 -1.6456531 0.51332885 0
3.5840003 -1.6483878 0.51312321 0
3.5780003 -1.6511008 0.51291758 0
3.5730002 -1.6542989 0.51274621 0
3.5670002 -1.6569703 0.51254058 0
3.5610003 -1.6596202 0.51233494 0
3.5560002 -1.6627605 0.51216358 0
3.5510004 -1.6658831 0.51199222 0
3.5470002 -1.6695031 0.51185513 0
3.5440001 -1.6736267 0.51175231 0
3.5420003 -1.6782589 0.51168376 0
3.5400002 -1.6828837 0.51161522 0
3.5380003 -1.6875017 0.51154667 0
3.5380003 -1.693162 0.51154667 0
3.5380003 -1.6988224 0.51154667 0
3.5390003 -1.7050111 0.51158094 0
3.5410001 -1.7117338 0.51164949 0
3.7350004 -1.8567259 0.51829833 0
3.7290003 -1.8594731 0.51809269 0
3.7230003 -1.8621987 0.51788706 0
3.7170002 -1.8649025 0.51768142 0
3.7110002 -1.8675847 0.51747578 0
3.7060003 -1.8707974 0.51730442 0
3.7000003 -1.8734381 0.51709878 0
3.6940002 -1.8760573 0.51689315 0
3.6890004 -1.8792121 0.51672179 0
3.6830003 -1.8817898 0.51651615 0
3.6770003 -1.8843458 0.51631051 0
3.6720002 -1.8874428 0.51613915 0
3.6680002 -1.8910866 0.51600206 0
3.6650002 -1.8952823 0.51589924 0
3.6620002 -1.899467 0.51579642 0
3.6600003 -1.904211 0.51572788 0
3.6580002 -1.9089478 0.51565933 0
3.6580002 -1.9148247 0.51565933 0
3.6580002 -1.9207014 0.51565933 0
3.9970002 -1.3890778 0.52078938 0
3.9900002 -1.3929397 0.52056211 0
3.9830003 -1.3967764 0.52033484 0
3.9760003 -1.4005878 0.52010757 0
3.9740002 -1.4062771 0.5200426 0
3.9780002 -1.4142535 0.52017248 0
3.9820004 -1.4222444 0.52030236 0
3.9870002 -1.4306357 0.52046472 0
3.9910002 -1.4386572 0.5205946 0
3.9950004 -1.4466933 0.52072448 0
3.9990003 -1.4547435 0.52085435 0
4.0040002 -1.4632015 0.52101666 0
4.0080004 -1.4712827 0.52114654 0
4.0120001 -1.4793782 0.52127641 0
4.0170002 -1.4878867 0.52143878 0
4.0210004 -1.4960129 0.52156866 0
4.026 -1.5045557 0.52173096 0
4.0300002 -1.5127125 0.52186084 0
4.0339999 -1.5208838 0.52199072 0
4.039 -1.5294772 0.52215308 0
4.0430002 -1.537679 0.52228296 0
4.0480003 -1.5463067 0.52244526 0
3.8500001 -1.4959912 0.51601648 0
3.8430002 -1.4992598 0.51578921 0
3.8370004 -1.5029269 0.51559442 0
3.8320003 -1.5069981 0.51543206 0
3.8270001 -1.5110513 0.51526976 0
3.8240004 -1.515945 0.5151723 0
3.8210003 -1.520828 0.51507491 0
3.8190002 -1.5261329 0.51501 0
3.8170002 -1.5314306 0.51494503 0
3.8160002 -1.5371578 0.51491261 0
3.8160002 -1.5433196 0.51491261 0
3.8160002 -1.5494814 0.51491261 0
3.8170002 -1.5560851 0.51494503 0
3.7600002 -1.5551381 0.51309431 0
3.7540002 -1.5584931 0.51289952 0
3.7470002 -1.5613739 0.51267225 0
3.7410002 -1.5646838 0.5124774 0
3.7350004 -1.5679723 0.51228261 0
3.7280002 -1.5707808 0.51205534 0
3.7220004 -1.574024 0.51186055 0
3.7160003 -1.5772456 0.5116657 0
3.7100003 -1.5804455 0.51147091 0
3.7040002 -1.5836238 0.51127613 0
3.6970003 -1.5863134 0.51104879 0
3.6910002 -1.5894465 0.51085401 0
3.6850002 -1.592558 0.51065922 0
3.6790001 -1.5956481 0.51046437 0
3.6730003 -1.5987164 0.51026958 0
3.6670003 -1.601763 0.51007473 0
3.6610003 -1.6047879 0.50987995 0
3.6550002 -1.6077912 0.50968516 0
3.6490002 -1.610773 0.50949031 0
3.6430004 -1.6137331 0.50929552 0
3.6370003 -1.6166714 0.50910068 0
3.6310003 -1.6195883 0.50890589 0
3.6260002 -1.6229721 0.50874352 0
3.6200004 -1.6258475 0.50854874 0
3.6140003 -1.6287011 0.50835395 0
3.6080003 -1.631533 0.5081591 0
3.6020002 -1.6343434 0.50796431 0
3.5970004 -1.63763 0.50780195 0
3.5910003 -1.6403987 0.50760716 0
3.5850003 -1.6431459 0.50741231 0
3.5800002 -1.6463747 0.50725001 0
3.5740004 -1.6490805 0.50705516 0
3.5680003 -1.6517645 0.50686038 0
3.5630002 -1.6549356 0.50669801 0
3.5570002 -1.6575782 0.50650322 0
3.5520003 -1.6607114 0.50634086 0
3.5480003 -1.6643407 0.50621098 0
3.5440001 -1.6679555 0.5060811 0
3.5410001 -1.6720735 0.50598371 0
3.5380003 -1.676181 0.50588632 0
3.5370002 -1.6813198 0.50585383 0
3.5350003 -1.6859323 0.50578892 0
3.5340002 -1.6910622 0.50575644 0
3.5340002 -1.6967154 0.50575644 0
3.5350003 -1.7028971 0.50578892 0
3.5360003 -1.7090824 0.50582135 0
3.5400002 -1.7168676 0.50595123 0
3.7350004 -1.8507102 0.51228261 0
3.7290003 -1.8534682 0.51208782 0
3.7230003 -1.8562046 0.51189297 0
3.7170002 -1.8589193 0.51169819 0
3.7120004 -1.8621608 0.51153588 0
3.7060003 -1.8648341 0.51134104 0
3.7000003 -1.8674855 0.51114619 0
3.6950002 -1.8706692 0.51098388 0
3.6890004 -1.8732795 0.51078904 0
3.6830003 -1.875868 0.51059425 0
3.6780002 -1.8789939 0.51043189 0
3.6720002 -1.8815408 0.5102371 0
3.6680002 -1.8851917 0.51010722 0
3.6640003 -1.8888283 0.50997734 0
3.6610003 -1.8930167 0.50987995 0
3.6580002 -1.8971943 0.50978255 0
3.6560001 -1.9019309 0.50971758 0
3.6540003 -1.9066607 0.50965267 0
3.6530004 -1.9119568 0.50962019 0
3.6530004 -1.9178244 0.50962019 0
3.9970002 -1.3890778 0.51430106 0
3.9900002 -1.3929397 0.51408643 0
3.9830003 -1.3967764 0.51387179 0
3.9760003 -1.4005878 0.51365709 0
3.9740002 -1.4062771 0.51359582 0
3.9780002 -1.4142535 0.51371843 0
3.9820004 -1.4222444 0.51384109 0
3.9870002 -1.4306357 0.51399446 0
3.9910002 -1.4386572 0.51411712 0
3.9950004 -1.4466933 0.51423979 0
3.9990003 -1.4547435 0.51436239 0
4.0040002 -1.4632015 0.51451576 0
4.0080004 -1.4712827 0.51463842 0
4.0120001 -1.4793782 0.51476103 0
4.0170002 -1.4878867 0.51491439 0
4.0210004 -1.4960129 0.51503706 0
4.026 -1.5045557 0.51519036 0
4.0300002 -1.5127125 0.51531303 0
4.0339999 -1.5208838 0.5154357 0
4.039 -1.5294772 0.515589 0
4.0430002 -1.537679 0.51571167 0
4.0480003 -1.5463067 0.51586497 0
3.8500001 -1.4959912 0.50979334 0
3.8430002 -1.4992598 0.5095787 0
3.8370004 -1.5029269 0.50939471 0
3.8320003 -1.5069981 0.5092414 0
3.8270001 -1.5110513 0.5090881 0
3.8240004 -1.515945 0.50899607 0
3.8210003 -1.520828 0.5089041 0
3.8190002 -1.5261329 0.50884277 0
3.8170002 -1.5314306 0.50878143 0
3.8160002 -1.5371578 0.5087508 0
3.8160002 -1.5433196 0.5087508 0
3.8160002 -1.5494814 0.5087508 0
3.8170002 -1.5560851 0.50878143 0
3.7620003 -1.5499721 0.50709486 0
3.7550004 -1.5528924 0.50688022 0
3.7490003 -1.5562385 0.50669622 0
3.7430003 -1.5595628 0.50651222 0
3.7360003 -1.5624111 0.50629759 0
3.7300003 -1.5656904 0.50611359 0
3.7240002 -1.568948 0.50592959 0
3.7180002 -1.5721841 0.50574565 0
3.7120004 -1.5753986 0.50556165 0
3.7060003 -1.5785913 0.50537765 0
3.6990004 -1.581297 0.50516301 0
3.6930003 -1.5844446 0.50497901 0
3.6870003 -1.5875707 0.50479501 0
3.6810002 -1.590675 0.50461102 0
3.6750002 -1.5937576 0.50442702 0
3.6690001 -1.5968187 0.50424302 0
3.6630003 -1.5998582 0.50405908 0
3.6570003 -1.6028759 0.50387508 0
3.6510003 -1.605872 0.50369108 0
3.6450002 -1.6088465 0.50350708 0
3.6400003 -1.6122829 0.50335377 0
3.6340003 -1.6152158 0.50316978 0
3.6280003 -1.6181271 0.50298578 0
3.6220002 -1.6210169 0.50280178 0
3.6160002 -1.6238848 0.50261784 0
3.6100001 -1.6267313 0.50243384 0
3.6050003 -1.6300503 0.50228053 0
3.5990002 -1.6328552 0.50209653 0
3.5930002 -1.6356384 0.50191253 0
3.5870001 -1.6384001 0.50172853 0
3.5820003 -1.6416416 0.50157523 0
3.5760002 -1.6443616 0.50139123 0
3.5700002 -1.6470602 0.50120723 0
3.5650003 -1.6502439 0.50105393 0
3.5590003 -1.6529009 0.50086993 0
3.5540001 -1.6560467 0.50071657 0
3.5490003 -1.6591746 0.50056326 0
3.5450003 -1.6627985 0.5004406 0
3.5420003 -1.6669238 0.50034863 0
3.5390003 -1.6710383 0.50025666 0
3.5360003 -1.6751418 0.50016463 0
3.5340002 -1.6797559 0.50010329 0
3.5330002 -1.6848861 0.50007266 0
3.5320003 -1.6900125 0.50004196 0
3.5310001 -1.6951352 0.50001132 0
3.5320003 -1.7013116 0.50004196 0
3.5330002 -1.7074914 0.50007266 0
3.5350003 -1.7142071 0.50013399 0
3.5400002 -1.7225314 0.50028729 0
3.7360003 -1.8452338 0.50629759 0
3.7300003 -1.8480045 0.50611359 0
3.7250001 -1.8512963 0.50596029 0
3.7190003 -1.8540256 0.50577629 0
3.7130003 -1.8567331 0.50559229 0
3.7080002 -1.8599672 0.50543898 0
3.7020001 -1.8626332 0.50525498 0
3.6970003 -1.8658297 0.50510168 0
3.6910002 -1.8684542 0.50491768 0
3.6850002 -1.871057 0.50473368 0
3.6800003 -1.8741958 0.50458038 0
3.6740003 -1.8767571 0.50439638 0
3.6690001 -1.8798578 0.50424302 0
3.6650002 -1.8835034 0.50412041 0
3.6610003 -1.8871344 0.50399774 0
3.6580002 -1.8913174 0.50390571 0
3.6550002 -1.8954897 0.50381374 0
3.6530004 -1.9002212 0.50375241 0
3.6510003 -1.9049451 0.50369108 0
3.6500003 -1.910236 0.50366044 0
3.6500003 -1.9160984 0.50366044 0
3.9970002 -1.3890778 0.5078128 0
3.9900002 -1.3929397 0.50761074 0
3.9830003 -1.3967764 0.50740874 0
3.9760003 -1.4005878 0.50720668 0
3.9740002 -1.4062771 0.50714898 0
3.9780002 -1.4142535 0.50726444 0
3.9820004 -1.4222444 0.50737989 0
3.9870002 -1.4306357 0.50752419 0
3.9910002 -1.4386572 0.50763965 0
3.9950004 -1.4466933 0.50775504 0
3.9990003 -1.4547435 0.5078705 0
4.0040002 -1.4632015 0.5080148 0
4.0080004 -1.4712827 0.50813025 0
4.0120001 -1.4793782 0.50824571 0
4.0170002 -1.4878867 0.50839001 0
4.0210004 -1.4960129 0.50850546 0
4.026 -1.5045557 0.50864977 0
4.0300002 -1.5127125 0.50876522 0
4.0339999 -1.5208838 0.50888062 0
4.039 -1.5294772 0.50902498 0
4.0430002 -1.537679 0.50914037 0
4.0480003 -1.5463067 0.50928468 0
3.8500001 -1.4959912 0.5035702 0
3.8430002 -1.4992598 0.5033682 0
3.8370004 -1.5029269 0.50319505 0
3.8320003 -1.5069981 0.50305074 0
3.8270001 -1.5110513 0.50290644 0
3.8240004 -1.515945 0.50281984 0
3.8210003 -1.520828 0.50273323 0
3.8190002 -1.5261329 0.50267553 0
3.8170002 -1.5314306 0.50261784 0
3.8160002 -1.5371578 0.50258899 0
3.8160002 -1.5433196 0.50258899 0
3.8160002 -1.5494814 0.50258899 0
3.7640002 -1.5447986 0.5010882 0
3.7580004 -1.5481827 0.50091505 0
3.7520003 -1.551545 0.50074184 0
3.7450004 -1.5544347 0.50053984 0
3.7390003 -1.5577519 0.50036669 0
3.7330003 -1.5610473 0.50019348 0
3.7270002 -1.5643213 0.50002033 0
3.7210002 -1.5675735 0.49984717 0
3.7150002 -1.5708041 0.49967399 0
3.7080002 -1.5735514 0.49947196 0
3.7020001 -1.5767369 0.49929881 0
3.6960003 -1.5799009 0.49912566 0
3.6900003 -1.5830431 0.49895248 0
3.6840003 -1.5861636 0.4987793 0
3.6780002 -1.5892626 0.49860615 0
3.6720002 -1.5923399 0.49843299 0
3.6660004 -1.5953956 0.49825981 0
3.6600003 -1.5984296 0.49808666 0
3.6550002 -1.6019199 0.49794233 0
3.6490002 -1.6049124 0.49776918 0
3.6430004 -1.6078833 0.49759603 0
3.6370003 -1.6108326 0.49742284 0
3.6310003 -1.6137601 0.49724969 0
3.6250002 -1.6166661 0.49707651 0
3.6200004 -1.6200392 0.49693221 0
3.6140003 -1.6229036 0.49675906 0
3.6080003 -1.6257464 0.49658588 0
3.6020002 -1.6285675 0.49641272 0
3.5970004 -1.6318631 0.49626842 0
3.5910003 -1.6346428 0.49609524 0
3.5850003 -1.6374009 0.49592209 0
3.5800002 -1.6406386 0.49577779 0
3.5740004 -1.6433553 0.4956046 0
3.5690002 -1.6465552 0.4954603 0
3.5630002 -1.6492301 0.49528715 0
3.5570002 -1.6518836 0.49511397 0
3.5520003 -1.6550258 0.49496967 0
3.5470002 -1.65815 0.49482536 0
3.5430002 -1.6617703 0.49470991 0
3.5400002 -1.6658919 0.49462333 0
3.5370002 -1.6700028 0.49453676 0
3.5340002 -1.6741029 0.49445018 0
3.5320003 -1.6787134 0.49439245 0
3.5310001 -1.6838398 0.49436361 0
3.5300002 -1.6889626 0.49433473 0
3.5300002 -1.6946086 0.49433473 0
3.5300002 -1.7002544 0.49433473 0
3.5310001 -1.7064307 0.49436361 0
3.5330002 -1.7131428 0.4944213 0
3.5370002 -1.7209296 0.49453676 0
3.7390003 -1.840829 0.50036669 0
3.7330003 -1.8436158 0.50019348 0
3.7270002 -1.8463809 0.50002033 0
3.7220004 -1.8496675 0.49987602 0
3.7160003 -1.8523914 0.49970287 0
3.7100003 -1.8550934 0.49952969 0
3.7050002 -1.8583221 0.49938539 0
3.6990004 -1.8609829 0.49921224 0
3.6940002 -1.8641738 0.49906793 0
3.6880002 -1.8667928 0.49889475 0
3.6830003 -1.869946 0.49875045 0
3.6770003 -1.8725237 0.4985773 0
3.6720002 -1.8756387 0.49843299 0
3.6670003 -1.8787359 0.49828869 0
3.6620002 -1.881815 0.49814439 0
3.6590002 -1.8860052 0.49805778 0
3.6550002 -1.8896182 0.49794233 0
3.6530004 -1.8943533 0.49788463 0
3.6510003 -1.899081 0.4978269 0
3.6490002 -1.9038016 0.49776918 0
3.6480002 -1.9090885 0.49774033 0
3.6470003 -1.914372 0.49771148 0
3.9970002 -1.3890778 0.50132447 0
3.9900002 -1.3929397 0.50113511 0
3.9830003 -1.3967764 0.50094569 0
3.9760003 -1.4005878 0.50075626 0
3.9740002 -1.4062771 0.50070214 0
3.9780002 -1.4142535 0.50081038 0
3.9820004 -1.4222444 0.50091863 0
3.9870002 -1.4306357 0.50105393 0
3.9910002 -1.4386572 0.50116217 0
3.9950004 -1.4466933 0.50127035 0
3.9990003 -1.4547435 0.5013786 0
4.0040002 -1.4632015 0.5015139 0
4.0080004 -1.4712827 0.50162214 0
4.0120001 -1.4793782 0.50173032 0
4.0170002 -1.4878867 0.50186563 0
4.0210004 -1.4960129 0.50197387 0
4.026 -1.5045557 0.50210917 0
4.0300002 -1.5127125 0.50221735 0
4.0339999 -1.5208838 0.50232559 0
4.039 -1.5294772 0.5024609 0
4.0430002 -1.537679 0.50256908 0
4.0480003 -1.5463067 0.50270438 0
3.8500001 -1.4959912 0.49734709 0
3.8430002 -1.4992598 0.49715769 0
3.8370004 -1.5029269 0.49699536 0
3.8320003 -1.5069981 0.49686006 0
3.8270001 -1.5110513 0.49672478 0
3.8240004 -1.515945 0.4966436 0
3.8210003 -1.520828 0.49656242 0
3.8190002 -1.5261329 0.49650833 0
3.8170002 -1.5314306 0.49645421 0
3.8160002 -1.5371578 0.49642715 0
3.8160002 -1.5433196 0.49642715 0
3.8160002 -1.5494814 0.49642715 0
3.7680004 -1.5405056 0.49512839 0
3.7620003 -1.5439076 0.49496606 0
3.7560003 -1.5472879 0.49480373 0
3.7500002 -1.5506467 0.49464136 0
3.7430003 -1.5535327 0.494452 0
3.7370002 -1.5568464 0.49428964 0
3.7310002 -1.5601383 0.49412727 0
3.7250001 -1.5634086 0.49396494 0
3.7190003 -1.5666573 0.49380261 0
3.7120004 -1.5694243 0.49361321 0
3.7060003 -1.5726279 0.49345088 0
3.7000003 -1.5758097 0.49328852 0
3.6940002 -1.5789701 0.49312618 0
3.6880002 -1.5821086 0.49296382 0
3.6820002 -1.5852256 0.49280149 0
3.6760004 -1.5883211 0.49263915 0
3.6700003 -1.5913947 0.49247682 0
3.6640003 -1.5944468 0.49231446 0
3.6580002 -1.5974772 0.49215212 0
3.6530004 -1.6009638 0.49201685 0
3.6470003 -1.6039529 0.49185449 0
3.6410003 -1.60692 0.49169216 0
3.6350002 -1.6098657 0.49152982 0
3.6290002 -1.6127896 0.49136746 0
3.6240003 -1.616179 0.49123219 0
3.6180003 -1.6190615 0.49106985 0
3.6120002 -1.6219224 0.49090749 0
3.6060002 -1.6247615 0.49074516 0
3.6010003 -1.6280733 0.49060988 0
3.5950003 -1.6308711 0.49044752 0
3.5890002 -1.6336471 0.49028519 0
3.5840003 -1.6369013 0.49014989 0
3.5780003 -1.6396358 0.48998755 0
3.5730002 -1.6428518 0.48985225 0
3.5670002 -1.6455449 0.48968992 0
3.5620003 -1.6487232 0.48955464 0
3.5560002 -1.6513749 0.48939228 0
3.5510004 -1.6545154 0.48925701 0
3.5460002 -1.6576377 0.48912174 0
3.5420003 -1.6612562 0.48901349 0
3.5390003 -1.6653761 0.48893231 0
3.5360003 -1.6694851 0.48885116 0
3.5330002 -1.6735834 0.48876998 0
3.5310001 -1.678192 0.48871586 0
3.5300002 -1.6833167 0.48868883 0
3.5290003 -1.6884378 0.48866177 0
3.5290003 -1.6940818 0.48866177 0
3.5290003 -1.699726 0.48866177 0
3.5300002 -1.7059004 0.48868883 0
3.5320003 -1.7126106 0.48874292 0
3.5350003 -1.719862 0.4888241 0
3.7370002 -1.8397537 0.49428964 0
3.7310002 -1.842537 0.49412727 0
3.7250001 -1.8452986 0.49396494 0
3.7200003 -1.8485817 0.49382967 0
3.7140002 -1.8513018 0.4936673 0
3.7090003 -1.8545469 0.49353203 0
3.7030003 -1.8572255 0.4933697 0
3.6970003 -1.8598825 0.49320734 0
3.6920002 -1.8630698 0.49307206 0
3.6860003 -1.8656853 0.49290973 0
3.6810002 -1.8688347 0.49277443 0
3.6750002 -1.8714088 0.49261209 0
3.6700003 -1.8745204 0.49247682 0
3.6650002 -1.8776139 0.49234152 0
3.6610003 -1.8812523 0.49223328 0
3.6570003 -1.884876 0.49212506 0
3.6540003 -1.8890519 0.49204388 0
3.6510003 -1.893217 0.49196273 0
3.6490002 -1.8979411 0.49190861 0
3.6480002 -1.90323 0.49188155 0
3.6460001 -1.9079413 0.49182743 0
3.6460001 -1.9137964 0.49182743 0
3.9970002 -1.3890778 0.49483618 0
3.9900002 -1.3929397 0.49465942 0
3.9830003 -1.3967764 0.49448264 0
3.9760003 -1.4005878 0.49430588 0
3.9740002 -1.4062771 0.49425536 0
3.9780002 -1.4142535 0.49435639 0
3.9820004 -1.4222444 0.49445739 0
3.9870002 -1.4306357 0.49458367 0
3.9910002 -1.4386572 0.49468467 0
3.9950004 -1.4466933 0.49478567 0
3.9990003 -1.4547435 0.4948867 0
4.0040002 -1.4632015 0.49501297 0
4.0080004 -1.4712827 0.49511397 0
4.0120001 -1.4793782 0.495215 0
4.0170002 -1.4878867 0.49534124 0
4.0210004 -1.4960129 0.49544227 0
4.026 -1.5045557 0.49556854 0
4.0300002 -1.5127125 0.49566954 0
4.0339999 -1.5208838 0.49577057 0
4.039 -1.5294772 0.49589682 0
4.0430002 -1.537679 0.49599785 0
4.0480003 -1.5463067 0.49612412 0
3.8500001 -1.4959912 0.49112394 0
3.8430002 -1.4992598 0.49094719 0
3.8370004 -1.5029269 0.49079567 0
3.8320003 -1.5069981 0.4906694 0
3.8270001 -1.5110513 0.49054313 0
3.8240004 -1.515945 0.49046737 0
3.8210003 -1.520828 0.49039161 0
3.8190002 -1.5261329 0.4903411 0
3.8170002 -1.5314306 0.49029058 0
3.8160002 -1.5371578 0.49026534 0
3.8160002 -1.5433196 0.49026534 0
3.8160002 -1.5494814 0.49026534 0
3.7670002 -1.540062 0.48902792 0
3.7610002 -1.543462 0.4888764 0
3.7540002 -1.5463932 0.48869962 0
3.7480001 -1.5497483 0.4885481 0
3.7420003 -1.5530819 0.48839658 0
3.7360003 -1.5563936 0.48824507 0
3.7300003 -1.5596837 0.48809355 0
3.7240002 -1.5629523 0.48794204 0
3.7170002 -1.5657409 0.48776525 0
3.7110002 -1.5689644 0.48761374 0
3.7050002 -1.5721661 0.48746222 0
3.6990004 -1.5753462 0.48731071 0
3.6930003 -1.5785047 0.48715919 0
3.6870003 -1.5816416 0.48700768 0
3.6810002 -1.5847567 0.48685613 0
3.6750002 -1.5878502 0.48670462 0
3.6700003 -1.5913947 0.48657835 0
3.6640003 -1.5944468 0.48642683 0
3.6580002 -1.5974772 0.48627532 0
3.6520002 -1.6004858 0.4861238 0
3.6460001 -1.6034729 0.48597229 0
3.6400003 -1.6064385 0.48582077 0
3.6340003 -1.6093823 0.48566923 0
3.6290002 -1.6127896 0.48554295 0
3.6230001 -1.6156919 0.48539144 0
3.6170003 -1.6185727 0.48523992 0
3.6110003 -1.6214317 0.48508841 0
3.6060002 -1.6247615 0.48496214 0
3.6000001 -1.627579 0.48481062 0
3.5940003 -1.630375 0.48465911 0
3.5890002 -1.6336471 0.48453283 0
3.5830002 -1.6364015 0.48438132 0
3.5780003 -1.6396358 0.48425505 0
3.5720003 -1.6423486 0.48410353 0
3.5660002 -1.6450399 0.48395202 0
3.5610003 -1.6482165 0.48382574 0
3.5550003 -1.6508663 0.48367423 0
3.5500002 -1.6540048 0.48354796 0
3.5460002 -1.6576377 0.48344696 0
3.5420003 -1.6612562 0.48334593 0
3.5380003 -1.6648602 0.48324493 0
3.5360003 -1.6694851 0.48319441 0
3.5330002 -1.6735834 0.48311865 0
3.5310001 -1.678192 0.48306814 0
3.5300002 -1.6833167 0.4830429 0
3.5290003 -1.6884378 0.48301762 0
3.5280004 -1.6935552 0.48299238 0
3.5280004 -1.6991975 0.48299238 0
3.5290003 -1.7053701 0.48301762 0
3.5310001 -1.7120785 0.48306814 0
3.5340002 -1.7193279 0.4831439 0
3.7360003 -1.8392162 0.48824507 0
3.7300003 -1.8419977 0.48809355 0
3.7240002 -1.8447576 0.48794204 0
3.7190003 -1.8480387 0.48781577 0
3.7130003 -1.8507571 0.48766425 0
3.7080002 -1.8540002 0.48753798 0
3.7020001 -1.8566771 0.48738647 0
3.6960003 -1.8593324 0.48723495 0
3.6910002 -1.8625178 0.48710868 0
3.6850002 -1.8651316 0.48695716 0
3.6800003 -1.8682792 0.48683089 0
3.6740003 -1.8708515 0.48667938 0
3.6690001 -1.8739612 0.4865531 0
3.6640003 -1.877053 0.48642683 0
3.6600003 -1.8806895 0.48632583 0
3.6560001 -1.8843113 0.4862248 0
3.6530004 -1.8884856 0.48614904 0
3.6510003 -1.893217 0.48609853 0
3.6490002 -1.8979411 0.48604804 0
3.6470003 -1.9026581 0.48599753 0
3.6460001 -1.9079413 0.48597229 0
3.6450002 -1.9132211 0.48594701 0
3.9970002 -1.3890778 0.48834789 0
3.9900002 -1.3929397 0.48818374 0
3.9830003 -1.3967764 0.48801959 0
3.9760003 -1.4005878 0.48785543 0
3.9740002 -1.4062771 0.48780856 0
3.9780002 -1.4142535 0.48790234 0
3.9820004 -1.4222444 0.48799616 0
3.9870002 -1.4306357 0.4881134 0
3.9910002 -1.4386572 0.48820719 0
3.9950004 -1.4466933 0.48830098 0
3.9990003 -1.4547435 0.4883948 0
4.0040002 -1.4632015 0.48851204 0
4.0080004 -1.4712827 0.48860583 0
4.0120001 -1.4793782 0.48869962 0
4.0170002 -1.4878867 0.48881689 0
4.0210004 -1.4960129 0.48891068 0
4.026 -1.5045557 0.48902792 0
4.0300002 -1.5127125 0.48912174 0
4.0339999 -1.5208838 0.48921552 0
4.039 -1.5294772 0.48933277 0
4.0430002 -1.537679 0.48942655 0
4.0480003 -1.5463067 0.48954383 0
3.8500001 -1.4959912 0.48490083 0
3.8430002 -1.4992598 0.48473668 0
3.8370004 -1.5029269 0.48459595 0
3.8320003 -1.5069981 0.48447871 0
3.8270001 -1.5110513 0.48436147 0
3.8240004 -1.515945 0.48429114 0
3.8210003 -1.520828 0.48422077 0
3.8190002 -1.5261329 0.48417389 0
3.8170002 -1.5314306 0.48412699 0
3.8160002 -1.5371578 0.48410353 0
3.8160002 -1.5433196 0.48410353 0
3.8160002 -1.5494814 0.48410353 0
3.7660003 -1.5396183 0.48293105 0
3.7600002 -1.5430166 0.48279035 0
3.7540002 -1.5463932 0.48264965 0
3.7470002 -1.5492991 0.4824855 0
3.7410002 -1.5526308 0.48234481 0
3.7350004 -1.5559409 0.48220414 0
3.7290003 -1.5592293 0.48206341 0
3.7230003 -1.5624958 0.48192272 0
3.7170002 -1.5657409 0.48178202 0
3.7110002 -1.5689644 0.48164135 0
3.7050002 -1.5721661 0.48150063 0
3.6990004 -1.5753462 0.48135996 0
3.6930003 -1.5785047 0.48121923 0
3.6870003 -1.5816416 0.48107854 0
3.6810002 -1.5847567 0.48093784 0
3.6750002 -1.5878502 0.48079714 0
3.6690001 -1.590922 0.48065645 0
3.6630003 -1.5939723 0.48051575 0
3.6570003 -1.597001 0.48037505 0
3.6520002 -1.6004858 0.48025781 0
3.6460001 -1.6034729 0.48011711 0
3.6400003 -1.6064385 0.47997642 0
3.6340003 -1.6093823 0.47983572 0
3.6290002 -1.6127896 0.47971848 0
3.6230001 -1.6156919 0.47957778 0
3.6170003 -1.6185727 0.47943708 0
3.6110003 -1.6214317 0.47929639 0
3.6060002 -1.6247615 0.47917914 0
3.6000001 -1.627579 0.47903845 0
3.5950003 -1.6308711 0.47892118 0
3.5890002 -1.6336471 0.47878051 0
3.5830002 -1.6364015 0.47863978 0
3.5780003 -1.6396358 0.47852254 0
3.5720003 -1.6423486 0.47838187 0
3.5670002 -1.6455449 0.4782646 0
3.5610003 -1.6482165 0.4781239 0
3.5550003 -1.6508663 0.47798321 0
3.5500002 -1.6540048 0.47786596 0
3.5460002 -1.6576377 0.47777218 0
3.5420003 -1.6612562 0.47767836 0
3.5380003 -1.6648602 0.47758457 0
3.5360003 -1.6694851 0.47753766 0
3.5330002 -1.6735834 0.4774673 0
3.5310001 -1.678192 0.47742042 0
3.5300002 -1.6833167 0.47739697 0
3.5290003 -1.6884378 0.47737351 0
3.5280004 -1.6935552 0.47735006 0
3.5280004 -1.6991975 0.47735006 0
3.5290003 -1.7053701 0.47737351 0
3.5310001 -1.7120785 0.47742042 0
3.5340002 -1.7193279 0.47749078 0
3.7350004 -1.8386788 0.48220414 0
3.7290003 -1.8414584 0.48206341 0
3.7240002 -1.8447576 0.48194617 0
3.7180002 -1.8474957 0.48180547 0
3.7130003 -1.8507571 0.48168823 0
3.7070003 -1.8534538 0.48154753 0
3.7020001 -1.8566771 0.48143029 0
3.6960003 -1.8593324 0.4812896 0
3.6910002 -1.8625178 0.48117232 0
3.6850002 -1.8651316 0.48103166 0
3.6800003 -1.8682792 0.48091441 0
3.6740003 -1.8708515 0.48077369 0
3.6690001 -1.8739612 0.48065645 0
3.6640003 -1.877053 0.4805392 0
3.6600003 -1.8806895 0.48044541 0
3.6560001 -1.8843113 0.4803516 0
3.6530004 -1.8884856 0.48028126 0
3.6500003 -1.8926487 0.4802109 0
3.6480002 -1.8973711 0.48016402 0
3.6470003 -1.9026581 0.48014057 0
3.6460001 -1.9079413 0.48011711 0
3.6450002 -1.9132211 0.48009366 0
3.9970002 -1.3890778 0.48185959 0
3.9900002 -1.3929397 0.48170808 0
3.9830003 -1.3967764 0.48155653 0
3.9760003 -1.4005878 0.48140502 0
3.9740002 -1.4062771 0.48136175 0
3.9780002 -1.4142535 0.48144832 0
3.9820004 -1.4222444 0.4815349 0
3.9870002 -1.4306357 0.48164314 0
3.9910002 -1.4386572 0.48172972 0
3.9950004 -1.4466933 0.48181629 0
3.9990003 -1.4547435 0.4819029 0
4.0040002 -1.4632015 0.48201111 0
4.0080004 -1.4712827 0.48209769 0
4.0120001 -1.4793782 0.48218429 0
4.0170002 -1.4878867 0.4822925 0
4.0210004 -1.4960129 0.48237908 0
4.026 -1.5045557 0.48248732 0
4.0300002 -1.5127125 0.4825739 0
4.0339999 -1.5208838 0.48266047 0
4.039 -1.5294772 0.48276871 0
4.0430002 -1.537679 0.48285529 0
4.0480003 -1.5463067 0.48296353 0
3.8500001 -1.4959912 0.47867769 0
3.8430002 -1.4992598 0.47852615 0
3.8370004 -1.5029269 0.4783963 0
3.8320003 -1.5069981 0.47828805 0
3.8270001 -1.5110513 0.47817981 0
3.8240004 -1.515945 0.4781149 0
3.8210003 -1.520828 0.47804993 0
3.8190002 -1.5261329 0.47800666 0
3.8170002 -1.5314306 0.47796336 0
3.8160002 -1.5371578 0.47794172 0
3.8160002 -1.5433196 0.47794172 0
3.8160002 -1.5494814 0.47794172 0
3.7670002 -1.540062 0.47688109 0
3.7600002 -1.5430166 0.47672957 0
3.7540002 -1.5463932 0.47659969 0
3.7480001 -1.5497483 0.47646981 0
3.7420003 -1.5530819 0.47633994 0
3.7360003 -1.5563936 0.47621006 0
3.7300003 -1.5596837 0.47608018 0
3.7240002 -1.5629523 0.4759503 0
3.7180002 -1.5661991 0.47582045 0
3.7120004 -1.5694243 0.47569057 0
3.7050002 -1.5721661 0.47553903 0
3.6990004 -1.5753462 0.47540918 0
3.6940002 -1.5789701 0.47530094 0
3.6880002 -1.5821086 0.47517109 0
3.6820002 -1.5852256 0.47504121 0
3.6760004 -1.5883211 0.47491133 0
3.6700003 -1.5913947 0.47478145 0
3.6640003 -1.5944468 0.47465158 0
3.6580002 -1.5974772 0.4745217 0
3.6520002 -1.6004858 0.47439182 0
3.6460001 -1.6034729 0.47426194 0
3.6410003 -1.60692 0.47415373 0
3.6350002 -1.6098657 0.47402385 0
3.6290002 -1.6127896 0.47389397 0
3.6230001 -1.6156919 0.47376409 0
3.6180003 -1.6190615 0.47365588 0
3.6120002 -1.6219224 0.473526 0
3.6060002 -1.6247615 0.47339612 0
3.6010003 -1.6280733 0.47328788 0
3.5950003 -1.6308711 0.47315803 0
3.5900002 -1.6341449 0.47304979 0
3.5840003 -1.6369013 0.47291994 0
3.5780003 -1.6396358 0.47279006 0
3.5730002 -1.6428518 0.47268182 0
3.5670002 -1.6455449 0.47255194 0
3.5620003 -1.6487232 0.4724437 0
3.5550003 -1.6508663 0.47229218 0
3.5500002 -1.6540048 0.47218397 0
3.5460002 -1.6576377 0.4720974 0
3.5420003 -1.6612562 0.47201079 0
3.5380003 -1.6648602 0.47192422 0
3.5360003 -1.6694851 0.47188091 0
3.5330002 -1.6735834 0.471816 0
3.5310001 -1.678192 0.4717727 0
3.5300002 -1.6833167 0.47175103 0
3.5290003 -1.6884378 0.4717294 0
3.5280004 -1.6935552 0.47170776 0
3.5280004 -1.6991975 0.47170776 0
3.5290003 -1.7053701 0.4717294 0
3.5310001 -1.7120785 0.4717727 0
3.5340002 -1.7193279 0.47183764 0
3.7360003 -1.8392162 0.47621006 0
3.7300003 -1.8419977 0.47608018 0
3.7240002 -1.8447576 0.4759503 0
3.7190003 -1.8480387 0.47584209 0
3.7130003 -1.8507571 0.47571221 0
3.7080002 -1.8540002 0.475604 0
3.7020001 -1.8566771 0.47547412 0
3.6970003 -1.8598825 0.47536588 0
3.6910002 -1.8625178 0.475236 0
3.6860003 -1.8656853 0.47512779 0
3.6800003 -1.8682792 0.47499791 0
3.6740003 -1.8708515 0.47486803 0
3.6690001 -1.8739612 0.47475982 0
3.6640003 -1.877053 0.47465158 0
3.6600003 -1.8806895 0.474565 0
3.6560001 -1.8843113 0.47447839 0
3.6530004 -1.8884856 0.47441348 0
3.6500003 -1.8926487 0.47434855 0
3.6480002 -1.8973711 0.47430524 0
3.6470003 -1.9026581 0.47428361 0
3.6460001 -1.9079413 0.47426194 0
3.6450002 -1.9132211 0.4742403 0
3.9970002 -1.3890778 0.4753713 0
3.9900002 -1.3929397 0.47523239 0
3.9830003 -1.3967764 0.47509351 0
3.9760003 -1.4005878 0.47495461 0
3.9740002 -1.4062771 0.47491494 0
3.9780002 -1.4142535 0.4749943 0
3.9820004 -1.4222444 0.47507367 0
3.9870002 -1.4306357 0.47517288 0
3.9910002 -1.4386572 0.47525224 0
3.9950004 -1.4466933 0.4753316 0
3.9990003 -1.4547435 0.47541097 0
4.0040002 -1.4632015 0.47551018 0
4.0080004 -1.4712827 0.47558957 0
4.0120001 -1.4793782 0.47566891 0
4.0170002 -1.4878867 0.47576815 0
4.0210004 -1.4960129 0.47584748 0
4.026 -1.5045557 0.47594672 0
4.0300002 -1.5127125 0.47602606 0
4.0339999 -1.5208838 0.47610545 0
4.039 -1.5294772 0.47620466 0
4.0430002 -1.537679 0.47628403 0
4.0480003 -1.5463067 0.47638324 0
3.8500001 -1.4959912 0.47245455 0
3.8430002 -1.4992598 0.47231564 0
3.8370004 -1.5029269 0.47219658 0
3.8320003 -1.5069981 0.4720974 0
3.8270001 -1.5110513 0.47199816 0
3.8240004 -1.515945 0.47193864 0
3.8210003 -1.520828 0.47187912 0
3.8190002 -1.5261329 0.47183943 0
3.8170002 -1.5314306 0.47179976 0
3.8160002 -1.5371578 0.47177991 0
3.8160002 -1.5433196 0.47177991 0
3.8160002 -1.5494814 0.47177991 0
3.7680004 -1.5405056 0.47082752 0
3.7620003 -1.5439076 0.47070846 0
3.7550004 -1.5468405 0.47056955 0
3.7490003 -1.5501975 0.47045052 0
3.7430003 -1.5535327 0.47033146 0
3.7370002 -1.5568464 0.4702124 0
3.7310002 -1.5601383 0.47009337 0
3.7250001 -1.5634086 0.46997431 0
3.7190003 -1.5666573 0.46985525 0
3.7130003 -1.5698843 0.46973619 0
3.7070003 -1.5730896 0.46961716 0
3.7010002 -1.5762733 0.4694981 0
3.6950002 -1.5794355 0.46937904 0
3.6890004 -1.5825759 0.46926001 0
3.6830003 -1.5856947 0.46914095 0
3.6770003 -1.5887918 0.46902189 0
3.6710002 -1.5918672 0.46890283 0
3.6650002 -1.5949211 0.4687838 0
3.6600003 -1.5984296 0.46868458 0
3.6540003 -1.6014419 0.46856552 0
3.6480002 -1.6044326 0.46844646 0
3.6420002 -1.6074016 0.46832743 0
3.6370003 -1.6108326 0.46822822 0
3.6310003 -1.6137601 0.46810916 0
3.6250002 -1.6166661 0.4679901 0
3.6190002 -1.6195502 0.46787107 0
3.6140003 -1.6229036 0.46777186 0
3.6080003 -1.6257464 0.4676528 0
3.6020002 -1.6285675 0.46753374 0
3.5970004 -1.6318631 0.46743453 0
3.5910003 -1.6346428 0.4673155 0
3.5860002 -1.6379005 0.46721628 0
3.5800002 -1.6406386 0.46709722 0
3.5750003 -1.6438584 0.46699801 0
3.5690002 -1.6465552 0.46687895 0
3.5620003 -1.6487232 0.46674007 0
3.5550003 -1.6508663 0.46660119 0
3.5500002 -1.6540048 0.46650195 0
3.5460002 -1.6576377 0.46642262 0
3.5420003 -1.6612562 0.46634322 0
3.5380003 -1.6648602 0.46626386 0
3.5360003 -1.6694851 0.46622419 0
3.5330002 -1.6735834 0.46616465 0
3.5310001 -1.678192 0.46612498 0
3.5300002 -1.6833167 0.46610513 0
3.5290003 -1.6884378 0.46608528 0
3.5280004 -1.6935552 0.46606547 0
3.5280004 -1.6991975 0.46606547 0
3.5290003 -1.7053701 0.46608528 0
3.5310001 -1.7120785 0.46612498 0
3.5340002 -1.7193279 0.4661845 0
3.7370002 -1.8397537 0.4702124 0
3.7310002 -1.842537 0.47009337 0
3.7260003 -1.8458399 0.46999413 0
3.7200003 -1.8485817 0.4698751 0
3.7140002 -1.8513018 0.46975604 0
3.7090003 -1.8545469 0.46965683 0
3.7030003 -1.8572255 0.46953779 0
3.6980002 -1.8604326 0.46943855 0
3.6920002 -1.8630698 0.46931952 0
3.6870003 -1.8662392 0.46922031 0
3.6810002 -1.8688347 0.46910125 0
3.6740003 -1.8708515 0.46896237 0
3.6690001 -1.8739612 0.46886316 0
3.6640003 -1.877053 0.46876395 0
3.6600003 -1.8806895 0.46868458 0
3.6560001 -1.8843113 0.46860522 0
3.6530004 -1.8884856 0.46854568 0
3.6500003 -1.8926487 0.46848616 0
3.6480002 -1.8973711 0.46844646 0
3.6470003 -1.9026581 0.46842664 0
3.6460001 -1.9079413 0.4684068 0
3.6450002 -1.9132211 0.46838695 0
3.9970002 -1.3890778 0.46888298 0
3.9900002 -1.3929397 0.46875674 0
3.9830003 -1.3967764 0.46863046 0
3.9760003 -1.4005878 0.46850419 0
3.9740002 -1.4062771 0.46846813 0
3.9780002 -1.4142535 0.46854025 0
3.9820004 -1.4222444 0.46861243 0
3.9870002 -1.4306357 0.46870261 0
3.9910002 -1.4386572 0.46877477 0
3.9950004 -1.4466933 0.46884692 0
3.9990003 -1.4547435 0.46891907 0
4.0040002 -1.4632015 0.46900925 0
4.0080004 -1.4712827 0.4690814 0
4.0120001 -1.4793782 0.46915358 0
4.0170002 -1.4878867 0.46924376 0
4.0210004 -1.4960129 0.46931592 0
4.026 -1.5045557 0.4694061 0
4.0300002 -1.5127125 0.46947825 0
4.0339999 -1.5208838 0.4695504 0
4.039 -1.5294772 0.46964061 0
4.0430002 -1.537679 0.46971273 0
4.0480003 -1.5463067 0.46980295 0
3.8500001 -1.4959912 0.46623141 0
3.8430002 -1.4992598 0.46610513 0
3.8370004 -1.5029269 0.46599692 0
3.8320003 -1.5069981 0.46590671 0
3.8270001 -1.5110513 0.46581653 0
3.8240004 -1.515945 0.46576241 0
3.8210003 -1.520828 0.46570829 0
3.8190002 -1.5261329 0.46567222 0
3.8170002 -1.5314306 0.46563613 0
3.8160002 -1.5371578 0.4656181 0
3.8160002 -1.5433196 0.4656181 0
3.8160002 -1.5494814 0.4656181 0
3.7640002 -1.5447986 0.46468014 0
3.7580004 -1.5481827 0.46457189 0
3.7510002 -1.5510958 0.46444562 0
3.7450004 -1.5544347 0.46433741 0
3.7390003 -1.5577519 0.46422917 0
3.7330003 -1.5610473 0.46412095 0
3.7270002 -1.5643213 0.46401271 0
3.7210002 -1.5675735 0.46390447 0
3.7150002 -1.5708041 0.46379626 0
3.7090003 -1.5740132 0.46368805 0
3.7030003 -1.5772005 0.4635798 0
3.6970003 -1.5803661 0.46347156 0
3.6910002 -1.5835102 0.46336335 0
3.6850002 -1.5866326 0.46325511 0
3.6790001 -1.5897334 0.4631469 0
3.6730003 -1.5928125 0.46303865 0
3.6670003 -1.59587 0.46293044 0
3.6620002 -1.5993819 0.46284023 0
3.6560001 -1.6023979 0.46273202 0
3.6500003 -1.6053922 0.46262378 0
3.6440003 -1.6083649 0.46251556 0
3.6390002 -1.6117992 0.46242535 0
3.6330001 -1.6147305 0.46231714 0
3.6270003 -1.61764 0.46220893 0
3.6220002 -1.6210169 0.46211872 0
3.6160002 -1.6238848 0.46201047 0
3.6100001 -1.6267313 0.46190226 0
3.6050003 -1.6300503 0.46181208 0
3.5990002 -1.6328552 0.46170384 0
3.5940003 -1.6361364 0.46161366 0
3.5880003 -1.6388998 0.46150541 0
3.5820003 -1.6416416 0.4613972 0
3.5770001 -1.6448649 0.46130699 0
3.5690002 -1.6465552 0.46116269 0
3.5620003 -1.6487232 0.46103644 0
3.5550003 -1.6508663 0.46091017 0
3.5500002 -1.6540048 0.46081996 0
3.5460002 -1.6576377 0.46074781 0
3.5420003 -1.6612562 0.46067566 0
3.5380003 -1.6648602 0.46060354 0
3.5360003 -1.6694851 0.46056744 0
3.5330002 -1.6735834 0.46051332 0
3.5310001 -1.678192 0.46047723 0
3.5300002 -1.6833167 0.4604592 0
3.5290003 -1.6884378 0.46044117 0
3.5280004 -1.6935552 0.46042314 0
3.5280004 -1.6991975 0.46042314 0
3.5290003 -1.7053701 0.46044117 0
3.5310001 -1.7120785 0.46047723 0
3.5340002 -1.7193279 0.46053135 0
3.7330003 -1.8436158 0.46412095 0
3.7270002 -1.8463809 0.46401271 0
3.7220004 -1.8496675 0.46392253 0
3.7160003 -1.8523914 0.46381429 0
3.7110002 -1.8556399 0.46372411 0
3.7050002 -1.8583221 0.46361586 0
3.7000003 -1.861533 0.46352568 0
3.6940002 -1.8641738 0.46341747 0
3.6880002 -1.8667928 0.46330923 0
3.6810002 -1.8688347 0.46318296 0
3.6740003 -1.8708515 0.46305668 0
3.6690001 -1.8739612 0.4629665 0
3.6640003 -1.877053 0.46287632 0
3.6600003 -1.8806895 0.46280417 0
3.6560001 -1.8843113 0.46273202 0
3.6530004 -1.8884856 0.4626779 0
3.6500003 -1.8926487 0.46262378 0
3.6480002 -1.8973711 0.46258771 0
3.6470003 -1.9026581 0.46256965 0
3.6460001 -1.9079413 0.46255162 0
3.6450002 -1.9132211 0.46253359 0
3.9970002 -1.3890778 0.46239468 0
3.9900002 -1.3929397 0.46228105 0
3.9830003 -1.3967764 0.46216741 0
3.9760003 -1.4005878 0.46205378 0
3.9740002 -1.4062771 0.46202129 0
3.9780002 -1.4142535 0.46208623 0
3.9820004 -1.4222444 0.46215117 0
3.9870002 -1.4306357 0.46223235 0
3.9910002 -1.4386572 0.46229729 0
3.9950004 -1.4466933 0.46236223 0
3.9990003 -1.4547435 0.46242717 0
4.0040002 -1.4632015 0.46250832 0
4.0080004 -1.4712827 0.46257329 0
4.0120001 -1.4793782 0.4626382 0
4.0170002 -1.4878867 0.46271938 0
4.0210004 -1.4960129 0.46278432 0
4.026 -1.5045557 0.4628655 0
4.0300002 -1.5127125 0.46293044 0
4.0339999 -1.5208838 0.46299535 0
4.039 -1.5294772 0.46307653 0
4.0430002 -1.537679 0.46314147 0
3.8500001 -1.4959912 0.46000826 0
3.8430002 -1.4992598 0.45989463 0
3.8370004 -1.5029269 0.4597972 0
3.8320003 -1.5069981 0.45971605 0
3.8270001 -1.5110513 0.45963487 0
3.8240004 -1.515945 0.45958617 0
3.8210003 -1.520828 0.45953748 0
3.8190002 -1.5261329 0.45950499 0
3.8170002 -1.5314306 0.45947254 0
3.8160002 -1.5371578 0.45945629 0
3.8160002 -1.5433196 0.45945629 0
3.8160002 -1.5494814 0.45945629 0
3.8170002 -1.5560851 0.45947254 0
3.7670002 -1.5461353 0.45866081 0
3.7610002 -1.5495247 0.45856342 0
3.7550004 -1.5528924 0.45846599 0
3.7490003 -1.5562385 0.4583686 0
3.7420003 -1.5591102 0.45825496 0
3.7360003 -1.5624111 0.45815754 0
3.7300003 -1.5656904 0.45806015 0
3.7240002 -1.568948 0.45796275 0
3.7180002 -1.5721841 0.45786533 0
3.7120004 -1.5753986 0.45776793 0
3.7060003 -1.5785913 0.45767051 0
3.7000003 -1.5817623 0.45757312 0
3.6940002 -1.5849118 0.45747572 0
3.6890004 -1.5885086 0.45739454 0
3.6830003 -1.5916165 0.45729715 0
3.6770003 -1.5947028 0.45719972 0
3.6710002 -1.5977675 0.45710233 0
3.6650002 -1.6008105 0.4570049 0
3.6590002 -1.6038319 0.45690751 0
3.6540003 -1.6073115 0.45682633 0
3.6480002 -1.6102914 0.45672894 0
3.6420002 -1.6132495 0.45663154 0
3.6360002 -1.6161861 0.45653412 0
3.6310003 -1.6195883 0.45645297 0
3.6250002 -1.6224833 0.45635554 0
3.6190002 -1.6253568 0.45625815 0
3.6140003 -1.6287011 0.45617697 0
3.6080003 -1.631533 0.45607957 0
3.6020002 -1.6343434 0.45598215 0
3.5970004 -1.63763 0.455901 0
3.5910003 -1.6403987 0.45580357 0
3.5860002 -1.6436473 0.45572242 0
3.5790002 -1.6458715 0.45560879 0
3.5690002 -1.6465552 0.45544642 0
3.5620003 -1.6487232 0.45533279 0
3.5550003 -1.6508663 0.45521915 0
3.5500002 -1.6540048 0.45513797 0
3.5460002 -1.6576377 0.45507303 0
3.5420003 -1.6612562 0.45500809 0
3.5380003 -1.6648602 0.45494318 0
3.5360003 -1.6694851 0.4549107 0
3.5330002 -1.6735834 0.454862 0
3.5310001 -1.678192 0.45482951 0
3.5300002 -1.6833167 0.4548133 0
3.5290003 -1.6884378 0.45479706 0
3.5280004 -1.6935552 0.45478082 0
3.5280004 -1.6991975 0.45478082 0
3.5290003 -1.7053701 0.45479706 0
3.5310001 -1.7120785 0.45482951 0
3.5340002 -1.7193279 0.45487824 0
3.7360003 -1.8452338 0.45815754 0
3.7310002 -1.8485456 0.45807639 0
3.7250001 -1.8512963 0.45797896 0
3.7190003 -1.8540256 0.45788157 0
3.7140002 -1.8572795 0.45780039 0
3.7080002 -1.8599672 0.45770299 0
3.7030003 -1.8631835 0.45762181 0
3.6970003 -1.8658297 0.45752442 0
3.6880002 -1.8667928 0.4573783 0
3.6810002 -1.8688347 0.45726466 0
3.6740003 -1.8708515 0.45715103 0
3.6690001 -1.8739612 0.45706984 0
3.6640003 -1.877053 0.45698869 0
3.6600003 -1.8806895 0.45692375 0
3.6560001 -1.8843113 0.45685881 0
3.6530004 -1.8884856 0.45681012 0
3.6500003 -1.8926487 0.45676142 0
3.6480002 -1.8973711 0.45672894 0
3.6470003 -1.9026581 0.45671269 0
3.6460001 -1.9079413 0.45669645 0
3.6450002 -1.9132211 0.45668024 0
3.9970002 -1.3890778 0.45590639 0
3.9900002 -1.3929397 0.45580539 0
3.9830003 -1.3967764 0.45570436 0
3.9760003 -1.4005878 0.45560336 0
3.9740002 -1.4062771 0.45557451 0
3.9780002 -1.4142535 0.45563221 0
3.9820004 -1.4222444 0.45568994 0
3.9870002 -1.4306357 0.45576209 0
3.9910002 -1.4386572 0.45581982 0
3.9950004 -1.4466933 0.45587754 0
3.9990003 -1.4547435 0.45593527 0
4.0040002 -1.4632015 0.45600742 0
4.0080004 -1.4712827 0.45606515 0
