# .PCD v0.7 - Point Cloud Data file format
VERSION 0.7
FIELDS x y z intensity
SIZE 4 4 4 4
TYPE F F F F
COUNT 1 1 1 1
WIDTH 1462
HEIGHT 1
VIEWPOINT 0 0 0 1 0 0 0
POINTS 1462
DATA ascii
4.3170004 -2.2928343 1.8736277 0
5.1390004 -1.2256582 2.1734872 0
5.1330004 -1.232702 2.171247 0
5.1280003 -1.2399768 2.1693799 0
5.1220002 -1.2469791 2.1671395 0
5.1170001 -1.254216 2.1652725 0
5.1110005 -1.2611769 2.1630323 0
5.1060004 -1.268376 2.1611655 0
5.1000004 -1.2752954 2.1589251 0
5.0950003 -1.2824564 2.157058 0
5.0900002 -1.2895994 2.1551912 0
5.0840001 -1.2964575 2.1529508 0
5.0790005 -1.3035629 2.1510839 0
5.0730004 -1.3103795 2.1488435 0
5.0680003 -1.3174467 2.1469767 0
5.0630002 -1.3244959 2.1451097 0
5.0570002 -1.3312511 2.1428692 0
5.0520005 -1.3382628 2.1410024 0
5.0470004 -1.345256 2.1391356 0
5.0410004 -1.3519499 2.1368952 0
5.0360003 -1.3589054 2.1350281 0
5.0310001 -1.3658428 2.1331611 0
5.0250001 -1.3724754 2.1309209 0
5.0200005 -1.3793751 2.1290541 0
5.0150003 -1.3862566 2.127187 0
5.0100002 -1.3931201 2.12532 0
5.0050001 -1.3999654 2.1234529 0
4.9990005 -1.4064972 2.121213 0
4.9940004 -1.4133047 2.1193459 0
4.9890003 -1.4200943 2.1174788 0
4.9840002 -1.4268657 2.1156118 0
4.9790001 -1.433619 2.113745 0
4.9730005 -1.4400499 2.1115048 0
4.9680004 -1.4467654 2.1096377 0
4.9630003 -1.4534628 2.1077707 0
4.9580002 -1.4601424 2.1059039 0
4.9530005 -1.4668039 2.104037 0
4.9480004 -1.4734473 2.10217 0
4.9430003 -1.4800726 2.1003032 0
4.9380002 -1.4866799 2.0984361 0
4.9330001 -1.4932692 2.0965691 0
4.9280005 -1.4998406 2.0947022 0
4.9230003 -1.5063939 2.0928352 0
4.9180002 -1.5129291 2.0909684 0
4.9130001 -1.5194461 2.0891013 0
4.9080005 -1.5259453 2.0872345 0
4.9030004 -1.5324265 2.0853674 0
4.8980002 -1.5388894 2.0835006 0
4.8930001 -1.5453343 2.0816336 0
4.8880005 -1.5517614 2.0797668 0
4.8830004 -1.5581703 2.0778999 0
4.8780003 -1.5645611 2.0760329 0
4.8730001 -1.5709341 2.0741658 0
4.8680005 -1.577289 2.072299 0
4.8630004 -1.5836257 2.0704319 0
4.8580003 -1.5899444 2.0685651 0
4.8530002 -1.5962451 2.0666981 0
4.8480005 -1.6025279 2.0648313 0
4.8430004 -1.6087924 2.0629642 0
4.8390002 -1.6153924 2.0614707 0
4.8340001 -1.6216228 2.0596037 0
4.8290005 -1.6278353 2.0577369 0
4.8240004 -1.6340295 2.0558698 0
4.8190002 -1.6402057 2.0540028 0
4.8140001 -1.6463639 2.0521359 0
4.8100004 -1.6528685 2.0506425 0
4.8050003 -1.6589924 2.0487754 0
4.8000002 -1.6650983 2.0469086 0
4.7950001 -1.671186 2.0450416 0
4.7910004 -1.6776276 2.0435481 0
4.7860003 -1.6836811 2.0416811 0
4.7810001 -1.6897166 2.039814 0
4.7760005 -1.6957343 2.0379472 0
4.7720003 -1.7021124 2.0364537 0
4.7670002 -1.7080956 2.0345867 0
4.7620001 -1.7140608 2.0327196 0
4.7580004 -1.7203923 2.0312264 0
4.7530003 -1.7263231 2.0293593 0
4.7480001 -1.7322359 2.0274923 0
4.7440004 -1.7385205 2.0259988 0
4.7390003 -1.7443991 2.0241318 0
4.7340002 -1.7502596 2.0222647 0
4.7300005 -1.7564973 2.0207713 0
4.7250004 -1.7623236 2.0189044 0
4.7210002 -1.7685305 2.0174108 0
4.7160001 -1.7743224 2.0155437 0
4.7110004 -1.7800965 2.0136771 0
4.7070003 -1.7862566 2.0121834 0
4.7020001 -1.7919961 2.0103164 0
4.6980004 -1.7981256 2.0088229 0
4.6930003 -1.803831 2.0069561 0
4.6890001 -1.8099296 2.0054624 0
4.6840005 -1.8156009 2.0035956 0
4.6800003 -1.8216687 2.0021019 0
4.6750002 -1.8273057 2.0002351 0
4.6710005 -1.8333431 1.9987416 0
4.6660004 -1.8389457 1.9968746 0
4.6620002 -1.8449523 1.9953809 0
4.6570001 -1.8505207 1.9935139 0
4.6530004 -1.8564968 1.9920205 0
4.6480002 -1.8620309 1.9901536 0
4.6440005 -1.8679763 1.9886601 0
4.6390004 -1.873476 1.9867932 0
4.6350002 -1.8793906 1.9852995 0
4.6310005 -1.885291 1.983806 0
4.6260004 -1.8907403 1.9819391 0
4.6220002 -1.8966098 1.9804455 0
4.6170001 -1.9020247 1.9785784 0
4.6130004 -1.9078639 1.977085 0
4.6090002 -1.9136883 1.9755913 0
4.6040001 -1.9190526 1.9737245 0
4.6000004 -1.9248468 1.972231 0
4.5960002 -1.9306262 1.9707373 0
4.5910001 -1.93594 1.9688703 0
4.5870004 -1.9416888 1.9673768 0
4.5830002 -1.947423 1.9658834 0
4.5780001 -1.9526864 1.9640163 0
4.5740004 -1.9583902 1.9625229 0
4.5700002 -1.9640794 1.9610292 0
4.5660005 -1.9697543 1.9595357 0
4.5610003 -1.974951 1.9576688 0
4.5570002 -1.980595 1.9561752 0
4.5530005 -1.9862249 1.9546818 0
4.5490003 -1.99184 1.9531881 0
4.5440001 -1.9969701 1.9513211 0
4.5400004 -2.0025547 1.9498277 0
4.5360003 -2.0081248 1.9483341 0
4.5320001 -2.0136805 1.9468404 0
4.5280004 -2.0192218 1.945347 0
4.5230002 -2.0242689 1.94348 0
4.5190001 -2.0297794 1.9419864 0
4.5150003 -2.0352757 1.940493 0
4.5110002 -2.0407574 1.9389993 0
4.5070004 -2.0462251 1.9375058 0
4.5030003 -2.0516779 1.9360123 0
4.4980001 -2.0566256 1.9341452 0
4.4940004 -2.062048 1.9326518 0
4.4900002 -2.0674558 1.9311582 0
4.4860001 -2.072849 1.9296646 0
4.4820004 -2.0782282 1.9281712 0
4.4780002 -2.0835927 1.9266775 0
4.4740005 -2.0889428 1.925184 0
4.4700003 -2.0942783 1.9236904 0
4.4660001 -2.0995994 1.9221967 0
4.4620004 -2.1049066 1.9207033 0
4.4570003 -2.1096902 1.9188364 0
4.4530001 -2.1149662 1.9173428 0
4.4490004 -2.1202278 1.9158493 0
4.4450002 -2.1254752 1.9143556 0
4.4410005 -2.1307082 1.9128622 0
4.4370003 -2.1359265 1.9113686 0
4.4330001 -2.1411304 1.909875 0
4.4290004 -2.1463201 1.9083816 0
4.4250002 -2.151495 1.906888 0
4.4210005 -2.156656 1.9053946 0
4.4170003 -2.1618023 1.9039009 0
4.4130001 -2.1669338 1.9024072 0
4.4090004 -2.1720514 1.9009137 0
4.4060001 -2.1776865 1.8997935 0
4.4020004 -2.1827767 1.8983001 0
4.3980002 -2.1878526 1.8968065 0
4.3940001 -2.1929142 1.8953129 0
4.3900003 -2.1979613 1.8938195 0
4.3860002 -2.2029939 1.8923259 0
4.382 -2.2080121 1.8908323 0
4.3780003 -2.2130158 1.8893387 0
4.3740001 -2.2180052 1.8878452 0
4.3700004 -2.2229803 1.8863516 0
4.3660002 -2.2279406 1.884858 0
4.3630004 -2.2334387 1.8837379 0
4.3590002 -2.2383721 1.8822442 0
4.355 -2.2432909 1.8807508 0
4.3510003 -2.2481954 1.8792573 0
4.3470001 -2.2530856 1.8777637 0
4.3429999 -2.2579613 1.8762701 0
4.3400002 -2.2633855 1.8751501 0
4.336 -2.268234 1.8736564 0
4.3320003 -2.2730682 1.8721628 0
4.3280001 -2.2778881 1.8706694 0
4.3240004 -2.2826934 1.8691758 0
4.3210001 -2.2880561 1.8680556 0
4.3170004 -2.2928343 1.866562 0
5.1390004 -1.2256582 2.1649389 0
5.1330004 -1.232702 2.1627095 0
5.1280003 -1.2399768 2.1608515 0
5.1220002 -1.2469791 2.158622 0
5.1170001 -1.254216 2.156764 0
5.1110005 -1.2611769 2.1545346 0
5.1060004 -1.268376 2.1526768 0
5.1000004 -1.2752954 2.1504471 0
5.0950003 -1.2824564 2.1485891 0
5.0900002 -1.2895994 2.1467311 0
5.0840001 -1.2964575 2.1445017 0
5.0790005 -1.3035629 2.1426439 0
5.0730004 -1.3103795 2.1404145 0
5.0680003 -1.3174467 2.1385565 0
5.0630002 -1.3244959 2.1366985 0
5.0570002 -1.3312511 2.134469 0
5.0520005 -1.3382628 2.132611 0
5.0470004 -1.345256 2.130753 0
5.0410004 -1.3519499 2.1285236 0
5.0360003 -1.3589054 2.1266658 0
5.0310001 -1.3658428 2.1248078 0
5.0250001 -1.3724754 2.1225781 0
5.0200005 -1.3793751 2.1207204 0
5.0150003 -1.3862566 2.1188624 0
5.0100002 -1.3931201 2.1170044 0
5.0050001 -1.3999654 2.1151464 0
4.9990005 -1.4064972 2.1129172 0
4.9940004 -1.4133047 2.1110592 0
4.9890003 -1.4200943 2.1092012 0
4.9840002 -1.4268657 2.1073432 0
4.9790001 -1.433619 2.1054852 0
4.9730005 -1.4400499 2.103256 0
4.9680004 -1.4467654 2.101398 0
4.9630003 -1.4534628 2.09954 0
4.9580002 -1.4601424 2.097682 0
4.9530005 -1.4668039 2.0958242 0
4.9480004 -1.4734473 2.0939662 0
4.9430003 -1.4800726 2.0921082 0
4.9380002 -1.4866799 2.0902503 0
4.9330001 -1.4932692 2.0883923 0
4.9280005 -1.4998406 2.0865347 0
4.9230003 -1.5063939 2.0846767 0
4.9180002 -1.5129291 2.0828187 0
4.9130001 -1.5194461 2.0809608 0
4.9080005 -1.5259453 2.079103 0
4.9030004 -1.5324265 2.077245 0
4.8980002 -1.5388894 2.075387 0
4.8930001 -1.5453343 2.073529 0
4.8880005 -1.5517614 2.0716712 0
4.8830004 -1.5581703 2.0698133 0
4.8780003 -1.5645611 2.0679553 0
4.8730001 -1.5709341 2.0660973 0
4.8680005 -1.577289 2.0642395 0
4.8630004 -1.5836257 2.0623815 0
4.8580003 -1.5899444 2.0605235 0
4.8530002 -1.5962451 2.0586658 0
4.8480005 -1.6025279 2.056808 0
4.8430004 -1.6087924 2.05495 0
4.8390002 -1.6153924 2.0534635 0
4.8340001 -1.6216228 2.0516055 0
4.8290005 -1.6278353 2.0497477 0
4.8240004 -1.6340295 2.0478897 0
4.8190002 -1.6402057 2.046032 0
4.8140001 -1.6463639 2.044174 0
4.8100004 -1.6528685 2.0426877 0
4.8050003 -1.6589924 2.0408297 0
4.8000002 -1.6650983 2.0389717 0
4.7950001 -1.671186 2.0371137 0
4.7910004 -1.6776276 2.0356276 0
4.7860003 -1.6836811 2.0337696 0
4.7810001 -1.6897166 2.0319116 0
4.7760005 -1.6957343 2.0300539 0
4.7720003 -1.7021124 2.0285673 0
4.7670002 -1.7080956 2.0267096 0
4.7620001 -1.7140608 2.0248516 0
4.7580004 -1.7203923 2.0233653 0
4.7530003 -1.7263231 2.0215073 0
4.7480001 -1.7322359 2.0196493 0
4.7440004 -1.7385205 2.0181632 0
4.7390003 -1.7443991 2.0163052 0
4.7340002 -1.7502596 2.0144472 0
4.7300005 -1.7564973 2.0129609 0
4.7250004 -1.7623236 2.0111029 0
4.7210002 -1.7685305 2.0096166 0
4.7160001 -1.7743224 2.0077586 0
4.7110004 -1.7800965 2.0059009 0
4.7070003 -1.7862566 2.0044143 0
4.7020001 -1.7919961 2.0025566 0
4.6980004 -1.7981256 2.0010703 0
4.6930003 -1.803831 1.9992123 0
4.6890001 -1.8099296 1.9977258 0
4.6840005 -1.8156009 1.9958681 0
4.6800003 -1.8216687 1.9943817 0
4.6750002 -1.8273057 1.9925238 0
4.6710005 -1.8333431 1.9910375 0
4.6660004 -1.8389457 1.9891796 0
4.6620002 -1.8449523 1.9876932 0
4.6570001 -1.8505207 1.9858352 0
4.6530004 -1.8564968 1.9843489 0
4.6480002 -1.8620309 1.9824909 0
4.6440005 -1.8679763 1.9810047 0
4.6390004 -1.873476 1.9791467 0
4.6350002 -1.8793906 1.9776604 0
4.6310005 -1.885291 1.9761741 0
4.6260004 -1.8907403 1.9743162 0
4.6220002 -1.8966098 1.9728298 0
4.6170001 -1.9020247 1.9709718 0
4.6130004 -1.9078639 1.9694855 0
4.6090002 -1.9136883 1.9679991 0
4.6040001 -1.9190526 1.9661412 0
4.6000004 -1.9248468 1.964655 0
4.5960002 -1.9306262 1.9631686 0
4.5910001 -1.93594 1.9613106 0
4.5870004 -1.9416888 1.9598243 0
4.5830002 -1.947423 1.9583379 0
4.5780001 -1.9526864 1.9564799 0
4.5740004 -1.9583902 1.9549937 0
4.5700002 -1.9640794 1.9535073 0
4.5660005 -1.9697543 1.952021 0
4.5610003 -1.974951 1.9501632 0
4.5570002 -1.980595 1.9486768 0
4.5530005 -1.9862249 1.9471905 0
4.5490003 -1.99184 1.9457041 0
4.5440001 -1.9969701 1.9438461 0
4.5400004 -2.0025547 1.9423599 0
4.5360003 -2.0081248 1.9408735 0
4.5320001 -2.0136805 1.9393871 0
4.5280004 -2.0192218 1.9379009 0
4.5230002 -2.0242689 1.9360429 0
4.5190001 -2.0297794 1.9345565 0
4.5150003 -2.0352757 1.9330703 0
4.5110002 -2.0407574 1.9315839 0
4.5070004 -2.0462251 1.9300976 0
4.5030003 -2.0516779 1.9286112 0
4.4980001 -2.0566256 1.9267532 0
4.4940004 -2.062048 1.925267 0
4.4900002 -2.0674558 1.9237807 0
4.4860001 -2.072849 1.9222943 0
4.4820004 -2.0782282 1.920808 0
4.4780002 -2.0835927 1.9193215 0
4.4740005 -2.0889428 1.9178354 0
4.4700003 -2.0942783 1.9163489 0
4.4660001 -2.0995994 1.9148625 0
4.4620004 -2.1049066 1.9133762 0
4.4570003 -2.1096902 1.9115183 0
4.4530001 -2.1149662 1.9100319 0
4.4490004 -2.1202278 1.9085457 0
4.4450002 -2.1254752 1.9070593 0
4.4410005 -2.1307082 1.905573 0
4.4370003 -2.1359265 1.9040866 0
4.4330001 -2.1411304 1.9026002 0
4.4290004 -2.1463201 1.901114 0
4.4250002 -2.151495 1.8996276 0
4.4210005 -2.156656 1.8981413 0
4.4170003 -2.1618023 1.896655 0
4.4130001 -2.1669338 1.8951685 0
4.4090004 -2.1720514 1.8936824 0
4.4060001 -2.1776865 1.8925675 0
4.4020004 -2.1827767 1.8910812 0
4.3980002 -2.1878526 1.8895948 0
4.3940001 -2.1929142 1.8881085 0
4.3900003 -2.1979613 1.8866222 0
4.3860002 -2.2029939 1.8851359 0
4.382 -2.2080121 1.8836496 0
4.3780003 -2.2130158 1.8821632 0
4.3740001 -2.2180052 1.8806769 0
4.3700004 -2.2229803 1.8791906 0
4.3660002 -2.2279406 1.8777041 0
4.3630004 -2.2334387 1.8765894 0
4.3590002 -2.2383721 1.875103 0
4.355 -2.2432909 1.8736167 0
4.3510003 -2.2481954 1.8721304 0
4.3470001 -2.2530856 1.8706441 0
4.3429999 -2.2579613 1.8691577 0
4.3400002 -2.2633855 1.8680431 0
4.336 -2.268234 1.8665566 0
4.3320003 -2.2730682 1.8650702 0
4.3280001 -2.2778881 1.8635839 0
4.3240004 -2.2826934 1.8620976 0
4.3210001 -2.2880561 1.8609829 0
4.3170004 -2.2928343 1.8594965 0
5.1390004 -1.2256582 2.1563907 0
5.1330004 -1.232702 2.1541719 0
5.1280003 -1.2399768 2.152323 0
5.1220002 -1.2469791 2.1501043 0
5.1170001 -1.254216 2.1482553 0
5.1110005 -1.2611769 2.1460369 0
5.1060004 -1.268376 2.1441879 0
5.1000004 -1.2752954 2.1419692 0
5.0950003 -1.2824564 2.1401203 0
5.0900002 -1.2895994 2.1382713 0
5.0840001 -1.2964575 2.1360526 0
5.0790005 -1.3035629 2.1342039 0
5.0730004 -1.3103795 2.1319852 0
5.0680003 -1.3174467 2.1301363 0
5.0630002 -1.3244959 2.1282873 0
5.0570002 -1.3312511 2.1260686 0
5.0520005 -1.3382628 2.1242199 0
5.0470004 -1.345256 2.122371 0
5.0410004 -1.3519499 2.1201522 0
5.0360003 -1.3589054 2.1183033 0
5.0310001 -1.3658428 2.1164541 0
5.0250001 -1.3724754 2.1142356 0
5.0200005 -1.3793751 2.1123869 0
5.0150003 -1.3862566 2.110538 0
5.0100002 -1.3931201 2.1086891 0
5.0050001 -1.3999654 2.1068399 0
4.9990005 -1.4064972 2.1046214 0
4.9940004 -1.4133047 2.1027725 0
4.9890003 -1.4200943 2.1009235 0
4.9840002 -1.4268657 2.0990746 0
4.9790001 -1.433619 2.0972257 0
4.9730005 -1.4400499 2.0950072 0
4.9680004 -1.4467654 2.0931582 0
4.9630003 -1.4534628 2.0913093 0
4.9580002 -1.4601424 2.0894604 0
4.9530005 -1.4668039 2.0876117 0
4.9480004 -1.4734473 2.0857627 0
4.9430003 -1.4800726 2.0839136 0
4.9380002 -1.4866799 2.0820646 0
4.9330001 -1.4932692 2.0802157 0
4.9280005 -1.4998406 2.078367 0
4.9230003 -1.5063939 2.0765181 0
4.9180002 -1.5129291 2.0746691 0
4.9130001 -1.5194461 2.0728202 0
4.9080005 -1.5259453 2.0709715 0
4.9030004 -1.5324265 2.0691226 0
4.8980002 -1.5388894 2.0672734 0
4.8930001 -1.5453343 2.0654244 0
4.8880005 -1.5517614 2.0635757 0
4.8830004 -1.5581703 2.0617268 0
4.8780003 -1.5645611 2.0598779 0
4.8730001 -1.5709341 2.0580289 0
4.8680005 -1.577289 2.0561802 0
4.8630004 -1.5836257 2.0543313 0
4.8580003 -1.5899444 2.0524821 0
4.8530002 -1.5962451 2.0506332 0
4.8480005 -1.6025279 2.0487845 0
4.8430004 -1.6087924 2.0469356 0
4.8390002 -1.6153924 2.0454564 0
4.8340001 -1.6216228 2.0436075 0
4.8290005 -1.6278353 2.0417588 0
4.8240004 -1.6340295 2.0399098 0
4.8190002 -1.6402057 2.0380609 0
4.8140001 -1.6463639 2.036212 0
4.8100004 -1.6528685 2.0347328 0
4.8050003 -1.6589924 2.0328839 0
4.8000002 -1.6650983 2.0310349 0
4.7950001 -1.671186 2.029186 0
4.7910004 -1.6776276 2.0277069 0
4.7860003 -1.6836811 2.0258579 0
4.7810001 -1.6897166 2.024009 0
4.7760005 -1.6957343 2.0221603 0
4.7720003 -1.7021124 2.0206811 0
4.7670002 -1.7080956 2.0188322 0
4.7620001 -1.7140608 2.0169833 0
4.7580004 -1.7203923 2.0155044 0
4.7530003 -1.7263231 2.0136554 0
4.7480001 -1.7322359 2.0118065 0
4.7440004 -1.7385205 2.0103273 0
4.7390003 -1.7443991 2.0084784 0
4.7340002 -1.7502596 2.0066295 0
4.7300005 -1.7564973 2.0051506 0
4.7250004 -1.7623236 2.0033014 0
4.7210002 -1.7685305 2.0018222 0
4.7160001 -1.7743224 1.9999734 0
4.7110004 -1.7800965 1.9981246 0
4.7070003 -1.7862566 1.9966455 0
4.7020001 -1.7919961 1.9947965 0
4.6980004 -1.7981256 1.9933175 0
4.6930003 -1.803831 1.9914685 0
4.6890001 -1.8099296 1.9899893 0
4.6840005 -1.8156009 1.9881406 0
4.6800003 -1.8216687 1.9866613 0
4.6750002 -1.8273057 1.9848124 0
4.6710005 -1.8333431 1.9833333 0
4.6660004 -1.8389457 1.9814844 0
4.6620002 -1.8449523 1.9800053 0
4.6570001 -1.8505207 1.9781563 0
4.6530004 -1.8564968 1.9766773 0
4.6480002 -1.8620309 1.9748284 0
4.6440005 -1.8679763 1.9733493 0
4.6390004 -1.873476 1.9715004 0
4.6350002 -1.8793906 1.9700212 0
4.6310005 -1.885291 1.9685422 0
4.6260004 -1.8907403 1.9666933 0
4.6220002 -1.8966098 1.965214 0
4.6180005 -1.9024652 1.963735 0
4.6130004 -1.9078639 1.961886 0
4.6090002 -1.9136883 1.9604069 0
4.6040001 -1.9190526 1.958558 0
4.6000004 -1.9248468 1.9570789 0
4.5960002 -1.9306262 1.9555997 0
4.5910001 -1.93594 1.9537507 0
4.5870004 -1.9416888 1.9522718 0
4.5830002 -1.947423 1.9507927 0
4.5780001 -1.9526864 1.9489436 0
4.5740004 -1.9583902 1.9474646 0
4.5700002 -1.9640794 1.9459856 0
4.5660005 -1.9697543 1.9445065 0
4.5610003 -1.974951 1.9426576 0
4.5570002 -1.980595 1.9411783 0
4.5530005 -1.9862249 1.9396993 0
4.5490003 -1.99184 1.9382201 0
4.5440001 -1.9969701 1.9363712 0
4.5400004 -2.0025547 1.9348922 0
4.5360003 -2.0081248 1.9334129 0
4.5320001 -2.0136805 1.9319338 0
4.5280004 -2.0192218 1.9304547 0
4.5230002 -2.0242689 1.9286058 0
4.5190001 -2.0297794 1.9271266 0
4.5150003 -2.0352757 1.9256476 0
4.5110002 -2.0407574 1.9241683 0
4.5070004 -2.0462251 1.9226893 0
4.5030003 -2.0516779 1.9212102 0
4.4980001 -2.0566256 1.9193612 0
4.4940004 -2.062048 1.9178822 0
4.4900002 -2.0674558 1.9164031 0
4.4860001 -2.072849 1.9149239 0
4.4820004 -2.0782282 1.9134449 0
4.4780002 -2.0835927 1.9119656 0
4.4740005 -2.0889428 1.9104866 0
4.4700003 -2.0942783 1.9090074 0
4.4660001 -2.0995994 1.9075282 0
4.4620004 -2.1049066 1.9060493 0
4.4580002 -2.1101987 1.90457 0
4.4530001 -2.1149662 1.902721 0
4.4490004 -2.1202278 1.901242 0
4.4450002 -2.1254752 1.8997629 0
4.4410005 -2.1307082 1.8982838 0
4.4370003 -2.1359265 1.8968047 0
4.4330001 -2.1411304 1.8953255 0
4.4290004 -2.1463201 1.8938465 0
4.4250002 -2.151495 1.8923672 0
4.4210005 -2.156656 1.8908882 0
4.4170003 -2.1618023 1.8894091 0
4.4130001 -2.1669338 1.8879298 0
4.4090004 -2.1720514 1.8864508 0
4.4060001 -2.1776865 1.8853414 0
4.4020004 -2.1827767 1.8838625 0
4.3980002 -2.1878526 1.8823832 0
4.3940001 -2.1929142 1.8809041 0
4.3900003 -2.1979613 1.879425 0
4.3860002 -2.2029939 1.8779459 0
4.382 -2.2080121 1.8764666 0
4.3780003 -2.2130158 1.8749876 0
4.3740001 -2.2180052 1.8735085 0
4.3700004 -2.2229803 1.8720294 0
4.3660002 -2.2279406 1.8705503 0
4.3630004 -2.2334387 1.8694409 0
4.3590002 -2.2383721 1.8679618 0
4.355 -2.2432909 1.8664826 0
4.3510003 -2.2481954 1.8650035 0
4.3470001 -2.2530856 1.8635244 0
4.3429999 -2.2579613 1.8620453 0
4.3400002 -2.2633855 1.860936 0
4.336 -2.268234 1.8594568 0
4.3320003 -2.2730682 1.8579777 0
4.3280001 -2.2778881 1.8564986 0
4.3240004 -2.2826934 1.8550195 0
4.3210001 -2.2880561 1.8539102 0
4.3170004 -2.2928343 1.8524311 0
5.1390004 -1.2256582 2.1478424 0
5.1330004 -1.232702 2.1456347 0
5.1280003 -1.2399768 2.1437945 0
5.1220002 -1.2469791 2.1415868 0
5.1170001 -1.254216 2.1397469 0
5.1110005 -1.2611769 2.1375391 0
5.1060004 -1.268376 2.1356993 0
5.1000004 -1.2752954 2.1334913 0
5.0950003 -1.2824564 2.1316514 0
5.0900002 -1.2895994 2.1298115 0
5.0840001 -1.2964575 2.1276035 0
5.0790005 -1.3035629 2.1257639 0
5.0730004 -1.3103795 2.1235559 0
5.0680003 -1.3174467 2.121716 0
5.0630002 -1.3244959 2.1198761 0
5.0570002 -1.3312511 2.1176682 0
5.0520005 -1.3382628 2.1158285 0
5.0470004 -1.345256 2.1139886 0
5.0410004 -1.3519499 2.1117806 0
5.0360003 -1.3589054 2.1099408 0
5.0310001 -1.3658428 2.1081009 0
5.0250001 -1.3724754 2.1058929 0
5.0200005 -1.3793751 2.1040533 0
5.0150003 -1.3862566 2.1022131 0
5.0100002 -1.3931201 2.1003733 0
5.0050001 -1.3999654 2.0985334 0
4.9990005 -1.4064972 2.0963259 0
4.9940004 -1.4133047 2.0944858 0
4.9890003 -1.4200943 2.0926459 0
4.9840002 -1.4268657 2.090806 0
4.9790001 -1.433619 2.0889661 0
4.9730005 -1.4400499 2.0867584 0
4.9680004 -1.4467654 2.0849185 0
4.9630003 -1.4534628 2.0830784 0
4.9580002 -1.4601424 2.0812385 0
4.9530005 -1.4668039 2.0793989 0
4.9480004 -1.4734473 2.0775588 0
4.9430003 -1.4800726 2.0757189 0
4.9380002 -1.4866799 2.073879 0
4.9330001 -1.4932692 2.0720391 0
4.9280005 -1.4998406 2.0701995 0
4.9230003 -1.5063939 2.0683594 0
4.9180002 -1.5129291 2.0665195 0
4.9130001 -1.5194461 2.0646796 0
4.9080005 -1.5259453 2.0628397 0
4.9030004 -1.5324265 2.0609999 0
4.8980002 -1.5388894 2.05916 0
4.8930001 -1.5453343 2.0573201 0
4.8880005 -1.5517614 2.0554802 0
4.8830004 -1.5581703 2.0536404 0
4.8780003 -1.5645611 2.0518005 0
4.8730001 -1.5709341 2.0499606 0
4.8680005 -1.577289 2.0481207 0
4.8630004 -1.5836257 2.0462809 0
4.8580003 -1.5899444 2.0444407 0
4.8530002 -1.5962451 2.0426009 0
4.8480005 -1.6025279 2.0407612 0
4.8430004 -1.6087924 2.0389214 0
4.8390002 -1.6153924 2.0374494 0
4.8340001 -1.6216228 2.0356095 0
4.8290005 -1.6278353 2.0337696 0
4.8240004 -1.6340295 2.0319297 0
4.8190002 -1.6402057 2.0300899 0
4.8140001 -1.6463639 2.0282497 0
4.8100004 -1.6528685 2.026778 0
4.8050003 -1.6589924 2.0249381 0
4.8000002 -1.6650983 2.0230982 0
4.7950001 -1.671186 2.0212584 0
4.7910004 -1.6776276 2.0197864 0
4.7860003 -1.6836811 2.0179465 0
4.7810001 -1.6897166 2.0161066 0
4.7760005 -1.6957343 2.014267 0
4.7720003 -1.7021124 2.012795 0
4.7670002 -1.7080956 2.0109551 0
4.7620001 -1.7140608 2.009115 0
4.7580004 -1.7203923 2.0076432 0
4.7530003 -1.7263231 2.0058033 0
4.7480001 -1.7322359 2.0039635 0
4.7440004 -1.7385205 2.0024917 0
4.7390003 -1.7443991 2.0006516 0
4.7340002 -1.7502596 1.9988118 0
4.7300005 -1.7564973 1.99734 0
4.7250004 -1.7623236 1.9955001 0
4.7210002 -1.7685305 1.9940281 0
4.7160001 -1.7743224 1.9921882 0
4.7110004 -1.7800965 1.9903485 0
4.7070003 -1.7862566 1.9888765 0
4.7020001 -1.7919961 1.9870366 0
4.6980004 -1.7981256 1.9855647 0
4.6930003 -1.803831 1.9837248 0
4.6890001 -1.8099296 1.9822528 0
4.6840005 -1.8156009 1.9804131 0
4.6800003 -1.8216687 1.9789411 0
4.6750002 -1.8273057 1.9771012 0
4.6710005 -1.8333431 1.9756293 0
4.6660004 -1.8389457 1.9737895 0
4.6620002 -1.8449523 1.9723175 0
4.6570001 -1.8505207 1.9704775 0
4.6530004 -1.8564968 1.9690057 0
4.6480002 -1.8620309 1.9671658 0
4.6440005 -1.8679763 1.965694 0
4.6390004 -1.873476 1.9638541 0
4.6350002 -1.8793906 1.9623821 0
4.6310005 -1.885291 1.9609103 0
4.6260004 -1.8907403 1.9590703 0
4.6220002 -1.8966098 1.9575984 0
4.6180005 -1.9024652 1.9561267 0
4.6130004 -1.9078639 1.9542867 0
4.6090002 -1.9136883 1.9528147 0
4.6040001 -1.9190526 1.9509748 0
4.6000004 -1.9248468 1.9495029 0
4.5960002 -1.9306262 1.9480309 0
4.5910001 -1.93594 1.9461911 0
4.5870004 -1.9416888 1.9447193 0
4.5830002 -1.947423 1.9432473 0
4.5780001 -1.9526864 1.9414074 0
4.5740004 -1.9583902 1.9399356 0
4.5700002 -1.9640794 1.9384636 0
4.5660005 -1.9697543 1.9369918 0
4.5610003 -1.974951 1.9351518 0
4.5570002 -1.980595 1.9336799 0
4.5530005 -1.9862249 1.9322082 0
4.5490003 -1.99184 1.9307362 0
4.5440001 -1.9969701 1.9288962 0
4.5400004 -2.0025547 1.9274243 0
4.5360003 -2.0081248 1.9259524 0
4.5320001 -2.0136805 1.9244804 0
4.5280004 -2.0192218 1.9230087 0
4.5230002 -2.0242689 1.9211687 0
4.5190001 -2.0297794 1.9196967 0
4.5150003 -2.0352757 1.9182248 0
4.5110002 -2.0407574 1.9167531 0
4.5070004 -2.0462251 1.9152812 0
4.5030003 -2.0516779 1.9138092 0
4.4980001 -2.0566256 1.9119692 0
4.4940004 -2.062048 1.9104974 0
4.4900002 -2.0674558 1.9090255 0
4.4860001 -2.072849 1.9075536 0
4.4820004 -2.0782282 1.9060817 0
4.4780002 -2.0835927 1.9046097 0
4.4740005 -2.0889428 1.9031379 0
4.4700003 -2.0942783 1.9016659 0
4.4660001 -2.0995994 1.9001939 0
4.4620004 -2.1049066 1.8987222 0
4.4580002 -2.1101987 1.8972502 0
4.4530001 -2.1149662 1.8954103 0
4.4490004 -2.1202278 1.8939384 0
4.4450002 -2.1254752 1.8924664 0
4.4410005 -2.1307082 1.8909947 0
4.4370003 -2.1359265 1.8895227 0
4.4330001 -2.1411304 1.8880507 0
4.4290004 -2.1463201 1.8865789 0
4.4250002 -2.151495 1.8851069 0
4.4210005 -2.156656 1.8836352 0
4.4170003 -2.1618023 1.8821632 0
4.4130001 -2.1669338 1.8806912 0
4.4090004 -2.1720514 1.8792194 0
4.4060001 -2.1776865 1.8781153 0
4.4020004 -2.1827767 1.8766435 0
4.3980002 -2.1878526 1.8751717 0
4.3940001 -2.1929142 1.8736998 0
4.3900003 -2.1979613 1.8722278 0
4.3860002 -2.2029939 1.8707559 0
4.382 -2.2080121 1.8692839 0
4.3780003 -2.2130158 1.867812 0
4.3740001 -2.2180052 1.8663402 0
4.3700004 -2.2229803 1.8648683 0
4.3660002 -2.2279406 1.8633963 0
4.3630004 -2.2334387 1.8622925 0
4.3590002 -2.2383721 1.8608205 0
4.355 -2.2432909 1.8593485 0
4.3510003 -2.2481954 1.8578767 0
4.3470001 -2.2530856 1.8564048 0
4.3429999 -2.2579613 1.8549328 0
4.3400002 -2.2633855 1.853829 0
4.336 -2.268234 1.852357 0
4.3320003 -2.2730682 1.8508852 0
4.3280001 -2.2778881 1.8494133 0
4.3240004 -2.2826934 1.8479413 0
4.3210001 -2.2880561 1.8468374 0
4.3170004 -2.2928343 1.8453655 0
5.1390004 -1.2256582 2.1392941 0
5.1330004 -1.232702 2.1370971 0
5.1280003 -1.2399768 2.1352663 0
5.1220002 -1.2469791 2.1330693 0
5.1170001 -1.254216 2.1312382 0
5.1110005 -1.2611769 2.1290414 0
5.1060004 -1.268376 2.1272104 0
5.1000004 -1.2752954 2.1250134 0
5.0950003 -1.2824564 2.1231825 0
5.0900002 -1.2895994 2.1213517 0
5.0840001 -1.2964575 2.1191545 0
5.0790005 -1.3035629 2.1173239 0
5.0730004 -1.3103795 2.1151268 0
5.0680003 -1.3174467 2.113296 0
5.0630002 -1.3244959 2.111465 0
5.0570002 -1.3312511 2.109268 0
5.0520005 -1.3382628 2.1074371 0
5.0470004 -1.345256 2.1056063 0
5.0410004 -1.3519499 2.1034093 0
5.0360003 -1.3589054 2.1015782 0
5.0310001 -1.3658428 2.0997474 0
5.0250001 -1.3724754 2.0975504 0
5.0200005 -1.3793751 2.0957196 0
5.0150003 -1.3862566 2.0938888 0
5.0100002 -1.3931201 2.0920577 0
5.0050001 -1.3999654 2.0902269 0
4.9990005 -1.4064972 2.0880301 0
4.9940004 -1.4133047 2.086199 0
4.9890003 -1.4200943 2.0843682 0
4.9840002 -1.4268657 2.0825372 0
4.9790001 -1.433619 2.0807064 0
4.9730005 -1.4400499 2.0785096 0
4.9680004 -1.4467654 2.0766785 0
4.9630003 -1.4534628 2.0748477 0
4.9580002 -1.4601424 2.0730169 0
4.9530005 -1.4668039 2.0711861 0
4.9480004 -1.4734473 2.0693552 0
4.9430003 -1.4800726 2.0675242 0
4.9380002 -1.4866799 2.0656934 0
4.9330001 -1.4932692 2.0638623 0
4.9280005 -1.4998406 2.0620317 0
4.9230003 -1.5063939 2.0602009 0
4.9180002 -1.5129291 2.0583699 0
4.9130001 -1.5194461 2.0565388 0
4.9080005 -1.5259453 2.0547082 0
4.9030004 -1.5324265 2.0528774 0
4.8980002 -1.5388894 2.0510464 0
4.8930001 -1.5453343 2.0492156 0
4.8880005 -1.5517614 2.0473847 0
4.8830004 -1.5581703 2.0455539 0
4.8780003 -1.5645611 2.0437231 0
4.8730001 -1.5709341 2.0418921 0
4.8680005 -1.577289 2.0400612 0
4.8630004 -1.5836257 2.0382304 0
4.8580003 -1.5899444 2.0363996 0
4.8530002 -1.5962451 2.0345685 0
4.8480005 -1.6025279 2.032738 0
4.8430004 -1.6087924 2.0309069 0
4.8390002 -1.6153924 2.0294421 0
4.8340001 -1.6216228 2.0276113 0
4.8290005 -1.6278353 2.0257807 0
4.8240004 -1.6340295 2.0239496 0
4.8190002 -1.6402057 2.0221188 0
4.8140001 -1.6463639 2.0202878 0
4.8100004 -1.6528685 2.0188231 0
4.8050003 -1.6589924 2.0169923 0
4.8000002 -1.6650983 2.0151615 0
4.7950001 -1.671186 2.0133305 0
4.7910004 -1.6776276 2.0118659 0
4.7860003 -1.6836811 2.010035 0
4.7810001 -1.6897166 2.0082042 0
4.7760005 -1.6957343 2.0063734 0
4.7720003 -1.7021124 2.0049086 0
4.7670002 -1.7080956 2.0030777 0
4.7620001 -1.7140608 2.0012469 0
4.7580004 -1.7203923 1.9997823 0
4.7530003 -1.7263231 1.9979515 0
4.7480001 -1.7322359 1.9961205 0
4.7440004 -1.7385205 1.994656 0
4.7390003 -1.7443991 1.9928249 0
4.7340002 -1.7502596 1.9909941 0
4.7300005 -1.7564973 1.9895295 0
4.7250004 -1.7623236 1.9876986 0
4.7210002 -1.7685305 1.9862338 0
4.7160001 -1.7743224 1.984403 0
4.7110004 -1.7800965 1.9825722 0
4.7070003 -1.7862566 1.9811075 0
4.7020001 -1.7919961 1.9792765 0
4.6980004 -1.7981256 1.9778119 0
4.6930003 -1.803831 1.9759811 0
4.6890001 -1.8099296 1.9745163 0
4.6840005 -1.8156009 1.9726856 0
4.6800003 -1.8216687 1.9712207 0
4.6750002 -1.8273057 1.9693899 0
4.6710005 -1.8333431 1.9679253 0
4.6660004 -1.8389457 1.9660944 0
4.6620002 -1.8449523 1.9646297 0
4.6570001 -1.8505207 1.9627987 0
4.6530004 -1.8564968 1.9613341 0
4.6480002 -1.8620309 1.9595033 0
4.6440005 -1.8679763 1.9580387 0
4.6400003 -1.8739071 1.9565738 0
4.6350002 -1.8793906 1.9547429 0
4.6310005 -1.885291 1.9532783 0
4.6260004 -1.8907403 1.9514475 0
4.6220002 -1.8966098 1.9499828 0
4.6180005 -1.9024652 1.9485182 0
4.6130004 -1.9078639 1.9466872 0
4.6090002 -1.9136883 1.9452224 0
4.6040001 -1.9190526 1.9433916 0
4.6000004 -1.9248468 1.941927 0
4.5960002 -1.9306262 1.9404622 0
4.5910001 -1.93594 1.9386313 0
4.5870004 -1.9416888 1.9371667 0
4.5830002 -1.947423 1.935702 0
4.5780001 -1.9526864 1.933871 0
4.5740004 -1.9583902 1.9324065 0
4.5700002 -1.9640794 1.9309417 0
4.5660005 -1.9697543 1.9294771 0
4.5610003 -1.974951 1.9276462 0
4.5570002 -1.980595 1.9261814 0
4.5530005 -1.9862249 1.9247168 0
4.5490003 -1.99184 1.9232521 0
4.5440001 -1.9969701 1.9214212 0
4.5400004 -2.0025547 1.9199566 0
4.5360003 -2.0081248 1.9184918 0
4.5320001 -2.0136805 1.9170271 0
4.5280004 -2.0192218 1.9155625 0
4.5230002 -2.0242689 1.9137317 0
4.5190001 -2.0297794 1.9122669 0
4.5150003 -2.0352757 1.9108022 0
4.5110002 -2.0407574 1.9093375 0
4.5070004 -2.0462251 1.9078729 0
4.5030003 -2.0516779 1.9064082 0
4.4980001 -2.0566256 1.9045771 0
4.4940004 -2.062048 1.9031126 0
4.4900002 -2.0674558 1.9016479 0
4.4860001 -2.072849 1.9001832 0
4.4820004 -2.0782282 1.8987186 0
4.4780002 -2.0835927 1.8972538 0
4.4740005 -2.0889428 1.8957893 0
4.4700003 -2.0942783 1.8943244 0
4.4660001 -2.0995994 1.8928597 0
4.4620004 -2.1049066 1.8913951 0
4.4580002 -2.1101987 1.8899304 0
4.4530001 -2.1149662 1.8880994 0
4.4490004 -2.1202278 1.8866349 0
4.4450002 -2.1254752 1.8851701 0
4.4410005 -2.1307082 1.8837055 0
4.4370003 -2.1359265 1.8822408 0
4.4330001 -2.1411304 1.8807759 0
4.4290004 -2.1463201 1.8793114 0
4.4250002 -2.151495 1.8778466 0
4.4210005 -2.156656 1.876382 0
4.4170003 -2.1618023 1.8749173 0
4.4130001 -2.1669338 1.8734524 0
4.4090004 -2.1720514 1.8719879 0
4.4060001 -2.1776865 1.8708893 0
4.4020004 -2.1827767 1.8694247 0
4.3980002 -2.1878526 1.86796 0
4.3940001 -2.1929142 1.8664953 0
4.3900003 -2.1979613 1.8650305 0
4.3860002 -2.2029939 1.863566 0
4.382 -2.2080121 1.8621012 0
4.3780003 -2.2130158 1.8606366 0
4.3740001 -2.2180052 1.8591719 0
4.3700004 -2.2229803 1.8577071 0
4.3660002 -2.2279406 1.8562424 0
4.3630004 -2.2334387 1.855144 0
4.3590002 -2.2383721 1.8536792 0
4.355 -2.2432909 1.8522146 0
4.3510003 -2.2481954 1.8507499 0
4.3470001 -2.2530856 1.8492851 0
4.3429999 -2.2579613 1.8478204 0
4.3400002 -2.2633855 1.846722 0
4.336 -2.268234 1.8452572 0
4.3320003 -2.2730682 1.8437926 0
4.3280001 -2.2778881 1.8423278 0
4.3240004 -2.2826934 1.8408632 0
4.3210001 -2.2880561 1.8397647 0
4.3170004 -2.2928343 1.8383 0
5.1390004 -1.2256582 2.1307459 0
5.1330004 -1.232702 2.1285596 0
5.1280003 -1.2399768 2.1267378 0
5.1220002 -1.2469791 2.1245515 0
5.1170001 -1.254216 2.1227298 0
5.1110005 -1.2611769 2.1205437 0
5.1060004 -1.268376 2.1187217 0
5.1000004 -1.2752954 2.1165357 0
5.0950003 -1.2824564 2.1147137 0
5.0900002 -1.2895994 2.1128917 0
5.0840001 -1.2964575 2.1107056 0
5.0790005 -1.3035629 2.1088839 0
5.0730004 -1.3103795 2.1066976 0
5.0680003 -1.3174467 2.1048758 0
5.0630002 -1.3244959 2.1030538 0
5.0570002 -1.3312511 2.1008675 0
5.0520005 -1.3382628 2.099046 0
5.0470004 -1.345256 2.097224 0
5.0410004 -1.3519499 2.0950377 0
5.0360003 -1.3589054 2.0932159 0
5.0310001 -1.3658428 2.0913939 0
5.0250001 -1.3724754 2.0892076 0
5.0200005 -1.3793751 2.0873859 0
5.0150003 -1.3862566 2.0855641 0
5.0100002 -1.3931201 2.0837424 0
5.0050001 -1.3999654 2.0819204 0
4.9990005 -1.4064972 2.0797343 0
4.9940004 -1.4133047 2.0779126 0
4.9890003 -1.4200943 2.0760906 0
4.9840002 -1.4268657 2.0742686 0
4.9790001 -1.433619 2.0724468 0
4.9730005 -1.4400499 2.0702608 0
4.9680004 -1.4467654 2.0684388 0
4.9630003 -1.4534628 2.0666168 0
4.9580002 -1.4601424 2.064795 0
4.9530005 -1.4668039 2.0629733 0
4.9480004 -1.4734473 2.0611515 0
4.9430003 -1.4800726 2.0593295 0
4.9380002 -1.4866799 2.0575078 0
4.9330001 -1.4932692 2.0556858 0
4.9280005 -1.4998406 2.053864 0
4.9230003 -1.5063939 2.0520422 0
4.9180002 -1.5129291 2.0502203 0
4.9130001 -1.5194461 2.0483983 0
4.9080005 -1.5259453 2.0465767 0
4.9030004 -1.5324265 2.0447547 0
4.8980002 -1.5388894 2.0429327 0
4.8930001 -1.5453343 2.041111 0
4.8880005 -1.5517614 2.0392892 0
4.8830004 -1.5581703 2.0374675 0
4.8780003 -1.5645611 2.0356455 0
4.8730001 -1.5709341 2.0338237 0
4.8680005 -1.577289 2.032002 0
4.8630004 -1.5836257 2.03018 0
4.8580003 -1.5899444 2.0283582 0
4.8530002 -1.5962451 2.0265362 0
4.8480005 -1.6025279 2.0247145 0
4.8430004 -1.6087924 2.0228927 0
4.8390002 -1.6153924 2.021435 0
4.8340001 -1.6216228 2.0196133 0
4.8290005 -1.6278353 2.0177915 0
4.8240004 -1.6340295 2.0159698 0
4.8190002 -1.6402057 2.0141478 0
4.8140001 -1.6463639 2.0123258 0
4.8100004 -1.6528685 2.0108685 0
4.8050003 -1.6589924 2.0090466 0
4.8000002 -1.6650983 2.0072248 0
4.7950001 -1.671186 2.0054028 0
4.7910004 -1.6776276 2.0039454 0
4.7860003 -1.6836811 2.0021236 0
4.7810001 -1.6897166 2.0003016 0
4.7760005 -1.6957343 1.99848 0
4.7720003 -1.7021124 1.9970225 0
4.7670002 -1.7080956 1.9952006 0
4.7620001 -1.7140608 1.9933788 0
4.7580004 -1.7203923 1.9919213 0
4.7530003 -1.7263231 1.9900994 0
4.7480001 -1.7322359 1.9882776 0
4.7440004 -1.7385205 1.9868202 0
4.7390003 -1.7443991 1.9849982 0
4.7340002 -1.7502596 1.9831764 0
4.7300005 -1.7564973 1.981719 0
4.7250004 -1.7623236 1.9798971 0
4.7210002 -1.7685305 1.9784396 0
4.7160001 -1.7743224 1.9766177 0
4.7110004 -1.7800965 1.9747961 0
4.7070003 -1.7862566 1.9733385 0
4.7020001 -1.7919961 1.9715166 0
4.6980004 -1.7981256 1.9700592 0
4.6930003 -1.803831 1.9682373 0
4.6890001 -1.8099296 1.9667797 0
4.6840005 -1.8156009 1.9649581 0
4.6800003 -1.8216687 1.9635005 0
4.6750002 -1.8273057 1.9616786 0
4.6710005 -1.8333431 1.9602212 0
4.6660004 -1.8389457 1.9583993 0
4.6620002 -1.8449523 1.9569418 0
4.6570001 -1.8505207 1.95512 0
4.6530004 -1.8564968 1.9536626 0
4.6480002 -1.8620309 1.9518406 0
4.6440005 -1.8679763 1.9503833 0
4.6400003 -1.8739071 1.9489257 0
4.6350002 -1.8793906 1.9471039 0
4.6310005 -1.885291 1.9456465 0
4.6260004 -1.8907403 1.9438245 0
4.6220002 -1.8966098 1.942367 0
4.6180005 -1.9024652 1.9409096 0
4.6130004 -1.9078639 1.9390877 0
4.6090002 -1.9136883 1.9376302 0
4.6040001 -1.9190526 1.9358084 0
4.6000004 -1.9248468 1.9343511 0
4.5960002 -1.9306262 1.9328935 0
4.5910001 -1.93594 1.9310715 0
4.5870004 -1.9416888 1.9296142 0
4.5830002 -1.947423 1.9281566 0
4.5780001 -1.9526864 1.9263347 0
4.5740004 -1.9583902 1.9248774 0
4.5700002 -1.9640794 1.9234198 0
4.5660005 -1.9697543 1.9219625 0
4.5610003 -1.974951 1.9201405 0
4.5570002 -1.980595 1.9186829 0
4.5530005 -1.9862249 1.9172256 0
4.5490003 -1.99184 1.915768 0
4.5440001 -1.9969701 1.9139463 0
4.5400004 -2.0025547 1.9124889 0
4.5360003 -2.0081248 1.9110314 0
4.5320001 -2.0136805 1.9095738 0
4.5280004 -2.0192218 1.9081165 0
4.5230002 -2.0242689 1.9062945 0
4.5190001 -2.0297794 1.9048369 0
4.5150003 -2.0352757 1.9033796 0
4.5110002 -2.0407574 1.901922 0
4.5070004 -2.0462251 1.9004647 0
4.5030003 -2.0516779 1.8990071 0
4.4980001 -2.0566256 1.8971852 0
4.4940004 -2.062048 1.8957279 0
4.4900002 -2.0674558 1.8942703 0
4.4860001 -2.072849 1.8928128 0
4.4820004 -2.0782282 1.8913554 0
4.4780002 -2.0835927 1.8898979 0
4.4740005 -2.0889428 1.8884405 0
4.4700003 -2.0942783 1.8869829 0
4.4660001 -2.0995994 1.8855253 0
4.4620004 -2.1049066 1.884068 0
4.4580002 -2.1101987 1.8826104 0
4.4530001 -2.1149662 1.8807886 0
4.4490004 -2.1202278 1.8793312 0
4.4450002 -2.1254752 1.8778737 0
4.4410005 -2.1307082 1.8764163 0
4.4370003 -2.1359265 1.8749588 0
4.4330001 -2.1411304 1.8735012 0
4.4290004 -2.1463201 1.8720438 0
4.4250002 -2.151495 1.8705864 0
4.4210005 -2.156656 1.8691289 0
4.4170003 -2.1618023 1.8676714 0
4.4130001 -2.1669338 1.8662138 0
4.4090004 -2.1720514 1.8647565 0
4.4060001 -2.1776865 1.8636633 0
4.4020004 -2.1827767 1.8622059 0
4.3980002 -2.1878526 1.8607483 0
4.3940001 -2.1929142 1.8592908 0
4.3900003 -2.1979613 1.8578334 0
4.3860002 -2.2029939 1.8563759 0
4.382 -2.2080121 1.8549184 0
4.3780003 -2.2130158 1.8534609 0
4.3740001 -2.2180052 1.8520035 0
4.3700004 -2.2229803 1.8505461 0
4.3660002 -2.2279406 1.8490885 0
4.3630004 -2.2334387 1.8479955 0
4.3590002 -2.2383721 1.8465379 0
4.355 -2.2432909 1.8450805 0
4.3510003 -2.2481954 1.843623 0
4.3470001 -2.2530856 1.8421656 0
4.3429999 -2.2579613 1.840708 0
4.3400002 -2.2633855 1.839615 0
4.336 -2.268234 1.8381574 0
4.3320003 -2.2730682 1.8367 0
4.3280001 -2.2778881 1.8352425 0
4.3240004 -2.2826934 1.8337851 0
4.3210001 -2.2880561 1.8326919 0
4.3170004 -2.2928343 1.8312345 0
5.1390004 -1.2256582 2.1221976 0
5.1330004 -1.232702 2.1200223 0
5.1280003 -1.2399768 2.1182094 0
5.1220002 -1.2469791 2.116034 0
5.1170001 -1.254216 2.1142211 0
5.1110005 -1.2611769 2.112046 0
5.1060004 -1.268376 2.1102331 0
5.1000004 -1.2752954 2.1080577 0
5.0950003 -1.2824564 2.1062448 0
5.0900002 -1.2895994 2.1044319 0
5.0840001 -1.2964575 2.1022565 0
5.0790005 -1.3035629 2.1004438 0
5.0730004 -1.3103795 2.0982685 0
5.0680003 -1.3174467 2.0964556 0
5.0630002 -1.3244959 2.0946426 0
5.0570002 -1.3312511 2.0924673 0
5.0520005 -1.3382628 2.0906546 0
5.0470004 -1.345256 2.0888417 0
5.0410004 -1.3519499 2.0866663 0
5.0360003 -1.3589054 2.0848534 0
5.0310001 -1.3658428 2.0830405 0
5.0250001 -1.3724754 2.0808651 0
5.0200005 -1.3793751 2.0790524 0
5.0150003 -1.3862566 2.0772395 0
5.0100002 -1.3931201 2.0754268 0
5.0050001 -1.3999654 2.0736139 0
4.9990005 -1.4064972 2.0714386 0
4.9940004 -1.4133047 2.0696256 0
4.9890003 -1.4200943 2.0678129 0
4.9840002 -1.4268657 2.066 0
4.9790001 -1.433619 2.0641873 0
4.9730005 -1.4400499 2.062012 0
4.9680004 -1.4467654 2.060199 0
4.9630003 -1.4534628 2.0583861 0
4.9580002 -1.4601424 2.0565734 0
4.9530005 -1.4668039 2.0547605 0
4.9480004 -1.4734473 2.0529478 0
4.9430003 -1.4800726 2.0511348 0
4.9380002 -1.4866799 2.0493219 0
4.9330001 -1.4932692 2.0475092 0
4.9280005 -1.4998406 2.0456965 0
4.9230003 -1.5063939 2.0438836 0
4.9180002 -1.5129291 2.0420706 0
4.9130001 -1.5194461 2.0402577 0
4.9080005 -1.5259453 2.0384452 0
4.9030004 -1.5324265 2.0366323 0
4.8980002 -1.5388894 2.0348194 0
4.8930001 -1.5453343 2.0330064 0
4.8880005 -1.5517614 2.0311937 0
4.8830004 -1.5581703 2.029381 0
4.8780003 -1.5645611 2.0275681 0
4.8730001 -1.5709341 2.0257552 0
4.8680005 -1.577289 2.0239425 0
4.8630004 -1.5836257 2.0221295 0
4.8580003 -1.5899444 2.0203168 0
4.8530002 -1.5962451 2.0185039 0
4.8480005 -1.6025279 2.0166912 0
4.8430004 -1.6087924 2.0148783 0
4.8390002 -1.6153924 2.013428 0
4.8340001 -1.6216228 2.011615 0
4.8290005 -1.6278353 2.0098023 0
4.8240004 -1.6340295 2.0079896 0
4.8190002 -1.6402057 2.0061767 0
4.8140001 -1.6463639 2.0043638 0
4.8100004 -1.6528685 2.0029137 0
4.8050003 -1.6589924 2.0011008 0
4.8000002 -1.6650983 1.999288 0
4.7950001 -1.671186 1.9974751 0
4.7910004 -1.6776276 1.996025 0
4.7860003 -1.6836811 1.9942122 0
4.7810001 -1.6897166 1.9923992 0
4.7760005 -1.6957343 1.9905866 0
4.7720003 -1.7021124 1.9891362 0
4.7670002 -1.7080956 1.9873234 0
4.7620001 -1.7140608 1.9855105 0
4.7580004 -1.7203923 1.9840603 0
4.7530003 -1.7263231 1.9822474 0
4.7480001 -1.7322359 1.9804345 0
4.7440004 -1.7385205 1.9789844 0
4.7390003 -1.7443991 1.9771715 0
4.7340002 -1.7502596 1.9753587 0
4.7300005 -1.7564973 1.9739085 0
4.7250004 -1.7623236 1.9720957 0
4.7210002 -1.7685305 1.9706453 0
4.7160001 -1.7743224 1.9688325 0
4.7110004 -1.7800965 1.9670197 0
4.7070003 -1.7862566 1.9655695 0
4.7020001 -1.7919961 1.9637566 0
4.6980004 -1.7981256 1.9623064 0
4.6930003 -1.803831 1.9604936 0
4.6890001 -1.8099296 1.9590431 0
4.6840005 -1.8156009 1.9572306 0
4.6800003 -1.8216687 1.9557801 0
4.6750002 -1.8273057 1.9539673 0
4.6710005 -1.8333431 1.9525172 0
4.6660004 -1.8389457 1.9507043 0
4.6620002 -1.8449523 1.9492539 0
4.6570001 -1.8505207 1.9474411 0
4.6530004 -1.8564968 1.9459909 0
4.6480002 -1.8620309 1.9441781 0
4.6440005 -1.8679763 1.9427279 0
4.6400003 -1.8739071 1.9412776 0
4.6350002 -1.8793906 1.9394648 0
4.6310005 -1.885291 1.9380146 0
4.6260004 -1.8907403 1.9362017 0
4.6220002 -1.8966098 1.9347514 0
4.6180005 -1.9024652 1.9333012 0
4.6130004 -1.9078639 1.9314883 0
4.6090002 -1.9136883 1.930038 0
4.6040001 -1.9190526 1.9282252 0
4.6000004 -1.9248468 1.926775 0
4.5960002 -1.9306262 1.9253246 0
4.5910001 -1.93594 1.9235117 0
4.5870004 -1.9416888 1.9220616 0
4.5830002 -1.947423 1.9206113 0
4.5780001 -1.9526864 1.9187984 0
4.5740004 -1.9583902 1.9173483 0
4.5700002 -1.9640794 1.915898 0
4.5660005 -1.9697543 1.9144478 0
4.5610003 -1.974951 1.9126348 0
4.5570002 -1.980595 1.9111845 0
4.5530005 -1.9862249 1.9097344 0
4.5490003 -1.99184 1.9082841 0
4.5440001 -1.9969701 1.9064713 0
4.5400004 -2.0025547 1.9050211 0
4.5360003 -2.0081248 1.9035708 0
4.5320001 -2.0136805 1.9021204 0
4.5280004 -2.0192218 1.9006702 0
4.5230002 -2.0242689 1.8988574 0
4.5190001 -2.0297794 1.8974071 0
4.5150003 -2.0352757 1.8959569 0
4.5110002 -2.0407574 1.8945066 0
4.5070004 -2.0462251 1.8930564 0
4.5030003 -2.0516779 1.8916061 0
4.4980001 -2.0566256 1.8897932 0
4.4940004 -2.062048 1.888343 0
4.4900002 -2.0674558 1.8868927 0
4.4860001 -2.072849 1.8854425 0
4.4820004 -2.0782282 1.8839923 0
4.4780002 -2.0835927 1.882542 0
4.4740005 -2.0889428 1.8810918 0
4.4700003 -2.0942783 1.8796414 0
4.4660001 -2.0995994 1.8781911 0
4.4620004 -2.1049066 1.8767409 0
4.4580002 -2.1101987 1.8752906 0
4.4530001 -2.1149662 1.8734778 0
4.4490004 -2.1202278 1.8720276 0
4.4450002 -2.1254752 1.8705773 0
4.4410005 -2.1307082 1.8691272 0
4.4370003 -2.1359265 1.8676767 0
4.4330001 -2.1411304 1.8662264 0
4.4290004 -2.1463201 1.8647763 0
4.4250002 -2.151495 1.863326 0
4.4210005 -2.156656 1.8618758 0
4.4170003 -2.1618023 1.8604255 0
4.4130001 -2.1669338 1.8589751 0
4.4090004 -2.1720514 1.857525 0
4.4060001 -2.1776865 1.8564372 0
4.4020004 -2.1827767 1.854987 0
4.3980002 -2.1878526 1.8535367 0
4.3940001 -2.1929142 1.8520865 0
4.3900003 -2.1979613 1.8506362 0
4.3860002 -2.2029939 1.8491859 0
4.382 -2.2080121 1.8477356 0
4.3780003 -2.2130158 1.8462853 0
4.3740001 -2.2180052 1.8448352 0
4.3700004 -2.2229803 1.8433849 0
4.3660002 -2.2279406 1.8419346 0
4.3630004 -2.2334387 1.840847 0
4.3590002 -2.2383721 1.8393967 0
4.355 -2.2432909 1.8379464 0
4.3510003 -2.2481954 1.8364962 0
4.3470001 -2.2530856 1.8350459 0
4.3429999 -2.2579613 1.8335956 0
4.3400002 -2.2633855 1.832508 0
4.336 -2.268234 1.8310577 0
4.3320003 -2.2730682 1.8296074 0
4.3280001 -2.2778881 1.8281571 0
4.3240004 -2.2826934 1.8267069 0
4.3210001 -2.2880561 1.8256192 0
4.3170004 -2.2928343 1.824169 0
5.1390004 -1.2256582 2.1136494 0
5.1330004 -1.232702 2.1114848 0
5.1280003 -1.2399768 2.1096811 0
5.1220002 -1.2469791 2.1075165 0
5.1170001 -1.254216 2.1057127 0
5.1110005 -1.2611769 2.103548 0
5.1060004 -1.268376 2.1017444 0
5.1000004 -1.2752954 2.0995798 0
5.0950003 -1.2824564 2.0977759 0
5.0900002 -1.2895994 2.0959721 0
5.0840001 -1.2964575 2.0938075 0
5.0790005 -1.3035629 2.0920038 0
5.0730004 -1.3103795 2.0898392 0
5.0680003 -1.3174467 2.0880353 0
5.0630002 -1.3244959 2.0862315 0
5.0570002 -1.3312511 2.0840669 0
5.0520005 -1.3382628 2.0822632 0
5.0470004 -1.345256 2.0804594 0
5.0410004 -1.3519499 2.0782948 0
5.0360003 -1.3589054 2.0764909 0
5.0310001 -1.3658428 2.074687 0
5.0260005 -1.3727623 2.0728834 0
5.0200005 -1.3793751 2.0707188 0
5.0150003 -1.3862566 2.0689151 0
5.0100002 -1.3931201 2.067111 0
5.0050001 -1.3999654 2.0653074 0
4.9990005 -1.4064972 2.063143 0
4.9940004 -1.4133047 2.0613389 0
4.9890003 -1.4200943 2.0595353 0
4.9840002 -1.4268657 2.0577314 0
4.9790001 -1.433619 2.0559275 0
4.9730005 -1.4400499 2.0537632 0
4.9680004 -1.4467654 2.0519593 0
4.9630003 -1.4534628 2.0501554 0
4.9580002 -1.4601424 2.0483515 0
4.9530005 -1.4668039 2.0465479 0
4.9480004 -1.4734473 2.044744 0
4.9430003 -1.4800726 2.0429401 0
4.9380002 -1.4866799 2.0411363 0
4.9330001 -1.4932692 2.0393324 0
4.9280005 -1.4998406 2.0375288 0
4.9230003 -1.5063939 2.0357249 0
4.9180002 -1.5129291 2.033921 0
4.9130001 -1.5194461 2.0321171 0
4.9080005 -1.5259453 2.0303135 0
4.9030004 -1.5324265 2.0285096 0
4.8980002 -1.5388894 2.0267057 0
4.8930001 -1.5453343 2.0249019 0
4.8880005 -1.5517614 2.0230985 0
4.8830004 -1.5581703 2.0212944 0
4.8780003 -1.5645611 2.0194907 0
4.8730001 -1.5709341 2.0176868 0
4.8680005 -1.577289 2.0158832 0
4.8630004 -1.5836257 2.0140791 0
4.8580003 -1.5899444 2.0122755 0
4.8530002 -1.5962451 2.0104716 0
4.8480005 -1.6025279 2.0086679 0
4.8430004 -1.6087924 2.0068641 0
4.8390002 -1.6153924 2.0054209 0
4.8340001 -1.6216228 2.003617 0
4.8290005 -1.6278353 2.0018134 0
4.8240004 -1.6340295 2.0000095 0
4.8190002 -1.6402057 1.9982058 0
4.8140001 -1.6463639 1.9964019 0
4.8100004 -1.6528685 1.994959 0
4.8050003 -1.6589924 1.9931551 0
4.8000002 -1.6650983 1.9913512 0
4.7950001 -1.671186 1.9895474 0
4.7910004 -1.6776276 1.9881045 0
4.7860003 -1.6836811 1.9863006 0
4.7810001 -1.6897166 1.9844967 0
4.7760005 -1.6957343 1.9826931 0
4.7720003 -1.7021124 1.9812499 0
4.7670002 -1.7080956 1.9794462 0
4.7620001 -1.7140608 1.9776423 0
4.7580004 -1.7203923 1.9761993 0
4.7530003 -1.7263231 1.9743955 0
4.7480001 -1.7322359 1.9725916 0
4.7440004 -1.7385205 1.9711486 0
4.7390003 -1.7443991 1.9693449 0
4.7340002 -1.7502596 1.967541 0
4.7300005 -1.7564973 1.966098 0
4.7250004 -1.7623236 1.9642942 0
4.7210002 -1.7685305 1.962851 0
4.7160001 -1.7743224 1.9610473 0
4.7110004 -1.7800965 1.9592435 0
4.7070003 -1.7862566 1.9578004 0
4.7020001 -1.7919961 1.9559966 0
4.6980004 -1.7981256 1.9545537 0
4.6930003 -1.803831 1.9527497 0
4.6890001 -1.8099296 1.9513067 0
4.6840005 -1.8156009 1.9495029 0
4.6800003 -1.8216687 1.9480599 0
4.6750002 -1.8273057 1.946256 0
4.6710005 -1.8333431 1.9448131 0
4.6660004 -1.8389457 1.9430093 0
4.6620002 -1.8449523 1.9415661 0
4.6570001 -1.8505207 1.9397624 0
4.6530004 -1.8564968 1.9383193 0
4.6480002 -1.8620309 1.9365156 0
4.6440005 -1.8679763 1.9350725 0
4.6400003 -1.8739071 1.9336295 0
4.6350002 -1.8793906 1.9318255 0
4.6310005 -1.885291 1.9303826 0
4.6260004 -1.8907403 1.9285789 0
4.6220002 -1.8966098 1.9271357 0
4.6180005 -1.9024652 1.9256928 0
4.6130004 -1.9078639 1.9238888 0
4.6090002 -1.9136883 1.9224458 0
4.6040001 -1.9190526 1.9206419 0
4.6000004 -1.9248468 1.919199 0
4.5960002 -1.9306262 1.9177558 0
4.5910001 -1.93594 1.9159521 0
4.5870004 -1.9416888 1.9145091 0
4.5830002 -1.947423 1.913066 0
4.5780001 -1.9526864 1.911262 0
4.5740004 -1.9583902 1.9098191 0
4.5700002 -1.9640794 1.9083761 0
4.5660005 -1.9697543 1.9069331 0
4.5610003 -1.974951 1.9051293 0
4.5570002 -1.980595 1.9036862 0
4.5530005 -1.9862249 1.9022433 0
4.5490003 -1.99184 1.9008001 0
4.5440001 -1.9969701 1.8989962 0
4.5400004 -2.0025547 1.8975533 0
4.5360003 -2.0081248 1.8961102 0
4.5320001 -2.0136805 1.8946671 0
4.5280004 -2.0192218 1.8932241 0
4.5230002 -2.0242689 1.8914204 0
4.5190001 -2.0297794 1.8899772 0
4.5150003 -2.0352757 1.8885343 0
4.5110002 -2.0407574 1.8870912 0
4.5070004 -2.0462251 1.8856483 0
4.5030003 -2.0516779 1.8842051 0
4.4980001 -2.0566256 1.8824012 0
4.4940004 -2.062048 1.8809582 0
4.4900002 -2.0674558 1.8795151 0
4.4860001 -2.072849 1.8780721 0
4.4820004 -2.0782282 1.8766291 0
4.4780002 -2.0835927 1.8751861 0
4.4740005 -2.0889428 1.8737431 0
4.4700003 -2.0942783 1.8723 0
4.4660001 -2.0995994 1.8708569 0
4.4620004 -2.1049066 1.8694139 0
4.4580002 -2.1101987 1.8679708 0
4.4530001 -2.1149662 1.8661668 0
4.4490004 -2.1202278 1.8647239 0
4.4450002 -2.1254752 1.8632809 0
4.4410005 -2.1307082 1.8618379 0
4.4370003 -2.1359265 1.8603948 0
4.4330001 -2.1411304 1.8589517 0
4.4290004 -2.1463201 1.8575088 0
4.4250002 -2.151495 1.8560656 0
4.4210005 -2.156656 1.8546227 0
4.4170003 -2.1618023 1.8531796 0
4.4130001 -2.1669338 1.8517364 0
4.4090004 -2.1720514 1.8502935 0
4.4060001 -2.1776865 1.8492111 0
4.4020004 -2.1827767 1.8477682 0
4.3980002 -2.1878526 1.8463252 0
4.3940001 -2.1929142 1.8448821 0
4.3900003 -2.1979613 1.8434391 0
4.3860002 -2.2029939 1.8419961 0
4.382 -2.2080121 1.8405529 0
4.3780003 -2.2130158 1.8391099 0
4.3740001 -2.2180052 1.8376669 0
4.3700004 -2.2229803 1.8362238 0
4.3660002 -2.2279406 1.8347807 0
4.3630004 -2.2334387 1.8336984 0
4.3590002 -2.2383721 1.8322554 0
4.355 -2.2432909 1.8308125 0
4.3510003 -2.2481954 1.8293694 0
4.3470001 -2.2530856 1.8279263 0
4.3429999 -2.2579613 1.8264832 0
4.3400002 -2.2633855 1.8254009 0
4.336 -2.268234 1.8239578 0
4.3320003 -2.2730682 1.8225148 0
4.3280001 -2.2778881 1.8210717 0
4.3240004 -2.2826934 1.8196287 0
4.3210001 -2.2880561 1.8185465 0
4.3170004 -2.2928343 1.8171035 0
5.1390004 -1.2256582 2.1051011 0
5.1330004 -1.232702 2.1029475 0
5.1280003 -1.2399768 2.1011527 0
5.1220002 -1.2469791 2.0989988 0
5.1170001 -1.254216 2.097204 0
5.1110005 -1.2611769 2.0950503 0
5.1060004 -1.268376 2.0932555 0
5.1000004 -1.2752954 2.0911019 0
5.0950003 -1.2824564 2.0893071 0
5.0900002 -1.2895994 2.0875123 0
5.0840001 -1.2964575 2.0853584 0
5.0790005 -1.3035629 2.0835638 0
5.0730004 -1.3103795 2.0814099 0
