# .PCD v0.7 - Point Cloud Data file format
VERSION 0.7
FIELDS x y z intensity
SIZE 4 4 4 4
TYPE F F F F
COUNT 1 1 1 1
WIDTH 1493
HEIGHT 1
VIEWPOINT 0 0 0 1 0 0 0
POINTS 1493
DATA ascii
4.369 -1.3919511 1.9575713 0
4.3900003 -1.4206642 1.9657913 0
4.3920002 -1.4285539 1.9665742 0
4.3930001 -1.436103 1.9669657 0
4.395 -1.4440055 1.9677484 0
4.3970003 -1.4519151 1.9685314 0
4.3740001 -1.3076267 1.9523602 0
4.368 -1.3128796 1.9500223 0
4.3700004 -1.3206792 1.9508017 0
4.3710003 -1.3281631 1.9511913 0
4.3730001 -1.3359755 1.9519707 0
4.3740001 -1.3434685 1.9523602 0
4.3759999 -1.3512933 1.9531394 0
4.3710003 -1.3568149 1.9511913 0
4.3650002 -1.3619864 1.9488536 0
4.3590002 -1.3671362 1.9465158 0
4.3540001 -1.3726 1.9445677 0
4.3600001 -1.3817562 1.9469055 0
4.369 -1.3919511 1.950412 0
4.3900003 -1.4206642 1.9585941 0
4.3920002 -1.4285539 1.9593734 0
4.3930001 -1.436103 1.9597631 0
4.395 -1.4440055 1.9605422 0
4.3970003 -1.4519151 1.9613215 0
4.3740001 -1.3076267 1.9451919 0
4.368 -1.3128796 1.9428649 0
4.3700004 -1.3206792 1.9436406 0
4.3710003 -1.3281631 1.9440284 0
4.3730001 -1.3359755 1.9448041 0
4.3740001 -1.3434685 1.9451919 0
4.3759999 -1.3512933 1.9459674 0
4.3710003 -1.3568149 1.9440284 0
4.3650002 -1.3619864 1.9417014 0
4.3590002 -1.3671362 1.9393744 0
4.3540001 -1.3726 1.9374355 0
4.3600001 -1.3817562 1.9397625 0
4.369 -1.3919511 1.9432527 0
4.3900003 -1.4206642 1.9513969 0
4.3920002 -1.4285539 1.9521725 0
4.3930001 -1.436103 1.9525604 0
4.395 -1.4440055 1.953336 0
4.3970003 -1.4519151 1.9541117 0
4.3740001 -1.3076267 1.9380234 0
4.368 -1.3128796 1.9357074 0
4.3700004 -1.3206792 1.9364796 0
4.3710003 -1.3281631 1.9368654 0
4.3730001 -1.3359755 1.9376374 0
4.3740001 -1.3434685 1.9380234 0
4.3759999 -1.3512933 1.9387954 0
4.3710003 -1.3568149 1.9368654 0
4.3650002 -1.3619864 1.9345493 0
4.3590002 -1.3671362 1.9322332 0
4.3540001 -1.3726 1.9303032 0
4.3600001 -1.3817562 1.9326193 0
4.369 -1.3919511 1.9360934 0
4.3900003 -1.4206642 1.9441998 0
4.3920002 -1.4285539 1.9449718 0
4.3930001 -1.436103 1.9453578 0
4.395 -1.4440055 1.9461298 0
4.3970003 -1.4519151 1.9469018 0
4.3740001 -1.3076267 1.9308552 0
4.368 -1.3128796 1.9285499 0
4.3700004 -1.3206792 1.9293183 0
4.3710003 -1.3281631 1.9297025 0
4.3730001 -1.3359755 1.9304711 0
4.3740001 -1.3434685 1.9308552 0
4.3759999 -1.3512933 1.9316236 0
4.3710003 -1.3568149 1.9297025 0
4.3650002 -1.3619864 1.9273973 0
4.3590002 -1.3671362 1.925092 0
4.3540001 -1.3726 1.9231709 0
4.3600001 -1.3817562 1.9254762 0
4.369 -1.3919511 1.9289341 0
4.3900003 -1.4206642 1.9370025 0
4.3920002 -1.4285539 1.937771 0
4.3930001 -1.436103 1.9381552 0
4.395 -1.4440055 1.9389235 0
4.3970003 -1.4519151 1.939692 0
4.3740001 -1.3076267 1.9236869 0
4.368 -1.3128796 1.9213924 0
4.3700004 -1.3206792 1.9221573 0
4.3710003 -1.3281631 1.9225396 0
4.3730001 -1.3359755 1.9233044 0
4.3740001 -1.3434685 1.9236869 0
4.3759999 -1.3512933 1.9244516 0
4.3710003 -1.3568149 1.9225396 0
4.3650002 -1.3619864 1.9202452 0
4.3590002 -1.3671362 1.9179507 0
4.3540001 -1.3726 1.9160388 0
4.3600001 -1.3817562 1.9183332 0
4.369 -1.3919511 1.9217747 0
4.3900003 -1.4206642 1.9298054 0
4.3920002 -1.4285539 1.9305701 0
4.3930001 -1.436103 1.9309525 0
4.395 -1.4440055 1.9317173 0
4.3970003 -1.4519151 1.9324822 0
4.3740001 -1.3076267 1.9165184 0
4.368 -1.3128796 1.9142349 0
4.3700004 -1.3206792 1.9149961 0
4.3710003 -1.3281631 1.9153767 0
4.3730001 -1.3359755 1.9161379 0
4.3740001 -1.3434685 1.9165184 0
4.3759999 -1.3512933 1.9172797 0
4.3710003 -1.3568149 1.9153767 0
4.3650002 -1.3619864 1.9130931 0
4.3590002 -1.3671362 1.9108094 0
4.3540001 -1.3726 1.9089065 0
4.3600001 -1.3817562 1.91119 0
4.369 -1.3919511 1.9146155 0
4.3900003 -1.4206642 1.9226083 0
4.3920002 -1.4285539 1.9233693 0
4.3930001 -1.436103 1.92375 0
4.395 -1.4440055 1.9245111 0
4.3970003 -1.4519151 1.9252725 0
4.3740001 -1.3076267 1.9093502 0
4.368 -1.3128796 1.9070773 0
4.3700004 -1.3206792 1.907835 0
4.3710003 -1.3281631 1.9082137 0
4.3730001 -1.3359755 1.9089714 0
4.3740001 -1.3434685 1.9093502 0
4.3759999 -1.3512933 1.9101077 0
4.3710003 -1.3568149 1.9082137 0
4.3650002 -1.3619864 1.9059409 0
4.3590002 -1.3671362 1.9036682 0
4.3540001 -1.3726 1.9017742 0
4.3600001 -1.3817562 1.904047 0
4.369 -1.3919511 1.9074562 0
4.3900003 -1.4206642 1.9154109 0
4.3920002 -1.4285539 1.9161685 0
4.3930001 -1.436103 1.9165473 0
4.395 -1.4440055 1.9173049 0
4.3970003 -1.4519151 1.9180626 0
4.3740001 -1.3076267 1.9021819 0
4.368 -1.3128796 1.8999197 0
4.3700004 -1.3206792 1.9006739 0
4.3710003 -1.3281631 1.9010508 0
4.3730001 -1.3359755 1.9018049 0
4.3740001 -1.3434685 1.9021819 0
4.3759999 -1.3512933 1.9029357 0
4.3710003 -1.3568149 1.9010508 0
4.3650002 -1.3619864 1.8987889 0
4.3590002 -1.3671362 1.8965269 0
4.3540001 -1.3726 1.8946419 0
4.3600001 -1.3817562 1.896904 0
4.369 -1.3919511 1.9002968 0
4.3900003 -1.4206642 1.9082137 0
4.3920002 -1.4285539 1.9089677 0
4.3930001 -1.436103 1.9093448 0
4.395 -1.4440055 1.9100987 0
4.3970003 -1.4519151 1.9108528 0
4.3740001 -1.3076267 1.8950135 0
4.368 -1.3128796 1.8927624 0
4.3700004 -1.3206792 1.8935128 0
4.3710003 -1.3281631 1.8938879 0
4.3730001 -1.3359755 1.8946383 0
4.3740001 -1.3434685 1.8950135 0
4.3759999 -1.3512933 1.8957638 0
4.3710003 -1.3568149 1.8938879 0
4.3650002 -1.3619864 1.8916367 0
4.3590002 -1.3671362 1.8893856 0
4.3540001 -1.3726 1.8875097 0
4.3600001 -1.3817562 1.8897609 0
4.369 -1.3919511 1.8931375 0
4.3900003 -1.4206642 1.9010166 0
4.3920002 -1.4285539 1.9017669 0
4.3930001 -1.436103 1.9021422 0
4.395 -1.4440055 1.9028925 0
4.3970003 -1.4519151 1.9036429 0
4.3740001 -1.3076267 1.8878452 0
4.368 -1.3128796 1.8856049 0
4.3700004 -1.3206792 1.8863516 0
4.3710003 -1.3281631 1.8867251 0
4.3730001 -1.3359755 1.8874718 0
4.3740001 -1.3434685 1.8878452 0
4.3759999 -1.3512933 1.888592 0
4.3710003 -1.3568149 1.8867251 0
4.3650002 -1.3619864 1.8844846 0
4.3590002 -1.3671362 1.8822442 0
4.3540001 -1.3726 1.8803774 0
4.3600001 -1.3817562 1.8826177 0
4.369 -1.3919511 1.8859782 0
4.3900003 -1.4206642 1.8938195 0
4.3920002 -1.4285539 1.8945661 0
4.3930001 -1.436103 1.8949395 0
4.395 -1.4440055 1.8956863 0
4.3970003 -1.4519151 1.8964331 0
4.3740001 -1.3076267 1.8806769 0
4.368 -1.3128796 1.8784473 0
4.3700004 -1.3206792 1.8791906 0
4.3710003 -1.3281631 1.8795621 0
4.3730001 -1.3359755 1.8803053 0
4.3740001 -1.3434685 1.8806769 0
4.3759999 -1.3512933 1.88142 0
4.3710003 -1.3568149 1.8795621 0
4.3650002 -1.3619864 1.8773326 0
4.3590002 -1.3671362 1.875103 0
4.3540001 -1.3726 1.8732451 0
4.3600001 -1.3817562 1.8754747 0
4.369 -1.3919511 1.8788189 0
4.3900003 -1.4206642 1.8866222 0
4.3920002 -1.4285539 1.8873653 0
4.3930001 -1.436103 1.8877369 0
4.395 -1.4440055 1.8884801 0
4.3970003 -1.4519151 1.8892232 0
4.3740001 -1.3076267 1.8735085 0
4.368 -1.3128796 1.8712898 0
4.3700004 -1.3206792 1.8720294 0
4.3710003 -1.3281631 1.8723992 0
4.3730001 -1.3359755 1.8731388 0
4.3740001 -1.3434685 1.8735085 0
4.3759999 -1.3512933 1.874248 0
4.3710003 -1.3568149 1.8723992 0
4.3650002 -1.3619864 1.8701804 0
4.3590002 -1.3671362 1.8679618 0
4.3540001 -1.3726 1.8661129 0
4.3600001 -1.3817562 1.8683316 0
4.369 -1.3919511 1.8716595 0
4.3900003 -1.4206642 1.879425 0
4.3920002 -1.4285539 1.8801645 0
4.3930001 -1.436103 1.8805344 0
4.395 -1.4440055 1.8812739 0
4.3970003 -1.4519151 1.8820136 0
4.3740001 -1.3076267 1.8663402 0
4.368 -1.3128796 1.8641323 0
4.3700004 -1.3206792 1.8648683 0
4.3710003 -1.3281631 1.8652363 0
4.3730001 -1.3359755 1.8659723 0
4.3740001 -1.3434685 1.8663402 0
4.3759999 -1.3512933 1.867076 0
4.3710003 -1.3568149 1.8652363 0
4.3650002 -1.3619864 1.8630284 0
4.3590002 -1.3671362 1.8608205 0
4.3540001 -1.3726 1.8589807 0
4.3600001 -1.3817562 1.8611884 0
4.369 -1.3919511 1.8645003 0
4.3900003 -1.4206642 1.8722278 0
4.3920002 -1.4285539 1.8729638 0
4.3930001 -1.436103 1.8733318 0
4.395 -1.4440055 1.8740677 0
4.3970003 -1.4519151 1.8748037 0
4.3740001 -1.3076267 1.8591719 0
4.368 -1.3128796 1.8569747 0
4.3700004 -1.3206792 1.8577071 0
4.3710003 -1.3281631 1.8580734 0
4.3730001 -1.3359755 1.8588057 0
4.3740001 -1.3434685 1.8591719 0
4.3759999 -1.3512933 1.8599041 0
4.3710003 -1.3568149 1.8580734 0
4.3650002 -1.3619864 1.8558762 0
4.3590002 -1.3671362 1.8536792 0
4.3540001 -1.3726 1.8518484 0
4.3600001 -1.3817562 1.8540455 0
4.369 -1.3919511 1.8573409 0
4.3900003 -1.4206642 1.8650305 0
4.3920002 -1.4285539 1.8657629 0
4.3930001 -1.436103 1.8661292 0
4.395 -1.4440055 1.8668615 0
4.3970003 -1.4519151 1.8675939 0
4.3740001 -1.3076267 1.8520035 0
4.368 -1.3128796 1.8498173 0
4.3700004 -1.3206792 1.8505461 0
4.3710003 -1.3281631 1.8509104 0
4.3730001 -1.3359755 1.8516392 0
4.3740001 -1.3434685 1.8520035 0
4.3759999 -1.3512933 1.8527322 0
4.3710003 -1.3568149 1.8509104 0
4.3650002 -1.3619864 1.8487242 0
4.3590002 -1.3671362 1.8465379 0
4.3540001 -1.3726 1.8447162 0
4.3600001 -1.3817562 1.8469024 0
4.369 -1.3919511 1.8501817 0
4.3900003 -1.4206642 1.8578334 0
4.3920002 -1.4285539 1.8585621 0
4.3930001 -1.436103 1.8589265 0
4.395 -1.4440055 1.8596553 0
4.3970003 -1.4519151 1.860384 0
4.3740001 -1.3076267 1.8448352 0
4.368 -1.3128796 1.8426598 0
4.3700004 -1.3206792 1.8433849 0
4.3710003 -1.3281631 1.8437474 0
4.3730001 -1.3359755 1.8444726 0
4.3740001 -1.3434685 1.8448352 0
4.3759999 -1.3512933 1.8455603 0
4.3710003 -1.3568149 1.8437474 0
4.3650002 -1.3619864 1.841572 0
4.3590002 -1.3671362 1.8393967 0
4.3540001 -1.3726 1.8375838 0
4.3600001 -1.3817562 1.8397593 0
4.369 -1.3919511 1.8430223 0
4.3900003 -1.4206642 1.8506362 0
4.3920002 -1.4285539 1.8513613 0
4.3930001 -1.436103 1.851724 0
4.395 -1.4440055 1.8524489 0
4.3970003 -1.4519151 1.8531742 0
4.3740001 -1.3076267 1.8376669 0
4.368 -1.3128796 1.8355023 0
4.3700004 -1.3206792 1.8362238 0
4.3710003 -1.3281631 1.8365844 0
4.3730001 -1.3359755 1.837306 0
4.3740001 -1.3434685 1.8376669 0
4.3759999 -1.3512933 1.8383883 0
4.3710003 -1.3568149 1.8365844 0
4.3650002 -1.3619864 1.8344198 0
4.3590002 -1.3671362 1.8322554 0
4.3540001 -1.3726 1.8304516 0
4.3600001 -1.3817562 1.8326162 0
4.369 -1.3919511 1.835863 0
4.3900003 -1.4206642 1.8434391 0
4.3920002 -1.4285539 1.8441606 0
4.3930001 -1.436103 1.8445213 0
4.395 -1.4440055 1.8452427 0
4.3970003 -1.4519151 1.8459643 0
4.3740001 -1.3076267 1.8304985 0
4.368 -1.3128796 1.8283447 0
4.3700004 -1.3206792 1.8290627 0
4.3710003 -1.3281631 1.8294216 0
4.3730001 -1.3359755 1.8301396 0
4.3740001 -1.3434685 1.8304985 0
4.3759999 -1.3512933 1.8312163 0
4.3710003 -1.3568149 1.8294216 0
4.3650002 -1.3619864 1.8272679 0
4.3590002 -1.3671362 1.825114 0
4.3540001 -1.3726 1.8233194 0
4.3600001 -1.3817562 1.8254731 0
4.369 -1.3919511 1.8287036 0
4.3900003 -1.4206642 1.8362418 0
4.3920002 -1.4285539 1.8369597 0
4.3930001 -1.436103 1.8373188 0
4.395 -1.4440055 1.8380365 0
4.3970003 -1.4519151 1.8387545 0
4.3740001 -1.3076267 1.8233302 0
4.368 -1.3128796 1.8211873 0
4.3700004 -1.3206792 1.8219016 0
4.3710003 -1.3281631 1.8222587 0
4.3730001 -1.3359755 1.822973 0
4.3740001 -1.3434685 1.8233302 0
4.3759999 -1.3512933 1.8240443 0
4.3710003 -1.3568149 1.8222587 0
4.3650002 -1.3619864 1.8201157 0
4.3590002 -1.3671362 1.8179728 0
4.3540001 -1.3726 1.816187 0
4.3600001 -1.3817562 1.81833 0
4.369 -1.3919511 1.8215443 0
4.3900003 -1.4206642 1.8290446 0
4.3920002 -1.4285539 1.8297589 0
4.3930001 -1.436103 1.8301162 0
4.395 -1.4440055 1.8308303 0
4.3970003 -1.4519151 1.8315448 0
4.3740001 -1.3076267 1.8161619 0
4.368 -1.3128796 1.8140297 0
4.3700004 -1.3206792 1.8147404 0
4.3710003 -1.3281631 1.8150958 0
4.3730001 -1.3359755 1.8158065 0
4.3740001 -1.3434685 1.8161619 0
4.3759999 -1.3512933 1.8168725 0
4.3710003 -1.3568149 1.8150958 0
4.3650002 -1.3619864 1.8129637 0
4.3590002 -1.3671362 1.8108315 0
4.3540001 -1.3726 1.8090549 0
4.3600001 -1.3817562 1.8111869 0
4.369 -1.3919511 1.8143851 0
4.3900003 -1.4206642 1.8218474 0
4.3920002 -1.4285539 1.822558 0
4.3930001 -1.436103 1.8229135 0
4.395 -1.4440055 1.8236241 0
4.3970003 -1.4519151 1.8243349 0
4.3740001 -1.3076267 1.8089936 0
4.368 -1.3128796 1.8068722 0
4.3700004 -1.3206792 1.8075794 0
4.3710003 -1.3281631 1.8079329 0
4.3730001 -1.3359755 1.80864 0
4.3740001 -1.3434685 1.8089936 0
4.3759999 -1.3512933 1.8097006 0
4.3710003 -1.3568149 1.8079329 0
4.3650002 -1.3619864 1.8058115 0
4.3590002 -1.3671362 1.8036903 0
4.3540001 -1.3726 1.8019227 0
4.3600001 -1.3817562 1.8040439 0
4.369 -1.3919511 1.8072257 0
4.3900003 -1.4206642 1.8146503 0
4.3920002 -1.4285539 1.8153573 0
4.3930001 -1.436103 1.8157109 0
4.395 -1.4440055 1.8164179 0
4.3970003 -1.4519151 1.8171251 0
4.3740001 -1.3076267 1.8018252 0
4.368 -1.3128796 1.7997147 0
4.3700004 -1.3206792 1.8004181 0
4.3710003 -1.3281631 1.8007699 0
4.3730001 -1.3359755 1.8014734 0
4.3740001 -1.3434685 1.8018252 0
4.3759999 -1.3512933 1.8025286 0
4.3710003 -1.3568149 1.8007699 0
4.3650002 -1.3619864 1.7986594 0
4.3590002 -1.3671362 1.796549 0
4.3540001 -1.3726 1.7947903 0
4.3600001 -1.3817562 1.7969009 0
4.369 -1.3919511 1.8000664 0
4.3900003 -1.4206642 1.807453 0
4.3920002 -1.4285539 1.8081565 0
4.3930001 -1.436103 1.8085083 0
4.395 -1.4440055 1.8092117 0
4.3970003 -1.4519151 1.8099152 0
4.3740001 -1.3076267 1.7946569 0
4.368 -1.3128796 1.7925572 0
4.3700004 -1.3206792 1.7932571 0
4.3710003 -1.3281631 1.793607 0
4.3730001 -1.3359755 1.794307 0
4.3740001 -1.3434685 1.7946569 0
4.3759999 -1.3512933 1.7953566 0
4.3710003 -1.3568149 1.793607 0
4.3650002 -1.3619864 1.7915074 0
4.3590002 -1.3671362 1.7894077 0
4.3540001 -1.3726 1.7876581 0
4.3600001 -1.3817562 1.7897577 0
4.369 -1.3919511 1.7929071 0
4.3900003 -1.4206642 1.8002559 0
4.3920002 -1.4285539 1.8009557 0
4.3930001 -1.436103 1.8013057 0
4.395 -1.4440055 1.8020055 0
4.3970003 -1.4519151 1.8027054 0
4.3740001 -1.3076267 1.7874886 0
4.368 -1.3128796 1.7853997 0
4.3700004 -1.3206792 1.786096 0
4.3710003 -1.3281631 1.7864441 0
4.3730001 -1.3359755 1.7871404 0
4.3740001 -1.3434685 1.7874886 0
4.3759999 -1.3512933 1.7881848 0
4.3710003 -1.3568149 1.7864441 0
4.3650002 -1.3619864 1.7843553 0
4.3590002 -1.3671362 1.7822665 0
4.3540001 -1.3726 1.7805258 0
4.3600001 -1.3817562 1.7826146 0
4.369 -1.3919511 1.7857478 0
4.3900003 -1.4206642 1.7930588 0
4.3920002 -1.4285539 1.7937548 0
4.3930001 -1.436103 1.794103 0
4.395 -1.4440055 1.7947993 0
4.3970003 -1.4519151 1.7954955 0
4.3740001 -1.3076267 1.7803202 0
4.368 -1.3128796 1.7782421 0
4.3700004 -1.3206792 1.7789348 0
4.3710003 -1.3281631 1.7792811 0
4.3730001 -1.3359755 1.7799739 0
4.3740001 -1.3434685 1.7803202 0
4.3759999 -1.3512933 1.7810128 0
4.3710003 -1.3568149 1.7792811 0
4.3650002 -1.3619864 1.7772032 0
4.3590002 -1.3671362 1.7751253 0
4.3540001 -1.3726 1.7733935 0
4.3600001 -1.3817562 1.7754716 0
4.369 -1.3919511 1.7785885 0
4.3900003 -1.4206642 1.7858615 0
4.3920002 -1.4285539 1.786554 0
4.3930001 -1.436103 1.7869005 0
4.395 -1.4440055 1.7875931 0
4.3970003 -1.4519151 1.7882859 0
4.3740001 -1.3076267 1.7731519 0
4.368 -1.3128796 1.7710847 0
4.3700004 -1.3206792 1.7717738 0
4.3710003 -1.3281631 1.7721183 0
4.3730001 -1.3359755 1.7728074 0
4.3740001 -1.3434685 1.7731519 0
4.3759999 -1.3512933 1.7738408 0
4.3710003 -1.3568149 1.7721183 0
4.3650002 -1.3619864 1.770051 0
4.3590002 -1.3671362 1.7679839 0
4.3540001 -1.3726 1.7662613 0
4.3600001 -1.3817562 1.7683284 0
4.369 -1.3919511 1.7714292 0
4.3900003 -1.4206642 1.7786642 0
4.3920002 -1.4285539 1.7793534 0
4.3930001 -1.436103 1.7796978 0
4.395 -1.4440055 1.7803869 0
4.3970003 -1.4519151 1.781076 0
4.3740001 -1.3076267 1.7659836 0
4.368 -1.3128796 1.7639271 0
4.3700004 -1.3206792 1.7646127 0
4.3710003 -1.3281631 1.7649554 0
4.3730001 -1.3359755 1.7656409 0
4.3740001 -1.3434685 1.7659836 0
4.3759999 -1.3512933 1.7666689 0
4.3710003 -1.3568149 1.7649554 0
4.3650002 -1.3619864 1.7628989 0
4.3590002 -1.3671362 1.7608426 0
4.3540001 -1.3726 1.759129 0
4.3600001 -1.3817562 1.7611853 0
4.369 -1.3919511 1.7642699 0
4.3900003 -1.4206642 1.7714671 0
4.3920002 -1.4285539 1.7721525 0
4.3930001 -1.436103 1.7724953 0
4.395 -1.4440055 1.7731807 0
4.3970003 -1.4519151 1.7738662 0
4.3740001 -1.3076267 1.7588152 0
4.368 -1.3128796 1.7567697 0
4.3700004 -1.3206792 1.7574515 0
4.3710003 -1.3281631 1.7577924 0
4.3730001 -1.3359755 1.7584742 0
4.3740001 -1.3434685 1.7588152 0
4.3759999 -1.3512933 1.7594969 0
4.3710003 -1.3568149 1.7577924 0
4.3650002 -1.3619864 1.7557468 0
4.3590002 -1.3671362 1.7537013 0
4.3540001 -1.3726 1.7519968 0
4.3600001 -1.3817562 1.7540424 0
4.369 -1.3919511 1.7571105 0
4.3900003 -1.4206642 1.7642699 0
4.3920002 -1.4285539 1.7649517 0
4.3930001 -1.436103 1.7652926 0
4.395 -1.4440055 1.7659745 0
4.3970003 -1.4519151 1.7666563 0
4.3740001 -1.3076267 1.7516469 0
4.368 -1.3128796 1.7496121 0
4.3700004 -1.3206792 1.7502904 0
4.3710003 -1.3281631 1.7506294 0
4.3730001 -1.3359755 1.7513077 0
4.3740001 -1.3434685 1.7516469 0
4.3759999 -1.3512933 1.7523251 0
4.3710003 -1.3568149 1.7506294 0
4.3650002 -1.3619864 1.7485948 0
4.3590002 -1.3671362 1.74656 0
4.3540001 -1.3726 1.7448646 0
4.3600001 -1.3817562 1.7468992 0
4.369 -1.3919511 1.7499511 0
4.3900003 -1.4206642 1.7570727 0
4.3920002 -1.4285539 1.7577509 0
4.3930001 -1.436103 1.75809 0
4.395 -1.4440055 1.7587682 0
4.3970003 -1.4519151 1.7594465 0
4.3740001 -1.3076267 1.7444786 0
4.368 -1.3128796 1.7424546 0
4.3700004 -1.3206792 1.7431293 0
4.3710003 -1.3281631 1.7434665 0
4.3730001 -1.3359755 1.7441412 0
4.3740001 -1.3434685 1.7444786 0
4.3759999 -1.3512933 1.7451531 0
4.3710003 -1.3568149 1.7434665 0
4.3650002 -1.3619864 1.7414427 0
4.3590002 -1.3671362 1.7394187 0
4.3540001 -1.3726 1.7377323 0
4.3600001 -1.3817562 1.7397562 0
4.369 -1.3919511 1.7427919 0
4.3900003 -1.4206642 1.7498755 0
4.3920002 -1.4285539 1.7505502 0
4.3930001 -1.436103 1.7508874 0
4.395 -1.4440055 1.751562 0
4.3970003 -1.4519151 1.7522366 0
4.3740001 -1.3076267 1.7373102 0
4.368 -1.3128796 1.7352971 0
4.3700004 -1.3206792 1.7359681 0
4.3710003 -1.3281631 1.7363036 0
4.3730001 -1.3359755 1.7369746 0
4.3740001 -1.3434685 1.7373102 0
4.3759999 -1.3512933 1.7379811 0
4.3710003 -1.3568149 1.7363036 0
4.3650002 -1.3619864 1.7342906 0
4.3590002 -1.3671362 1.7322775 0
4.3540001 -1.3726 1.7306 0
4.3600001 -1.3817562 1.7326131 0
4.369 -1.3919511 1.7356325 0
4.3900003 -1.4206642 1.7426784 0
4.3920002 -1.4285539 1.7433493 0
4.3930001 -1.436103 1.7436849 0
4.395 -1.4440055 1.7443558 0
4.3970003 -1.4519151 1.7450268 0
4.3740001 -1.3076267 1.7301419 0
4.368 -1.3128796 1.7281395 0
4.3700004 -1.3206792 1.7288071 0
4.3710003 -1.3281631 1.7291406 0
4.3730001 -1.3359755 1.7298082 0
4.3740001 -1.3434685 1.7301419 0
4.3759999 -1.3512933 1.7308092 0
4.3710003 -1.3568149 1.7291406 0
4.3650002 -1.3619864 1.7271384 0
4.3590002 -1.3671362 1.7251363 0
4.3540001 -1.3726 1.7234677 0
4.3600001 -1.3817562 1.7254699 0
4.369 -1.3919511 1.7284733 0
4.3900003 -1.4206642 1.735481 0
4.3920002 -1.4285539 1.7361485 0
4.3930001 -1.436103 1.7364823 0
4.395 -1.4440055 1.7371496 0
4.3970003 -1.4519151 1.737817 0
4.3740001 -1.3076267 1.7229736 0
4.368 -1.3128796 1.7209821 0
4.3700004 -1.3206792 1.721646 0
4.3710003 -1.3281631 1.7219778 0
4.3730001 -1.3359755 1.7226416 0
4.3740001 -1.3434685 1.7229736 0
4.3759999 -1.3512933 1.7236372 0
4.3710003 -1.3568149 1.7219778 0
4.3650002 -1.3619864 1.7199864 0
4.3590002 -1.3671362 1.7179949 0
4.3540001 -1.3726 1.7163355 0
4.3600001 -1.3817562 1.7183269 0
4.369 -1.3919511 1.721314 0
4.3900003 -1.4206642 1.7282839 0
4.3920002 -1.4285539 1.7289476 0
4.3930001 -1.436103 1.7292796 0
4.395 -1.4440055 1.7299434 0
4.3970003 -1.4519151 1.7306073 0
4.3740001 -1.3076267 1.7158052 0
4.368 -1.3128796 1.7138246 0
4.3700004 -1.3206792 1.7144848 0
4.3710003 -1.3281631 1.7148149 0
4.3730001 -1.3359755 1.7154751 0
4.3740001 -1.3434685 1.7158052 0
4.3759999 -1.3512933 1.7164654 0
4.3710003 -1.3568149 1.7148149 0
4.3650002 -1.3619864 1.7128342 0
4.3590002 -1.3671362 1.7108537 0
4.3540001 -1.3726 1.7092032 0
4.3600001 -1.3817562 1.7111838 0
4.369 -1.3919511 1.7141546 0
4.3900003 -1.4206642 1.7210867 0
4.3920002 -1.4285539 1.7217468 0
4.3930001 -1.436103 1.722077 0
4.395 -1.4440055 1.7227372 0
4.3970003 -1.4519151 1.7233974 0
4.3740001 -1.3076267 1.7086369 0
4.368 -1.3128796 1.7066671 0
4.3700004 -1.3206792 1.7073237 0
4.3710003 -1.3281631 1.707652 0
4.3730001 -1.3359755 1.7083086 0
4.3740001 -1.3434685 1.7086369 0
4.3759999 -1.3512933 1.7092934 0
4.3710003 -1.3568149 1.707652 0
4.3650002 -1.3619864 1.7056822 0
4.3590002 -1.3671362 1.7037123 0
4.3540001 -1.3726 1.702071 0
4.3600001 -1.3817562 1.7040408 0
4.369 -1.3919511 1.7069954 0
4.3900003 -1.4206642 1.7138896 0
4.3920002 -1.4285539 1.7145461 0
4.3930001 -1.436103 1.7148745 0
4.395 -1.4440055 1.715531 0
4.3970003 -1.4519151 1.7161876 0
4.3740001 -1.3076267 1.7014686 0
4.368 -1.3128796 1.6995095 0
4.3700004 -1.3206792 1.7001625 0
4.3710003 -1.3281631 1.700489 0
4.3730001 -1.3359755 1.701142 0
4.3740001 -1.3434685 1.7014686 0
4.3759999 -1.3512933 1.7021214 0
4.3710003 -1.3568149 1.700489 0
4.3650002 -1.3619864 1.6985301 0
4.3590002 -1.3671362 1.6965711 0
4.3540001 -1.3726 1.6949388 0
4.3600001 -1.3817562 1.6968977 0
4.369 -1.3919511 1.699836 0
4.3900003 -1.4206642 1.7066923 0
4.3920002 -1.4285539 1.7073452 0
4.3930001 -1.436103 1.7076718 0
4.395 -1.4440055 1.7083248 0
4.3970003 -1.4519151 1.7089777 0
4.3740001 -1.3076267 1.6943002 0
4.368 -1.3128796 1.6923521 0
4.3700004 -1.3206792 1.6930014 0
4.3710003 -1.3281631 1.6933261 0
4.3730001 -1.3359755 1.6939756 0
4.3740001 -1.3434685 1.6943002 0
4.3759999 -1.3512933 1.6949494 0
4.3710003 -1.3568149 1.6933261 0
4.3650002 -1.3619864 1.691378 0
4.3590002 -1.3671362 1.6894298 0
4.3540001 -1.3726 1.6878065 0
4.3600001 -1.3817562 1.6897546 0
4.369 -1.3919511 1.6926768 0
4.3900003 -1.4206642 1.6994952 0
4.3920002 -1.4285539 1.7001444 0
4.3930001 -1.436103 1.7004693 0
4.395 -1.4440055 1.7011186 0
4.3970003 -1.4519151 1.7017679 0
4.3740001 -1.3076267 1.6871318 0
4.368 -1.3128796 1.6851945 0
4.3700004 -1.3206792 1.6858404 0
4.3710003 -1.3281631 1.6861632 0
4.3730001 -1.3359755 1.6868089 0
4.3740001 -1.3434685 1.6871318 0
4.3759999 -1.3512933 1.6877776 0
4.3710003 -1.3568149 1.6861632 0
4.3650002 -1.3619864 1.6842259 0
4.3590002 -1.3671362 1.6822885 0
4.3540001 -1.3726 1.6806742 0
4.3600001 -1.3817562 1.6826115 0
4.369 -1.3919511 1.6855173 0
4.3900003 -1.4206642 1.6922979 0
4.3920002 -1.4285539 1.6929436 0
4.3930001 -1.436103 1.6932666 0
4.395 -1.4440055 1.6939124 0
4.3970003 -1.4519151 1.694558 0
4.3740001 -1.3076267 1.6799635 0
4.368 -1.3128796 1.6780369 0
4.3700004 -1.3206792 1.6786792 0
4.3710003 -1.3281631 1.6790003 0
4.3730001 -1.3359755 1.6796424 0
4.3740001 -1.3434685 1.6799635 0
4.3759999 -1.3512933 1.6806056 0
4.3710003 -1.3568149 1.6790003 0
4.3650002 -1.3619864 1.6770737 0
4.3590002 -1.3671362 1.6751473 0
4.3540001 -1.3726 1.6735419 0
4.3600001 -1.3817562 1.6754684 0
4.369 -1.3919511 1.6783581 0
4.3900003 -1.4206642 1.6851007 0
4.3920002 -1.4285539 1.6857429 0
4.3930001 -1.436103 1.686064 0
4.395 -1.4440055 1.6867062 0
4.3970003 -1.4519151 1.6873484 0
4.3740001 -1.3076267 1.6727951 0
4.368 -1.3128796 1.6708796 0
4.3700004 -1.3206792 1.6715181 0
4.3710003 -1.3281631 1.6718373 0
4.3730001 -1.3359755 1.6724759 0
4.3740001 -1.3434685 1.6727951 0
4.3759999 -1.3512933 1.6734337 0
4.3710003 -1.3568149 1.6718373 0
4.3650002 -1.3619864 1.6699218 0
4.3590002 -1.3671362 1.6680061 0
4.3540001 -1.3726 1.6664096 0
4.3600001 -1.3817562 1.6683253 0
4.369 -1.3919511 1.6711987 0
4.3900003 -1.4206642 1.6779035 0
4.3920002 -1.4285539 1.6785421 0
4.3930001 -1.436103 1.6788614 0
4.395 -1.4440055 1.6795 0
4.3970003 -1.4519151 1.6801385 0
4.3740001 -1.3076267 1.6656268 0
4.368 -1.3128796 1.663722 0
4.3700004 -1.3206792 1.6643569 0
4.3710003 -1.3281631 1.6646744 0
4.3730001 -1.3359755 1.6653093 0
4.3740001 -1.3434685 1.6656268 0
4.3759999 -1.3512933 1.6662617 0
4.3710003 -1.3568149 1.6646744 0
4.3650002 -1.3619864 1.6627696 0
4.3590002 -1.3671362 1.6608647 0
4.3540001 -1.3726 1.6592774 0
4.3600001 -1.3817562 1.6611822 0
4.369 -1.3919511 1.6640394 0
4.3900003 -1.4206642 1.6707064 0
4.3920002 -1.4285539 1.6713413 0
4.3930001 -1.436103 1.6716588 0
4.395 -1.4440055 1.6722937 0
4.3970003 -1.4519151 1.6729287 0
4.3740001 -1.3076267 1.6584585 0
4.368 -1.3128796 1.6565645 0
4.3700004 -1.3206792 1.6571958 0
4.3710003 -1.3281631 1.6575115 0
4.3730001 -1.3359755 1.6581428 0
4.3740001 -1.3434685 1.6584585 0
4.3759999 -1.3512933 1.6590897 0
4.3710003 -1.3568149 1.6575115 0
4.3650002 -1.3619864 1.6556175 0
4.3590002 -1.3671362 1.6537235 0
4.3540001 -1.3726 1.6521451 0
4.3600001 -1.3817562 1.6540391 0
4.369 -1.3919511 1.6568801 0
4.3900003 -1.4206642 1.6635092 0
4.3920002 -1.4285539 1.6641405 0
4.3930001 -1.436103 1.6644561 0
4.395 -1.4440055 1.6650875 0
4.3970003 -1.4519151 1.6657188 0
4.3740001 -1.3076267 1.6512901 0
4.368 -1.3128796 1.6494069 0
4.3700004 -1.3206792 1.6500347 0
4.3710003 -1.3281631 1.6503485 0
4.3730001 -1.3359755 1.6509763 0
4.3740001 -1.3434685 1.6512901 0
4.3759999 -1.3512933 1.6519179 0
4.3710003 -1.3568149 1.6503485 0
4.3650002 -1.3619864 1.6484654 0
4.3590002 -1.3671362 1.6465822 0
4.3540001 -1.3726 1.6450129 0
4.3600001 -1.3817562 1.6468961 0
4.369 -1.3919511 1.6497208 0
4.3900003 -1.4206642 1.656312 0
4.3920002 -1.4285539 1.6569396 0
4.3930001 -1.436103 1.6572535 0
4.395 -1.4440055 1.6578813 0
4.3970003 -1.4519151 1.658509 0
4.3740001 -1.3076267 1.6441218 0
4.368 -1.3128796 1.6422495 0
4.3700004 -1.3206792 1.6428736 0
4.3710003 -1.3281631 1.6431856 0
4.3730001 -1.3359755 1.6438098 0
4.3740001 -1.3434685 1.6441218 0
4.3759999 -1.3512933 1.6447459 0
4.3710003 -1.3568149 1.6431856 0
4.3650002 -1.3619864 1.6413132 0
4.3590002 -1.3671362 1.6394409 0
4.3540001 -1.3726 1.6378807 0
4.3600001 -1.3817562 1.6397531 0
4.369 -1.3919511 1.6425616 0
4.3900003 -1.4206642 1.6491147 0
4.3920002 -1.4285539 1.6497389 0
4.3930001 -1.436103 1.650051 0
4.395 -1.4440055 1.6506751 0
4.3970003 -1.4519151 1.6512991 0
4.3740001 -1.3076267 1.6369535 0
4.368 -1.3128796 1.6350919 0
4.3700004 -1.3206792 1.6357125 0
4.3710003 -1.3281631 1.6360227 0
4.3730001 -1.3359755 1.6366433 0
4.3740001 -1.3434685 1.6369535 0
4.3759999 -1.3512933 1.637574 0
4.3710003 -1.3568149 1.6360227 0
4.3650002 -1.3619864 1.6341612 0
4.3590002 -1.3671362 1.6322995 0
4.3540001 -1.3726 1.6307484 0
4.3600001 -1.3817562 1.63261 0
4.369 -1.3919511 1.6354022 0
4.3900003 -1.4206642 1.6419176 0
4.3920002 -1.4285539 1.6425381 0
4.3930001 -1.436103 1.6428483 0
4.395 -1.4440055 1.6434689 0
4.3970003 -1.4519151 1.6440893 0
4.3740001 -1.3076267 1.6297851 0
4.368 -1.3128796 1.6279345 0
4.3700004 -1.3206792 1.6285514 0
4.3710003 -1.3281631 1.6288598 0
4.3730001 -1.3359755 1.6294768 0
4.3740001 -1.3434685 1.6297851 0
4.3759999 -1.3512933 1.630402 0
4.3710003 -1.3568149 1.6288598 0
4.3650002 -1.3619864 1.627009 0
4.3590002 -1.3671362 1.6251583 0
4.3540001 -1.3726 1.6236161 0
4.3600001 -1.3817562 1.6254668 0
4.369 -1.3919511 1.6282429 0
4.3900003 -1.4206642 1.6347203 0
4.3920002 -1.4285539 1.6353372 0
4.3930001 -1.436103 1.6356457 0
4.395 -1.4440055 1.6362627 0
4.3970003 -1.4519151 1.6368796 0
4.3740001 -1.3076267 1.6226168 0
4.368 -1.3128796 1.620777 0
4.3700004 -1.3206792 1.6213902 0
4.3710003 -1.3281631 1.6216968 0
4.3730001 -1.3359755 1.6223102 0
4.3740001 -1.3434685 1.6226168 0
4.3759999 -1.3512933 1.62323 0
4.3710003 -1.3568149 1.6216968 0
4.3650002 -1.3619864 1.6198571 0
4.3590002 -1.3671362 1.6180171 0
4.3540001 -1.3726 1.6164839 0
4.3600001 -1.3817562 1.6183238 0
4.369 -1.3919511 1.6210836 0
4.3900003 -1.4206642 1.6275232 0
4.3920002 -1.4285539 1.6281364 0
4.3930001 -1.436103 1.6284431 0
4.395 -1.4440055 1.6290563 0
4.3970003 -1.4519151 1.6296698 0
4.3740001 -1.3076267 1.6154485 0
4.368 -1.3128796 1.6136194 0
4.3700004 -1.3206792 1.6142291 0
4.3710003 -1.3281631 1.614534 0
4.3730001 -1.3359755 1.6151437 0
4.3740001 -1.3434685 1.6154485 0
4.3759999 -1.3512933 1.6160581 0
4.3710003 -1.3568149 1.614534 0
4.3650002 -1.3619864 1.6127049 0
4.3590002 -1.3671362 1.6108758 0
4.3540001 -1.3726 1.6093515 0
4.3600001 -1.3817562 1.6111807 0
4.369 -1.3919511 1.6139243 0
4.3900003 -1.4206642 1.620326 0
4.3920002 -1.4285539 1.6209357 0
4.3930001 -1.436103 1.6212405 0
4.395 -1.4440055 1.6218501 0
4.3970003 -1.4519151 1.6224599 0
4.3740001 -1.3076267 1.6082801 0
4.368 -1.3128796 1.6064619 0
4.3700004 -1.3206792 1.6070679 0
4.3710003 -1.3281631 1.6073711 0
4.3730001 -1.3359755 1.6079772 0
4.3740001 -1.3434685 1.6082801 0
4.3759999 -1.3512933 1.6088862 0
4.3710003 -1.3568149 1.6073711 0
4.3650002 -1.3619864 1.6055527 0
4.3590002 -1.3671362 1.6037345 0
4.3540001 -1.3726 1.6022193 0
4.3600001 -1.3817562 1.6040375 0
4.369 -1.3919511 1.6067649 0
4.3900003 -1.4206642 1.6131289 0
4.3920002 -1.4285539 1.6137348 0
4.3930001 -1.436103 1.6140379 0
4.395 -1.4440055 1.6146439 0
4.3970003 -1.4519151 1.6152501 0
4.3740001 -1.3076267 1.6011118 0
4.368 -1.3128796 1.5993043 0
4.3700004 -1.3206792 1.5999069 0
4.3710003 -1.3281631 1.6002082 0
4.3730001 -1.3359755 1.6008105 0
4.3740001 -1.3434685 1.6011118 0
4.3759999 -1.3512933 1.6017143 0
4.3710003 -1.3568149 1.6002082 0
4.3650002 -1.3619864 1.5984007 0
4.3590002 -1.3671362 1.5965933 0
4.3540001 -1.3726 1.5950872 0
4.3600001 -1.3817562 1.5968946 0
4.369 -1.3919511 1.5996056 0
4.3900003 -1.4206642 1.6059315 0
4.3920002 -1.4285539 1.606534 0
4.3930001 -1.436103 1.6068354 0
4.395 -1.4440055 1.6074377 0
4.3970003 -1.4519151 1.6080402 0
4.3740001 -1.3076267 1.5939435 0
4.368 -1.3128796 1.5921469 0
4.3700004 -1.3206792 1.5927458 0
4.3710003 -1.3281631 1.5930452 0
4.3730001 -1.3359755 1.5936441 0
4.3740001 -1.3434685 1.5939435 0
4.3759999 -1.3512933 1.5945423 0
4.3710003 -1.3568149 1.5930452 0
4.3650002 -1.3619864 1.5912485 0
4.3590002 -1.3671362 1.589452 0
4.3540001 -1.3726 1.5879548 0
4.3600001 -1.3817562 1.5897515 0
4.369 -1.3919511 1.5924462 0
4.3900003 -1.4206642 1.5987344 0
4.3920002 -1.4285539 1.5993332 0
4.3930001 -1.436103 1.5996327 0
4.395 -1.4440055 1.6002315 0
4.3970003 -1.4519151 1.6008304 0
4.3740001 -1.3076267 1.5867751 0
4.368 -1.3128796 1.5849894 0
4.3700004 -1.3206792 1.5855846 0
4.3710003 -1.3281631 1.5858823 0
4.3730001 -1.3359755 1.5864775 0
4.3740001 -1.3434685 1.5867751 0
4.3759999 -1.3512933 1.5873704 0
4.3710003 -1.3568149 1.5858823 0
4.3650002 -1.3619864 1.5840966 0
4.3590002 -1.3671362 1.5823108 0
4.3540001 -1.3726 1.5808226 0
4.3600001 -1.3817562 1.5826083 0
4.369 -1.3919511 1.585287 0
4.3900003 -1.4206642 1.5915372 0
4.3920002 -1.4285539 1.5921323 0
4.3930001 -1.436103 1.5924301 0
4.395 -1.4440055 1.5930253 0
4.3970003 -1.4519151 1.5936207 0
4.3740001 -1.3076267 1.5796068 0
4.368 -1.3128796 1.5778319 0
4.3700004 -1.3206792 1.5784235 0
4.3710003 -1.3281631 1.5787193 0
4.3730001 -1.3359755 1.579311 0
4.3740001 -1.3434685 1.5796068 0
4.3759999 -1.3512933 1.5801984 0
4.3710003 -1.3568149 1.5787193 0
4.3650002 -1.3619864 1.5769444 0
4.3590002 -1.3671362 1.5751693 0
4.3540001 -1.3726 1.5736904 0
4.3600001 -1.3817562 1.5754653 0
4.369 -1.3919511 1.5781276 0
4.3900003 -1.4206642 1.58434 0
4.3920002 -1.4285539 1.5849316 0
4.3930001 -1.436103 1.5852275 0
4.395 -1.4440055 1.585819 0
4.3970003 -1.4519151 1.5864108 0
4.3740001 -1.3076267 1.5724385 0
4.368 -1.3128796 1.5706744 0
4.3700004 -1.3206792 1.5712624 0
4.3710003 -1.3281631 1.5715563 0
4.3730001 -1.3359755 1.5721445 0
4.3740001 -1.3434685 1.5724385 0
4.3759999 -1.3512933 1.5730265 0
4.3710003 -1.3568149 1.5715563 0
4.3650002 -1.3619864 1.5697923 0
4.3590002 -1.3671362 1.5680281 0
4.3540001 -1.3726 1.566558 0
4.3600001 -1.3817562 1.5683222 0
4.369 -1.3919511 1.5709684 0
4.3900003 -1.4206642 1.5771428 0
4.3920002 -1.4285539 1.5777309 0
4.3930001 -1.436103 1.578025 0
4.395 -1.4440055 1.5786128 0
4.3970003 -1.4519151 1.579201 0
4.3740001 -1.3076267 1.5652702 0
4.368 -1.3128796 1.5635169 0
4.3700004 -1.3206792 1.5641012 0
4.3710003 -1.3281631 1.5643934 0
4.3730001 -1.3359755 1.5649779 0
4.3740001 -1.3434685 1.5652702 0
4.3759999 -1.3512933 1.5658545 0
4.3710003 -1.3568149 1.5643934 0
4.3650002 -1.3619864 1.5626402 0
4.3590002 -1.3671362 1.5608869 0
4.3540001 -1.3726 1.5594258 0
4.3600001 -1.3817562 1.561179 0
4.369 -1.3919511 1.563809 0
4.3900003 -1.4206642 1.5699457 0
4.3920002 -1.4285539 1.5705301 0
4.3930001 -1.436103 1.5708222 0
4.395 -1.4440055 1.5714066 0
4.3970003 -1.4519151 1.5719911 0
4.3740001 -1.3076267 1.5581018 0
4.368 -1.3128796 1.5563593 0
4.3700004 -1.3206792 1.5569402 0
4.3710003 -1.3281631 1.5572306 0
4.3730001 -1.3359755 1.5578115 0
4.3740001 -1.3434685 1.5581018 0
4.3759999 -1.3512933 1.5586826 0
4.3710003 -1.3568149 1.5572306 0
4.3650002 -1.3619864 1.5554881 0
4.3590002 -1.3671362 1.5537456 0
4.3540001 -1.3726 1.5522935 0
4.3600001 -1.3817562 1.554036 0
4.369 -1.3919511 1.5566497 0
4.3900003 -1.4206642 1.5627484 0
4.3920002 -1.4285539 1.5633292 0
4.3930001 -1.436103 1.5636197 0
4.395 -1.4440055 1.5642004 0
4.3970003 -1.4519151 1.5647813 0
4.3740001 -1.3076267 1.5509335 0
4.368 -1.3128796 1.5492017 0
4.3700004 -1.3206792 1.5497791 0
4.3710003 -1.3281631 1.5500677 0
4.3730001 -1.3359755 1.5506449 0
4.3740001 -1.3434685 1.5509335 0
4.3759999 -1.3512933 1.5515107 0
4.3710003 -1.3568149 1.5500677 0
4.3650002 -1.3619864 1.548336 0
4.3590002 -1.3671362 1.5466043 0
4.3540001 -1.3726 1.5451612 0
4.3600001 -1.3817562 1.546893 0
4.369 -1.3919511 1.5494905 0
4.3900003 -1.4206642 1.5555512 0
4.3920002 -1.4285539 1.5561284 0
4.3930001 -1.436103 1.5564171 0
4.395 -1.4440055 1.5569942 0
4.3970003 -1.4519151 1.5575714 0
4.3740001 -1.3076267 1.5437652 0
4.368 -1.3128796 1.5420443 0
4.3700004 -1.3206792 1.5426179 0
4.3710003 -1.3281631 1.5429047 0
4.3730001 -1.3359755 1.5434784 0
4.3740001 -1.3434685 1.5437652 0
4.3759999 -1.3512933 1.5443387 0
4.3710003 -1.3568149 1.5429047 0
4.3650002 -1.3619864 1.5411838 0
4.3590002 -1.3671362 1.539463 0
4.3540001 -1.3726 1.5380291 0
4.3600001 -1.3817562 1.5397499 0
4.369 -1.3919511 1.5423311 0
4.3900003 -1.4206642 1.548354 0
4.3920002 -1.4285539 1.5489277 0
4.3930001 -1.436103 1.5492145 0
4.395 -1.4440055 1.549788 0
4.3970003 -1.4519151 1.5503616 0
4.3740001 -1.3076267 1.5365968 0
4.368 -1.3128796 1.5348868 0
4.3700004 -1.3206792 1.5354569 0
4.3710003 -1.3281631 1.5357418 0
4.3730001 -1.3359755 1.5363119 0
4.3740001 -1.3434685 1.5365968 0
4.3759999 -1.3512933 1.5371667 0
4.3710003 -1.3568149 1.5357418 0
4.3650002 -1.3619864 1.5340317 0
4.3590002 -1.3671362 1.5323218 0
4.3540001 -1.3726 1.5308968 0
4.3600001 -1.3817562 1.5326068 0
4.369 -1.3919511 1.5351717 0
4.3900003 -1.4206642 1.5411569 0
4.3920002 -1.4285539 1.5417268 0
4.3930001 -1.436103 1.5420119 0
4.395 -1.4440055 1.5425818 0
4.3970003 -1.4519151 1.5431519 0
4.3740001 -1.3076267 1.5294285 0
4.368 -1.3128796 1.5277293 0
4.3700004 -1.3206792 1.5282956 0
4.3710003 -1.3281631 1.5285789 0
4.3730001 -1.3359755 1.5291454 0
4.3740001 -1.3434685 1.5294285 0
4.3759999 -1.3512933 1.5299948 0
4.3710003 -1.3568149 1.5285789 0
4.3650002 -1.3619864 1.5268797 0
4.3590002 -1.3671362 1.5251805 0
4.3540001 -1.3726 1.5237645 0
4.3600001 -1.3817562 1.5254637 0
4.369 -1.3919511 1.5280124 0
4.3900003 -1.4206642 1.5339596 0
4.3920002 -1.4285539 1.534526 0
4.3930001 -1.436103 1.5348092 0
4.395 -1.4440055 1.5353756 0
4.3970003 -1.4519151 1.5359421 0
4.3740001 -1.3076267 1.5222602 0
4.368 -1.3128796 1.5205718 0
4.3700004 -1.3206792 1.5211346 0
4.3710003 -1.3281631 1.5214159 0
4.3730001 -1.3359755 1.5219787 0
4.3740001 -1.3434685 1.5222602 0
4.3759999 -1.3512933 1.5228229 0
4.3710003 -1.3568149 1.5214159 0
4.3650002 -1.3619864 1.5197276 0
4.3590002 -1.3671362 1.5180392 0
4.3540001 -1.3726 1.5166323 0
4.3600001 -1.3817562 1.5183207 0
4.369 -1.3919511 1.5208532 0
4.3900003 -1.4206642 1.5267625 0
4.3920002 -1.4285539 1.5273252 0
4.3930001 -1.436103 1.5276066 0
4.395 -1.4440055 1.5281694 0
4.3970003 -1.4519151 1.5287322 0
4.3740001 -1.3076267 1.5150918 0
4.368 -1.3128796 1.5134143 0
4.3700004 -1.3206792 1.5139735 0
4.3710003 -1.3281631 1.514253 0
4.3730001 -1.3359755 1.5148122 0
4.3740001 -1.3434685 1.5150918 0
4.3759999 -1.3512933 1.515651 0
4.3710003 -1.3568149 1.514253 0
4.3650002 -1.3619864 1.5125755 0
4.3590002 -1.3671362 1.5108979 0
4.3540001 -1.3726 1.5095 0
4.3600001 -1.3817562 1.5111775 0
4.369 -1.3919511 1.5136938 0
4.3900003 -1.4206642 1.5195652 0
4.3920002 -1.4285539 1.5201244 0
4.3930001 -1.436103 1.520404 0
4.395 -1.4440055 1.5209632 0
4.3970003 -1.4519151 1.5215224 0
4.3740001 -1.3076267 1.5079235 0
4.368 -1.3128796 1.5062567 0
4.3700004 -1.3206792 1.5068123 0
4.3710003 -1.3281631 1.5070902 0
4.3730001 -1.3359755 1.5076457 0
4.3740001 -1.3434685 1.5079235 0
4.3759999 -1.3512933 1.508479 0
4.3710003 -1.3568149 1.5070902 0
4.3650002 -1.3619864 1.5054234 0
4.3590002 -1.3671362 1.5037566 0
4.3540001 -1.3726 1.5023677 0
4.3600001 -1.3817562 1.5040344 0
4.369 -1.3919511 1.5065345 0
4.3900003 -1.4206642 1.5123681 0
4.3920002 -1.4285539 1.5129236 0
4.3930001 -1.436103 1.5132015 0
4.395 -1.4440055 1.513757 0
4.3970003 -1.4519151 1.5143125 0
4.3740001 -1.3076267 1.5007552 0
4.368 -1.3128796 1.4990991 0
4.3700004 -1.3206792 1.4996512 0
4.3710003 -1.3281631 1.4999272 0
4.3730001 -1.3359755 1.5004791 0
4.3740001 -1.3434685 1.5007552 0
4.3759999 -1.3512933 1.501307 0
4.3710003 -1.3568149 1.4999272 0
4.3650002 -1.3619864 1.4982712 0
4.3590002 -1.3671362 1.4966153 0
4.3540001 -1.3726 1.4952354 0
4.3600001 -1.3817562 1.4968915 0
4.369 -1.3919511 1.4993752 0
4.3900003 -1.4206642 1.5051708 0
4.3920002 -1.4285539 1.5057228 0
4.3930001 -1.436103 1.5059987 0
4.395 -1.4440055 1.5065508 0
4.3970003 -1.4519151 1.5071027 0
4.3740001 -1.3076267 1.4935868 0
4.368 -1.3128796 1.4919418 0
4.3700004 -1.3206792 1.4924902 0
4.3710003 -1.3281631 1.4927642 0
4.3730001 -1.3359755 1.4933127 0
4.3740001 -1.3434685 1.4935868 0
4.3759999 -1.3512933 1.4941351 0
4.3710003 -1.3568149 1.4927642 0
4.3650002 -1.3619864 1.4911193 0
4.3590002 -1.3671362 1.4894741 0
4.3540001 -1.3726 1.4881033 0
4.3600001 -1.3817562 1.4897484 0
4.369 -1.3919511 1.4922159 0
4.3900003 -1.4206642 1.4979737 0
4.3920002 -1.4285539 1.4985219 0
4.3930001 -1.436103 1.4987962 0
4.395 -1.4440055 1.4993445 0
4.3970003 -1.4519151 1.4998928 0
4.3740001 -1.3076267 1.4864185 0
4.368 -1.3128796 1.4847842 0
4.3700004 -1.3206792 1.4853289 0
4.3710003 -1.3281631 1.4856013 0
4.3730001 -1.3359755 1.4861461 0
4.3740001 -1.3434685 1.4864185 0
4.3759999 -1.3512933 1.4869633 0
4.3710003 -1.3568149 1.4856013 0
4.3650002 -1.3619864 1.4839671 0
4.3590002 -1.3671362 1.4823328 0
4.3540001 -1.3726 1.480971 0
4.3600001 -1.3817562 1.4826052 0
4.369 -1.3919511 1.4850566 0
4.3900003 -1.4206642 1.4907765 0
4.3920002 -1.4285539 1.4913212 0
4.3930001 -1.436103 1.4915936 0
4.395 -1.4440055 1.4921383 0
4.3970003 -1.4519151 1.4926832 0
4.3740001 -1.3076267 1.4792502 0
4.368 -1.3128796 1.4776267 0
4.3700004 -1.3206792 1.4781679 0
4.3710003 -1.3281631 1.4784384 0
4.3730001 -1.3359755 1.4789796 0
4.3740001 -1.3434685 1.4792502 0
4.3759999 -1.3512933 1.4797913 0
4.3710003 -1.3568149 1.4784384 0
4.3650002 -1.3619864 1.476815 0
4.3590002 -1.3671362 1.4751916 0
4.3540001 -1.3726 1.4738387 0
4.3600001 -1.3817562 1.4754622 0
4.369 -1.3919511 1.4778973 0
4.3900003 -1.4206642 1.4835793 0
4.3920002 -1.4285539 1.4841204 0
4.3930001 -1.436103 1.484391 0
4.395 -1.4440055 1.4849321 0
4.3970003 -1.4519151 1.4854733 0
4.3740001 -1.3076267 1.4720818 0
4.368 -1.3128796 1.4704692 0
4.3700004 -1.3206792 1.4710068 0
4.3710003 -1.3281631 1.4712754 0
4.3730001 -1.3359755 1.4718131 0
4.3740001 -1.3434685 1.4720818 0
4.3759999 -1.3512933 1.4726193 0
4.3710003 -1.3568149 1.4712754 0
4.3650002 -1.3619864 1.4696629 0
4.3590002 -1.3671362 1.4680502 0
4.3540001 -1.3726 1.4667065 0
4.3600001 -1.3817562 1.4683191 0
4.369 -1.3919511 1.4707379 0
4.3900003 -1.4206642 1.476382 0
4.3920002 -1.4285539 1.4769197 0
4.3930001 -1.436103 1.4771883 0
4.395 -1.4440055 1.4777259 0
4.3970003 -1.4519151 1.4782635 0
4.3740001 -1.3076267 1.4649135 0
4.368 -1.3128796 1.4633117 0
4.3700004 -1.3206792 1.4638456 0
4.3710003 -1.3281631 1.4641125 0
4.3730001 -1.3359755 1.4646465 0
4.3740001 -1.3434685 1.4649135 0
4.3759999 -1.3512933 1.4654473 0
4.3710003 -1.3568149 1.4641125 0
4.3650002 -1.3619864 1.4625107 0
4.3590002 -1.3671362 1.460909 0
4.3540001 -1.3726 1.4595742 0
4.3600001 -1.3817562 1.4611759 0
4.369 -1.3919511 1.4635786 0
4.3900003 -1.4206642 1.4691849 0
4.3920002 -1.4285539 1.4697188 0
4.3930001 -1.436103 1.4699858 0
4.395 -1.4440055 1.4705197 0
4.3970003 -1.4519151 1.4710536 0
4.3740001 -1.3076267 1.4577452 0
4.368 -1.3128796 1.4561541 0
4.3700004 -1.3206792 1.4566845 0
4.3710003 -1.3281631 1.4569496 0
4.3730001 -1.3359755 1.4574801 0
4.3740001 -1.3434685 1.4577452 0
4.3759999 -1.3512933 1.4582753 0
4.3710003 -1.3568149 1.4569496 0
4.3650002 -1.3619864 1.4553587 0
4.3590002 -1.3671362 1.4537678 0
4.3540001 -1.3726 1.4524419 0
4.3600001 -1.3817562 1.4540329 0
4.369 -1.3919511 1.4564192 0
4.3900003 -1.4206642 1.4619877 0
4.3920002 -1.4285539 1.462518 0
4.3930001 -1.436103 1.4627832 0
4.395 -1.4440055 1.4633135 0
4.3970003 -1.4519151 1.4638438 0
4.3740001 -1.3076267 1.4505768 0
4.368 -1.3128796 1.4489967 0
4.3700004 -1.3206792 1.4495234 0
4.3710003 -1.3281631 1.4497868 0
4.3730001 -1.3359755 1.4503134 0
4.3740001 -1.3434685 1.4505768 0
4.3759999 -1.3512933 1.4511036 0
4.3710003 -1.3568149 1.4497868 0
4.3650002 -1.3619864 1.4482065 0
4.3590002 -1.3671362 1.4466264 0
4.3540001 -1.3726 1.4453098 0
4.3600001 -1.3817562 1.4468899 0
4.369 -1.3919511 1.44926 0
4.3900003 -1.4206642 1.4547905 0
4.3920002 -1.4285539 1.4553173 0
4.3930001 -1.436103 1.4555806 0
4.395 -1.4440055 1.4561073 0
4.3970003 -1.4519151 1.4566339 0
4.3740001 -1.3076267 1.4434085 0
4.368 -1.3128796 1.4418392 0
4.3700004 -1.3206792 1.4423622 0
4.3710003 -1.3281631 1.4426239 0
4.3730001 -1.3359755 1.4431469 0
4.3740001 -1.3434685 1.4434085 0
4.3759999 -1.3512933 1.4439316 0
4.3710003 -1.3568149 1.4426239 0
4.3650002 -1.3619864 1.4410546 0
4.3590002 -1.3671362 1.4394851 0
4.3540001 -1.3726 1.4381773 0
4.3600001 -1.3817562 1.4397467 0
4.369 -1.3919511 1.4421006 0
4.3900003 -1.4206642 1.4475933 0
4.3920002 -1.4285539 1.4481164 0
4.3930001 -1.436103 1.448378 0
4.395 -1.4440055 1.4489011 0
4.3970003 -1.4519151 1.4494241 0
4.3740001 -1.3076267 1.4362402 0
4.368 -1.3128796 1.4346817 0
4.3700004 -1.3206792 1.4352012 0
4.3710003 -1.3281631 1.4354609 0
4.3730001 -1.3359755 1.4359804 0
4.3740001 -1.3434685 1.4362402 0
4.3759999 -1.3512933 1.4367596 0
4.3710003 -1.3568149 1.4354609 0
4.3650002 -1.3619864 1.4339024 0
4.3590002 -1.3671362 1.4323438 0
4.3540001 -1.3726 1.4310452 0
4.3600001 -1.3817562 1.4326037 0
4.369 -1.3919511 1.4349414 0
4.3900003 -1.4206642 1.4403962 0
4.3920002 -1.4285539 1.4409156 0
4.3930001 -1.436103 1.4411755 0
4.395 -1.4440055 1.4416949 0
4.3970003 -1.4519151 1.4422144 0
4.3740001 -1.3076267 1.4290718 0
4.368 -1.3128796 1.4275241 0
4.3700004 -1.3206792 1.42804 0
4.3710003 -1.3281631 1.428298 0
4.3730001 -1.3359755 1.4288138 0
4.3740001 -1.3434685 1.4290718 0
4.3759999 -1.3512933 1.4295876 0
4.3710003 -1.3568149 1.428298 0
4.3650002 -1.3619864 1.4267502 0
4.3590002 -1.3671362 1.4252026 0
4.3540001 -1.3726 1.423913 0
4.3600001 -1.3817562 1.4254606 0
4.369 -1.3919511 1.4277821 0
4.3900003 -1.4206642 1.4331989 0
4.3920002 -1.4285539 1.4337147 0
4.3930001 -1.436103 1.4339727 0
4.395 -1.4440055 1.4344887 0
4.3970003 -1.4519151 1.4350046 0
4.3740001 -1.3076267 1.4219035 0
4.368 -1.3128796 1.4203666 0
4.3700004 -1.3206792 1.4208789 0
4.3710003 -1.3281631 1.4211351 0
4.3730001 -1.3359755 1.4216473 0
4.3740001 -1.3434685 1.4219035 0
4.3759999 -1.3512933 1.4224156 0
4.3710003 -1.3568149 1.4211351 0
4.3650002 -1.3619864 1.4195982 0
4.3590002 -1.3671362 1.4180614 0
4.3540001 -1.3726 1.4167806 0
4.3600001 -1.3817562 1.4183176 0
4.369 -1.3919511 1.4206227 0
4.3900003 -1.4206642 1.4260017 0
4.3920002 -1.4285539 1.426514 0
4.3930001 -1.436103 1.4267702 0
4.395 -1.4440055 1.4272825 0
4.3970003 -1.4519151 1.4277947 0
4.3740001 -1.3076267 1.4147352 0
4.368 -1.3128796 1.4132091 0
4.3700004 -1.3206792 1.4137177 0
4.3710003 -1.3281631 1.4139721 0
4.3730001 -1.3359755 1.4144808 0
4.3740001 -1.3434685 1.4147352 0
4.3759999 -1.3512933 1.4152437 0
4.3710003 -1.3568149 1.4139721 0
4.3650002 -1.3619864 1.412446 0
4.3590002 -1.3671362 1.41092 0
4.3540001 -1.3726 1.4096484 0
4.3600001 -1.3817562 1.4111744 0
4.369 -1.3919511 1.4134635 0
4.3900003 -1.4206642 1.4188045 0
4.3920002 -1.4285539 1.4193132 0
4.3930001 -1.436103 1.4195676 0
4.395 -1.4440055 1.4200763 0
4.3970003 -1.4519151 1.4205849 0
4.3740001 -1.3076267 1.4075668 0
4.368 -1.3128796 1.4060516 0
4.3700004 -1.3206792 1.4065567 0
4.3710003 -1.3281631 1.4068091 0
4.3730001 -1.3359755 1.4073143 0
4.3740001 -1.3434685 1.4075668 0
4.3759999 -1.3512933 1.4080719 0
4.3710003 -1.3568149 1.4068091 0
4.3650002 -1.3619864 1.4052941 0
4.3590002 -1.3671362 1.4037788 0
4.3540001 -1.3726 1.4025161 0
4.3600001 -1.3817562 1.4040313 0
4.369 -1.3919511 1.4063041 0
4.3900003 -1.4206642 1.4116074 0
4.3920002 -1.4285539 1.4121124 0
4.3930001 -1.436103 1.412365 0
4.395 -1.4440055 1.4128699 0
4.3970003 -1.4519151 1.413375 0
4.3740001 -1.3076267 1.4003985 0
4.368 -1.3128796 1.398894 0
4.3700004 -1.3206792 1.3993955 0
4.3710003 -1.3281631 1.3996463 0
4.3730001 -1.3359755 1.4001478 0
4.3740001 -1.3434685 1.4003985 0
4.3759999 -1.3512933 1.4008999 0
4.3710003 -1.3568149 1.3996463 0
4.3650002 -1.3619864 1.3981419 0
4.3590002 -1.3671362 1.3966374 0
4.3540001 -1.3726 1.3953838 0
4.3600001 -1.3817562 1.3968883 0
4.369 -1.3919511 1.3991448 0
4.3900003 -1.4206642 1.4044101 0
4.3920002 -1.4285539 1.4049115 0
4.3930001 -1.436103 1.4051623 0
4.395 -1.4440055 1.4056637 0
4.3970003 -1.4519151 1.4061652 0
4.3740001 -1.3076267 1.3932301 0
4.368 -1.3128796 1.3917366 0
4.3700004 -1.3206792 1.3922344 0
4.3710003 -1.3281631 1.3924834 0
4.3730001 -1.3359755 1.3929812 0
4.3740001 -1.3434685 1.3932301 0
4.3759999 -1.3512933 1.3937279 0
4.3710003 -1.3568149 1.3924834 0
4.3650002 -1.3619864 1.3909898 0
4.3590002 -1.3671362 1.3894962 0
4.3540001 -1.3726 1.3882517 0
4.3600001 -1.3817562 1.3897451 0
4.369 -1.3919511 1.3919854 0
4.3900003 -1.4206642 1.397213 0
4.3920002 -1.4285539 1.3977107 0
4.3930001 -1.436103 1.3979597 0
4.395 -1.4440055 1.3984575 0
4.3970003 -1.4519151 1.3989555 0
4.3740001 -1.3076267 1.3860618 0
4.368 -1.3128796 1.3845791 0
4.3700004 -1.3206792 1.3850733 0
4.3710003 -1.3281631 1.3853204 0
4.3730001 -1.3359755 1.3858147 0
4.3740001 -1.3434685 1.3860618 0
4.3759999 -1.3512933 1.386556 0
4.3710003 -1.3568149 1.3853204 0
4.3650002 -1.3619864 1.3838377 0
4.3590002 -1.3671362 1.3823549 0
4.3540001 -1.3726 1.3811194 0
4.3600001 -1.3817562 1.3826021 0
4.369 -1.3919511 1.3848261 0
4.3900003 -1.4206642 1.3900157 0
4.3920002 -1.4285539 1.3905098 0
4.3930001 -1.436103 1.3907571 0
4.395 -1.4440055 1.3912513 0
4.3970003 -1.4519151 1.3917456 0
4.3740001 -1.3076267 1.3788935 0
4.368 -1.3128796 1.3774215 0
4.3700004 -1.3206792 1.3779122 0
4.3710003 -1.3281631 1.3781575 0
4.3730001 -1.3359755 1.3786482 0
4.3740001 -1.3434685 1.3788935 0
4.3759999 -1.3512933 1.379384 0
4.3710003 -1.3568149 1.3781575 0
4.3650002 -1.3619864 1.3766855 0
4.3590002 -1.3671362 1.3752136 0
4.3540001 -1.3726 1.3739871 0
4.3600001 -1.3817562 1.3754591 0
4.369 -1.3919511 1.3776668 0
4.3900003 -1.4206642 1.3828185 0
4.3920002 -1.4285539 1.3833091 0
4.3930001 -1.436103 1.3835545 0
4.395 -1.4440055 1.3840451 0
4.3970003 -1.4519151 1.3845358 0
4.3740001 -1.3076267 1.3717251 0
4.368 -1.3128796 1.3702641 0
4.3700004 -1.3206792 1.370751 0
4.3710003 -1.3281631 1.3709946 0
4.3730001 -1.3359755 1.3714817 0
4.3740001 -1.3434685 1.3717251 0
4.3759999 -1.3512933 1.3722121 0
4.3710003 -1.3568149 1.3709946 0
4.3650002 -1.3619864 1.3695334 0
4.3590002 -1.3671362 1.3680724 0
4.3540001 -1.3726 1.3668548 0
4.3600001 -1.3817562 1.3683159 0
4.369 -1.3919511 1.3705075 0
4.3900003 -1.4206642 1.3756213 0
4.3920002 -1.4285539 1.3761084 0
4.3930001 -1.436103 1.376352 0
4.395 -1.4440055 1.3768389 0
4.3970003 -1.4519151 1.3773259 0
4.3740001 -1.3076267 1.3645568 0
4.368 -1.3128796 1.3631065 0
4.3700004 -1.3206792 1.36359 0
4.3710003 -1.3281631 1.3638316 0
4.3730001 -1.3359755 1.364315 0
4.3740001 -1.3434685 1.3645568 0
4.3759999 -1.3512933 1.3650402 0
4.3710003 -1.3568149 1.3638316 0
4.3650002 -1.3619864 1.3623813 0
4.3590002 -1.3671362 1.3609312 0
4.3540001 -1.3726 1.3597226 0
