# .PCD v0.7 - Point Cloud Data file format
VERSION 0.7
FIELDS x y z intensity
SIZE 4 4 4 4
TYPE F F F F
COUNT 1 1 1 1
WIDTH 1394
HEIGHT 1
VIEWPOINT 0 0 0 1 0 0 0
POINTS 1394
DATA ascii
2.7980001 0.27841491 0.69381064 0
2.7910001 0.273155 0.69296467 0
2.7870002 0.26831537 0.69248128 0
2.7840002 0.26362008 0.69211864 0
2.7810001 0.25893557 0.69175613 0
2.7790003 0.25438818 0.69151437 0
2.7770002 0.24984798 0.69127274 0
2.7770002 0.24556032 0.69127274 0
2.7760003 0.24115184 0.69115186 0
2.7760003 0.236866 0.69115186 0
2.7760003 0.23258016 0.69115186 0
2.7760003 0.22829428 0.69115186 0
2.7770002 0.22412208 0.69127274 0
2.7780001 0.21994627 0.69139355 0
2.7800002 0.21587688 0.69163525 0
2.7820003 0.21180028 0.69187701 0
2.7850003 0.20782289 0.69223952 0
2.7880001 0.20383464 0.6926021 0
2.7920003 0.19993843 0.69308555 0
2.7970002 0.19612879 0.69368982 0
2.8030002 0.19240032 0.69441497 0
2.8120003 0.18894243 0.69550264 0
2.8230002 0.16816074 0.69683206 0
2.8150003 0.16309746 0.69586521 0
2.8100002 0.15831736 0.69526088 0
2.8070002 0.15372124 0.69489837 0
2.8030002 0.1490548 0.69441497 0
2.8010001 0.1445615 0.69417322 0
2.7990003 0.14007545 0.69393158 0
2.7980001 0.13567235 0.69381064 0
2.7960002 0.13119891 0.69356894 0
2.7950003 0.12680483 0.69344807 0
2.7950003 0.12248471 0.69344807 0
2.7940001 0.11809602 0.69332725 0
2.7950003 0.11384447 0.69344807 0
2.7950003 0.10952435 0.69344807 0
2.7950003 0.10520422 0.69344807 0
2.7960002 0.10094543 0.69356894 0
2.7970002 0.09668304 0.69368982 0
2.7990003 0.092474744 0.69393158 0
2.8010001 0.088259235 0.69417322 0
2.8030002 0.084036529 0.69441497 0
2.8060002 0.079858914 0.69477749 0
2.8100002 0.075720981 0.69526088 0
2.8150003 0.07161732 0.69586521 0
2.8070002 0.066885918 0.69489837 0
2.8090003 0.062634349 0.69514012 0
2.8110001 0.058375549 0.69538176 0
2.8140001 0.054151032 0.69574434 0
2.8170002 0.049915697 0.69610691 0
2.8200002 0.04566953 0.69646943 0
2.8240001 0.041448619 0.69695294 0
2.8280003 0.037213285 0.69743633 0
2.8350003 0.033060912 0.69828236 0
2.7210002 0.42290357 0.68031818 0
2.7220001 0.41891712 0.68043721 0
2.7220001 0.41472867 0.68043721 0
2.7230003 0.41073689 0.6805563 0
2.7230003 0.40654662 0.6805563 0
2.7240002 0.40254939 0.68067533 0
2.7250001 0.39854854 0.68079436 0
2.7250001 0.39435467 0.68079436 0
2.7260003 0.39034843 0.68091345 0
2.7270002 0.38633856 0.68103254 0
2.8120003 0.28465968 0.69115186 0
2.7980001 0.27841491 0.68948513 0
2.7910001 0.273155 0.6886518 0
2.7870002 0.26831537 0.68817556 0
2.7840002 0.26362008 0.68781841 0
2.7810001 0.25893557 0.68746126 0
2.7790003 0.25438818 0.6872232 0
2.7770002 0.24984798 0.68698502 0
2.7770002 0.24556032 0.68698502 0
2.7760003 0.24115184 0.68686604 0
2.7760003 0.236866 0.68686604 0
2.7760003 0.23258016 0.68686604 0
2.7760003 0.22829428 0.68686604 0
2.7770002 0.22412208 0.68698502 0
2.7780001 0.21994627 0.68710411 0
2.7800002 0.21587688 0.68734217 0
2.7820003 0.21180028 0.68758035 0
2.7850003 0.20782289 0.6879375 0
2.7880001 0.20383464 0.68829465 0
2.7920003 0.19993843 0.68877083 0
2.7970002 0.19612879 0.6893661 0
2.8030002 0.19240032 0.6900804 0
2.8120003 0.18894243 0.69115186 0
2.8290002 0.16869105 0.69317573 0
2.8190002 0.16344377 0.69198525 0
2.8140001 0.15865646 0.69138992 0
2.8090003 0.15388721 0.69079471 0
2.8060002 0.14929831 0.69043756 0
2.8030002 0.14472024 0.6900804 0
2.8010001 0.14023057 0.68984228 0
2.7990003 0.13574812 0.68960416 0
2.7970002 0.13127285 0.6893661 0
2.7960002 0.12687698 0.68924701 0
2.7960002 0.12255506 0.68924701 0
2.7950003 0.1181646 0.68912798 0
2.7950003 0.11384447 0.68912798 0
2.7950003 0.10952435 0.68912798 0
2.7950003 0.10520422 0.68912798 0
2.7960002 0.10094543 0.68924701 0
2.7970002 0.09668304 0.6893661 0
2.7990003 0.092474744 0.68960416 0
2.8000002 0.088203326 0.68972325 0
2.8030002 0.084036529 0.6900804 0
2.8060002 0.079858914 0.69043756 0
2.8100002 0.075720981 0.6909138 0
2.8040001 0.071081594 0.69019943 0
2.8050003 0.06679213 0.69031847 0
2.8070002 0.062544167 0.69055659 0
2.8090003 0.058288973 0.69079471 0
2.8110001 0.05402657 0.69103277 0
2.8130002 0.049756963 0.69127095 0
2.8160002 0.045518015 0.6916281 0
2.8190002 0.041268248 0.69198525 0
2.8220003 0.037007648 0.6923424 0
2.8260002 0.0327687 0.69281858 0
2.8310003 0.028545987 0.69341385 0
2.8380003 0.024362955 0.69424725 0
2.7210002 0.42290357 0.67613155 0
2.7220001 0.41891712 0.67624879 0
2.7220001 0.41472867 0.67624879 0
2.7230003 0.41073689 0.67636603 0
2.7230003 0.40654662 0.67636603 0
2.7240002 0.40254939 0.67648327 0
2.7250001 0.39854854 0.67660052 0
2.7250001 0.39435467 0.67660052 0
2.7260003 0.39034843 0.67671776 0
2.7270002 0.38633856 0.67683506 0
2.8120003 0.28465968 0.68680108 0
2.7980001 0.27841491 0.68515956 0
2.7910001 0.273155 0.68433887 0
2.7870002 0.26831537 0.68386984 0
2.7840002 0.26362008 0.68351817 0
2.7810001 0.25893557 0.68316638 0
2.7790003 0.25438818 0.6829319 0
2.7770002 0.24984798 0.68269742 0
2.7770002 0.24556032 0.68269742 0
2.7760003 0.24115184 0.68258017 0
2.7760003 0.236866 0.68258017 0
2.7760003 0.23258016 0.68258017 0
2.7760003 0.22829428 0.68258017 0
2.7770002 0.22412208 0.68269742 0
2.7780001 0.21994627 0.68281466 0
2.7800002 0.21587688 0.68304914 0
2.7820003 0.21180028 0.68328369 0
2.7850003 0.20782289 0.68363535 0
2.7880001 0.20383464 0.68398714 0
2.7920003 0.19993843 0.68445611 0
2.7970002 0.19612879 0.68504238 0
2.8030002 0.19240032 0.68574584 0
2.8120003 0.18894243 0.68680108 0
3.0460002 0.19264382 0.71423697 0
2.8250003 0.16396329 0.68832529 0
2.8170002 0.1589108 0.68738735 0
2.8120003 0.15413614 0.68680108 0
2.8080003 0.14946066 0.68633211 0
2.8050003 0.14487898 0.68598032 0
2.8020003 0.14030814 0.68562859 0
2.8000002 0.13582386 0.68539405 0
2.7990003 0.13142078 0.68527687 0
2.7970002 0.12694913 0.68504238 0
2.7960002 0.12255506 0.68492508 0
2.7960002 0.11823313 0.68492508 0
2.7950003 0.11384447 0.6848079 0
2.7950003 0.10952435 0.6848079 0
2.7950003 0.10520422 0.6848079 0
2.7960002 0.10094543 0.68492508 0
2.7970002 0.09668304 0.68504238 0
2.7990003 0.092474744 0.68527687 0
2.8010001 0.088259235 0.68551135 0
2.8030002 0.084036529 0.68574584 0
2.8060002 0.079858914 0.68609762 0
2.8100002 0.075720981 0.68656659 0
2.8020003 0.070984185 0.68562859 0
2.8040001 0.066745222 0.68586314 0
2.8050003 0.062453974 0.68598032 0
2.8070002 0.05820239 0.6862148 0
2.8090003 0.053943608 0.68644929 0
2.8110001 0.049677592 0.68668377 0
2.8130002 0.045404378 0.68691832 0
2.8150003 0.041123938 0.6871528 0
2.8180003 0.036870565 0.68750453 0
2.8210001 0.032606352 0.68785632 0
2.8250003 0.028361995 0.68832529 0
2.8290002 0.024103206 0.68879426 0
2.8350003 0.019884098 0.68949777 0
2.7210002 0.42290357 0.67194492 0
2.7220001 0.41891712 0.67206037 0
2.7220001 0.41472867 0.67206037 0
2.7230003 0.41073689 0.67217577 0
2.7230003 0.40654662 0.67217577 0
2.7240002 0.40254939 0.67229128 0
2.7250001 0.39854854 0.67240667 0
2.7250001 0.39435467 0.67240667 0
2.7260003 0.39034843 0.67252213 0
2.7270002 0.38633856 0.67263758 0
2.8120003 0.28465968 0.68245029 0
2.7980001 0.27841491 0.68083405 0
2.7910001 0.273155 0.68002594 0
2.7870002 0.26831537 0.67956418 0
2.7840002 0.26362008 0.67921782 0
2.7810001 0.25893557 0.67887151 0
2.7790003 0.25438818 0.67864066 0
2.7770002 0.24984798 0.67840976 0
2.7770002 0.24556032 0.67840976 0
2.7760003 0.24115184 0.6782943 0
2.7760003 0.236866 0.6782943 0
2.7760003 0.23258016 0.6782943 0
2.7760003 0.22829428 0.6782943 0
2.7770002 0.22412208 0.67840976 0
2.7780001 0.21994627 0.67852521 0
2.7800002 0.21587688 0.67875612 0
2.7820003 0.21180028 0.67898703 0
2.7850003 0.20782289 0.67933333 0
2.7880001 0.20383464 0.67967963 0
2.7920003 0.19993843 0.68014145 0
2.7970002 0.19612879 0.68071866 0
2.8030002 0.19240032 0.68141127 0
2.8120003 0.18894243 0.68245029 0
3.0540001 0.20293994 0.71038765 0
3.0500002 0.19778468 0.70992589 0
3.0480003 0.19282421 0.70969498 0
3.0450003 0.18778257 0.70934868 0
2.8330002 0.16465594 0.68487459 0
2.8210001 0.15924992 0.68348926 0
2.8150003 0.15438506 0.6827966 0
2.8100002 0.14962299 0.68221939 0
2.8070002 0.14503771 0.68187308 0
2.8040001 0.14046325 0.68152672 0
2.8020003 0.13597539 0.68129587 0
2.8000002 0.13149472 0.68106496 0
2.7980001 0.12702127 0.68083405 0
2.7970002 0.1226254 0.68071866 0
2.7960002 0.11823313 0.68060315 0
2.7960002 0.11391121 0.68060315 0
2.7960002 0.10958928 0.68060315 0
2.7960002 0.10526736 0.68060315 0
2.7970002 0.10100676 0.68071866 0
2.7980001 0.096742555 0.68083405 0
2.7990003 0.092474744 0.68094951 0
2.8010001 0.088259235 0.68118036 0
2.8040001 0.08409065 0.68152672 0
2.8060002 0.079858914 0.68175763 0
2.8010001 0.075266406 0.68118036 0
2.8010001 0.070935473 0.68118036 0
2.8030002 0.066698328 0.68141127 0
2.8040001 0.062408876 0.68152672 0
2.8050003 0.058115814 0.68164217 0
2.8070002 0.053860623 0.68187308 0
2.8080003 0.049558554 0.68198848 0
2.8100002 0.045290735 0.68221939 0
2.8120003 0.041015718 0.68245029 0
2.8140001 0.036733467 0.6826812 0
2.8170002 0.032476481 0.68302751 0
2.8200002 0.028208669 0.68337381 0
2.8230002 0.023930039 0.68372017 0
2.8270001 0.019667637 0.68418193 0
2.8310003 0.015390813 0.68464375 0
2.8380003 0.011169899 0.68545187 0
2.7210002 0.42290357 0.66775823 0
2.7220001 0.41891712 0.66787189 0
2.7220001 0.41472867 0.66787189 0
2.7230003 0.41073689 0.66798556 0
2.7230003 0.40654662 0.66798556 0
2.7240002 0.40254939 0.66809916 0
2.7250001 0.39854854 0.66821283 0
2.7250001 0.39435467 0.66821283 0
2.7260003 0.39034843 0.6683265 0
2.7270002 0.38633856 0.6684401 0
2.8120003 0.28465968 0.67809951 0
2.7980001 0.27841491 0.67650855 0
2.7910001 0.273155 0.67571306 0
2.7870002 0.26831537 0.67525852 0
2.7840002 0.26362008 0.67491758 0
2.7810001 0.25893557 0.67457664 0
2.7790003 0.25438818 0.67434943 0
2.7770002 0.24984798 0.6741221 0
2.7770002 0.24556032 0.6741221 0
2.7760003 0.24115184 0.67400849 0
2.7760003 0.236866 0.67400849 0
2.7760003 0.23258016 0.67400849 0
2.7760003 0.22829428 0.67400849 0
2.7770002 0.22412208 0.6741221 0
2.7780001 0.21994627 0.6742357 0
2.7800002 0.21587688 0.67446303 0
2.7820003 0.21180028 0.67469031 0
2.7850003 0.20782289 0.67503124 0
2.7880001 0.20383464 0.67537212 0
2.7920003 0.19993843 0.67582667 0
2.7970002 0.19612879 0.67639488 0
2.8030002 0.19240032 0.6770767 0
2.8120003 0.18894243 0.67809951 0
3.0570002 0.20322135 0.70594132 0
3.0530002 0.19806066 0.70548671 0
3.0490003 0.19291441 0.70503217 0
3.0470002 0.18795933 0.7048049 0
3.0450003 0.18301149 0.70457757 0
2.8270001 0.15975858 0.67980409 0
2.8180003 0.15463398 0.67878139 0
2.8130002 0.14986652 0.67821312 0
2.8090003 0.14519647 0.67775857 0
2.8060002 0.1406184 0.67741764 0
2.8030002 0.13605115 0.6770767 0
2.8010001 0.13156867 0.67684948 0
2.7990003 0.12709343 0.67662215 0
2.7980001 0.12269574 0.67650855 0
2.7970002 0.11830167 0.67639488 0
2.7970002 0.11397794 0.67639488 0
2.7970002 0.1096542 0.67639488 0
2.7970002 0.10533048 0.67639488 0
2.7980001 0.10106808 0.67650855 0
2.7990003 0.096802086 0.67662215 0
2.8000002 0.092532471 0.67673582 0
2.8020003 0.088315174 0.67696309 0
2.8040001 0.08409065 0.67719036 0
2.8070002 0.079911217 0.6775313 0
2.8000002 0.075215921 0.67673582 0
2.8010001 0.070935473 0.67684948 0
2.8020003 0.066651434 0.67696309 0
2.8030002 0.062363785 0.6770767 0
2.8040001 0.058072511 0.67719036 0
2.8050003 0.053777661 0.67730403 0
2.8070002 0.049518857 0.6775313 0
2.8080003 0.045214977 0.67764497 0
2.8100002 0.040943552 0.67787218 0
2.8120003 0.036664922 0.67809951 0
2.8140001 0.032379072 0.67832673 0
2.8160002 0.02808601 0.67855406 0
2.8190002 0.023814593 0.678895 0
2.8220003 0.019532356 0.67923594 0
2.8260002 0.015264541 0.67969048 0
2.8300002 0.010982301 0.68014503 0
2.8350003 0.0067072771 0.68071324 0
2.8410003 0.0024340563 0.68139505 0
2.7210002 0.42290357 0.6635716 0
2.7220001 0.41891712 0.66368341 0
2.7220001 0.41472867 0.66368341 0
2.7230003 0.41073689 0.66379535 0
2.7230003 0.40654662 0.66379535 0
2.7240002 0.40254939 0.66390717 0
2.7250001 0.39854854 0.66401899 0
2.7250001 0.39435467 0.66401899 0
2.7260003 0.39034843 0.66413081 0
2.7270002 0.38633856 0.66424263 0
2.8120003 0.28465968 0.67374873 0
2.7980001 0.27841491 0.67218298 0
2.7910001 0.273155 0.67140019 0
2.7870002 0.26831537 0.6709528 0
2.7840002 0.26362008 0.67061728 0
2.7810001 0.25893557 0.67028177 0
2.7790003 0.25438818 0.67005813 0
2.7770002 0.24984798 0.66983449 0
2.7770002 0.24556032 0.66983449 0
2.7760003 0.24115184 0.66972262 0
2.7760003 0.236866 0.66972262 0
2.7760003 0.23258016 0.66972262 0
2.7760003 0.22829428 0.66972262 0
2.7770002 0.22412208 0.66983449 0
2.7780001 0.21994627 0.66994631 0
2.7800002 0.21587688 0.67016995 0
2.7820003 0.21180028 0.67039359 0
2.7850003 0.20782289 0.67072916 0
2.7880001 0.20383464 0.67106462 0
2.7920003 0.19993843 0.67151201 0
2.7970002 0.19612879 0.67207116 0
2.8030002 0.19240032 0.67274219 0
2.8120003 0.18894243 0.67374873 0
3.0610001 0.20359653 0.7015959 0
3.0560002 0.19833665 0.70103669 0
3.0520003 0.19318497 0.70058942 0
3.0490003 0.18813612 0.70025384 0
3.0460002 0.18309808 0.69991839 0
2.8230002 0.15504886 0.67497891 0
2.8170002 0.15019119 0.67430788 0
2.8110001 0.14535518 0.67363685 0
2.8080003 0.14077352 0.6733014 0
2.8050003 0.13620268 0.67296588 0
2.8020003 0.13164265 0.67263037 0
2.8010001 0.12723774 0.67251849 0
2.7990003 0.12276609 0.67229486 0
2.7980001 0.11837021 0.67218298 0
2.7980001 0.11404468 0.67218298 0
2.7980001 0.10971916 0.67218298 0
2.7980001 0.10539362 0.67218298 0
2.7990003 0.10112943 0.67229486 0
2.8000002 0.096861616 0.67240667 0
2.8010001 0.092590183 0.67251849 0
2.8030002 0.088371083 0.67274219 0
2.8060002 0.084198877 0.6730777 0
2.8000002 0.079545051 0.67240667 0
2.8000002 0.075215921 0.67240667 0
2.8010001 0.070935473 0.67251849 0
2.8020003 0.066651434 0.67263037 0
2.8020003 0.062318686 0.67263037 0
2.8030002 0.058029231 0.67274219 0
2.8040001 0.053736161 0.67285401 0
2.8060002 0.049479175 0.6730777 0
2.8070002 0.045177091 0.67318952 0
2.8080003 0.040871408 0.6733014 0
2.8100002 0.036596376 0.67352504 0
2.8120003 0.03231414 0.67374873 0
2.8140001 0.028024685 0.67397237 0
2.8160002 0.023728009 0.67419606 0
2.8180003 0.019424129 0.67441976 0
2.8210001 0.015138276 0.67475522 0
2.8240001 0.010841604 0.67509073 0
2.8280003 0.0065557584 0.67553806 0
2.8320003 0.0022554807 0.67598546 0
2.8380003 -0.0020231567 0.67665648 0
2.7210002 0.42290357 0.65938497 0
2.7220001 0.41891712 0.659495 0
2.7220001 0.41472867 0.659495 0
2.7230003 0.41073689 0.65960509 0
2.7230003 0.40654662 0.65960509 0
2.7240002 0.40254939 0.65971506 0
2.7250001 0.39854854 0.65982509 0
2.7250001 0.39435467 0.65982509 0
2.7260003 0.39034843 0.65993518 0
2.7270002 0.38633856 0.66004515 0
2.8120003 0.28465968 0.66939795 0
2.7980001 0.27841491 0.66785747 0
2.7910001 0.273155 0.6670872 0
2.7870002 0.26831537 0.66664714 0
2.7840002 0.26362008 0.66631699 0
2.7810001 0.25893557 0.6659869 0
2.7790003 0.25438818 0.66576689 0
2.7770002 0.24984798 0.66554677 0
2.7770002 0.24556032 0.66554677 0
2.7760003 0.24115184 0.66543674 0
2.7760003 0.236866 0.66543674 0
2.7760003 0.23258016 0.66543674 0
2.7760003 0.22829428 0.66543674 0
2.7770002 0.22412208 0.66554677 0
2.7780001 0.21994627 0.66565681 0
2.7800002 0.21587688 0.66587687 0
2.7820003 0.21180028 0.66609699 0
2.7850003 0.20782289 0.66642708 0
2.7880001 0.20383464 0.66675711 0
2.7920003 0.19993843 0.66719729 0
2.7970002 0.19612879 0.66774744 0
2.8030002 0.19240032 0.66840768 0
2.8120003 0.18894243 0.66939795 0
3.0650003 0.20397176 0.69723612 0
3.0590003 0.19861263 0.69657588 0
3.0540001 0.19336534 0.69602573 0
3.0510001 0.18831287 0.69569564 0
3.0480003 0.18327124 0.69536555 0
3.0460002 0.17832519 0.69514549 0
2.8290002 0.15554671 0.67126846 0
2.8200002 0.1504347 0.67027819 0
2.8150003 0.14567266 0.66972804 0
2.8100002 0.14092864 0.66917789 0
2.8070002 0.13635418 0.6688478 0
2.8050003 0.13186452 0.66862774 0
2.8020003 0.1273099 0.66829765 0
2.8010001 0.12290679 0.66818756 0
2.8000002 0.11850731 0.66807753 0
2.8000002 0.11417817 0.66807753 0
2.8000002 0.10984902 0.66807753 0
2.8000002 0.10551988 0.66807753 0
2.8010001 0.10125208 0.66818756 0
2.8020003 0.096980661 0.66829765 0
2.8030002 0.092705637 0.66840768 0
2.8050003 0.088482931 0.66862774 0
2.8080003 0.084307104 0.66895783 0
2.8000002 0.079545051 0.66807753 0
2.8000002 0.075215921 0.66807753 0
2.8010001 0.070935473 0.66818756 0
2.8010001 0.066604525 0.66818756 0
2.8020003 0.062318686 0.66829765 0
2.8030002 0.058029231 0.66840768 0
2.8040001 0.053736161 0.66851765 0
2.8050003 0.049439494 0.66862774 0
2.8060002 0.045139212 0.66873777 0
2.8070002 0.040835325 0.6688478 0
2.8090003 0.036562111 0.66906786 0
2.8100002 0.032249201 0.66917789 0
2.8120003 0.027963351 0.66939795 0
2.8140001 0.02367029 0.66961801 0
2.8160002 0.019370008 0.66983807 0
2.8180003 0.015062522 0.67005813 0
2.8210001 0.010771252 0.67038822 0
2.8230002 0.0064475276 0.67060828 0
2.8260002 0.0021364242 0.67093837 0
2.8310003 -0.0021494217 0.67148852 0
2.8350003 -0.006469544 0.67192864 0
2.8410003 -0.010775231 0.67258888 0
2.7210002 0.42290357 0.65519834 0
2.7220001 0.41891712 0.65530658 0
2.7220001 0.41472867 0.65530658 0
2.7230003 0.41073689 0.65541482 0
2.7230003 0.40654662 0.65541482 0
2.7240002 0.40254939 0.65552306 0
2.7250001 0.39854854 0.65563124 0
2.7250001 0.39435467 0.65563124 0
2.7260003 0.39034843 0.65573955 0
2.7270002 0.38633856 0.65584773 0
2.8120003 0.28465968 0.66504717 0
2.7980001 0.27841491 0.6635319 0
2.7910001 0.273155 0.66277432 0
2.7870002 0.26831537 0.66234142 0
2.7840002 0.26362008 0.66201675 0
2.7810001 0.25893557 0.66169202 0
2.7790003 0.25438818 0.6614756 0
2.7770002 0.24984798 0.66125917 0
2.7770002 0.24556032 0.66125917 0
2.7760003 0.24115184 0.66115093 0
2.7760003 0.236866 0.66115093 0
2.7760003 0.23258016 0.66115093 0
2.7760003 0.22829428 0.66115093 0
2.7770002 0.22412208 0.66125917 0
2.7780001 0.21994627 0.66136742 0
2.7800002 0.21587688 0.66158378 0
2.7820003 0.21180028 0.66180027 0
2.7850003 0.20782289 0.66212499 0
2.7880001 0.20383464 0.66244966 0
2.7920003 0.19993843 0.66288257 0
2.7970002 0.19612879 0.66342372 0
2.8030002 0.19240032 0.66407311 0
2.8120003 0.18894243 0.66504717 0
3.0630002 0.1989806 0.69221246 0
3.0570002 0.19363593 0.69156313 0
3.0530002 0.18848966 0.69113022 0
3.0500002 0.1834444 0.69080549 0
3.0470002 0.17840998 0.69048083 0
3.0450003 0.17346936 0.6902644 0
2.8250003 0.15084058 0.66645414 0
2.8180003 0.14591077 0.6656965 0
2.8130002 0.14116134 0.66515535 0
2.8100002 0.13658147 0.66483068 0
2.8070002 0.13201241 0.66450596 0
2.8050003 0.12752636 0.66428959 0
2.8030002 0.12304749 0.66407311 0
2.8020003 0.1186444 0.66396487 0
2.8020003 0.11431165 0.66396487 0
2.8020003 0.10997891 0.66396487 0
2.8020003 0.10564616 0.66396487 0
2.8030002 0.10137473 0.66407311 0
2.8040001 0.097099707 0.66418135 0
2.8050003 0.092821077 0.66428959 0
2.8070002 0.08859475 0.66450596 0
2.8010001 0.083928302 0.66385663 0
2.8010001 0.079597354 0.66385663 0
2.8010001 0.075266406 0.66385663 0
2.8010001 0.070935473 0.66385663 0
2.8020003 0.066651434 0.66396487 0
2.8020003 0.062318686 0.66396487 0
2.8030002 0.058029231 0.66407311 0
2.8030002 0.053694677 0.66407311 0
2.8040001 0.049399804 0.66418135 0
2.8050003 0.045101341 0.66428959 0
2.8060002 0.040799256 0.66439778 0
2.8070002 0.036493558 0.66450596 0
2.8090003 0.032216731 0.66472244 0
2.8100002 0.027902018 0.66483068 0
2.8120003 0.02361257 0.66504717 0
2.8130002 0.019288834 0.66515535 0
2.8150003 0.014986757 0.66537184 0
2.8170002 0.010677457 0.66558826 0
2.8200002 0.0063825883 0.66591299 0
2.8230002 0.0020769015 0.66623765 0
2.8250003 -0.0022576489 0.66645414 0
2.8290002 -0.0065669455 0.66688704 0
2.8330002 -0.010890678 0.66731995 0
2.8380003 -0.015216207 0.6678611 0
2.8450003 -0.019538132 0.66861868 0
2.7210002 0.42290357 0.65101171 0
2.7220001 0.41891712 0.65111816 0
2.7220001 0.41472867 0.65111816 0
2.7230003 0.41073689 0.65122455 0
2.7230003 0.40654662 0.65122455 0
2.7240002 0.40254939 0.65133101 0
2.7250001 0.39854854 0.6514374 0
2.7250001 0.39435467 0.6514374 0
2.7260003 0.39034843 0.65154386 0
2.7270002 0.38633856 0.65165025 0
2.8120003 0.28465968 0.66069639 0
2.7980001 0.27841491 0.65920639 0
2.7910001 0.273155 0.65846145 0
2.7870002 0.26831537 0.65803576 0
2.7840002 0.26362008 0.65771645 0
2.7810001 0.25893557 0.65739715 0
2.7790003 0.25438818 0.65718436 0
2.7770002 0.24984798 0.65697151 0
2.7770002 0.24556032 0.65697151 0
2.7760003 0.24115184 0.65686506 0
2.7760003 0.236866 0.65686506 0
2.7760003 0.23258016 0.65686506 0
2.7760003 0.22829428 0.65686506 0
2.7770002 0.22412208 0.65697151 0
2.7780001 0.21994627 0.65707791 0
2.7800002 0.21587688 0.65729082 0
2.7820003 0.21180028 0.6575036 0
2.7850003 0.20782289 0.65782291 0
2.7880001 0.20383464 0.65814215 0
2.7920003 0.19993843 0.65856791 0
2.7970002 0.19612879 0.65909994 0
2.8030002 0.19240032 0.65973854 0
2.8120003 0.18894243 0.66069639 0
3.0670002 0.19934857 0.68783462 0
3.0610001 0.19399668 0.68719614 0
3.0560002 0.18875483 0.68666399 0
3.0520003 0.18361756 0.68623829 0
3.0490003 0.17857954 0.68591905 0
3.0470002 0.17363529 0.68570614 0
2.8320003 0.15140878 0.66282487 0
2.8230002 0.1463076 0.66186702 0
2.8170002 0.14147158 0.66122842 0
2.8130002 0.13680875 0.66080278 0
2.8100002 0.13223429 0.66048348 0
2.8080003 0.12774281 0.66027069 0
2.8060002 0.12325855 0.66005778 0
2.8050003 0.11885004 0.65995145 0
2.8040001 0.11444512 0.65984493 0
2.8040001 0.11010876 0.65984493 0
2.8050003 0.10583557 0.65995145 0
2.8050003 0.1014974 0.65995145 0
2.8060002 0.097218767 0.66005778 0
2.8080003 0.092994243 0.66027069 0
2.8020003 0.088315174 0.65963209 0
2.8020003 0.083982423 0.65963209 0
2.8020003 0.079649672 0.65963209 0
2.8020003 0.075316936 0.65963209 0
2.8020003 0.070984185 0.65963209 0
2.8020003 0.066651434 0.65963209 0
2.8020003 0.062318686 0.65963209 0
2.8030002 0.058029231 0.65973854 0
2.8030002 0.053694677 0.65973854 0
2.8040001 0.049399804 0.65984493 0
2.8050003 0.045101341 0.65995145 0
2.8060002 0.040799256 0.66005778 0
2.8070002 0.036493558 0.66016424 0
2.8080003 0.032184269 0.66027069 0
2.8090003 0.027871359 0.66037709 0
2.8100002 0.023554843 0.66048348 0
2.8120003 0.019261789 0.66069639 0
2.8130002 0.01493625 0.66080278 0
2.8150003 0.010630559 0.66101563 0
2.8170002 0.0063176528 0.66122842 0
2.8190002 0.0019975342 0.66144133 0
2.8220003 -0.0023117661 0.66176057 0
2.8250003 -0.0066318847 0.66207993 0
2.8280003 -0.010962829 0.66239917 0
2.8310003 -0.015304593 0.66271842 0
2.8360002 -0.019635538 0.66325057 0
2.8410003 -0.02398452 0.66378272 0
2.7210002 0.42290357 0.64682508 0
2.7220001 0.41891712 0.64692968 0
2.7220001 0.41472867 0.64692968 0
2.7230003 0.41073689 0.64703429 0
2.7230003 0.40654662 0.64703429 0
2.7240002 0.40254939 0.64713895 0
2.7250001 0.39854854 0.64724356 0
2.7250001 0.39435467 0.64724356 0
2.7260003 0.39034843 0.64734817 0
2.7270002 0.38633856 0.64745277 0
2.8120003 0.28465968 0.65634561 0
2.7980001 0.27841491 0.65488088 0
2.7910001 0.273155 0.65414858 0
2.7870002 0.26831537 0.65373003 0
2.7840002 0.26362008 0.65341616 0
2.7810001 0.25893557 0.65310234 0
2.7790003 0.25438818 0.65289307 0
2.7770002 0.24984798 0.65268385 0
2.7770002 0.24556032 0.65268385 0
2.7760003 0.24115184 0.65257925 0
2.7760003 0.236866 0.65257925 0
2.7760003 0.23258016 0.65257925 0
2.7760003 0.22829428 0.65257925 0
2.7770002 0.22412208 0.65268385 0
2.7780001 0.21994627 0.65278846 0
2.7800002 0.21587688 0.65299773 0
2.7820003 0.21180028 0.65320694 0
2.7850003 0.20782289 0.65352082 0
2.7880001 0.20383464 0.65383464 0
2.7920003 0.19993843 0.65425313 0
2.7970002 0.19612879 0.65477622 0
2.8030002 0.19240032 0.65540397 0
2.8120003 0.18894243 0.65634561 0
3.0730002 0.19990054 0.68365163 0
3.0640001 0.19426724 0.68271005 0
3.0590003 0.18901996 0.68218696 0
3.0550003 0.18387732 0.68176842 0
3.0510001 0.17874908 0.68134993 0
3.0490003 0.17380124 0.68114072 0
3.0460002 0.16877945 0.68082684 0
2.8290002 0.14678381 0.65812409 0
2.8220003 0.14185941 0.65739179 0
2.8170002 0.13711178 0.6568687 0
2.8140001 0.13253011 0.65655482 0
2.8110001 0.12795925 0.65624094 0
2.8100002 0.12353994 0.65613627 0
2.8080003 0.11905567 0.65592706 0
2.8080003 0.1147121 0.65592706 0
2.8080003 0.11036853 0.65592706 0
2.8080003 0.10602497 0.65592706 0
2.8080003 0.1016814 0.65592706 0
2.8100002 0.097456872 0.65613627 0
2.8110001 0.093167409 0.65624094 0
2.8030002 0.088371083 0.65540397 0
2.8030002 0.084036529 0.65540397 0
2.8030002 0.079701975 0.65540397 0
2.8030002 0.075367436 0.65540397 0
2.8030002 0.071032882 0.65540397 0
2.8030002 0.066698328 0.65540397 0
2.8030002 0.062363785 0.65540397 0
2.8030002 0.058029231 0.65540397 0
2.8040001 0.053736161 0.65550864 0
2.8040001 0.049399804 0.65550864 0
2.8050003 0.045101341 0.65561318 0
2.8050003 0.040763181 0.65561318 0
2.8060002 0.036459293 0.65571785 0
2.8070002 0.032151792 0.65582246 0
2.8080003 0.0278407 0.65592706 0
2.8090003 0.023525987 0.65603173 0
2.8110001 0.019234721 0.65624094 0
2.8120003 0.014910996 0.65634561 0
2.8130002 0.010583661 0.65645021 0
2.8150003 0.0062743649 0.65665942 0
2.8170002 0.0019578487 0.6568687 0
2.8190002 -0.002365876 0.65707791 0
2.8210001 -0.006696824 0.65728712 0
2.8240001 -0.011020552 0.657601 0
2.8270001 -0.015355103 0.65791488 0
2.8300002 -0.019700477 0.65822875 0
2.8340001 -0.024047654 0.65864718 0
2.8380003 -0.028409261 0.65906572 0
2.8450003 -0.032769065 0.65979803 0
2.7210002 0.42290357 0.64263844 0
2.7220001 0.41891712 0.64274126 0
2.7220001 0.41472867 0.64274126 0
2.7230003 0.41073689 0.64284408 0
2.7230003 0.40654662 0.64284408 0
2.7240002 0.40254939 0.64294684 0
2.7250001 0.39854854 0.64304972 0
2.7250001 0.39435467 0.64304972 0
2.7260003 0.39034843 0.64315253 0
2.7270002 0.38633856 0.64325535 0
2.8120003 0.28465968 0.65199482 0
2.7980001 0.27841491 0.65055537 0
2.7910001 0.273155 0.64983559 0
2.7870002 0.26831537 0.64942437 0
2.7840002 0.26362008 0.64911592 0
2.7810001 0.25893557 0.64880741 0
2.7790003 0.25438818 0.64860183 0
2.7770002 0.24984798 0.64839619 0
2.7770002 0.24556032 0.64839619 0
2.7760003 0.24115184 0.64829338 0
2.7760003 0.236866 0.64829338 0
2.7760003 0.23258016 0.64829338 0
2.7760003 0.22829428 0.64829338 0
2.7770002 0.22412208 0.64839619 0
2.7780001 0.21994627 0.64849901 0
2.7800002 0.21587688 0.64870465 0
2.7820003 0.21180028 0.64891028 0
2.7850003 0.20782289 0.64921874 0
2.7880001 0.20383464 0.64952719 0
2.7920003 0.19993843 0.64993846 0
2.7970002 0.19612879 0.65045249 0
2.8030002 0.19240032 0.6510694 0
2.8120003 0.18894243 0.65199482 0
3.0690002 0.19471821 0.67841876 0
3.0620003 0.18928513 0.67769909 0
3.0570002 0.18405047 0.67718494 0
3.0530002 0.17891864 0.67677367 0
3.0500002 0.17388421 0.67646527 0
3.0480003 0.1689418 0.67625964 0
3.0460002 0.16400656 0.676054 0
2.8290002 0.14240235 0.65374267 0
2.8230002 0.13756634 0.65312576 0
2.8190002 0.1328999 0.65271449 0
2.8160002 0.12832002 0.65240604 0
2.8140001 0.12382132 0.6522004 0
2.8120003 0.11932984 0.65199482 0
2.8110001 0.11491232 0.65189195 0
2.8110001 0.11056332 0.65189195 0
2.8120003 0.1062775 0.65199482 0
2.8120003 0.1019267 0.65199482 0
2.8140001 0.097694963 0.6522004 0
2.8060002 0.092878804 0.65137792 0
2.8050003 0.088482931 0.65127504 0
2.8050003 0.084144771 0.65127504 0
2.8040001 0.079754293 0.65117222 0
2.8040001 0.075417936 0.65117222 0
2.8040001 0.071081594 0.65117222 0
2.8040001 0.066745222 0.65117222 0
2.8040001 0.062408876 0.65117222 0
2.8040001 0.058072511 0.65117222 0
2.8040001 0.053736161 0.65117222 0
2.8050003 0.049439494 0.65127504 0
2.8050003 0.045101341 0.65127504 0
2.8050003 0.040763181 0.65127504 0
2.8060002 0.036459293 0.65137792 0
2.8070002 0.032151792 0.65148067 0
2.8080003 0.0278407 0.65158355 0
2.8090003 0.023525987 0.65168631 0
2.8090003 0.019180615 0.65168631 0
2.8110001 0.014885742 0.65189195 0
2.8120003 0.010560215 0.65199482 0
2.8140001 0.0062527135 0.6522004 0
2.8150003 0.0019181669 0.65230322 0
2.8170002 -0.0024019554 0.65250885 0
2.8190002 -0.0067292899 0.65271449 0
2.8210001 -0.011063844 0.65292013 0
2.8230002 -0.01540561 0.65312576 0
2.8260002 -0.019743767 0.65343422 0
2.8290002 -0.024092749 0.65374267 0
2.8320003 -0.028452553 0.65405113 0
2.8360002 -0.03281777 0.6544624 0
2.8410003 -0.037193809 0.65497649 0
2.8480003 -0.041584276 0.65569621 0
2.7210002 0.42290357 0.63845181 0
2.7220001 0.41891712 0.63855278 0
2.7220001 0.41472867 0.63855278 0
2.7230003 0.41073689 0.63865381 0
2.7230003 0.40654662 0.63865381 0
2.7240002 0.40254939 0.63875484 0
2.7250001 0.39854854 0.63885581 0
2.7250001 0.39435467 0.63885581 0
2.7260003 0.39034843 0.6389569 0
2.7270002 0.38633856 0.63905787 0
2.8120003 0.28465968 0.64764398 0
2.7980001 0.27841491 0.6462298 0
2.7910001 0.273155 0.64552271 0
2.7870002 0.26831537 0.64511865 0
2.7840002 0.26362008 0.64481562 0
2.7810001 0.25893557 0.64451259 0
2.7790003 0.25438818 0.64431059 0
2.7770002 0.24984798 0.64410853 0
2.7770002 0.24556032 0.64410853 0
2.7760003 0.24115184 0.64400756 0
2.7760003 0.236866 0.64400756 0
2.7760003 0.23258016 0.64400756 0
2.7760003 0.22829428 0.64400756 0
2.7770002 0.22412208 0.64410853 0
2.7780001 0.21994627 0.6442095 0
2.7800002 0.21587688 0.64441156 0
2.7820003 0.21180028 0.64461362 0
2.7850003 0.20782289 0.64491665 0
2.7880001 0.20383464 0.64521968 0
2.7920003 0.19993843 0.64562374 0
2.7970002 0.19612879 0.64612877 0
2.8030002 0.19240032 0.64673489 0
2.8120003 0.18894243 0.64764398 0
3.0750003 0.19525936 0.67421055 0
3.0660002 0.18963867 0.67330134 0
3.0600002 0.18431023 0.67269528 0
3.0560002 0.17917299 0.67229128 0
3.0520003 0.17405018 0.67188716 0
3.0500002 0.16910413 0.67168516 0
3.0480003 0.1641653 0.67148316 0
3.0470002 0.15931125 0.67138213 0
2.8310003 0.13817243 0.64956325 0
2.8250003 0.13334364 0.64895719 0
2.8210001 0.12868077 0.64855313 0
2.8190002 0.12417306 0.64835107 0
2.8170002 0.11967257 0.64814907 0
2.8160002 0.11524603 0.64804804 0
2.8160002 0.11088802 0.64804804 0
2.8160002 0.10653003 0.64804804 0
2.8170002 0.10223335 0.64814907 0
2.8190002 0.097992599 0.64835107 0
2.8080003 0.092994243 0.64723992 0
2.8070002 0.08859475 0.64713895 0
2.8070002 0.084252983 0.64713895 0
2.8060002 0.079858914 0.64703792 0
2.8060002 0.075518951 0.64703792 0
2.8050003 0.071130291 0.64693689 0
2.8050003 0.06679213 0.64693689 0
2.8050003 0.062453974 0.64693689 0
2.8050003 0.058115814 0.64693689 0
2.8050003 0.053777661 0.64693689 0
2.8050003 0.049439494 0.64693689 0
2.8050003 0.045101341 0.64693689 0
2.8060002 0.040799256 0.64703792 0
2.8060002 0.036459293 0.64703792 0
2.8070002 0.032151792 0.64713895 0
2.8070002 0.027810033 0.64713895 0
2.8080003 0.023497123 0.64723992 0
2.8090003 0.019180615 0.64734095 0
2.8100002 0.014860488 0.64744198 0
2.8110001 0.01053676 0.64754295 0
2.8120003 0.0062094256 0.64764398 0
2.8140001 0.0018983223 0.64784604 0
2.8150003 -0.0024380311 0.64794707 0
2.8170002 -0.0067617595 0.64814907 0
2.8190002 -0.011092704 0.64835107 0
2.8210001 -0.015430862 0.64855313 0
2.8230002 -0.019776236 0.64875513 0
2.8250003 -0.024128824 0.64895719 0
2.8280003 -0.028481415 0.64926022 0
2.8310003 -0.032844827 0.64956325 0
2.8350003 -0.037215453 0.64996731 0
2.8390002 -0.04160051 0.65037137 0
2.8450003 -0.046 0.65097743 0
2.7210002 0.42290357 0.63426518 0
2.7220001 0.41891712 0.63436437 0
2.7220001 0.41472867 0.63436437 0
2.7230003 0.41073689 0.63446355 0
2.7230003 0.40654662 0.63446355 0
2.7240002 0.40254939 0.63456279 0
2.7250001 0.39854854 0.63466197 0
2.7250001 0.39435467 0.63466197 0
2.7260003 0.39034843 0.63476121 0
2.7270002 0.38633856 0.6348604 0
2.8120003 0.28465968 0.6432932 0
2.7980001 0.27841491 0.64190423 0
2.7910001 0.273155 0.64120984 0
2.7870002 0.26831537 0.64081299 0
2.7840002 0.26362008 0.64051533 0
2.7810001 0.25893557 0.64021772 0
2.7790003 0.25438818 0.6400193 0
2.7770002 0.24984798 0.63982087 0
2.7770002 0.24556032 0.63982087 0
2.7760003 0.24115184 0.63972169 0
2.7760003 0.236866 0.63972169 0
2.7760003 0.23258016 0.63972169 0
2.7760003 0.22829428 0.63972169 0
2.7770002 0.22412208 0.63982087 0
2.7780001 0.21994627 0.63992012 0
2.7800002 0.21587688 0.64011854 0
2.7820003 0.21180028 0.64031696 0
2.7850003 0.20782289 0.64061457 0
2.7880001 0.20383464 0.64091218 0
2.7920003 0.19993843 0.64130902 0
2.7970002 0.19612879 0.64180505 0
2.8030002 0.19240032 0.64240032 0
2.8120003 0.18894243 0.6432932 0
3.0720003 0.19016901 0.66908765 0
3.0640001 0.18465656 0.66829395 0
3.0590003 0.17942733 0.66779792 0
3.0550003 0.17429911 0.66740108 0
3.0520003 0.16926648 0.66710353 0
3.0500002 0.16432403 0.66690505 0
3.0480003 0.15938883 0.66670668 0
3.0480003 0.15461235 0.66670668 0
2.8300002 0.12933016 0.64507902 0
2.8260002 0.12466551 0.64468217 0
2.8240001 0.12015237 0.64448375 0
2.8230002 0.11571321 0.6443845 0
2.8220003 0.11127765 0.64428532 0
2.8230002 0.10697195 0.6443845 0
2.8240001 0.10266265 0.64448375 0
2.8130002 0.097635448 0.64339244 0
2.8110001 0.093167409 0.64319396 0
2.8100002 0.088762507 0.64309478 0
2.8090003 0.084361225 0.6429956 0
2.8080003 0.079963535 0.64289641 0
2.8080003 0.075619966 0.64289641 0
2.8070002 0.071227685 0.64279717 0
2.8070002 0.066885918 0.64279717 0
2.8060002 0.062499065 0.64269793 0
2.8060002 0.058159102 0.64269793 0
2.8060002 0.053819146 0.64269793 0
2.8060002 0.049479175 0.64269793 0
2.8060002 0.045139212 0.64269793 0
2.8060002 0.040799256 0.64269793 0
2.8070002 0.036493558 0.64279717 0
2.8070002 0.032151792 0.64279717 0
2.8070002 0.027810033 0.64279717 0
2.8080003 0.023497123 0.64289641 0
2.8090003 0.019180615 0.6429956 0
2.8100002 0.014860488 0.64309478 0
2.8110001 0.01053676 0.64319396 0
2.8110001 0.0061877742 0.64319396 0
2.8130002 0.0018784814 0.64339244 0
2.8140001 -0.0024560727 0.64349163 0
2.8150003 -0.0067942254 0.64359087 0
2.8170002 -0.011121564 0.64378923 0
2.8180003 -0.015468739 0.64388847 0
2.8200002 -0.019808706 0.6440869 0
2.8220003 -0.024155883 0.64428532 0
2.8240001 -0.028510276 0.64448375 0
2.8270001 -0.032866471 0.64478135 0
2.8300002 -0.037233494 0.64507902 0
2.8330002 -0.041611336 0.64537662 0
2.8370001 -0.046 0.64577341 0
2.8410003 -0.050403096 0.64617026 0
2.8480003 -0.054831445 0.64686477 0
2.7210002 0.42290357 0.63007855 0
2.7220001 0.41891712 0.63017595 0
2.7220001 0.41472867 0.63017595 0
2.7230003 0.41073689 0.63027334 0
2.7230003 0.40654662 0.63027334 0
2.7240002 0.40254939 0.63037074 0
2.7250001 0.39854854 0.63046813 0
2.7250001 0.39435467 0.63046813 0
2.7260003 0.39034843 0.63056552 0
2.7270002 0.38633856 0.63066292 0
2.8120003 0.28465968 0.63894248 0
2.7980001 0.27841491 0.63757873 0
2.7910001 0.273155 0.63689691 0
2.7870002 0.26831537 0.63650727 0
2.7840002 0.26362008 0.63621509 0
2.7810001 0.25893557 0.63592285 0
2.7790003 0.25438818 0.635728 0
2.7770002 0.24984798 0.63553321 0
2.7770002 0.24556032 0.63553321 0
2.7760003 0.24115184 0.63543582 0
2.7760003 0.236866 0.63543582 0
2.7760003 0.23258016 0.63543582 0
2.7760003 0.22829428 0.63543582 0
2.7770002 0.22412208 0.63553321 0
2.7780001 0.21994627 0.63563061 0
2.7800002 0.21587688 0.63582546 0
2.7820003 0.21180028 0.63602024 0
2.7850003 0.20782289 0.63631248 0
2.7880001 0.20383464 0.63660467 0
2.7920003 0.19993843 0.63699436 0
2.7970002 0.19612879 0.63748133 0
2.8030002 0.19240032 0.63806581 0
2.8120003 0.18894243 0.63894248 0
3.0680003 0.18500291 0.66387826 0
3.0620003 0.17968166 0.66329384 0
3.0580003 0.17454803 0.66290426 0
3.0550003 0.16950999 0.66261202 0
3.0530002 0.16456214 0.66241717 0
3.0510001 0.15962151 0.66222239 0
3.0500002 0.15476385 0.66212499 0
3.0500002 0.14998375 0.66212499 0
3.0500002 0.14520366 0.66212499 0
2.8340001 0.12083782 0.64108539 0
2.8320003 0.11631389 0.64089054 0
2.8310003 0.11186208 0.64079314 0
2.8320003 0.10754015 0.64089054 0
2.8180003 0.10229468 0.63952684 0
2.8170002 0.097873539 0.63942945 0
2.8150003 0.093398303 0.63923466 0
2.8130002 0.088930264 0.63903981 0
2.8120003 0.084523574 0.63894248 0
2.8110001 0.080120459 0.63884503 0
2.8100002 0.075720981 0.63874757 0
2.8090003 0.071325108 0.63865024 0
2.8090003 0.066979721 0.63865024 0
2.8080003 0.062589258 0.63855278 0
2.8080003 0.058245692 0.63855278 0
2.8070002 0.053860623 0.63845539 0
2.8070002 0.049518857 0.63845539 0
2.8070002 0.045177091 0.63845539 0
2.8070002 0.040835325 0.63845539 0
2.8070002 0.036493558 0.63845539 0
2.8070002 0.032151792 0.63845539 0
2.8080003 0.0278407 0.63855278 0
2.8080003 0.023497123 0.63855278 0
2.8090003 0.019180615 0.63865024 0
2.8090003 0.014835238 0.63865024 0
2.8100002 0.010513313 0.63874757 0
2.8110001 0.0061877742 0.63884503 0
2.8120003 0.0018586405 0.63894248 0
2.8130002 -0.0024741068 0.63903981 0
2.8140001 -0.006810464 0.63913727 0
2.8150003 -0.011150423 0.63923466 0
2.8170002 -0.01548137 0.63942945 0
2.8180003 -0.01983035 0.63952684 0
2.8200002 -0.024173921 0.63972169 0
2.8220003 -0.028524706 0.63991648 0
2.8240001 -0.032882705 0.64011127 0
2.8260002 -0.037247922 0.64030612 0
2.8290002 -0.041618548 0.6405983 0
2.8320003 -0.046 0.64089054 0
2.8360002 -0.050394077 0.64128017 0
2.8400002 -0.054802585 0.64166981 0
2.8450003 -0.059230935 0.64215684 0
2.8520002 -0.06369175 0.64283866 0
2.7210002 0.42290357 0.62589186 0
2.7220001 0.41891712 0.62598747 0
2.7220001 0.41472867 0.62598747 0
2.7230003 0.41073689 0.62608308 0
2.7230003 0.40654662 0.62608308 0
2.7240002 0.40254939 0.62617868 0
2.7250001 0.39854854 0.62627429 0
2.7250001 0.39435467 0.62627429 0
2.7260003 0.39034843 0.62636989 0
2.7270002 0.38633856 0.6264655 0
2.8120003 0.28465968 0.63459164 0
2.7980001 0.27841491 0.63325322 0
2.7910001 0.273155 0.63258398 0
2.7870002 0.26831537 0.63220155 0
2.7840002 0.26362008 0.63191479 0
2.7810001 0.25893557 0.63162798 0
2.7790003 0.25438818 0.63143682 0
2.7770002 0.24984798 0.63124555 0
2.7770002 0.24556032 0.63124555 0
2.7760003 0.24115184 0.63115001 0
2.7760003 0.236866 0.63115001 0
2.7760003 0.23258016 0.63115001 0
2.7760003 0.22829428 0.63115001 0
2.7770002 0.22412208 0.63124555 0
2.7780001 0.21994627 0.63134116 0
2.7800002 0.21587688 0.63153237 0
2.7820003 0.21180028 0.63172358 0
2.7850003 0.20782289 0.6320104 0
2.7880001 0.20383464 0.63229716 0
2.7920003 0.19993843 0.63267958 0
2.7970002 0.19612879 0.63315761 0
2.8030002 0.19240032 0.63373125 0
2.8120003 0.18894243 0.63459164 0
3.0750003 0.18560898 0.65973496 0
3.0670002 0.18010554 0.65897012 0
3.0620003 0.17487994 0.65849209 0
3.0590003 0.16983467 0.65820527 0
3.0560002 0.16480024 0.65791845 0
3.0550003 0.15993176 0.65782291 0
3.0540001 0.15506689 0.65772724 0
3.0530002 0.15020563 0.6576317 0
3.0530002 0.14542012 0.6576317 0
3.0540001 0.14070497 0.65772724 0
3.0550003 0.13598621 0.65782291 0
3.0570002 0.13133058 0.65801406 0
3.0500002 0.1260833 0.65734488 0
2.8240001 0.10266265 0.63573885 0
2.8210001 0.098111629 0.63545203 0
2.8190002 0.093629181 0.63526082 0
2.8170002 0.089153931 0.63506961 0
2.8160002 0.084740013 0.63497406 0
2.8140001 0.080277398 0.63478285 0
2.8130002 0.075872496 0.63468724 0
2.8120003 0.071471214 0.63459164 0
2.8110001 0.067073524 0.63449603 0
2.8100002 0.062679455 0.63440043 0
2.8100002 0.058332268 0.63440043 0
2.8090003 0.053943608 0.63430488 0
2.8090003 0.049598236 0.63430488 0
2.8080003 0.045214977 0.63420928 0
2.8080003 0.040871408 0.63420928 0
2.8080003 0.036527839 0.63420928 0
2.8080003 0.032184269 0.63420928 0
2.8080003 0.0278407 0.63420928 0
2.8090003 0.023525987 0.63430488 0
2.8090003 0.019180615 0.63430488 0
2.8100002 0.014860488 0.63440043 0
2.8100002 0.010513313 0.63440043 0
2.8110001 0.0061877742 0.63449603 0
2.8120003 0.0018586405 0.63459164 0
2.8120003 -0.002492141 0.63459164 0
2.8130002 -0.0068266951 0.63468724 0
2.8140001 -0.011164855 0.63478285 0
2.8160002 -0.015493996 0.63497406 0
2.8170002 -0.019841174 0.63506961 0
2.8180003 -0.024191957 0.63516527 0
2.8200002 -0.028539136 0.63535649 0
2.8220003 -0.032893531 0.63554764 0
2.8240001 -0.037255138 0.63573885 0
2.8260002 -0.041623961 0.63593006 0
2.8290002 -0.046 0.63621688 0
2.8310003 -0.050385058 0.63640809 0
2.8340001 -0.054780938 0.63669485 0
2.8380003 -0.059193052 0.63707727 0
2.8420002 -0.063619599 0.6374597 0
2.8480003 -0.068078615 0.63803327 0
2.7210002 0.42290357 0.62170523 0
2.7220001 0.41891712 0.62179905 0
2.7220001 0.41472867 0.62179905 0
2.7230003 0.41073689 0.62189281 0
2.7230003 0.40654662 0.62189281 0
2.7240002 0.40254939 0.62198663 0
2.7250001 0.39854854 0.62208045 0
2.7250001 0.39435467 0.62208045 0
2.7260003 0.39034843 0.62217426 0
2.7270002 0.38633856 0.62226802 0
2.8120003 0.28465968 0.63024086 0
2.7980001 0.27841491 0.62892771 0
2.7910001 0.273155 0.6282711 0
2.7870002 0.26831537 0.62789589 0
2.7840002 0.26362008 0.6276145 0
2.7810001 0.25893557 0.6273331 0
2.7790003 0.25438818 0.62714553 0
2.7770002 0.24984798 0.62695789 0
2.7770002 0.24556032 0.62695789 0
2.7760003 0.24115184 0.62686414 0
2.7760003 0.236866 0.62686414 0
2.7760003 0.23258016 0.62686414 0
2.7760003 0.22829428 0.62686414 0
2.7770002 0.22412208 0.62695789 0
2.7780001 0.21994627 0.62705171 0
2.7800002 0.21587688 0.62723935 0
2.7820003 0.21180028 0.62742692 0
2.7850003 0.20782289 0.62770832 0
2.7880001 0.20383464 0.62798971 0
2.7920003 0.19993843 0.62836492 0
2.7970002 0.19612879 0.62883389 0
2.8030002 0.19240032 0.62939668 0
2.8120003 0.18894243 0.63024086 0
3.0740001 0.18069901 0.65481591 0
3.0680003 0.17537779 0.65425313 0
3.0640001 0.17024052 0.65387797 0
3.0610001 0.16519707 0.65359652 0
3.0590003 0.16024202 0.653409 0
3.0580003 0.15536994 0.65331519 0
3.0570002 0.15050144 0.65322137 0
3.0570002 0.14570872 0.65322137 0
3.0580003 0.14098637 0.65331519 0
3.0600002 0.13632892 0.65350276 0
3.0520003 0.13099688 0.6527524 0
3.0520003 0.12621318 0.6527524 0
2.8360002 0.10779268 0.63249201 0
2.8310003 0.10309197 0.63202304 0
2.8270001 0.098468795 0.63164783 0
2.8240001 0.093917787 0.63136643 0
2.8220003 0.089433536 0.63117886 0
2.8200002 0.084956482 0.63099122 0
2.8180003 0.080486655 0.63080364 0
2.8160002 0.076024011 0.63061607 0
2.8150003 0.07161732 0.63052225 0
2.8140001 0.067214221 0.63042843 0
2.8130002 0.062814727 0.63033468 0
2.8120003 0.058418851 0.63024086 0
2.8110001 0.05402657 0.63014704 0
2.8110001 0.049677592 0.63014704 0
2.8100002 0.045290735 0.63005328 0
2.8100002 0.040943552 0.63005328 0
2.8090003 0.036562111 0.62995946 0
2.8090003 0.032216731 0.62995946 0
2.8090003 0.027871359 0.62995946 0
2.8090003 0.023525987 0.62995946 0
2.8100002 0.019207668 0.63005328 0
2.8100002 0.014860488 0.63005328 0
2.8100002 0.010513313 0.63005328 0
2.8110001 0.0061877742 0.63014704 0
2.8110001 0.0018387958 0.63014704 0
2.8120003 -0.002492141 0.63024086 0
2.8130002 -0.0068266951 0.63033468 0
2.8140001 -0.011164855 0.63042843 0
2.8150003 -0.015506621 0.63052225 0
2.8160002 -0.019851997 0.63061607 0
2.8170002 -0.024200978 0.63070983 0
2.8190002 -0.028546352 0.63089746 0
2.8200002 -0.032904353 0.63099122 0
2.8220003 -0.037262354 0.63117886 0
2.8240001 -0.041627571 0.63136643 0
2.8260002 -0.046 0.63155401 0
2.8280003 -0.050379645 0.63174164 0
2.8310003 -0.054770116 0.63202304 0
2.8330002 -0.059165996 0.63221061 0
2.8360002 -0.063576311 0.63249201 0
2.8410003 -0.068015479 0.63296103 0
2.8450003 -0.072461866 0.63333619 0
2.8470001 -0.076897427 0.63352376 0
2.8460002 -0.081296921 0.63343 0
2.8450003 -0.085692801 0.63333619 0
2.8460002 -0.09012115 0.63343 0
2.8470001 -0.094553098 0.63352376 0
2.8500001 -0.099031962 0.63380516 0
2.7210002 0.42290357 0.6175186 0
2.7220001 0.41891712 0.61761057 0
2.7220001 0.41472867 0.61761057 0
2.7230003 0.41073689 0.6177026 0
2.7230003 0.40654662 0.6177026 0
2.7240002 0.40254939 0.61779457 0
2.7250001 0.39854854 0.61788654 0
2.7250001 0.39435467 0.61788654 0
2.7260003 0.39034843 0.61797857 0
2.7270002 0.38633856 0.6180706 0
2.8120003 0.28465968 0.62589008 0
2.7980001 0.27841491 0.62460214 0
2.7910001 0.273155 0.62395817 0
2.7870002 0.26831537 0.62359023 0
2.7840002 0.26362008 0.6233142 0
2.7810001 0.25893557 0.62303823 0
2.7790003 0.25438818 0.62285429 0
2.7770002 0.24984798 0.62267029 0
2.7770002 0.24556032 0.62267029 0
2.7760003 0.24115184 0.62257826 0
2.7760003 0.236866 0.62257826 0
2.7760003 0.23258016 0.62257826 0
2.7760003 0.22829428 0.62257826 0
2.7770002 0.22412208 0.62267029 0
2.7780001 0.21994627 0.62276226 0
2.7800002 0.21587688 0.62294626 0
2.7820003 0.21180028 0.62313026 0
2.7850003 0.20782289 0.62340623 0
2.7880001 0.20383464 0.6236822 0
2.7920003 0.19993843 0.6240502 0
2.7970002 0.19612879 0.62451017 0
2.8030002 0.19240032 0.62506211 0
2.8120003 0.18894243 0.62589008 0
3.0760002 0.17604157 0.65017653 0
3.0710003 0.17080873 0.64971662 0
3.0670002 0.16567327 0.64934862 0
3.0650003 0.16070741 0.64916462 0
3.0630002 0.15574874 0.64898062 0
3.0630002 0.15094519 0.64898062 0
3.0630002 0.14614165 0.64898062 0
3.0630002 0.14133811 0.64898062 0
3.0650003 0.13667166 0.64916462 0
3.0550003 0.13119711 0.64824468 0
3.0540001 0.12634304 0.64815265 0
3.0530002 0.12149261 0.64806068 0
2.8360002 0.099004522 0.62809795 0
2.8310003 0.094321847 0.62763798 0
2.8270001 0.089713112 0.62726998 0
2.8250003 0.085227057 0.62708598 0
2.8220003 0.080695882 0.62681001 0
2.8200002 0.076226041 0.62662601 0
2.8180003 0.071763426 0.62644207 0
2.8170002 0.067354918 0.62635005 0
2.8150003 0.062904924 0.62616605 0
2.8140001 0.058505427 0.62607408 0
2.8130002 0.054109547 0.62598205 0
2.8120003 0.049717281 0.62589008 0
2.8120003 0.0453665 0.62589008 0
2.8120003 0.041015718 0.62589008 0
2.8110001 0.036630649 0.62579805 0
2.8110001 0.032281663 0.62579805 0
2.8110001 0.027932685 0.62579805 0
2.8110001 0.023583706 0.62579805 0
2.8110001 0.019234721 0.62579805 0
2.8110001 0.014885742 0.62579805 0
2.8110001 0.01053676 0.62579805 0
2.8110001 0.0061877742 0.62579805 0
2.8120003 0.0018586405 0.62589008 0
2.8120003 -0.002492141 0.62589008 0
2.8130002 -0.0068266951 0.62598205 0
2.8130002 -0.011179287 0.62598205 0
2.8140001 -0.015519248 0.62607408 0
2.8150003 -0.019862818 0.62616605 0
2.8160002 -0.024209997 0.62625802 0
2.8170002 -0.028560782 0.62635005 0
2.8190002 -0.032909766 0.62653404 0
2.8200002 -0.03726957 0.62662601 0
2.8220003 -0.041631177 0.62681001 0
2.8240001 -0.046 0.62699401 0
2.8260002 -0.050376039 0.62717795 0
2.8280003 -0.054759294 0.62736201 0
2.8300002 -0.059149761 0.62754595 0
2.8330002 -0.063554659 0.62782192 0
2.8360002 -0.06797038 0.62809795 0
2.8390002 -0.072396934 0.62837392 0
2.8370001 -0.076771162 0.62818992 0
2.8370001 -0.081167042 0.62818992 0
2.8370001 -0.08556293 0.62818992 0
2.8370001 -0.089958802 0.62818992 0
2.8380003 -0.09437453 0.62828195 0
2.8400002 -0.098815501 0.62846589 0
2.8430002 -0.10328715 0.62874186 0
2.8460002 -0.10776961 0.62901789 0
2.8520002 -0.11234407 0.62956983 0
2.7210002 0.42290357 0.61333197 0
2.7220001 0.41891712 0.61342216 0
2.7220001 0.41472867 0.61342216 0
2.7230003 0.41073689 0.61351234 0
2.7230003 0.40654662 0.61351234 0
2.7240002 0.40254939 0.61360252 0
2.7250001 0.39854854 0.6136927 0
2.7250001 0.39435467 0.6136927 0
2.7260003 0.39034843 0.61378294 0
2.7270002 0.38633856 0.61387312 0
2.8120003 0.28465968 0.62153929 0
2.7980001 0.27841491 0.62027663 0
2.7910001 0.273155 0.6196453 0
2.7870002 0.26831537 0.61928451 0
2.7840002 0.26362008 0.61901397 0
2.7810001 0.25893557 0.61874336 0
2.7790003 0.25438818 0.618563 0
2.7770002 0.24984798 0.61838263 0
2.7770002 0.24556032 0.61838263 0
2.7760003 0.24115184 0.61829245 0
2.7760003 0.236866 0.61829245 0
2.7760003 0.23258016 0.61829245 0
2.7760003 0.22829428 0.61829245 0
2.7770002 0.22412208 0.61838263 0
2.7790003 0.22005811 0.618563 0
2.7800002 0.21587688 0.61865318 0
2.7820003 0.21180028 0.6188336 0
2.7850003 0.20782289 0.61910415 0
2.7880001 0.20383464 0.61937469 0
2.7920003 0.19993843 0.61973548 0
2.7970002 0.19612879 0.62018645 0
2.8030002 0.19240032 0.6207276 0
2.8120003 0.18894243 0.62153929 0
3.0750003 0.16630824 0.64525938 0
3.0720003 0.16125034 0.64498878 0
3.0700002 0.15627904 0.64480841 0
3.0690002 0.15138893 0.64471823 0
3.0690002 0.14657457 0.64471823 0
3.0700002 0.14183055 0.64480841 0
3.0600002 0.13632892 0.64390647 0
3.0580003 0.13139732 0.64372611 0
3.0570002 0.12653786 0.64363593 0
3.0560002 0.12168202 0.64354575 0
3.0550003 0.11682977 0.64345556 0
3.0540001 0.11198112 0.64336538 0
2.8420002 0.094956785 0.62424499 0
2.8350003 0.090160474 0.62361366 0
2.8310003 0.085551739 0.62325293 0
2.8280003 0.081009746 0.62298232 0
2.8250003 0.076478586 0.62271178 0
2.8220003 0.071958244 0.62244117 0
2.8210001 0.067542508 0.62235099 0
2.8190002 0.063085303 0.62217063 0
2.8170002 0.058635306 0.6219902 0
