# .PCD v0.7 - Point Cloud Data file format
VERSION 0.7
FIELDS x y z intensity
SIZE 4 4 4 4
TYPE F F F F
COUNT 1 1 1 1
WIDTH 1415
HEIGHT 1
VIEWPOINT 0 0 0 1 0 0 0
POINTS 1415
DATA ascii
3.0720003 0.32512274 0.21120898 0
3.0710003 0.32016587 0.21128114 0
3.0710003 0.31534788 0.21128114 0
2.8560002 0.28183132 0.22679389 0
2.8480003 0.27634776 0.22737111 0
2.8440001 0.27141252 0.22765973 0
2.8400002 0.26649174 0.22794832 0
2.8370001 0.26171163 0.22816479 0
2.8350003 0.25706685 0.22830908 0
2.8340001 0.25255188 0.22838125 0
2.8330002 0.24804056 0.2284534 0
2.8320003 0.24353287 0.22852555 0
2.8320003 0.23914602 0.22852555 0
2.8320003 0.23475915 0.22852555 0
2.8330002 0.23048592 0.2284534 0
2.8340001 0.22620907 0.22838125 0
2.8350003 0.22192866 0.22830908 0
2.8370001 0.21775281 0.22816479 0
2.8390002 0.21356979 0.22802049 0
2.8420002 0.20948416 0.22780402 0
2.8450003 0.20538774 0.22758757 0
2.8490002 0.20138149 0.22729896 0
2.8540003 0.19746001 0.22693819 0
2.8610003 0.1937153 0.22643313 0
2.8720002 0.19032773 0.22563946 0
2.6970003 0.70808923 0.23412275 0
2.6920002 0.70231342 0.23449256 0
2.6890001 0.69720507 0.23471442 0
2.6870003 0.69243044 0.23486233 0
2.6860001 0.68798393 0.2349363 0
2.6860001 0.68386048 0.2349363 0
2.6870003 0.68005449 0.23486233 0
2.6880002 0.6762448 0.23478837 0
2.6890001 0.67243153 0.23471442 0
2.6910002 0.66892678 0.23456649 0
2.6930003 0.66541475 0.23441859 0
2.6960001 0.66220391 0.23419672 0
2.7010002 0.65959567 0.23382695 0
2.7060001 0.65696925 0.23345718 0
2.7140002 0.65523404 0.23286551 0
3.0770001 0.51414019 0.20601943 0
3.0690002 0.50765193 0.20661108 0
3.0660002 0.50222063 0.20683295 0
3.0630002 0.49680012 0.20705482 0
3.0620003 0.49179459 0.20712878 0
3.0620003 0.4869929 0.20712878 0
3.0630002 0.48238957 0.20705482 0
2.7890003 0.42371351 0.22731879 0
2.7830002 0.4182353 0.22776254 0
2.7800002 0.41335782 0.22798441 0
2.7770002 0.4084911 0.22820628 0
2.7760003 0.40401408 0.22828023 0
2.7760003 0.39972824 0.22828023 0
2.7760003 0.39544237 0.22828023 0
2.7770002 0.39134052 0.22820628 0
2.7780001 0.38723505 0.22813232 0
2.7800002 0.38330635 0.22798441 0
2.7830002 0.37954903 0.22776254 0
2.7860003 0.37578088 0.22754067 0
2.7910001 0.37235183 0.2271709 0
2.7990003 0.36942425 0.22657923 0
3.0960002 0.35763454 0.20461427 0
3.0880003 0.35158819 0.20520592 0
3.0820003 0.34586293 0.20564966 0
3.0780003 0.3404479 0.20594546 0
3.0750003 0.33518979 0.20616734 0
3.0730002 0.33008319 0.20631526 0
3.0720003 0.32512274 0.2063892 0
3.0710003 0.32016587 0.20646316 0
3.0710003 0.31534788 0.20646316 0
2.8560002 0.28183132 0.22236374 0
2.8480003 0.27634776 0.22295538 0
2.8440001 0.27141252 0.22325122 0
2.8400002 0.26649174 0.22354704 0
2.8370001 0.26171163 0.22376892 0
2.8350003 0.25706685 0.22391681 0
2.8340001 0.25255188 0.22399078 0
2.8330002 0.24804056 0.22406472 0
2.8320003 0.24353287 0.22413869 0
2.8320003 0.23914602 0.22413869 0
2.8320003 0.23475915 0.22413869 0
2.8330002 0.23048592 0.22406472 0
2.8340001 0.22620907 0.22399078 0
2.8350003 0.22192866 0.22391681 0
2.8370001 0.21775281 0.22376892 0
2.8390002 0.21356979 0.22362098 0
2.8420002 0.20948416 0.22339912 0
2.8450003 0.20538774 0.22317725 0
2.8490002 0.20138149 0.22288144 0
2.8540003 0.19746001 0.22251165 0
2.8610003 0.1937153 0.22199395 0
2.8720002 0.19032773 0.22118044 0
2.6970003 0.70808923 0.22997941 0
2.6920002 0.70231342 0.23035823 0
2.6890001 0.69720507 0.2305855 0
2.6870003 0.69243044 0.23073702 0
2.6860001 0.68798393 0.23081279 0
2.6860001 0.68386048 0.23081279 0
2.6870003 0.68005449 0.23073702 0
2.6880002 0.6762448 0.23066126 0
2.6890001 0.67243153 0.2305855 0
2.6910002 0.66892678 0.23043397 0
2.6930003 0.66541475 0.23028246 0
2.6960001 0.66220391 0.23005518 0
2.7010002 0.65959567 0.22967638 0
2.7060001 0.65696925 0.22929759 0
2.7140002 0.65523404 0.2286915 0
3.0770001 0.51414019 0.20119064 0
3.0690002 0.50765193 0.20179671 0
3.0660002 0.50222063 0.202024 0
3.0630002 0.49680012 0.20225127 0
3.0620003 0.49179459 0.20232703 0
3.0620003 0.4869929 0.20232703 0
3.0630002 0.48238957 0.20225127 0
2.7890003 0.42371351 0.2230095 0
2.7830002 0.4182353 0.22346406 0
2.7800002 0.41335782 0.22369134 0
2.7770002 0.4084911 0.22391862 0
2.7760003 0.40401408 0.22399437 0
2.7760003 0.39972824 0.22399437 0
2.7760003 0.39544237 0.22399437 0
2.7770002 0.39134052 0.22391862 0
2.7780001 0.38723505 0.22384287 0
2.7800002 0.38330635 0.22369134 0
2.7830002 0.37954903 0.22346406 0
2.7860003 0.37578088 0.22323678 0
2.7910001 0.37235183 0.22285798 0
2.7990003 0.36942425 0.22225189 0
3.0960002 0.35763454 0.19975121 0
3.0880003 0.35158819 0.20035727 0
3.0820003 0.34586293 0.20081183 0
3.0780003 0.3404479 0.20111488 0
3.0750003 0.33518979 0.20134215 0
3.0730002 0.33008319 0.20149368 0
3.0720003 0.32512274 0.20156944 0
3.0710003 0.32016587 0.2016452 0
3.0710003 0.31534788 0.2016452 0
2.8560002 0.28183132 0.2179336 0
2.8480003 0.27634776 0.21853966 0
2.8440001 0.27141252 0.21884272 0
2.8400002 0.26649174 0.21914575 0
2.8370001 0.26171163 0.21937303 0
2.8350003 0.25706685 0.21952455 0
2.8340001 0.25255188 0.21960032 0
2.8330002 0.24804056 0.21967606 0
2.8320003 0.24353287 0.21975182 0
2.8320003 0.23914602 0.21975182 0
2.8320003 0.23475915 0.21975182 0
2.8330002 0.23048592 0.21967606 0
2.8340001 0.22620907 0.21960032 0
2.8350003 0.22192866 0.21952455 0
2.8370001 0.21775281 0.21937303 0
2.8390002 0.21356979 0.2192215 0
2.8420002 0.20948416 0.21899423 0
2.8450003 0.20538774 0.21876694 0
2.8490002 0.20138149 0.21846391 0
2.8540003 0.19746001 0.2180851 0
2.8610003 0.1937153 0.21755478 0
2.8720002 0.19032773 0.21672143 0
2.6970003 0.70808923 0.22583607 0
2.6920002 0.70231342 0.2262239 0
2.6890001 0.69720507 0.22645658 0
2.6870003 0.69243044 0.2266117 0
2.6860001 0.68798393 0.22668928 0
2.6860001 0.68386048 0.22668928 0
2.6870003 0.68005449 0.2266117 0
2.6880002 0.6762448 0.22653414 0
2.6890001 0.67243153 0.22645658 0
2.6910002 0.66892678 0.22630145 0
2.6930003 0.66541475 0.22614633 0
2.6960001 0.66220391 0.22591364 0
2.7010002 0.65959567 0.22552581 0
2.7060001 0.65696925 0.22513801 0
2.7140002 0.65523404 0.22451748 0
3.0770001 0.51414019 0.19636185 0
3.0690002 0.50765193 0.19698235 0
3.0660002 0.50222063 0.19721504 0
3.0630002 0.49680012 0.19744775 0
3.0620003 0.49179459 0.19752529 0
3.0620003 0.4869929 0.19752529 0
3.0630002 0.48238957 0.19744775 0
2.7890003 0.42371351 0.2187002 0
2.7830002 0.4182353 0.21916558 0
2.7800002 0.41335782 0.21939828 0
2.7770002 0.4084911 0.21963097 0
2.7760003 0.40401408 0.21970853 0
2.7760003 0.39972824 0.21970853 0
2.7760003 0.39544237 0.21970853 0
2.7770002 0.39134052 0.21963097 0
2.7780001 0.38723505 0.21955343 0
2.7800002 0.38330635 0.21939828 0
2.7830002 0.37954903 0.21916558 0
2.7860003 0.37578088 0.2189329 0
2.7910001 0.37235183 0.21854508 0
2.7990003 0.36942425 0.21792457 0
3.0960002 0.35763454 0.19488814 0
3.0880003 0.35158819 0.19550864 0
3.0820003 0.34586293 0.19597402 0
3.0780003 0.3404479 0.19628428 0
3.0750003 0.33518979 0.19651696 0
3.0730002 0.33008319 0.1966721 0
3.0720003 0.32512274 0.19674967 0
3.0710003 0.32016587 0.19682722 0
3.0710003 0.31534788 0.19682722 0
2.8560002 0.28183132 0.21350344 0
2.8480003 0.27634776 0.21412393 0
2.8440001 0.27141252 0.21443421 0
2.8400002 0.26649174 0.21474445 0
2.8370001 0.26171163 0.21497716 0
2.8350003 0.25706685 0.21513227 0
2.8340001 0.25255188 0.21520984 0
2.8330002 0.24804056 0.2152874 0
2.8320003 0.24353287 0.21536496 0
2.8320003 0.23914602 0.21536496 0
2.8320003 0.23475915 0.21536496 0
2.8330002 0.23048592 0.2152874 0
2.8340001 0.22620907 0.21520984 0
2.8350003 0.22192866 0.21513227 0
2.8370001 0.21775281 0.21497716 0
2.8390002 0.21356979 0.21482201 0
2.8420002 0.20948416 0.21458933 0
2.8450003 0.20538774 0.21435663 0
2.8490002 0.20138149 0.21404637 0
2.8540003 0.19746001 0.21365856 0
2.8610003 0.1937153 0.21311562 0
2.8720002 0.19032773 0.21226241 0
2.6970003 0.70808923 0.22169271 0
2.6920002 0.70231342 0.22208957 0
2.6890001 0.69720507 0.22232766 0
2.6870003 0.69243044 0.22248639 0
2.6860001 0.68798393 0.22256577 0
2.6860001 0.68386048 0.22256577 0
2.6870003 0.68005449 0.22248639 0
2.6880002 0.6762448 0.22240703 0
2.6890001 0.67243153 0.22232766 0
2.6910002 0.66892678 0.22216892 0
2.6930003 0.66541475 0.22201018 0
2.6960001 0.66220391 0.22177209 0
2.7010002 0.65959567 0.22137526 0
2.7060001 0.65696925 0.22097842 0
2.7140002 0.65523404 0.22034347 0
3.0770001 0.51414019 0.19153306 0
3.0690002 0.50765193 0.192168 0
3.0660002 0.50222063 0.19240609 0
3.0630002 0.49680012 0.19264419 0
3.0620003 0.49179459 0.19272356 0
3.0620003 0.4869929 0.19272356 0
3.0630002 0.48238957 0.19264419 0
2.7890003 0.42371351 0.2143909 0
2.7830002 0.4182353 0.21486712 0
2.7800002 0.41335782 0.21510522 0
2.7770002 0.4084911 0.21534331 0
2.7760003 0.40401408 0.21542269 0
2.7760003 0.39972824 0.21542269 0
2.7760003 0.39544237 0.21542269 0
2.7770002 0.39134052 0.21534331 0
2.7780001 0.38723505 0.21526395 0
2.7800002 0.38330635 0.21510522 0
2.7830002 0.37954903 0.21486712 0
2.7860003 0.37578088 0.21462901 0
2.7910001 0.37235183 0.21423218 0
2.7990003 0.36942425 0.21359722 0
3.0960002 0.35763454 0.19002506 0
3.0880003 0.35158819 0.19066 0
3.0820003 0.34586293 0.1911362 0
3.0780003 0.3404479 0.19145368 0
3.0750003 0.33518979 0.19169177 0
3.0730002 0.33008319 0.19185051 0
3.0720003 0.32512274 0.19192988 0
3.0710003 0.32016587 0.19200926 0
3.0710003 0.31534788 0.19200926 0
2.8560002 0.28183132 0.20907329 0
2.8480003 0.27634776 0.20970821 0
2.8440001 0.27141252 0.2100257 0
2.8400002 0.26649174 0.21034317 0
2.8370001 0.26171163 0.21058127 0
2.8350003 0.25706685 0.21074 0
2.8340001 0.25255188 0.21081938 0
2.8330002 0.24804056 0.21089874 0
2.8320003 0.24353287 0.21097809 0
2.8320003 0.23914602 0.21097809 0
2.8320003 0.23475915 0.21097809 0
2.8330002 0.23048592 0.21089874 0
2.8340001 0.22620907 0.21081938 0
2.8350003 0.22192866 0.21074 0
2.8370001 0.21775281 0.21058127 0
2.8390002 0.21356979 0.21042252 0
2.8420002 0.20948416 0.21018443 0
2.8450003 0.20538774 0.20994632 0
2.8490002 0.20138149 0.20962885 0
2.8540003 0.19746001 0.209232 0
2.8610003 0.1937153 0.20867643 0
2.8720002 0.19032773 0.2078034 0
2.6970003 0.70808923 0.21754937 0
2.6920002 0.70231342 0.21795525 0
2.6890001 0.69720507 0.21819875 0
2.6870003 0.69243044 0.21836108 0
2.6860001 0.68798393 0.21844226 0
2.6860001 0.68386048 0.21844226 0
2.6870003 0.68005449 0.21836108 0
2.6880002 0.6762448 0.21827991 0
2.6890001 0.67243153 0.21819875 0
2.6910002 0.66892678 0.2180364 0
2.6930003 0.66541475 0.21787405 0
2.6960001 0.66220391 0.21763055 0
2.7010002 0.65959567 0.21722469 0
2.7060001 0.65696925 0.21681885 0
2.7140002 0.65523404 0.21616946 0
3.0770001 0.51414019 0.18670426 0
3.0690002 0.50765193 0.18735363 0
3.0660002 0.50222063 0.18759714 0
3.0630002 0.49680012 0.18784066 0
3.0620003 0.49179459 0.18792182 0
3.0620003 0.4869929 0.18792182 0
3.0630002 0.48238957 0.18784066 0
2.7890003 0.42371351 0.21008161 0
2.7830002 0.4182353 0.21056864 0
2.7800002 0.41335782 0.21081215 0
2.7770002 0.4084911 0.21105567 0
2.7760003 0.40401408 0.21113683 0
2.7760003 0.39972824 0.21113683 0
2.7760003 0.39544237 0.21113683 0
2.7770002 0.39134052 0.21105567 0
2.7780001 0.38723505 0.2109745 0
2.7800002 0.38330635 0.21081215 0
2.7830002 0.37954903 0.21056864 0
2.7860003 0.37578088 0.21032512 0
2.7910001 0.37235183 0.20991927 0
2.7990003 0.36942425 0.20926988 0
3.0960002 0.35763454 0.18516199 0
3.0880003 0.35158819 0.18581137 0
3.0820003 0.34586293 0.18629839 0
3.0780003 0.3404479 0.18662308 0
3.0750003 0.33518979 0.1868666 0
3.0730002 0.33008319 0.18702894 0
3.0720003 0.32512274 0.18711011 0
3.0710003 0.32016587 0.18719128 0
3.0710003 0.31534788 0.18719128 0
2.8560002 0.28183132 0.20464313 0
2.8480003 0.27634776 0.20529249 0
2.8440001 0.27141252 0.20561719 0
2.8400002 0.26649174 0.20594187 0
2.8370001 0.26171163 0.20618539 0
2.8350003 0.25706685 0.20634773 0
2.8340001 0.25255188 0.20642892 0
2.8330002 0.24804056 0.20651008 0
2.8320003 0.24353287 0.20659123 0
2.8320003 0.23914602 0.20659123 0
2.8320003 0.23475915 0.20659123 0
2.8330002 0.23048592 0.20651008 0
2.8340001 0.22620907 0.20642892 0
2.8350003 0.22192866 0.20634773 0
2.8370001 0.21775281 0.20618539 0
2.8390002 0.21356979 0.20602304 0
2.8420002 0.20948416 0.20577952 0
2.8450003 0.20538774 0.20553601 0
2.8490002 0.20138149 0.20521133 0
2.8540003 0.19746001 0.20480546 0
2.8610003 0.1937153 0.20423727 0
2.8720002 0.19032773 0.20334439 0
2.6970003 0.70808923 0.21340603 0
2.6920002 0.70231342 0.21382092 0
2.6890001 0.69720507 0.21406984 0
2.6870003 0.69243044 0.21423577 0
2.6860001 0.68798393 0.21431877 0
2.6860001 0.68386048 0.21431877 0
2.6870003 0.68005449 0.21423577 0
2.6880002 0.6762448 0.21415281 0
2.6890001 0.67243153 0.21406984 0
2.6910002 0.66892678 0.21390387 0
2.6930003 0.66541475 0.21373792 0
2.6960001 0.66220391 0.21348901 0
2.7010002 0.65959567 0.21307412 0
2.7060001 0.65696925 0.21265927 0
2.7140002 0.65523404 0.21199545 0
3.0770001 0.51414019 0.18187547 0
3.0690002 0.50765193 0.18253925 0
3.0650003 0.50201499 0.18287115 0
3.0630002 0.49680012 0.18303712 0
3.0620003 0.49179459 0.18312007 0
3.0620003 0.4869929 0.18312007 0
3.0630002 0.48238957 0.18303712 0
2.7890003 0.42371351 0.20577231 0
2.7830002 0.4182353 0.20627016 0
2.7800002 0.41335782 0.2065191 0
2.7770002 0.4084911 0.20676802 0
2.7760003 0.40401408 0.20685099 0
2.7760003 0.39972824 0.20685099 0
2.7760003 0.39544237 0.20685099 0
2.7770002 0.39134052 0.20676802 0
2.7780001 0.38723505 0.20668505 0
2.7800002 0.38330635 0.2065191 0
2.7830002 0.37954903 0.20627016 0
2.7860003 0.37578088 0.20602123 0
2.7910001 0.37235183 0.20560637 0
2.7990003 0.36942425 0.20494257 0
3.0960002 0.35763454 0.18029892 0
3.0880003 0.35158819 0.18096273 0
3.0820003 0.34586293 0.18146057 0
3.0780003 0.3404479 0.18179248 0
3.0750003 0.33518979 0.18204141 0
3.0730002 0.33008319 0.18220736 0
3.0720003 0.32512274 0.18229033 0
3.0710003 0.32016587 0.1823733 0
3.0710003 0.31534788 0.1823733 0
2.8560002 0.28183132 0.20021297 0
2.8480003 0.27634776 0.20087677 0
2.8440001 0.27141252 0.20120868 0
2.8400002 0.26649174 0.20154057 0
2.8370001 0.26171163 0.2017895 0
2.8350003 0.25706685 0.20195545 0
2.8340001 0.25255188 0.20203844 0
2.8330002 0.24804056 0.20212141 0
2.8320003 0.24353287 0.20220438 0
2.8320003 0.23914602 0.20220438 0
2.8320003 0.23475915 0.20220438 0
2.8330002 0.23048592 0.20212141 0
2.8340001 0.22620907 0.20203844 0
2.8350003 0.22192866 0.20195545 0
2.8370001 0.21775281 0.2017895 0
2.8390002 0.21356979 0.20162354 0
2.8420002 0.20948416 0.20137462 0
2.8450003 0.20538774 0.2011257 0
2.8490002 0.20138149 0.2007938 0
2.8540003 0.19746001 0.20037891 0
2.8610003 0.1937153 0.19979809 0
2.8720002 0.19032773 0.19888537 0
2.6970003 0.70808923 0.20926268 0
2.6920002 0.70231342 0.20968659 0
2.6890001 0.69720507 0.20994093 0
2.6870003 0.69243044 0.21011047 0
2.6860001 0.68798393 0.21019526 0
2.6860001 0.68386048 0.21019526 0
2.6870003 0.68005449 0.21011047 0
2.6880002 0.6762448 0.2100257 0
2.6890001 0.67243153 0.20994093 0
2.6910002 0.66892678 0.20977135 0
2.6930003 0.66541475 0.20960179 0
2.6960001 0.66220391 0.20934747 0
2.7010002 0.65959567 0.20892356 0
2.7060001 0.65696925 0.20849968 0
2.7140002 0.65523404 0.20782144 0
3.0770001 0.51414019 0.17704667 0
3.0690002 0.50765193 0.1777249 0
3.0650003 0.50201499 0.178064 0
3.0630002 0.49680012 0.17823358 0
3.0620003 0.49179459 0.17831835 0
3.0620003 0.4869929 0.17831835 0
3.0630002 0.48238957 0.17823358 0
2.7890003 0.42371351 0.20146301 0
2.7830002 0.4182353 0.20197168 0
2.7800002 0.41335782 0.20222601 0
2.7770002 0.4084911 0.20248038 0
2.7760003 0.40401408 0.20256515 0
2.7760003 0.39972824 0.20256515 0
2.7760003 0.39544237 0.20256515 0
2.7770002 0.39134052 0.20248038 0
2.7780001 0.38723505 0.20239559 0
2.7800002 0.38330635 0.20222601 0
2.7830002 0.37954903 0.20197168 0
2.7860003 0.37578088 0.20171735 0
2.7910001 0.37235183 0.20129347 0
2.7990003 0.36942425 0.20061523 0
3.0960002 0.35763454 0.17543587 0
3.0880003 0.35158819 0.1761141 0
3.0820003 0.34586293 0.17662276 0
3.0780003 0.3404479 0.17696187 0
3.0750003 0.33518979 0.17721622 0
3.0730002 0.33008319 0.17738579 0
3.0720003 0.32512274 0.17747056 0
3.0710003 0.32016587 0.17755534 0
3.0710003 0.31534788 0.17755534 0
2.8560002 0.28183132 0.19578283 0
2.8480003 0.27634776 0.19646105 0
2.8440001 0.27141252 0.19680017 0
2.8400002 0.26649174 0.19713929 0
2.8370001 0.26171163 0.19739363 0
2.8350003 0.25706685 0.19756317 0
2.8340001 0.25255188 0.19764796 0
2.8330002 0.24804056 0.19773273 0
2.8320003 0.24353287 0.19781752 0
2.8320003 0.23914602 0.19781752 0
2.8320003 0.23475915 0.19781752 0
2.8330002 0.23048592 0.19773273 0
2.8340001 0.22620907 0.19764796 0
2.8350003 0.22192866 0.19756317 0
2.8370001 0.21775281 0.19739363 0
2.8390002 0.21356979 0.19722407 0
2.8420002 0.20948416 0.19696972 0
2.8450003 0.20538774 0.19671538 0
2.8490002 0.20138149 0.19637628 0
2.8540003 0.19746001 0.19595237 0
2.8610003 0.1937153 0.19535892 0
2.8720002 0.19032773 0.19442636 0
2.6970003 0.70808923 0.20511933 0
2.6920002 0.70231342 0.20555225 0
2.6890001 0.69720507 0.20581201 0
2.6870003 0.69243044 0.20598516 0
2.6860001 0.68798393 0.20607176 0
2.6860001 0.68386048 0.20607176 0
2.6870003 0.68005449 0.20598516 0
2.6880002 0.6762448 0.20589858 0
2.6890001 0.67243153 0.20581201 0
2.6910002 0.66892678 0.20563884 0
2.6930003 0.66541475 0.20546566 0
2.6960001 0.66220391 0.20520593 0
2.7010002 0.65959567 0.20477301 0
2.7060001 0.65696925 0.20434009 0
2.7140002 0.65523404 0.20364742 0
3.0770001 0.51414019 0.17221788 0
3.0690002 0.50765193 0.17291054 0
3.0650003 0.50201499 0.17325684 0
3.0630002 0.49680012 0.17343003 0
3.0620003 0.49179459 0.1735166 0
3.0620003 0.4869929 0.1735166 0
3.0630002 0.48238957 0.17343003 0
2.7890003 0.42371351 0.1971537 0
2.7830002 0.4182353 0.19767322 0
2.7800002 0.41335782 0.19793296 0
2.7770002 0.4084911 0.1981927 0
2.7760003 0.40401408 0.19827929 0
2.7760003 0.39972824 0.19827929 0
2.7760003 0.39544237 0.19827929 0
2.7770002 0.39134052 0.1981927 0
2.7780001 0.38723505 0.19810614 0
2.7800002 0.38330635 0.19793296 0
2.7830002 0.37954903 0.19767322 0
2.7860003 0.37578088 0.19741346 0
2.7910001 0.37235183 0.19698055 0
2.7990003 0.36942425 0.19628789 0
3.0960002 0.35763454 0.1705728 0
3.0880003 0.35158819 0.17126544 0
3.0820003 0.34586293 0.17178495 0
3.0780003 0.3404479 0.17213129 0
3.0750003 0.33518979 0.17239103 0
3.0730002 0.33008319 0.17256421 0
3.0720003 0.32512274 0.17265077 0
3.0710003 0.32016587 0.17273736 0
3.0710003 0.31534788 0.17273736 0
2.8560002 0.28183132 0.19135268 0
2.8480003 0.27634776 0.19204532 0
2.8440001 0.27141252 0.19239168 0
2.8400002 0.26649174 0.192738 0
2.8370001 0.26171163 0.19299775 0
2.8350003 0.25706685 0.19317091 0
2.8340001 0.25255188 0.1932575 0
2.8330002 0.24804056 0.19334407 0
2.8320003 0.24353287 0.19343065 0
2.8320003 0.23914602 0.19343065 0
2.8320003 0.23475915 0.19343065 0
2.8330002 0.23048592 0.19334407 0
2.8340001 0.22620907 0.1932575 0
2.8350003 0.22192866 0.19317091 0
2.8370001 0.21775281 0.19299775 0
2.8390002 0.21356979 0.19282457 0
2.8420002 0.20948416 0.19256483 0
2.8450003 0.20538774 0.19230507 0
2.8490002 0.20138149 0.19195876 0
2.8540003 0.19746001 0.19152583 0
2.8610003 0.1937153 0.19091976 0
2.8720002 0.19032773 0.18996735 0
2.6970003 0.70808923 0.20097598 0
2.6920002 0.70231342 0.20141792 0
2.6890001 0.69720507 0.20168309 0
2.6870003 0.69243044 0.20185985 0
2.6860001 0.68798393 0.20194826 0
2.6860001 0.68386048 0.20194826 0
2.6870003 0.68005449 0.20185985 0
2.6880002 0.6762448 0.20177147 0
2.6890001 0.67243153 0.20168309 0
2.6910002 0.66892678 0.20150632 0
2.6930003 0.66541475 0.20132953 0
2.6960001 0.66220391 0.20106439 0
2.7010002 0.65959567 0.20062244 0
2.7060001 0.65696925 0.20018052 0
2.7140002 0.65523404 0.19947341 0
3.0770001 0.51414019 0.16738908 0
3.0690002 0.50765193 0.16809617 0
3.0650003 0.50201499 0.16844971 0
3.0630002 0.49680012 0.1686265 0
3.0620003 0.49179459 0.16871488 0
3.0620003 0.4869929 0.16871488 0
3.0630002 0.48238957 0.1686265 0
2.7890003 0.42371351 0.19284441 0
2.7830002 0.4182353 0.19337474 0
2.7800002 0.41335782 0.1936399 0
2.7770002 0.4084911 0.19390506 0
2.7760003 0.40401408 0.19399343 0
2.7760003 0.39972824 0.19399343 0
2.7760003 0.39544237 0.19399343 0
2.7770002 0.39134052 0.19390506 0
2.7780001 0.38723505 0.19381668 0
2.7800002 0.38330635 0.1936399 0
2.7830002 0.37954903 0.19337474 0
2.7860003 0.37578088 0.19310957 0
2.7910001 0.37235183 0.19266765 0
2.7990003 0.36942425 0.19196054 0
3.0960002 0.35763454 0.16570973 0
3.0880003 0.35158819 0.16641682 0
3.0820003 0.34586293 0.16694713 0
3.0780003 0.3404479 0.16730067 0
3.0750003 0.33518979 0.16756584 0
3.0730002 0.33008319 0.16774262 0
3.0720003 0.32512274 0.167831 0
3.0710003 0.32016587 0.16791938 0
3.0710003 0.31534788 0.16791938 0
2.8560002 0.28183132 0.18692252 0
2.8480003 0.27634776 0.1876296 0
2.8440001 0.27141252 0.18798317 0
2.8400002 0.26649174 0.1883367 0
2.8370001 0.26171163 0.18860187 0
2.8350003 0.25706685 0.18877862 0
2.8340001 0.25255188 0.18886703 0
2.8330002 0.24804056 0.18895541 0
2.8320003 0.24353287 0.18904379 0
2.8320003 0.23914602 0.18904379 0
2.8320003 0.23475915 0.18904379 0
2.8330002 0.23048592 0.18895541 0
2.8340001 0.22620907 0.18886703 0
2.8350003 0.22192866 0.18877862 0
2.8370001 0.21775281 0.18860187 0
2.8390002 0.21356979 0.18842508 0
2.8420002 0.20948416 0.18815993 0
2.8450003 0.20538774 0.18789476 0
2.8490002 0.20138149 0.18754122 0
2.8540003 0.19746001 0.18709928 0
2.8610003 0.1937153 0.18648057 0
2.8720002 0.19032773 0.18550833 0
2.6970003 0.70808923 0.19683264 0
2.6920002 0.70231342 0.1972836 0
2.6890001 0.69720507 0.19755416 0
2.6870003 0.69243044 0.19773453 0
2.6860001 0.68798393 0.19782473 0
2.6860001 0.68386048 0.19782473 0
2.6870003 0.68005449 0.19773453 0
2.6880002 0.6762448 0.19764435 0
2.6890001 0.67243153 0.19755416 0
2.6910002 0.66892678 0.19737379 0
2.6930003 0.66541475 0.1971934 0
2.6960001 0.66220391 0.19692284 0
2.7010002 0.65959567 0.19647188 0
2.7060001 0.65696925 0.19602093 0
2.7140002 0.65523404 0.1952994 0
3.0770001 0.51414019 0.16256028 0
3.0690002 0.50765193 0.1632818 0
3.0650003 0.50201499 0.16364256 0
3.0630002 0.49680012 0.16382295 0
3.0620003 0.49179459 0.16391315 0
3.0620003 0.4869929 0.16391315 0
3.0630002 0.48238957 0.16382295 0
2.7890003 0.42371351 0.18853511 0
2.7830002 0.4182353 0.18907626 0
2.7800002 0.41335782 0.18934684 0
2.7770002 0.4084911 0.18961741 0
2.7760003 0.40401408 0.18970759 0
2.7760003 0.39972824 0.18970759 0
2.7760003 0.39544237 0.18970759 0
2.7770002 0.39134052 0.18961741 0
2.7780001 0.38723505 0.18952723 0
2.7800002 0.38330635 0.18934684 0
2.7830002 0.37954903 0.18907626 0
2.7860003 0.37578088 0.18880568 0
2.7910001 0.37235183 0.18835475 0
2.7990003 0.36942425 0.1876332 0
3.0960002 0.35763454 0.16084667 0
3.0880003 0.35158819 0.16156818 0
3.0820003 0.34586293 0.16210933 0
3.0780003 0.3404479 0.16247009 0
3.0750003 0.33518979 0.16274065 0
3.0730002 0.33008319 0.16292104 0
3.0720003 0.32512274 0.16301124 0
3.0710003 0.32016587 0.1631014 0
3.0710003 0.31534788 0.1631014 0
2.8560002 0.28183132 0.18249238 0
2.8480003 0.27634776 0.18321387 0
2.8440001 0.27141252 0.18357466 0
2.8400002 0.26649174 0.18393542 0
2.8370001 0.26171163 0.18420599 0
2.8350003 0.25706685 0.18438636 0
2.8340001 0.25255188 0.18447657 0
2.8330002 0.24804056 0.18456675 0
2.8320003 0.24353287 0.18465693 0
2.8320003 0.23914602 0.18465693 0
2.8320003 0.23475915 0.18465693 0
2.8330002 0.23048592 0.18456675 0
2.8340001 0.22620907 0.18447657 0
2.8350003 0.22192866 0.18438636 0
2.8370001 0.21775281 0.18420599 0
2.8390002 0.21356979 0.1840256 0
2.8420002 0.20948416 0.18375503 0
2.8450003 0.20538774 0.18348445 0
2.8490002 0.20138149 0.18312369 0
2.8540003 0.19746001 0.18267274 0
2.8610003 0.1937153 0.18204141 0
2.8720002 0.19032773 0.18104932 0
2.6970003 0.70808923 0.19268928 0
2.6920002 0.70231342 0.19314927 0
2.6890001 0.69720507 0.19342525 0
2.6870003 0.69243044 0.19360922 0
2.6860001 0.68798393 0.19370124 0
2.6860001 0.68386048 0.19370124 0
2.6870003 0.68005449 0.19360922 0
2.6880002 0.6762448 0.19351724 0
2.6890001 0.67243153 0.19342525 0
2.6910002 0.66892678 0.19324125 0
2.6930003 0.66541475 0.19305727 0
2.6960001 0.66220391 0.1927813 0
2.7010002 0.65959567 0.19232132 0
2.7060001 0.65696925 0.19186135 0
2.7140002 0.65523404 0.19112539 0
3.0770001 0.51414019 0.15773149 0
3.0690002 0.50765193 0.15846744 0
3.0650003 0.50201499 0.15883541 0
3.0630002 0.49680012 0.15901941 0
3.0620003 0.49179459 0.1591114 0
3.0620003 0.4869929 0.1591114 0
3.0630002 0.48238957 0.15901941 0
2.7890003 0.42371351 0.18422581 0
2.7830002 0.4182353 0.1847778 0
2.7800002 0.41335782 0.18505377 0
2.7770002 0.4084911 0.18532975 0
2.7760003 0.40401408 0.18542174 0
2.7760003 0.39972824 0.18542174 0
2.7760003 0.39544237 0.18542174 0
2.7770002 0.39134052 0.18532975 0
2.7780001 0.38723505 0.18523777 0
2.7800002 0.38330635 0.18505377 0
2.7830002 0.37954903 0.1847778 0
2.7860003 0.37578088 0.18450181 0
2.7910001 0.37235183 0.18404184 0
2.7990003 0.36942425 0.18330587 0
3.0960002 0.35763454 0.15598361 0
3.0880003 0.35158819 0.15671954 0
3.0820003 0.34586293 0.1572715 0
3.0780003 0.3404479 0.15763947 0
3.0750003 0.33518979 0.15791549 0
3.0730002 0.33008319 0.15809947 0
3.0720003 0.32512274 0.15819146 0
3.0710003 0.32016587 0.15828344 0
3.0710003 0.31534788 0.15828344 0
2.8560002 0.28183132 0.17806222 0
2.8480003 0.27634776 0.17879817 0
2.8440001 0.27141252 0.17916615 0
2.8400002 0.26649174 0.17953412 0
2.8370001 0.26171163 0.17981011 0
2.8350003 0.25706685 0.17999408 0
2.8340001 0.25255188 0.18008609 0
2.8330002 0.24804056 0.18017808 0
2.8320003 0.24353287 0.18027008 0
2.8320003 0.23914602 0.18027008 0
2.8320003 0.23475915 0.18027008 0
2.8330002 0.23048592 0.18017808 0
2.8340001 0.22620907 0.18008609 0
2.8350003 0.22192866 0.17999408 0
2.8370001 0.21775281 0.17981011 0
2.8390002 0.21356979 0.17962611 0
2.8420002 0.20948416 0.17935012 0
2.8450003 0.20538774 0.17907414 0
2.8490002 0.20138149 0.17870617 0
2.8540003 0.19746001 0.17824619 0
2.8610003 0.1937153 0.17760223 0
2.8720002 0.19032773 0.17659031 0
2.6970003 0.70808923 0.18854594 0
2.6920002 0.70231342 0.18901493 0
2.6890001 0.69720507 0.18929633 0
2.6870003 0.69243044 0.18948391 0
2.6860001 0.68798393 0.18957773 0
2.6860001 0.68386048 0.18957773 0
2.6870003 0.68005449 0.18948391 0
2.6880002 0.6762448 0.18939012 0
2.6890001 0.67243153 0.18929633 0
2.6910002 0.66892678 0.18910873 0
2.6930003 0.66541475 0.18892114 0
2.6960001 0.66220391 0.18863976 0
2.7010002 0.65959567 0.18817075 0
2.7060001 0.65696925 0.18770176 0
2.7140002 0.65523404 0.18695138 0
3.0770001 0.51414019 0.15290269 0
3.0690002 0.50765193 0.15365309 0
3.0650003 0.50201499 0.15402825 0
3.0630002 0.49680012 0.15421586 0
3.0620003 0.49179459 0.15430966 0
3.0620003 0.4869929 0.15430966 0
3.0630002 0.48238957 0.15421586 0
2.7890003 0.42371351 0.17991652 0
2.7830002 0.4182353 0.1804793 0
2.7800002 0.41335782 0.1807607 0
2.7770002 0.4084911 0.1810421 0
2.7760003 0.40401408 0.18113589 0
2.7760003 0.39972824 0.18113589 0
2.7760003 0.39544237 0.18113589 0
2.7770002 0.39134052 0.1810421 0
2.7780001 0.38723505 0.18094832 0
2.7800002 0.38330635 0.1807607 0
2.7830002 0.37954903 0.1804793 0
2.7860003 0.37578088 0.18019792 0
2.7910001 0.37235183 0.17972894 0
2.7990003 0.36942425 0.17897853 0
3.0960002 0.35763454 0.15112054 0
3.0880003 0.35158819 0.15187091 0
3.0820003 0.34586293 0.15243369 0
3.0780003 0.3404479 0.15280887 0
3.0750003 0.33518979 0.1530903 0
3.0730002 0.33008319 0.1532779 0
3.0720003 0.32512274 0.15337166 0
3.0710003 0.32016587 0.15346548 0
3.0710003 0.31534788 0.15346548 0
2.8560002 0.28183132 0.17363206 0
2.8480003 0.27634776 0.17438243 0
2.8440001 0.27141252 0.17475764 0
2.8400002 0.26649174 0.17513283 0
2.8370001 0.26171163 0.17541423 0
2.8350003 0.25706685 0.17560181 0
2.8340001 0.25255188 0.17569563 0
2.8330002 0.24804056 0.17578942 0
2.8320003 0.24353287 0.17588322 0
2.8320003 0.23914602 0.17588322 0
2.8320003 0.23475915 0.17588322 0
2.8330002 0.23048592 0.17578942 0
2.8340001 0.22620907 0.17569563 0
2.8350003 0.22192866 0.17560181 0
2.8370001 0.21775281 0.17541423 0
2.8390002 0.21356979 0.17522663 0
2.8420002 0.20948416 0.17494522 0
2.8450003 0.20538774 0.17466383 0
2.8490002 0.20138149 0.17428865 0
2.8540003 0.19746001 0.17381965 0
2.8610003 0.1937153 0.17316307 0
2.8720002 0.19032773 0.17213129 0
2.6970003 0.70808923 0.18440259 0
2.6920002 0.70231342 0.1848806 0
2.6890001 0.69720507 0.18516742 0
2.6870003 0.69243044 0.18535861 0
2.6860001 0.68798393 0.18545423 0
2.6860001 0.68386048 0.18545423 0
2.6870003 0.68005449 0.18535861 0
2.6880002 0.6762448 0.18526301 0
2.6890001 0.67243153 0.18516742 0
2.6910002 0.66892678 0.18497621 0
2.6930003 0.66541475 0.18478499 0
2.6960001 0.66220391 0.18449821 0
2.7010002 0.65959567 0.18402019 0
2.7060001 0.65696925 0.18354219 0
2.7140002 0.65523404 0.18277736 0
3.0770001 0.51414019 0.14807391 0
3.0690002 0.50765193 0.14883873 0
3.0650003 0.50201499 0.14922112 0
3.0630002 0.49680012 0.14941233 0
3.0620003 0.49179459 0.14950791 0
3.0620003 0.4869929 0.14950791 0
3.0630002 0.48238957 0.14941233 0
2.7890003 0.42371351 0.17560722 0
2.7830002 0.4182353 0.17618084 0
2.7800002 0.41335782 0.17646764 0
2.7770002 0.4084911 0.17675446 0
2.7760003 0.40401408 0.17685005 0
2.7760003 0.39972824 0.17685005 0
2.7760003 0.39544237 0.17685005 0
2.7770002 0.39134052 0.17675446 0
2.7780001 0.38723505 0.17665885 0
2.7800002 0.38330635 0.17646764 0
2.7830002 0.37954903 0.17618084 0
2.7860003 0.37578088 0.17589402 0
2.7910001 0.37235183 0.17541604 0
2.7990003 0.36942425 0.17465121 0
3.0960002 0.35763454 0.14625746 0
3.0880003 0.35158819 0.14702228 0
3.0820003 0.34586293 0.14759588 0
3.0780003 0.3404479 0.14797831 0
3.0750003 0.33518979 0.14826509 0
3.0730002 0.33008319 0.14845631 0
3.0720003 0.32512274 0.14855191 0
3.0710003 0.32016587 0.14864749 0
3.0710003 0.31534788 0.14864749 0
2.8560002 0.28183132 0.16920191 0
2.8480003 0.27634776 0.16996673 0
2.8440001 0.27141252 0.17034914 0
2.8400002 0.26649174 0.17073153 0
2.8370001 0.26171163 0.17101836 0
2.8350003 0.25706685 0.17120954 0
2.8340001 0.25255188 0.17130516 0
2.8330002 0.24804056 0.17140074 0
2.8320003 0.24353287 0.17149633 0
2.8320003 0.23914602 0.17149633 0
2.8320003 0.23475915 0.17149633 0
2.8330002 0.23048592 0.17140074 0
2.8340001 0.22620907 0.17130516 0
2.8350003 0.22192866 0.17120954 0
2.8370001 0.21775281 0.17101836 0
2.8390002 0.21356979 0.17082712 0
2.8420002 0.20948416 0.17054032 0
2.8450003 0.20538774 0.17025353 0
2.8490002 0.20138149 0.16987111 0
2.8540003 0.19746001 0.16939309 0
2.8610003 0.1937153 0.16872388 0
2.8720002 0.19032773 0.16767228 0
2.6970003 0.70808923 0.18025924 0
2.6920002 0.70231342 0.18074627 0
2.6890001 0.69720507 0.1810385 0
2.6870003 0.69243044 0.1812333 0
2.6860001 0.68798393 0.18133073 0
2.6860001 0.68386048 0.18133073 0
2.6870003 0.68005449 0.1812333 0
2.6880002 0.6762448 0.18113591 0
2.6890001 0.67243153 0.1810385 0
2.6910002 0.66892678 0.18084368 0
2.6930003 0.66541475 0.18064886 0
2.6960001 0.66220391 0.18035667 0
2.7010002 0.65959567 0.17986962 0
2.7060001 0.65696925 0.17938261 0
2.7140002 0.65523404 0.17860335 0
3.0770001 0.51414019 0.14324513 0
3.0690002 0.50765193 0.14402434 0
3.0650003 0.50201499 0.14441398 0
3.0630002 0.49680012 0.1446088 0
3.0620003 0.49179459 0.14470616 0
3.0620003 0.4869929 0.14470616 0
3.0630002 0.48238957 0.1446088 0
2.7890003 0.42371351 0.17129792 0
2.7830002 0.4182353 0.17188236 0
2.7800002 0.41335782 0.17217459 0
2.7770002 0.4084911 0.1724668 0
2.7760003 0.40401408 0.17256418 0
2.7760003 0.39972824 0.17256418 0
2.7760003 0.39544237 0.17256418 0
2.7770002 0.39134052 0.1724668 0
2.7780001 0.38723505 0.17236939 0
2.7800002 0.38330635 0.17217459 0
2.7830002 0.37954903 0.17188236 0
2.7860003 0.37578088 0.17159013 0
2.7910001 0.37235183 0.17110313 0
2.7990003 0.36942425 0.17032388 0
3.0960002 0.35763454 0.14139441 0
3.0880003 0.35158819 0.14217365 0
3.0820003 0.34586293 0.14275807 0
3.0780003 0.3404479 0.14314768 0
3.0750003 0.33518979 0.14343992 0
3.0730002 0.33008319 0.14363471 0
3.0720003 0.32512274 0.14373213 0
3.0710003 0.32016587 0.14382952 0
3.0710003 0.31534788 0.14382952 0
2.8560002 0.28183132 0.16477175 0
2.8480003 0.27634776 0.16555098 0
2.8440001 0.27141252 0.16594063 0
2.8400002 0.26649174 0.16633023 0
2.8370001 0.26171163 0.16662246 0
2.8350003 0.25706685 0.16681728 0
2.8340001 0.25255188 0.16691467 0
2.8330002 0.24804056 0.16701208 0
2.8320003 0.24353287 0.16710949 0
2.8320003 0.23914602 0.16710949 0
2.8320003 0.23475915 0.16710949 0
2.8330002 0.23048592 0.16701208 0
2.8340001 0.22620907 0.16691467 0
2.8350003 0.22192866 0.16681728 0
2.8370001 0.21775281 0.16662246 0
2.8390002 0.21356979 0.16642764 0
2.8420002 0.20948416 0.16613542 0
2.8450003 0.20538774 0.1658432 0
2.8490002 0.20138149 0.1654536 0
2.8540003 0.19746001 0.16496657 0
2.8610003 0.1937153 0.16428471 0
2.8720002 0.19032773 0.16321325 0
2.6970003 0.70808923 0.1761159 0
2.6920002 0.70231342 0.17661195 0
2.6890001 0.69720507 0.17690958 0
2.6870003 0.69243044 0.17710799 0
2.6860001 0.68798393 0.17720722 0
2.6860001 0.68386048 0.17720722 0
2.6870003 0.68005449 0.17710799 0
2.6880002 0.6762448 0.17700879 0
2.6890001 0.67243153 0.17690958 0
2.6910002 0.66892678 0.17671116 0
2.6930003 0.66541475 0.17651273 0
2.6960001 0.66220391 0.17621513 0
2.7010002 0.65959567 0.17571905 0
2.7060001 0.65696925 0.17522302 0
2.7140002 0.65523404 0.17442934 0
3.0770001 0.51414019 0.13841632 0
3.0690002 0.50765193 0.13920999 0
3.0650003 0.50201499 0.1396068 0
3.0630002 0.49680012 0.13980523 0
3.0620003 0.49179459 0.13990447 0
3.0620003 0.4869929 0.13990447 0
3.0630002 0.48238957 0.13980523 0
2.7890003 0.42371351 0.16698864 0
2.7830002 0.4182353 0.1675839 0
2.7800002 0.41335782 0.1678815 0
2.7770002 0.4084911 0.16817915 0
2.7760003 0.40401408 0.16827835 0
2.7760003 0.39972824 0.16827835 0
2.7760003 0.39544237 0.16827835 0
2.7770002 0.39134052 0.16817915 0
2.7780001 0.38723505 0.16807993 0
2.7800002 0.38330635 0.1678815 0
2.7830002 0.37954903 0.1675839 0
2.7860003 0.37578088 0.16728625 0
2.7910001 0.37235183 0.16679022 0
2.7990003 0.36942425 0.16599654 0
3.0960002 0.35763454 0.13653135 0
3.0880003 0.35158819 0.13732499 0
3.0820003 0.34586293 0.13792026 0
3.0780003 0.3404479 0.13831711 0
3.0750003 0.33518979 0.13861471 0
3.0730002 0.33008319 0.13881317 0
3.0720003 0.32512274 0.13891235 0
3.0710003 0.32016587 0.13901156 0
3.0710003 0.31534788 0.13901156 0
2.8560002 0.28183132 0.16034161 0
2.8480003 0.27634776 0.16113526 0
2.8440001 0.27141252 0.16153212 0
2.8400002 0.26649174 0.16192897 0
2.8370001 0.26171163 0.16222659 0
2.8350003 0.25706685 0.162425 0
2.8340001 0.25255188 0.16252422 0
2.8330002 0.24804056 0.16262342 0
2.8320003 0.24353287 0.16272262 0
2.8320003 0.23914602 0.16272262 0
2.8320003 0.23475915 0.16272262 0
2.8330002 0.23048592 0.16262342 0
2.8340001 0.22620907 0.16252422 0
2.8350003 0.22192866 0.162425 0
2.8370001 0.21775281 0.16222659 0
2.8390002 0.21356979 0.16202816 0
2.8420002 0.20948416 0.16173051 0
2.8450003 0.20538774 0.16143291 0
2.8490002 0.20138149 0.16103606 0
2.8540003 0.19746001 0.16054 0
2.8610003 0.1937153 0.15984555 0
2.8720002 0.19032773 0.15875424 0
2.6970003 0.70808923 0.17197256 0
2.6920002 0.70231342 0.17247762 0
2.6890001 0.69720507 0.17278066 0
2.6870003 0.69243044 0.17298269 0
2.6860001 0.68798393 0.17308369 0
2.6860001 0.68386048 0.17308369 0
2.6870003 0.68005449 0.17298269 0
2.6880002 0.6762448 0.17288168 0
2.6890001 0.67243153 0.17278066 0
2.6910002 0.66892678 0.17257863 0
2.6930003 0.66541475 0.17237659 0
2.6960001 0.66220391 0.17207357 0
2.7010002 0.65959567 0.17156851 0
2.7060001 0.65696925 0.17106344 0
2.7140002 0.65523404 0.17025532 0
3.0770001 0.51414019 0.13358751 0
3.0690002 0.50765193 0.13439563 0
3.0650003 0.50201499 0.13479969 0
3.0630002 0.49680012 0.13500169 0
3.0620003 0.49179459 0.13510272 0
3.0620003 0.4869929 0.13510272 0
3.0630002 0.48238957 0.13500169 0
2.7890003 0.42371351 0.16267933 0
2.7830002 0.4182353 0.1632854 0
2.7800002 0.41335782 0.16358846 0
2.7770002 0.4084911 0.16389151 0
2.7760003 0.40401408 0.16399249 0
2.7760003 0.39972824 0.16399249 0
2.7760003 0.39544237 0.16399249 0
2.7770002 0.39134052 0.16389151 0
2.7780001 0.38723505 0.16379049 0
2.7800002 0.38330635 0.16358846 0
2.7830002 0.37954903 0.1632854 0
2.7860003 0.37578088 0.16298236 0
2.7910001 0.37235183 0.16247733 0
2.7990003 0.36942425 0.16166919 0
3.0960002 0.35763454 0.13166824 0
3.0880003 0.35158819 0.13247636 0
3.0820003 0.34586293 0.13308242 0
3.0780003 0.3404479 0.13348648 0
3.0750003 0.33518979 0.13378951 0
3.0730002 0.33008319 0.13399157 0
3.0720003 0.32512274 0.1340926 0
3.0710003 0.32016587 0.13419357 0
3.0710003 0.31534788 0.13419357 0
2.8560002 0.28183132 0.15591143 0
2.8480003 0.27634776 0.15671954 0
2.8440001 0.27141252 0.15712363 0
2.8400002 0.26649174 0.15752767 0
2.8370001 0.26171163 0.15783072 0
2.8350003 0.25706685 0.1580327 0
2.8340001 0.25255188 0.15813375 0
2.8330002 0.24804056 0.15823476 0
2.8320003 0.24353287 0.15833575 0
2.8320003 0.23914602 0.15833575 0
2.8320003 0.23475915 0.15833575 0
2.8330002 0.23048592 0.15823476 0
2.8340001 0.22620907 0.15813375 0
2.8350003 0.22192866 0.1580327 0
2.8370001 0.21775281 0.15783072 0
2.8390002 0.21356979 0.15762866 0
2.8420002 0.20948416 0.15732561 0
2.8450003 0.20538774 0.15702258 0
2.8490002 0.20138149 0.15661852 0
2.8540003 0.19746001 0.15611346 0
2.8610003 0.1937153 0.15540637 0
2.8720002 0.19032773 0.15429524 0
2.6970003 0.70808923 0.16782919 0
2.6920002 0.70231342 0.16834331 0
2.6890001 0.69720507 0.16865174 0
2.6870003 0.69243044 0.16885737 0
2.6860001 0.68798393 0.1689602 0
2.6860001 0.68386048 0.1689602 0
2.6870003 0.68005449 0.16885737 0
2.6880002 0.6762448 0.16875456 0
2.6890001 0.67243153 0.16865174 0
2.6910002 0.66892678 0.16844611 0
2.6930003 0.66541475 0.16824046 0
2.6960001 0.66220391 0.16793205 0
2.7010002 0.65959567 0.16741793 0
2.7060001 0.65696925 0.16690387 0
2.7140002 0.65523404 0.16608131 0
3.0770001 0.51414019 0.12875873 0
3.0690002 0.50765193 0.12958124 0
3.0650003 0.50201499 0.12999251 0
3.0630002 0.49680012 0.13019818 0
3.0620003 0.49179459 0.13030097 0
3.0620003 0.4869929 0.13030097 0
3.0630002 0.48238957 0.13019818 0
2.7890003 0.42371351 0.15837003 0
2.7830002 0.4182353 0.15898694 0
2.7800002 0.41335782 0.1592954 0
2.7770002 0.4084911 0.15960385 0
2.7760003 0.40401408 0.15970665 0
2.7760003 0.39972824 0.15970665 0
2.7760003 0.39544237 0.15970665 0
2.7770002 0.39134052 0.15960385 0
2.7780001 0.38723505 0.15950103 0
2.7800002 0.38330635 0.1592954 0
2.7830002 0.37954903 0.15898694 0
2.7860003 0.37578088 0.15867847 0
2.7910001 0.37235183 0.15816441 0
2.7990003 0.36942425 0.15734185 0
3.0960002 0.35763454 0.12680519 0
3.0880003 0.35158819 0.1276277 0
3.0820003 0.34586293 0.12824464 0
3.0780003 0.3404479 0.12865588 0
3.0750003 0.33518979 0.12896436 0
3.0730002 0.33008319 0.12917 0
3.0720003 0.32512274 0.12927279 0
3.0710003 0.32016587 0.12937561 0
3.0710003 0.31534788 0.12937561 0
2.8560002 0.28183132 0.1514813 0
2.8480003 0.27634776 0.15230381 0
2.8440001 0.27141252 0.15271512 0
2.8400002 0.26649174 0.15312636 0
2.8370001 0.26171163 0.15343484 0
2.8350003 0.25706685 0.15364045 0
2.8340001 0.25255188 0.15374327 0
2.8330002 0.24804056 0.15384609 0
2.8320003 0.24353287 0.1539489 0
2.8320003 0.23914602 0.1539489 0
2.8320003 0.23475915 0.1539489 0
2.8330002 0.23048592 0.15384609 0
2.8340001 0.22620907 0.15374327 0
2.8350003 0.22192866 0.15364045 0
2.8370001 0.21775281 0.15343484 0
2.8390002 0.21356979 0.15322918 0
2.8420002 0.20948416 0.15292072 0
2.8450003 0.20538774 0.15261227 0
2.8490002 0.20138149 0.15220103 0
2.8540003 0.19746001 0.15168694 0
2.8610003 0.1937153 0.15096721 0
2.8720002 0.19032773 0.14983621 0
2.6970003 0.70808923 0.16368584 0
2.6920002 0.70231342 0.16420896 0
2.6890001 0.69720507 0.16452283 0
2.6870003 0.69243044 0.16473205 0
2.6860001 0.68798393 0.1648367 0
2.6860001 0.68386048 0.1648367 0
2.6870003 0.68005449 0.16473205 0
2.6880002 0.6762448 0.16462743 0
2.6890001 0.67243153 0.16452283 0
2.6910002 0.66892678 0.16431358 0
2.6930003 0.66541475 0.16410431 0
2.6960001 0.66220391 0.16379049 0
2.7010002 0.65959567 0.16326737 0
2.7060001 0.65696925 0.16274428 0
2.7140002 0.65523404 0.1619073 0
3.0770001 0.51414019 0.12392992 0
3.0690002 0.50765193 0.12476692 0
3.0650003 0.50201499 0.12518537 0
3.0630002 0.49680012 0.12539461 0
3.0620003 0.49179459 0.12549922 0
3.0620003 0.4869929 0.12549922 0
3.0630002 0.48238957 0.12539461 0
2.7890003 0.42371351 0.15406072 0
2.7830002 0.4182353 0.15468846 0
2.7800002 0.41335782 0.15500233 0
2.7770002 0.4084911 0.15531617 0
2.7760003 0.40401408 0.1554208 0
2.7760003 0.39972824 0.1554208 0
2.7760003 0.39544237 0.1554208 0
2.7770002 0.39134052 0.15531617 0
2.7780001 0.38723505 0.15521158 0
2.7800002 0.38330635 0.15500233 0
2.7830002 0.37954903 0.15468846 0
2.7860003 0.37578088 0.15437458 0
2.7910001 0.37235183 0.15385148 0
2.7990003 0.36942425 0.15301451 0
3.0960002 0.35763454 0.12194213 0
3.0880003 0.35158819 0.1227791 0
3.0820003 0.34586293 0.1234068 0
3.0780003 0.3404479 0.12382531 0
3.0750003 0.33518979 0.12413916 0
3.0730002 0.33008319 0.1243484 0
3.0720003 0.32512274 0.12445301 0
3.0710003 0.32016587 0.12455764 0
3.0710003 0.31534788 0.12455764 0
2.8560002 0.28183132 0.14705116 0
2.8480003 0.27634776 0.14788809 0
2.8440001 0.27141252 0.14830661 0
2.8400002 0.26649174 0.14872506 0
2.8370001 0.26171163 0.14903894 0
2.8350003 0.25706685 0.14924818 0
2.8340001 0.25255188 0.14935282 0
2.8330002 0.24804056 0.14945742 0
2.8320003 0.24353287 0.14956203 0
2.8320003 0.23914602 0.14956203 0
2.8320003 0.23475915 0.14956203 0
2.8330002 0.23048592 0.14945742 0
2.8340001 0.22620907 0.14935282 0
2.8350003 0.22192866 0.14924818 0
2.8370001 0.21775281 0.14903894 0
2.8390002 0.21356979 0.1488297 0
2.8420002 0.20948416 0.14851585 0
2.8450003 0.20538774 0.14820197 0
2.8490002 0.20138149 0.14778349 0
2.8540003 0.19746001 0.14726037 0
2.8610003 0.1937153 0.14652804 0
2.8720002 0.19032773 0.14537722 0
2.6970003 0.70808923 0.1595425 0
2.6920002 0.70231342 0.16007465 0
2.6890001 0.69720507 0.16039392 0
2.6870003 0.69243044 0.16060674 0
2.6860001 0.68798393 0.16071318 0
2.6860001 0.68386048 0.16071318 0
2.6870003 0.68005449 0.16060674 0
2.6880002 0.6762448 0.16050033 0
2.6890001 0.67243153 0.16039392 0
2.6910002 0.66892678 0.16018106 0
2.6930003 0.66541475 0.15996818 0
2.6960001 0.66220391 0.15964894 0
2.7010002 0.65959567 0.15911682 0
2.7060001 0.65696925 0.1585847 0
2.7140002 0.65523404 0.15773331 0
3.0770001 0.51414019 0.11910114 0
3.0690002 0.50765193 0.11995253 0
3.0650003 0.50201499 0.12037823 0
3.0630002 0.49680012 0.12059107 0
3.0620003 0.49179459 0.1206975 0
3.0620003 0.4869929 0.1206975 0
3.0630002 0.48238957 0.12059107 0
2.7890003 0.42371351 0.14975145 0
2.7830002 0.4182353 0.15038997 0
2.7800002 0.41335782 0.15070924 0
2.7770002 0.4084911 0.15102851 0
2.7760003 0.40401408 0.15113497 0
2.7760003 0.39972824 0.15113497 0
2.7760003 0.39544237 0.15113497 0
2.7770002 0.39134052 0.15102851 0
2.7780001 0.38723505 0.15092212 0
2.7800002 0.38330635 0.15070924 0
2.7830002 0.37954903 0.15038997 0
2.7860003 0.37578088 0.15007073 0
2.7910001 0.37235183 0.14953861 0
2.7990003 0.36942425 0.14868718 0
3.0960002 0.35763454 0.11707905 0
3.0880003 0.35158819 0.11793044 0
3.0820003 0.34586293 0.11856902 0
3.0780003 0.3404479 0.11899468 0
3.0750003 0.33518979 0.11931399 0
3.0730002 0.33008319 0.11952683 0
3.0720003 0.32512274 0.11963326 0
3.0710003 0.32016587 0.11973965 0
3.0710003 0.31534788 0.11973965 0
2.8560002 0.28183132 0.14262098 0
2.8480003 0.27634776 0.14347237 0
2.8440001 0.27141252 0.1438981 0
2.8400002 0.26649174 0.14432377 0
2.8370001 0.26171163 0.14464307 0
2.8350003 0.25706685 0.14485589 0
2.8340001 0.25255188 0.14496234 0
2.8330002 0.24804056 0.14506873 0
2.8320003 0.24353287 0.14517519 0
2.8320003 0.23914602 0.14517519 0
2.8320003 0.23475915 0.14517519 0
2.8330002 0.23048592 0.14506873 0
2.8340001 0.22620907 0.14496234 0
2.8350003 0.22192866 0.14485589 0
2.8370001 0.21775281 0.14464307 0
2.8390002 0.21356979 0.14443022 0
2.8420002 0.20948416 0.14411095 0
2.8450003 0.20538774 0.14379168 0
2.8490002 0.20138149 0.14336595 0
2.8540003 0.19746001 0.14283383 0
2.8610003 0.1937153 0.14208886 0
2.8720002 0.19032773 0.1409182 0
2.6970003 0.70808923 0.15539916 0
2.6920002 0.70231342 0.15594031 0
2.6890001 0.69720507 0.15626501 0
2.6870003 0.69243044 0.15648143 0
2.6860001 0.68798393 0.15658969 0
2.6860001 0.68386048 0.15658969 0
2.6870003 0.68005449 0.15648143 0
2.6880002 0.6762448 0.15637323 0
2.6890001 0.67243153 0.15626501 0
2.6910002 0.66892678 0.15604854 0
2.6930003 0.66541475 0.15583205 0
2.6960001 0.66220391 0.15550742 0
2.7010002 0.65959567 0.15496624 0
2.7060001 0.65696925 0.15442511 0
2.7140002 0.65523404 0.15355927 0
3.0770001 0.51414019 0.11427236 0
3.0690002 0.50765193 0.11513814 0
3.0650003 0.50201499 0.11557108 0
3.0630002 0.49680012 0.11578754 0
3.0620003 0.49179459 0.11589575 0
3.0620003 0.4869929 0.11589575 0
3.0630002 0.48238957 0.11578754 0
2.7890003 0.42371351 0.14544213 0
2.7830002 0.4182353 0.14609149 0
2.7800002 0.41335782 0.14641622 0
2.7770002 0.4084911 0.14674088 0
2.7760003 0.40401408 0.1468491 0
2.7760003 0.39972824 0.1468491 0
2.7760003 0.39544237 0.1468491 0
2.7770002 0.39134052 0.14674088 0
2.7780001 0.38723505 0.14663264 0
2.7800002 0.38330635 0.14641622 0
2.7830002 0.37954903 0.14609149 0
2.7860003 0.37578088 0.14576682 0
2.7910001 0.37235183 0.14522567 0
2.7990003 0.36942425 0.14435986 0
3.0960002 0.35763454 0.112216 0
3.0880003 0.35158819 0.11308181 0
3.0820003 0.34586293 0.11373118 0
3.0780003 0.3404479 0.11416411 0
3.0750003 0.33518979 0.11448878 0
3.0730002 0.33008319 0.11470526 0
3.0720003 0.32512274 0.11481348 0
3.0710003 0.32016587 0.11492169 0
3.0710003 0.31534788 0.11492169 0
2.8560002 0.28183132 0.13819084 0
2.8480003 0.27634776 0.13905665 0
2.8440001 0.27141252 0.13948959 0
2.8400002 0.26649174 0.1399225 0
2.8370001 0.26171163 0.1402472 0
2.8350003 0.25706685 0.14046362 0
2.8340001 0.25255188 0.14057186 0
2.8330002 0.24804056 0.14068007 0
2.8320003 0.24353287 0.14078832 0
2.8320003 0.23914602 0.14078832 0
2.8320003 0.23475915 0.14078832 0
2.8330002 0.23048592 0.14068007 0
2.8340001 0.22620907 0.14057186 0
2.8350003 0.22192866 0.14046362 0
2.8370001 0.21775281 0.1402472 0
2.8390002 0.21356979 0.14003071 0
2.8420002 0.20948416 0.13970605 0
2.8450003 0.20538774 0.13938135 0
2.8490002 0.20138149 0.13894844 0
2.8540003 0.19746001 0.13840726 0
2.8610003 0.1937153 0.13764966 0
2.8720002 0.19032773 0.13645917 0
2.6970003 0.70808923 0.15125582 0
2.6920002 0.70231342 0.151806 0
2.6890001 0.69720507 0.15213609 0
2.6870003 0.69243044 0.15235615 0
2.6860001 0.68798393 0.15246618 0
2.6860001 0.68386048 0.15246618 0
2.6870003 0.68005449 0.15235615 0
2.6880002 0.6762448 0.15224612 0
2.6890001 0.67243153 0.15213609 0
2.6910002 0.66892678 0.151916 0
2.6930003 0.66541475 0.15169594 0
2.6960001 0.66220391 0.15136585 0
2.7010002 0.65959567 0.1508157 0
2.7060001 0.65696925 0.15026554 0
2.7140002 0.65523404 0.14938527 0
3.0770001 0.51414019 0.10944358 0
3.0690002 0.50765193 0.11032382 0
3.0650003 0.50201499 0.11076391 0
3.0630002 0.49680012 0.110984 0
3.0620003 0.49179459 0.11109403 0
3.0620003 0.4869929 0.11109403 0
3.0630002 0.48238957 0.110984 0
2.7890003 0.42371351 0.14113286 0
2.7830002 0.4182353 0.14179304 0
2.7800002 0.41335782 0.14212313 0
2.7770002 0.4084911 0.14245322 0
2.7760003 0.40401408 0.14256325 0
2.7760003 0.39972824 0.14256325 0
2.7760003 0.39544237 0.14256325 0
2.7770002 0.39134052 0.14245322 0
2.7780001 0.38723505 0.14234322 0
2.7800002 0.38330635 0.14212313 0
2.7830002 0.37954903 0.14179304 0
2.7860003 0.37578088 0.14146295 0
2.7910001 0.37235183 0.1409128 0
2.7990003 0.36942425 0.14003253 0
3.0960002 0.35763454 0.10735291 0
3.0880003 0.35158819 0.10823315 0
3.0820003 0.34586293 0.10889339 0
3.0780003 0.3404479 0.10933349 0
3.0750003 0.33518979 0.10966358 0
3.0730002 0.33008319 0.10988367 0
3.0720003 0.32512274 0.1099937 0
3.0710003 0.32016587 0.11010373 0
3.0710003 0.31534788 0.11010373 0
2.8560002 0.28183132 0.13376066 0
2.8480003 0.27634776 0.13464093 0
2.8440001 0.27141252 0.13508108 0
2.8400002 0.26649174 0.1355212 0
2.8370001 0.26171163 0.13585132 0
