# .PCD v0.7 - Point Cloud Data file format
VERSION 0.7
FIELDS x y z intensity
SIZE 4 4 4 4
TYPE F F F F
COUNT 1 1 1 1
WIDTH 1488
HEIGHT 1
VIEWPOINT 0 0 0 1 0 0 0
POINTS 1488
DATA ascii
3.7010002 1.817718 1.5829655 0
3.6780002 1.8461227 1.5688381 0
3.6820002 1.8425114 1.5702595 0
3.6850002 1.8383121 1.5713255 0
3.6880002 1.834102 1.5723915 0
3.6910002 1.8298812 1.5734576 0
3.6940002 1.8256496 1.5745237 0
3.6980002 1.8219732 1.575945 0
3.7010002 1.817718 1.5770111 0
3.6780002 1.8461227 1.5629252 0
3.6820002 1.8425114 1.5643394 0
3.6850002 1.8383121 1.5654 0
3.6880002 1.834102 1.5664606 0
3.6910002 1.8298812 1.5675212 0
3.6940002 1.8256496 1.5685819 0
3.6980002 1.8219732 1.5699961 0
3.7010002 1.817718 1.5710567 0
3.6780002 1.8461227 1.5570123 0
3.6820002 1.8425114 1.5584192 0
3.6850002 1.8383121 1.5594745 0
3.6880002 1.834102 1.5605297 0
3.6910002 1.8298812 1.5615849 0
3.6940002 1.8256496 1.5626402 0
3.6980002 1.8219732 1.5640472 0
3.7010002 1.817718 1.5651023 0
3.6780002 1.8461227 1.5510994 0
3.6820002 1.8425114 1.5524992 0
3.6850002 1.8383121 1.5535491 0
3.6880002 1.834102 1.5545988 0
3.6910002 1.8298812 1.5556487 0
3.6940002 1.8256496 1.5566984 0
3.6980002 1.8219732 1.5580982 0
3.7010002 1.817718 1.5591481 0
3.6780002 1.8461227 1.5451865 0
3.6820002 1.8425114 1.5465791 0
3.6850002 1.8383121 1.5476234 0
3.6880002 1.834102 1.5486679 0
3.6910002 1.8298812 1.5497123 0
3.6940002 1.8256496 1.5507567 0
3.6980002 1.8219732 1.5521493 0
3.7010002 1.817718 1.5531936 0
3.6780002 1.8461227 1.5392736 0
3.6820002 1.8425114 1.540659 0
3.6850002 1.8383121 1.541698 0
3.6880002 1.834102 1.542737 0
3.6910002 1.8298812 1.5437759 0
3.6940002 1.8256496 1.5448149 0
3.6980002 1.8219732 1.5462003 0
3.7010002 1.817718 1.5472392 0
3.6780002 1.8461227 1.5333607 0
3.6820002 1.8425114 1.5347388 0
3.6850002 1.8383121 1.5357724 0
3.6880002 1.834102 1.536806 0
3.6910002 1.8298812 1.5378397 0
3.6940002 1.8256496 1.5388732 0
3.6980002 1.8219732 1.5402514 0
3.7010002 1.817718 1.5412849 0
3.6780002 1.8461227 1.5274478 0
3.6820002 1.8425114 1.5288187 0
3.6850002 1.8383121 1.5298469 0
3.6880002 1.834102 1.5308751 0
3.6910002 1.8298812 1.5319033 0
3.6940002 1.8256496 1.5329314 0
3.6980002 1.8219732 1.5343024 0
3.7010002 1.817718 1.5353305 0
3.6780002 1.8461227 1.5215349 0
3.6820002 1.8425114 1.5228987 0
3.6850002 1.8383121 1.5239214 0
3.6880002 1.834102 1.5249442 0
3.6910002 1.8298812 1.525967 0
3.6940002 1.8256496 1.5269897 0
3.6980002 1.8219732 1.5283533 0
3.7010002 1.817718 1.5293761 0
3.6780002 1.8461227 1.5156221 0
3.6820002 1.8425114 1.5169785 0
3.6850002 1.8383121 1.517996 0
3.6880002 1.834102 1.5190133 0
3.6910002 1.8298812 1.5200306 0
3.6940002 1.8256496 1.5210479 0
3.6980002 1.8219732 1.5224044 0
3.7010002 1.817718 1.5234218 0
3.6780002 1.8461227 1.5097092 0
3.6820002 1.8425114 1.5110584 0
3.6850002 1.8383121 1.5120704 0
3.6880002 1.834102 1.5130824 0
3.6910002 1.8298812 1.5140944 0
3.6940002 1.8256496 1.5151062 0
3.6980002 1.8219732 1.5164554 0
3.7010002 1.817718 1.5174675 0
3.6780002 1.8461227 1.5037963 0
3.6820002 1.8425114 1.5051384 0
3.6850002 1.8383121 1.5061449 0
3.6880002 1.834102 1.5071514 0
3.6910002 1.8298812 1.508158 0
3.6940002 1.8256496 1.5091645 0
3.6980002 1.8219732 1.5105065 0
3.7010002 1.817718 1.511513 0
3.6780002 1.8461227 1.4978834 0
3.6820002 1.8425114 1.4992182 0
3.6850002 1.8383121 1.5002195 0
3.6880002 1.834102 1.5012205 0
3.6910002 1.8298812 1.5022216 0
3.6940002 1.8256496 1.5032227 0
3.6980002 1.8219732 1.5045575 0
3.7010002 1.817718 1.5055586 0
3.6780002 1.8461227 1.4919707 0
3.6820002 1.8425114 1.4932982 0
3.6850002 1.8383121 1.4942938 0
3.6880002 1.834102 1.4952896 0
3.6910002 1.8298812 1.4962852 0
3.6940002 1.8256496 1.497281 0
3.6980002 1.8219732 1.4986086 0
3.7010002 1.817718 1.4996043 0
3.6780002 1.8461227 1.4860576 0
3.6820002 1.8425114 1.4873781 0
3.6850002 1.8383121 1.4883684 0
3.6880002 1.834102 1.4893587 0
3.6910002 1.8298812 1.4903491 0
3.6940002 1.8256496 1.4913392 0
3.6980002 1.8219732 1.4926596 0
3.7010002 1.817718 1.4936498 0
3.6780002 1.8461227 1.4801447 0
3.6820002 1.8425114 1.4814579 0
3.6850002 1.8383121 1.4824429 0
3.6880002 1.834102 1.4834278 0
3.6910002 1.8298812 1.4844127 0
3.6940002 1.8256496 1.4853976 0
3.6980002 1.8219732 1.4867107 0
3.7010002 1.817718 1.4876956 0
3.6780002 1.8461227 1.4742318 0
3.6820002 1.8425114 1.4755378 0
3.6850002 1.8383121 1.4765173 0
3.6880002 1.834102 1.4774967 0
3.6910002 1.8298812 1.4784763 0
3.6940002 1.8256496 1.4794558 0
3.6980002 1.8219732 1.4807616 0
3.7010002 1.817718 1.4817412 0
3.6780002 1.8461227 1.4683191 0
3.6820002 1.8425114 1.4696177 0
3.6850002 1.8383121 1.4705918 0
3.6880002 1.834102 1.471566 0
3.6910002 1.8298812 1.4725399 0
3.6940002 1.8256496 1.4735141 0
3.6980002 1.8219732 1.4748127 0
3.7010002 1.817718 1.4757868 0
3.6780002 1.8461227 1.4624062 0
3.6820002 1.8425114 1.4636977 0
3.6850002 1.8383121 1.4646664 0
3.6880002 1.834102 1.4656349 0
3.6910002 1.8298812 1.4666036 0
3.6940002 1.8256496 1.4675723 0
3.6980002 1.8219732 1.4688638 0
3.7010002 1.817718 1.4698324 0
3.6780002 1.8461227 1.4564933 0
3.6820002 1.8425114 1.4577775 0
3.6850002 1.8383121 1.4587408 0
3.6880002 1.834102 1.459704 0
3.6910002 1.8298812 1.4606673 0
3.6940002 1.8256496 1.4616306 0
3.6980002 1.8219732 1.4629148 0
3.7010002 1.817718 1.463878 0
3.6780002 1.8461227 1.4505804 0
3.6820002 1.8425114 1.4518574 0
3.6850002 1.8383121 1.4528153 0
3.6880002 1.834102 1.4537731 0
3.6910002 1.8298812 1.454731 0
3.6940002 1.8256496 1.4556888 0
3.6980002 1.8219732 1.4569659 0
3.7010002 1.817718 1.4579238 0
3.6780002 1.8461227 1.4446676 0
3.6820002 1.8425114 1.4459374 0
3.6850002 1.8383121 1.4468899 0
3.6880002 1.834102 1.4478421 0
3.6910002 1.8298812 1.4487946 0
3.6940002 1.8256496 1.4497471 0
3.6980002 1.8219732 1.4510169 0
3.7010002 1.817718 1.4519693 0
3.6780002 1.8461227 1.4387547 0
3.6820002 1.8425114 1.4400173 0
3.6850002 1.8383121 1.4409642 0
3.6880002 1.834102 1.4419113 0
3.6910002 1.8298812 1.4428583 0
3.6940002 1.8256496 1.4438052 0
3.6980002 1.8219732 1.445068 0
3.7010002 1.817718 1.446015 0
3.6780002 1.8461227 1.4328418 0
3.6820002 1.8425114 1.4340972 0
3.6850002 1.8383121 1.4350388 0
3.6880002 1.834102 1.4359803 0
3.6910002 1.8298812 1.436922 0
3.6940002 1.8256496 1.4378635 0
3.6980002 1.8219732 1.439119 0
3.7010002 1.817718 1.4400606 0
3.6780002 1.8461227 1.4269288 0
3.6820002 1.8425114 1.4281771 0
3.6850002 1.8383121 1.4291133 0
3.6880002 1.834102 1.4300494 0
3.6910002 1.8298812 1.4309856 0
3.6940002 1.8256496 1.4319217 0
3.6980002 1.8219732 1.4331701 0
3.7010002 1.817718 1.4341061 0
3.6780002 1.8461227 1.421016 0
3.6820002 1.8425114 1.4222571 0
3.6850002 1.8383121 1.4231877 0
3.6880002 1.834102 1.4241185 0
3.6910002 1.8298812 1.4250493 0
3.6940002 1.8256496 1.4259801 0
3.6980002 1.8219732 1.4272211 0
3.7010002 1.817718 1.4281518 0
3.6780002 1.8461227 1.4151031 0
3.6820002 1.8425114 1.4163368 0
3.6850002 1.8383121 1.4172622 0
3.6880002 1.834102 1.4181876 0
3.6910002 1.8298812 1.419113 0
3.6940002 1.8256496 1.4200383 0
3.6980002 1.8219732 1.421272 0
3.7010002 1.817718 1.4221975 0
3.6780002 1.8461227 1.4091902 0
3.6820002 1.8425114 1.4104167 0
3.6850002 1.8383121 1.4113368 0
3.6880002 1.834102 1.4122567 0
3.6910002 1.8298812 1.4131767 0
3.6940002 1.8256496 1.4140966 0
3.6980002 1.8219732 1.4153231 0
3.7010002 1.817718 1.4162432 0
3.6780002 1.8461227 1.4032773 0
3.6820002 1.8425114 1.4044967 0
3.6850002 1.8383121 1.4054112 0
3.6880002 1.834102 1.4063257 0
3.6910002 1.8298812 1.4072403 0
3.6940002 1.8256496 1.4081548 0
3.6980002 1.8219732 1.4093741 0
3.7010002 1.817718 1.4102887 0
3.6780002 1.8461227 1.3973645 0
3.6820002 1.8425114 1.3985766 0
3.6850002 1.8383121 1.3994857 0
3.6880002 1.834102 1.4003948 0
3.6910002 1.8298812 1.4013039 0
3.6940002 1.8256496 1.4022131 0
3.6980002 1.8219732 1.4034252 0
3.7010002 1.817718 1.4043343 0
3.6780002 1.8461227 1.3914516 0
3.6820002 1.8425114 1.3926564 0
3.6850002 1.8383121 1.3935602 0
3.6880002 1.834102 1.3944639 0
3.6910002 1.8298812 1.3953676 0
3.6940002 1.8256496 1.3962713 0
3.6980002 1.8219732 1.3974762 0
3.7010002 1.817718 1.3983799 0
3.6780002 1.8461227 1.3855386 0
3.6820002 1.8425114 1.3867364 0
3.6850002 1.8383121 1.3876346 0
3.6880002 1.834102 1.388533 0
3.6910002 1.8298812 1.3894312 0
3.6940002 1.8256496 1.3903296 0
3.6980002 1.8219732 1.3915273 0
3.7010002 1.817718 1.3924255 0
3.6780002 1.8461227 1.3796257 0
3.6820002 1.8425114 1.3808163 0
3.6850002 1.8383121 1.3817092 0
3.6880002 1.834102 1.3826021 0
3.6910002 1.8298812 1.383495 0
3.6940002 1.8256496 1.3843879 0
3.6980002 1.8219732 1.3855784 0
3.7010002 1.817718 1.3864713 0
3.6780002 1.8461227 1.3737129 0
3.6820002 1.8425114 1.3748962 0
3.6850002 1.8383121 1.3757836 0
3.6880002 1.834102 1.3766711 0
3.6910002 1.8298812 1.3775586 0
3.6940002 1.8256496 1.378446 0
3.6980002 1.8219732 1.3796294 0
3.7010002 1.817718 1.3805169 0
3.6780002 1.8461227 1.3678 0
3.6820002 1.8425114 1.368976 0
3.6850002 1.8383121 1.3698581 0
3.6880002 1.834102 1.3707402 0
3.6910002 1.8298812 1.3716223 0
3.6940002 1.8256496 1.3725042 0
3.6980002 1.8219732 1.3736805 0
3.7010002 1.817718 1.3745625 0
3.6780002 1.8461227 1.3618871 0
3.6820002 1.8425114 1.3630559 0
3.6850002 1.8383121 1.3639327 0
3.6880002 1.834102 1.3648093 0
3.6910002 1.8298812 1.3656859 0
3.6940002 1.8256496 1.3665626 0
3.6980002 1.8219732 1.3677315 0
3.7010002 1.817718 1.3686081 0
3.6780002 1.8461227 1.3559742 0
3.6820002 1.8425114 1.3571359 0
3.6850002 1.8383121 1.3580071 0
3.6880002 1.834102 1.3588784 0
3.6910002 1.8298812 1.3597496 0
3.6940002 1.8256496 1.3606209 0
3.6980002 1.8219732 1.3617826 0
3.7010002 1.817718 1.3626537 0
3.6780002 1.8461227 1.3500614 0
3.6820002 1.8425114 1.3512157 0
3.6850002 1.8383121 1.3520817 0
3.6880002 1.834102 1.3529475 0
3.6910002 1.8298812 1.3538132 0
3.6940002 1.8256496 1.3546791 0
3.6980002 1.8219732 1.3558335 0
3.7010002 1.817718 1.3566993 0
3.6780002 1.8461227 1.3441485 0
3.6820002 1.8425114 1.3452957 0
3.6850002 1.8383121 1.3461561 0
3.6880002 1.834102 1.3470165 0
3.6910002 1.8298812 1.347877 0
3.6940002 1.8256496 1.3487374 0
3.6980002 1.8219732 1.3498846 0
3.7010002 1.817718 1.350745 0
3.6780002 1.8461227 1.3382356 0
3.6820002 1.8425114 1.3393756 0
3.6850002 1.8383121 1.3402306 0
3.6880002 1.834102 1.3410857 0
3.6910002 1.8298812 1.3419406 0
3.6940002 1.8256496 1.3427956 0
3.6980002 1.8219732 1.3439356 0
3.7010002 1.817718 1.3447907 0
3.6780002 1.8461227 1.3323226 0
3.6820002 1.8425114 1.3334554 0
3.6850002 1.8383121 1.334305 0
3.6880002 1.834102 1.3351547 0
3.6910002 1.8298812 1.3360043 0
3.6940002 1.8256496 1.3368539 0
3.6980002 1.8219732 1.3379866 0
3.7010002 1.817718 1.3388362 0
3.6780002 1.8461227 1.3264098 0
3.6820002 1.8425114 1.3275354 0
3.6850002 1.8383121 1.3283796 0
3.6880002 1.834102 1.3292238 0
3.6910002 1.8298812 1.3300679 0
3.6940002 1.8256496 1.3309121 0
3.6980002 1.8219732 1.3320377 0
3.7010002 1.817718 1.3328818 0
3.6780002 1.8461227 1.3204969 0
3.6820002 1.8425114 1.3216153 0
3.6850002 1.8383121 1.3224541 0
3.6880002 1.834102 1.3232929 0
3.6910002 1.8298812 1.3241316 0
3.6940002 1.8256496 1.3249704 0
3.6980002 1.8219732 1.3260887 0
3.7010002 1.817718 1.3269275 0
3.6780002 1.8461227 1.314584 0
3.6820002 1.8425114 1.3156952 0
3.6850002 1.8383121 1.3165286 0
3.6880002 1.834102 1.317362 0
3.6910002 1.8298812 1.3181952 0
3.6940002 1.8256496 1.3190286 0
3.6980002 1.8219732 1.3201398 0
3.7010002 1.817718 1.3209732 0
3.6780002 1.8461227 1.3086712 0
3.6820002 1.8425114 1.309775 0
3.6850002 1.8383121 1.310603 0
3.6880002 1.834102 1.3114311 0
3.6910002 1.8298812 1.312259 0
3.6940002 1.8256496 1.3130869 0
3.6980002 1.8219732 1.3141909 0
3.7010002 1.817718 1.3150188 0
3.6780002 1.8461227 1.3027582 0
3.6820002 1.8425114 1.3038549 0
3.6850002 1.8383121 1.3046775 0
3.6880002 1.834102 1.3055 0
3.6910002 1.8298812 1.3063226 0
3.6940002 1.8256496 1.3071451 0
3.6980002 1.8219732 1.3082418 0
3.7010002 1.817718 1.3090644 0
3.6780002 1.8461227 1.2968454 0
3.6820002 1.8425114 1.2979349 0
3.6850002 1.8383121 1.298752 0
3.6880002 1.834102 1.2995691 0
3.6910002 1.8298812 1.3003863 0
3.6940002 1.8256496 1.3012034 0
3.6980002 1.8219732 1.3022929 0
3.7010002 1.817718 1.30311 0
3.6780002 1.8461227 1.2909325 0
3.6820002 1.8425114 1.2920148 0
3.6850002 1.8383121 1.2928265 0
3.6880002 1.834102 1.2936382 0
3.6910002 1.8298812 1.2944499 0
3.6940002 1.8256496 1.2952617 0
3.6980002 1.8219732 1.2963439 0
3.7010002 1.817718 1.2971556 0
3.6780002 1.8461227 1.2850196 0
3.6820002 1.8425114 1.2860947 0
3.6850002 1.8383121 1.286901 0
3.6880002 1.834102 1.2877073 0
3.6910002 1.8298812 1.2885135 0
3.6940002 1.8256496 1.2893199 0
3.6980002 1.8219732 1.2903949 0
3.7010002 1.817718 1.2912014 0
3.6780002 1.8461227 1.2791067 0
3.6820002 1.8425114 1.2801746 0
3.6850002 1.8383121 1.2809755 0
3.6880002 1.834102 1.2817764 0
3.6910002 1.8298812 1.2825773 0
3.6940002 1.8256496 1.2833781 0
3.6980002 1.8219732 1.284446 0
3.7010002 1.817718 1.2852468 0
3.6780002 1.8461227 1.2731938 0
3.6820002 1.8425114 1.2742544 0
3.6850002 1.8383121 1.27505 0
3.6880002 1.834102 1.2758455 0
3.6910002 1.8298812 1.2766409 0
3.6940002 1.8256496 1.2774364 0
3.6980002 1.8219732 1.278497 0
3.7010002 1.817718 1.2792925 0
3.6780002 1.8461227 1.2672809 0
3.6820002 1.8425114 1.2683344 0
3.6850002 1.8383121 1.2691245 0
3.6880002 1.834102 1.2699145 0
3.6910002 1.8298812 1.2707046 0
3.6940002 1.8256496 1.2714946 0
3.6980002 1.8219732 1.2725481 0
3.7010002 1.817718 1.2733382 0
3.6780002 1.8461227 1.2613682 0
3.6820002 1.8425114 1.2624143 0
3.6850002 1.8383121 1.263199 0
3.6880002 1.834102 1.2639836 0
3.6910002 1.8298812 1.2647682 0
3.6940002 1.8256496 1.265553 0
3.6980002 1.8219732 1.2665992 0
3.7010002 1.817718 1.2673838 0
3.6780002 1.8461227 1.2554553 0
3.6820002 1.8425114 1.2564942 0
3.6850002 1.8383121 1.2572734 0
3.6880002 1.834102 1.2580527 0
3.6910002 1.8298812 1.258832 0
3.6940002 1.8256496 1.2596112 0
3.6980002 1.8219732 1.2606502 0
3.7010002 1.817718 1.2614294 0
3.6780002 1.8461227 1.2495424 0
3.6820002 1.8425114 1.2505741 0
3.6850002 1.8383121 1.2513479 0
3.6880002 1.834102 1.2521218 0
3.6910002 1.8298812 1.2528956 0
3.6940002 1.8256496 1.2536695 0
3.6980002 1.8219732 1.2547013 0
3.7010002 1.817718 1.255475 0
3.6780002 1.8461227 1.2436295 0
3.6820002 1.8425114 1.2446539 0
3.6850002 1.8383121 1.2454224 0
3.6880002 1.834102 1.2461909 0
3.6910002 1.8298812 1.2469593 0
3.6940002 1.8256496 1.2477278 0
3.6980002 1.8219732 1.2487522 0
3.7010002 1.817718 1.2495207 0
3.6780002 1.8461227 1.2377166 0
3.6820002 1.8425114 1.2387339 0
3.6850002 1.8383121 1.2394968 0
3.6880002 1.834102 1.2402599 0
3.6910002 1.8298812 1.2410229 0
3.6940002 1.8256496 1.2417859 0
3.6980002 1.8219732 1.2428033 0
3.7010002 1.817718 1.2435663 0
3.6780002 1.8461227 1.2318037 0
3.6820002 1.8425114 1.2328138 0
3.6850002 1.8383121 1.2335714 0
3.6880002 1.834102 1.234329 0
3.6910002 1.8298812 1.2350866 0
3.6940002 1.8256496 1.2358443 0
3.6980002 1.8219732 1.2368543 0
3.7010002 1.817718 1.2376119 0
3.6780002 1.8461227 1.2258909 0
3.6820002 1.8425114 1.2268937 0
3.6850002 1.8383121 1.2276459 0
3.6880002 1.834102 1.2283981 0
3.6910002 1.8298812 1.2291503 0
3.6940002 1.8256496 1.2299025 0
3.6980002 1.8219732 1.2309054 0
3.7010002 1.817718 1.2316576 0
3.6780002 1.8461227 1.2199779 0
3.6820002 1.8425114 1.2209736 0
3.6850002 1.8383121 1.2217203 0
3.6880002 1.834102 1.2224672 0
3.6910002 1.8298812 1.2232139 0
3.6940002 1.8256496 1.2239608 0
3.6980002 1.8219732 1.2249564 0
3.7010002 1.817718 1.2257032 0
3.6780002 1.8461227 1.2140651 0
3.6820002 1.8425114 1.2150534 0
3.6850002 1.8383121 1.2157949 0
3.6880002 1.834102 1.2165363 0
3.6910002 1.8298812 1.2172776 0
3.6940002 1.8256496 1.218019 0
3.6980002 1.8219732 1.2190075 0
3.7010002 1.817718 1.2197489 0
3.6780002 1.8461227 1.2081522 0
3.6820002 1.8425114 1.2091334 0
3.6850002 1.8383121 1.2098694 0
3.6880002 1.834102 1.2106054 0
3.6910002 1.8298812 1.2113413 0
3.6940002 1.8256496 1.2120773 0
3.6980002 1.8219732 1.2130585 0
3.7010002 1.817718 1.2137945 0
3.6780002 1.8461227 1.2022393 0
3.6820002 1.8425114 1.2032133 0
3.6850002 1.8383121 1.2039438 0
3.6880002 1.834102 1.2046744 0
3.6910002 1.8298812 1.2054049 0
3.6940002 1.8256496 1.2061355 0
3.6980002 1.8219732 1.2071096 0
3.7010002 1.817718 1.2078401 0
3.6780002 1.8461227 1.1963264 0
3.6820002 1.8425114 1.1972932 0
3.6850002 1.8383121 1.1980183 0
3.6880002 1.834102 1.1987435 0
3.6910002 1.8298812 1.1994686 0
3.6940002 1.8256496 1.2001938 0
3.6980002 1.8219732 1.2011606 0
3.7010002 1.817718 1.2018857 0
3.6780002 1.8461227 1.1904135 0
3.6820002 1.8425114 1.1913731 0
3.6850002 1.8383121 1.1920928 0
3.6880002 1.834102 1.1928126 0
3.6910002 1.8298812 1.1935322 0
3.6940002 1.8256496 1.194252 0
3.6980002 1.8219732 1.1952116 0
3.7010002 1.817718 1.1959313 0
3.6780002 1.8461227 1.1845006 0
3.6820002 1.8425114 1.1854529 0
3.6850002 1.8383121 1.1861674 0
3.6880002 1.834102 1.1868817 0
3.6910002 1.8298812 1.187596 0
3.6940002 1.8256496 1.1883103 0
3.6980002 1.8219732 1.1892626 0
3.7010002 1.817718 1.189977 0
3.6780002 1.8461227 1.1785878 0
3.6820002 1.8425114 1.1795329 0
3.6850002 1.8383121 1.1802418 0
3.6880002 1.834102 1.1809508 0
3.6910002 1.8298812 1.1816596 0
3.6940002 1.8256496 1.1823685 0
3.6980002 1.8219732 1.1833137 0
3.7010002 1.817718 1.1840227 0
3.6780002 1.8461227 1.1726749 0
3.6820002 1.8425114 1.1736128 0
3.6850002 1.8383121 1.1743163 0
3.6880002 1.834102 1.1750197 0
3.6910002 1.8298812 1.1757233 0
3.6940002 1.8256496 1.1764268 0
3.6980002 1.8219732 1.1773647 0
3.7010002 1.817718 1.1780682 0
3.6780002 1.8461227 1.166762 0
3.6820002 1.8425114 1.1676928 0
3.6850002 1.8383121 1.1683908 0
3.6880002 1.834102 1.1690888 0
3.6910002 1.8298812 1.1697869 0
3.6940002 1.8256496 1.170485 0
3.6980002 1.8219732 1.1714158 0
3.7010002 1.817718 1.1721139 0
3.6780002 1.8461227 1.1608491 0
3.6820002 1.8425114 1.1617726 0
3.6850002 1.8383121 1.1624653 0
3.6880002 1.834102 1.1631579 0
3.6910002 1.8298812 1.1638507 0
3.6940002 1.8256496 1.1645433 0
3.6980002 1.8219732 1.1654668 0
3.7010002 1.817718 1.1661595 0
3.6780002 1.8461227 1.1549362 0
3.6820002 1.8425114 1.1558524 0
3.6850002 1.8383121 1.1565398 0
3.6880002 1.834102 1.157227 0
3.6910002 1.8298812 1.1579143 0
3.6940002 1.8256496 1.1586015 0
3.6980002 1.8219732 1.1595179 0
3.7010002 1.817718 1.1602051 0
3.6780002 1.8461227 1.1490233 0
3.6820002 1.8425114 1.1499324 0
3.6850002 1.8383121 1.1506143 0
3.6880002 1.834102 1.1512961 0
3.6910002 1.8298812 1.1519779 0
3.6940002 1.8256496 1.1526598 0
3.6980002 1.8219732 1.1535689 0
3.7010002 1.817718 1.1542507 0
3.6780002 1.8461227 1.1431104 0
3.6820002 1.8425114 1.1440123 0
3.6850002 1.8383121 1.1446887 0
3.6880002 1.834102 1.1453651 0
3.6910002 1.8298812 1.1460416 0
3.6940002 1.8256496 1.146718 0
3.6980002 1.8219732 1.14762 0
3.7010002 1.817718 1.1482964 0
3.6780002 1.8461227 1.1371975 0
3.6820002 1.8425114 1.1380923 0
3.6850002 1.8383121 1.1387632 0
3.6880002 1.834102 1.1394342 0
3.6910002 1.8298812 1.1401052 0
3.6940002 1.8256496 1.1407763 0
3.6980002 1.8219732 1.1416711 0
3.7010002 1.817718 1.142342 0
3.6780002 1.8461227 1.1312846 0
3.6820002 1.8425114 1.1321721 0
3.6850002 1.8383121 1.1328378 0
3.6880002 1.834102 1.1335033 0
3.6910002 1.8298812 1.134169 0
3.6940002 1.8256496 1.1348345 0
3.6980002 1.8219732 1.135722 0
3.7010002 1.817718 1.1363876 0
3.6780002 1.8461227 1.1253718 0
3.6820002 1.8425114 1.1262521 0
3.6850002 1.8383121 1.1269122 0
3.6880002 1.834102 1.1275724 0
3.6910002 1.8298812 1.1282326 0
3.6940002 1.8256496 1.1288928 0
3.6980002 1.8219732 1.129773 0
3.7010002 1.817718 1.1304333 0
3.6780002 1.8461227 1.1194589 0
3.6820002 1.8425114 1.1203319 0
3.6850002 1.8383121 1.1209867 0
3.6880002 1.834102 1.1216415 0
3.6910002 1.8298812 1.1222963 0
3.6940002 1.8256496 1.122951 0
3.6980002 1.8219732 1.1238241 0
3.7010002 1.817718 1.1244789 0
3.6780002 1.8461227 1.113546 0
3.6820002 1.8425114 1.1144118 0
3.6850002 1.8383121 1.1150612 0
3.6880002 1.834102 1.1157105 0
3.6910002 1.8298812 1.1163599 0
3.6940002 1.8256496 1.1170094 0
3.6980002 1.8219732 1.1178751 0
3.7010002 1.817718 1.1185246 0
3.6780002 1.8461227 1.1076331 0
3.6820002 1.8425114 1.1084918 0
3.6850002 1.8383121 1.1091357 0
3.6880002 1.834102 1.1097796 0
3.6910002 1.8298812 1.1104237 0
3.6940002 1.8256496 1.1110677 0
3.6980002 1.8219732 1.1119262 0
3.7010002 1.817718 1.1125702 0
3.6780002 1.8461227 1.1017202 0
3.6820002 1.8425114 1.1025716 0
3.6850002 1.8383121 1.1032102 0
3.6880002 1.834102 1.1038487 0
3.6910002 1.8298812 1.1044873 0
3.6940002 1.8256496 1.1051258 0
3.6980002 1.8219732 1.1059772 0
3.7010002 1.817718 1.1066158 0
3.6780002 1.8461227 1.0958073 0
3.6820002 1.8425114 1.0966516 0
3.6850002 1.8383121 1.0972847 0
3.6880002 1.834102 1.0979178 0
3.6910002 1.8298812 1.098551 0
3.6940002 1.8256496 1.099184 0
3.6980002 1.8219732 1.1000283 0
3.7010002 1.817718 1.1006614 0
3.6780002 1.8461227 1.0898945 0
3.6820002 1.8425114 1.0907314 0
3.6850002 1.8383121 1.0913591 0
3.6880002 1.834102 1.0919869 0
3.6910002 1.8298812 1.0926147 0
3.6940002 1.8256496 1.0932423 0
3.6980002 1.8219732 1.0940794 0
3.7010002 1.817718 1.094707 0
3.6780002 1.8461227 1.0839815 0
3.6820002 1.8425114 1.0848113 0
3.6850002 1.8383121 1.0854337 0
3.6880002 1.834102 1.086056 0
3.6910002 1.8298812 1.0866783 0
3.6940002 1.8256496 1.0873007 0
3.6980002 1.8219732 1.0881304 0
3.7010002 1.817718 1.0887526 0
3.6780002 1.8461227 1.0780687 0
3.6820002 1.8425114 1.0788913 0
3.6850002 1.8383121 1.0795082 0
3.6880002 1.834102 1.080125 0
3.6910002 1.8298812 1.080742 0
3.6940002 1.8256496 1.0813589 0
3.6980002 1.8219732 1.0821815 0
3.7010002 1.817718 1.0827984 0
3.6780002 1.8461227 1.0721558 0
3.6820002 1.8425114 1.0729711 0
3.6850002 1.8383121 1.0735826 0
3.6880002 1.834102 1.0741941 0
3.6910002 1.8298812 1.0748056 0
3.6940002 1.8256496 1.0754172 0
3.6980002 1.8219732 1.0762324 0
3.7010002 1.817718 1.0768439 0
3.6780002 1.8461227 1.0662429 0
3.6820002 1.8425114 1.0670511 0
3.6850002 1.8383121 1.0676571 0
3.6880002 1.834102 1.0682632 0
3.6910002 1.8298812 1.0688692 0
3.6940002 1.8256496 1.0694754 0
3.6980002 1.8219732 1.0702834 0
3.7010002 1.817718 1.0708896 0
3.6780002 1.8461227 1.06033 0
3.6820002 1.8425114 1.0611309 0
3.6850002 1.8383121 1.0617316 0
3.6880002 1.834102 1.0623323 0
3.6910002 1.8298812 1.062933 0
3.6940002 1.8256496 1.0635337 0
3.6980002 1.8219732 1.0643345 0
3.7010002 1.817718 1.0649352 0
3.6780002 1.8461227 1.0544171 0
3.6820002 1.8425114 1.0552108 0
3.6850002 1.8383121 1.055806 0
3.6880002 1.834102 1.0564014 0
3.6910002 1.8298812 1.0569966 0
3.6940002 1.8256496 1.0575919 0
3.6980002 1.8219732 1.0583855 0
3.7010002 1.817718 1.0589808 0
3.6780002 1.8461227 1.0485042 0
3.6820002 1.8425114 1.0492908 0
3.6850002 1.8383121 1.0498806 0
3.6880002 1.834102 1.0504705 0
3.6910002 1.8298812 1.0510603 0
3.6940002 1.8256496 1.0516502 0
3.6980002 1.8219732 1.0524366 0
3.7010002 1.817718 1.0530264 0
3.6780002 1.8461227 1.0425915 0
3.6820002 1.8425114 1.0433706 0
3.6850002 1.8383121 1.0439551 0
3.6880002 1.834102 1.0445395 0
3.6910002 1.8298812 1.0451239 0
3.6940002 1.8256496 1.0457084 0
3.6980002 1.8219732 1.0464877 0
3.7010002 1.817718 1.0470721 0
3.6780002 1.8461227 1.0366786 0
3.6820002 1.8425114 1.0374506 0
3.6850002 1.8383121 1.0380296 0
3.6880002 1.834102 1.0386086 0
3.6910002 1.8298812 1.0391877 0
3.6940002 1.8256496 1.0397667 0
3.6980002 1.8219732 1.0405387 0
3.7010002 1.817718 1.0411177 0
3.6780002 1.8461227 1.0307657 0
3.6820002 1.8425114 1.0315304 0
3.6850002 1.8383121 1.0321041 0
3.6880002 1.834102 1.0326777 0
3.6910002 1.8298812 1.0332513 0
3.6940002 1.8256496 1.0338249 0
3.6980002 1.8219732 1.0345898 0
3.7010002 1.817718 1.0351633 0
3.6780002 1.8461227 1.0248528 0
3.6820002 1.8425114 1.0256103 0
3.6850002 1.8383121 1.0261786 0
3.6880002 1.834102 1.0267467 0
3.6910002 1.8298812 1.027315 0
3.6940002 1.8256496 1.0278832 0
3.6980002 1.8219732 1.0286407 0
3.7010002 1.817718 1.0292089 0
3.6780002 1.8461227 1.0189399 0
3.6820002 1.8425114 1.0196903 0
3.6850002 1.8383121 1.0202531 0
3.6880002 1.834102 1.0208158 0
3.6910002 1.8298812 1.0213786 0
3.6940002 1.8256496 1.0219414 0
3.6980002 1.8219732 1.0226917 0
3.7010002 1.817718 1.0232546 0
3.6780002 1.8461227 1.013027 0
3.6820002 1.8425114 1.0137702 0
3.6850002 1.8383121 1.0143275 0
3.6880002 1.834102 1.0148849 0
3.6910002 1.8298812 1.0154424 0
3.6940002 1.8256496 1.0159997 0
3.6980002 1.8219732 1.0167428 0
3.7010002 1.817718 1.0173002 0
3.6780002 1.8461227 1.0071142 0
3.6820002 1.8425114 1.0078501 0
3.6850002 1.8383121 1.008402 0
3.6880002 1.834102 1.0089539 0
3.6910002 1.8298812 1.009506 0
3.6940002 1.8256496 1.0100579 0
3.6980002 1.8219732 1.0107938 0
3.7010002 1.817718 1.0113459 0
3.6780002 1.8461227 1.0012013 0
3.6820002 1.8425114 1.0019299 0
3.6850002 1.8383121 1.0024765 0
3.6880002 1.834102 1.003023 0
3.6910002 1.8298812 1.0035696 0
3.6940002 1.8256496 1.0041162 0
3.6980002 1.8219732 1.0048449 0
3.7010002 1.817718 1.0053915 0
3.6780002 1.8461227 0.99528837 0
3.6820002 1.8425114 0.99600983 0
3.6850002 1.8383121 0.99655104 0
3.6880002 1.834102 0.99709213 0
3.6910002 1.8298812 0.99763334 0
3.6940002 1.8256496 0.99817443 0
3.6980002 1.8219732 0.998896 0
3.7010002 1.817718 0.99943709 0
3.6780002 1.8461227 0.98937547 0
3.6820002 1.8425114 0.99008977 0
3.6850002 1.8383121 0.9906255 0
3.6880002 1.834102 0.99116123 0
3.6910002 1.8298812 0.99169695 0
3.6940002 1.8256496 0.99223268 0
3.6980002 1.8219732 0.99294698 0
3.7010002 1.817718 0.99348271 0
3.6780002 1.8461227 0.98346257 0
3.6820002 1.8425114 0.98416972 0
3.6850002 1.8383121 0.98469996 0
3.6880002 1.834102 0.98523033 0
3.6910002 1.8298812 0.98576057 0
3.6940002 1.8256496 0.98629093 0
3.6980002 1.8219732 0.98699808 0
3.7010002 1.817718 0.98752832 0
3.6780002 1.8461227 0.97754967 0
3.6820002 1.8425114 0.97824955 0
3.6850002 1.8383121 0.97877455 0
3.6880002 1.834102 0.97929943 0
3.6910002 1.8298812 0.9798243 0
3.6940002 1.8256496 0.98034918 0
3.6980002 1.8219732 0.98104906 0
3.7010002 1.817718 0.98157406 0
3.6780002 1.8461227 0.97163677 0
3.6820002 1.8425114 0.9723295 0
3.6850002 1.8383121 0.97284901 0
3.6880002 1.834102 0.97336853 0
3.6910002 1.8298812 0.97388792 0
3.6940002 1.8256496 0.97440743 0
3.6980002 1.8219732 0.97510016 0
3.7010002 1.817718 0.97561955 0
3.6780002 1.8461227 0.96572387 0
3.6820002 1.8425114 0.96640933 0
3.6850002 1.8383121 0.96692348 0
3.6880002 1.834102 0.96743751 0
3.6910002 1.8298812 0.96795166 0
3.6940002 1.8256496 0.96846569 0
3.6980002 1.8219732 0.96915114 0
3.7010002 1.817718 0.96966529 0
3.6780002 1.8461227 0.95981109 0
3.6820002 1.8425114 0.96048927 0
3.6850002 1.8383121 0.96099794 0
3.6880002 1.834102 0.96150661 0
3.6910002 1.8298812 0.96201527 0
3.6940002 1.8256496 0.96252394 0
3.6980002 1.8219732 0.96320224 0
3.7010002 1.817718 0.9637109 0
3.6780002 1.8461227 0.95389819 0
3.6820002 1.8425114 0.95456922 0
3.6850002 1.8383121 0.9550724 0
3.6880002 1.834102 0.9555757 0
3.6910002 1.8298812 0.95607901 0
3.6940002 1.8256496 0.95658219 0
3.6980002 1.8219732 0.95725322 0
3.7010002 1.817718 0.95775652 0
3.6780002 1.8461227 0.94798529 0
3.6820002 1.8425114 0.94864905 0
3.6850002 1.8383121 0.94914687 0
3.6880002 1.834102 0.9496448 0
3.6910002 1.8298812 0.95014262 0
3.6940002 1.8256496 0.95064044 0
3.6980002 1.8219732 0.95130432 0
3.7010002 1.817718 0.95180213 0
3.6780002 1.8461227 0.94207239 0
3.6820002 1.8425114 0.942729 0
3.6850002 1.8383121 0.94322145 0
3.6880002 1.834102 0.9437139 0
3.6910002 1.8298812 0.94420636 0
3.6940002 1.8256496 0.94469881 0
3.6980002 1.8219732 0.9453553 0
3.7010002 1.817718 0.94584775 0
3.6780002 1.8461227 0.93615949 0
3.6820002 1.8425114 0.93680882 0
3.6850002 1.8383121 0.93729591 0
3.6880002 1.834102 0.937783 0
3.6910002 1.8298812 0.93826997 0
3.6940002 1.8256496 0.93875706 0
3.6980002 1.8219732 0.93940639 0
3.7010002 1.817718 0.93989336 0
3.6780002 1.8461227 0.93024659 0
3.6820002 1.8425114 0.93088877 0
3.6850002 1.8383121 0.93137038 0
3.6880002 1.834102 0.93185198 0
3.6910002 1.8298812 0.93233359 0
3.6940002 1.8256496 0.93281531 0
3.6980002 1.8219732 0.93345737 0
3.7010002 1.817718 0.93393898 0
3.6780002 1.8461227 0.92433381 0
3.6820002 1.8425114 0.92496872 0
3.6850002 1.8383121 0.92544496 0
3.6880002 1.834102 0.92592108 0
3.6910002 1.8298812 0.92639732 0
3.6940002 1.8256496 0.92687356 0
3.6980002 1.8219732 0.92750847 0
3.7010002 1.817718 0.9279846 0
3.6780002 1.8461227 0.91842091 0
3.6820002 1.8425114 0.91904855 0
3.6850002 1.8383121 0.91951942 0
3.6880002 1.834102 0.91999018 0
3.6910002 1.8298812 0.92046094 0
3.6940002 1.8256496 0.9209317 0
3.6980002 1.8219732 0.92155945 0
3.7010002 1.817718 0.92203033 0
3.6780002 1.8461227 0.91250801 0
3.6820002 1.8425114 0.9131285 0
3.6850002 1.8383121 0.91359389 0
3.6880002 1.834102 0.91405928 0
3.6910002 1.8298812 0.91452467 0
3.6940002 1.8256496 0.91499007 0
3.6980002 1.8219732 0.91561055 0
3.7010002 1.817718 0.91607594 0
3.6780002 1.8461227 0.90659511 0
3.6820002 1.8425114 0.90720832 0
3.6850002 1.8383121 0.90766835 0
3.6880002 1.834102 0.90812838 0
3.6910002 1.8298812 0.90858829 0
3.6940002 1.8256496 0.90904832 0
3.6980002 1.8219732 0.90966153 0
3.7010002 1.817718 0.91012156 0
3.6780002 1.8461227 0.90068221 0
3.6820002 1.8425114 0.90128827 0
3.6850002 1.8383121 0.90174282 0
3.6880002 1.834102 0.90219742 0
3.6910002 1.8298812 0.90265197 0
3.6940002 1.8256496 0.90310657 0
3.6980002 1.8219732 0.90371263 0
3.7010002 1.817718 0.90416718 0
3.6780002 1.8461227 0.89476931 0
3.6820002 1.8425114 0.89536822 0
3.6850002 1.8383121 0.89581728 0
3.6880002 1.834102 0.89626652 0
3.6910002 1.8298812 0.89671564 0
3.6940002 1.8256496 0.89716482 0
3.6980002 1.8219732 0.89776361 0
3.7010002 1.817718 0.89821279 0
3.6780002 1.8461227 0.88885647 0
3.6820002 1.8425114 0.88944805 0
3.6850002 1.8383121 0.8898918 0
3.6880002 1.834102 0.89033556 0
3.6910002 1.8298812 0.89077926 0
3.6940002 1.8256496 0.89122301 0
3.6980002 1.8219732 0.89181471 0
3.7010002 1.817718 0.89225841 0
3.6780002 1.8461227 0.88294351 0
3.6820002 1.8425114 0.88352799 0
3.6850002 1.8383121 0.88396633 0
3.6880002 1.834102 0.88440466 0
3.6910002 1.8298812 0.88484299 0
3.6940002 1.8256496 0.88528132 0
3.6980002 1.8219732 0.88586569 0
3.7010002 1.817718 0.88630402 0
3.6780002 1.8461227 0.87703073 0
3.6820002 1.8425114 0.87760788 0
3.6850002 1.8383121 0.87804079 0
3.6880002 1.834102 0.87847376 0
3.6910002 1.8298812 0.87890661 0
3.6940002 1.8256496 0.87933958 0
3.6980002 1.8219732 0.87991679 0
3.7010002 1.817718 0.8803497 0
3.6780002 1.8461227 0.87111783 0
3.6820002 1.8425114 0.87168777 0
3.6850002 1.8383121 0.87211531 0
3.6880002 1.834102 0.87254286 0
3.6910002 1.8298812 0.87297034 0
3.6940002 1.8256496 0.87339783 0
3.6980002 1.8219732 0.87396783 0
3.7010002 1.817718 0.87439537 0
3.6780002 1.8461227 0.86520493 0
3.6820002 1.8425114 0.86576772 0
3.6850002 1.8383121 0.86618984 0
3.6880002 1.834102 0.8666119 0
3.6910002 1.8298812 0.86703396 0
3.6940002 1.8256496 0.86745608 0
3.6980002 1.8219732 0.86801887 0
3.7010002 1.817718 0.86844093 0
3.6780002 1.8461227 0.85929203 0
3.6820002 1.8425114 0.85984761 0
3.6850002 1.8383121 0.8602643 0
3.6880002 1.834102 0.86068094 0
3.6910002 1.8298812 0.86109763 0
3.6940002 1.8256496 0.86151433 0
3.6980002 1.8219732 0.8620699 0
3.7010002 1.817718 0.8624866 0
3.6780002 1.8461227 0.85337913 0
3.6820002 1.8425114 0.85392749 0
3.6850002 1.8383121 0.85433877 0
3.6880002 1.834102 0.85475004 0
3.6910002 1.8298812 0.85516131 0
3.6940002 1.8256496 0.85557258 0
3.6980002 1.8219732 0.85612094 0
3.7010002 1.817718 0.85653222 0
3.6780002 1.8461227 0.84746623 0
3.6820002 1.8425114 0.84800744 0
3.6850002 1.8383121 0.84841323 0
3.6880002 1.834102 0.84881914 0
3.6910002 1.8298812 0.84922498 0
3.6940002 1.8256496 0.84963083 0
3.6980002 1.8219732 0.85017198 0
3.7010002 1.817718 0.85057783 0
3.6780002 1.8461227 0.84155339 0
3.6820002 1.8425114 0.84208727 0
3.6850002 1.8383121 0.84248775 0
3.6880002 1.834102 0.84288824 0
3.6910002 1.8298812 0.84328866 0
3.6940002 1.8256496 0.84368908 0
3.6980002 1.8219732 0.84422302 0
3.7010002 1.817718 0.84462345 0
3.6780002 1.8461227 0.83564049 0
3.6820002 1.8425114 0.83616722 0
3.6850002 1.8383121 0.83656228 0
3.6880002 1.834102 0.83695728 0
3.6910002 1.8298812 0.83735228 0
3.6940002 1.8256496 0.83774734 0
3.6980002 1.8219732 0.83827406 0
3.7010002 1.817718 0.83866906 0
3.6780002 1.8461227 0.82972765 0
3.6820002 1.8425114 0.8302471 0
3.6850002 1.8383121 0.83063674 0
3.6880002 1.834102 0.83102632 0
3.6910002 1.8298812 0.83141601 0
3.6940002 1.8256496 0.83180559 0
3.6980002 1.8219732 0.8323251 0
3.7010002 1.817718 0.83271474 0
3.6780002 1.8461227 0.82381475 0
3.6820002 1.8425114 0.82432699 0
3.6850002 1.8383121 0.8247112 0
3.6880002 1.834102 0.82509542 0
3.6910002 1.8298812 0.82547963 0
3.6940002 1.8256496 0.82586384 0
3.6980002 1.8219732 0.82637614 0
3.7010002 1.817718 0.82676035 0
3.6780002 1.8461227 0.81790185 0
3.6820002 1.8425114 0.81840694 0
3.6850002 1.8383121 0.81878573 0
3.6880002 1.834102 0.81916451 0
3.6910002 1.8298812 0.8195433 0
3.6940002 1.8256496 0.81992209 0
3.6980002 1.8219732 0.82042718 0
3.7010002 1.817718 0.82080597 0
3.6780002 1.8461227 0.81198895 0
3.6820002 1.8425114 0.81248683 0
3.6850002 1.8383121 0.81286019 0
3.6880002 1.834102 0.81323361 0
3.6910002 1.8298812 0.81360698 0
3.6940002 1.8256496 0.81398034 0
3.6980002 1.8219732 0.81447822 0
3.7010002 1.817718 0.81485164 0
3.6780002 1.8461227 0.80607605 0
3.6820002 1.8425114 0.80656672 0
3.6850002 1.8383121 0.80693471 0
3.6880002 1.834102 0.80730271 0
3.6910002 1.8298812 0.80767065 0
3.6940002 1.8256496 0.80803859 0
3.6980002 1.8219732 0.80852926 0
3.7010002 1.817718 0.80889726 0
3.6780002 1.8461227 0.80016321 0
3.6820002 1.8425114 0.8006466 0
3.6850002 1.8383121 0.80100918 0
3.6880002 1.834102 0.80137175 0
3.6910002 1.8298812 0.80173433 0
3.6940002 1.8256496 0.8020969 0
3.6980002 1.8219732 0.8025803 0
3.7010002 1.817718 0.80294287 0
3.6780002 1.8461227 0.79425031 0
3.6820002 1.8425114 0.79472649 0
3.6850002 1.8383121 0.79508364 0
3.6880002 1.834102 0.79544079 0
3.6910002 1.8298812 0.79579794 0
3.6940002 1.8256496 0.7961551 0
3.6980002 1.8219732 0.79663134 0
3.7010002 1.817718 0.79698849 0
3.6780002 1.8461227 0.78833747 0
3.6820002 1.8425114 0.78880644 0
3.6850002 1.8383121 0.78915817 0
3.6880002 1.834102 0.78950989 0
3.6910002 1.8298812 0.78986168 0
3.6940002 1.8256496 0.79021341 0
3.6980002 1.8219732 0.79068238 0
3.7010002 1.817718 0.7910341 0
3.6780002 1.8461227 0.78242457 0
3.6820002 1.8425114 0.78288633 0
3.6850002 1.8383121 0.78323269 0
3.6880002 1.834102 0.78357899 0
3.6910002 1.8298812 0.78392529 0
3.6940002 1.8256496 0.78427166 0
3.6980002 1.8219732 0.78473341 0
3.7010002 1.817718 0.78507972 0
3.6780002 1.8461227 0.77651167 0
3.6820002 1.8425114 0.77696621 0
3.6850002 1.8383121 0.77730715 0
3.6880002 1.834102 0.77764809 0
3.6910002 1.8298812 0.77798897 0
3.6940002 1.8256496 0.77832991 0
3.6980002 1.8219732 0.77878445 0
3.7010002 1.817718 0.77912539 0
3.6780002 1.8461227 0.77059877 0
3.6820002 1.8425114 0.77104616 0
3.6850002 1.8383121 0.77138162 0
3.6880002 1.834102 0.77171713 0
3.6910002 1.8298812 0.77205265 0
3.6940002 1.8256496 0.77238816 0
3.6980002 1.8219732 0.77283549 0
3.7010002 1.817718 0.77317101 0
3.6780002 1.8461227 0.76468587 0
3.6820002 1.8425114 0.76512599 0
3.6850002 1.8383121 0.76545614 0
3.6880002 1.834102 0.76578623 0
3.6910002 1.8298812 0.76611632 0
3.6940002 1.8256496 0.76644641 0
3.6980002 1.8219732 0.76688653 0
3.7010002 1.817718 0.76721668 0
3.6780002 1.8461227 0.75877303 0
3.6820002 1.8425114 0.75920594 0
3.6850002 1.8383121 0.7595306 0
3.6880002 1.834102 0.75985527 0
3.6910002 1.8298812 0.76018 0
3.6940002 1.8256496 0.76050472 0
3.6980002 1.8219732 0.76093757 0
3.7010002 1.817718 0.7612623 0
3.6780002 1.8461227 0.75286013 0
3.6820002 1.8425114 0.75328583 0
3.6850002 1.8383121 0.75360513 0
3.6880002 1.834102 0.75392437 0
3.6910002 1.8298812 0.75424361 0
3.6940002 1.8256496 0.75456291 0
3.6980002 1.8219732 0.75498861 0
3.7010002 1.817718 0.75530791 0
3.6780002 1.8461227 0.74694729 0
3.6820002 1.8425114 0.74736571 0
3.6850002 1.8383121 0.74767959 0
3.6880002 1.834102 0.74799347 0
3.6910002 1.8298812 0.74830735 0
3.6940002 1.8256496 0.74862117 0
3.6980002 1.8219732 0.74903965 0
3.7010002 1.817718 0.74935353 0
3.6780002 1.8461227 0.74103439 0
3.6820002 1.8425114 0.74144566 0
3.6850002 1.8383121 0.74175406 0
3.6880002 1.834102 0.74206251 0
3.6910002 1.8298812 0.74237096 0
3.6940002 1.8256496 0.74267948 0
3.6980002 1.8219732 0.74309075 0
3.7010002 1.817718 0.74339914 0
3.6780002 1.8461227 0.73512149 0
3.6820002 1.8425114 0.73552555 0
3.6850002 1.8383121 0.73582858 0
3.6880002 1.834102 0.73613161 0
3.6910002 1.8298812 0.73643464 0
3.6940002 1.8256496 0.73673773 0
3.6980002 1.8219732 0.73714173 0
3.7010002 1.817718 0.73744476 0
3.6780002 1.8461227 0.72920859 0
3.6820002 1.8425114 0.72960544 0
3.6850002 1.8383121 0.72990304 0
3.6880002 1.834102 0.73020071 0
3.6910002 1.8298812 0.73049831 0
3.6940002 1.8256496 0.73079598 0
3.6980002 1.8219732 0.73119277 0
3.7010002 1.817718 0.73149037 0
3.6780002 1.8461227 0.72329569 0
3.6820002 1.8425114 0.72368532 0
3.6850002 1.8383121 0.72397757 0
3.6880002 1.834102 0.72426975 0
3.6910002 1.8298812 0.72456199 0
3.6940002 1.8256496 0.72485423 0
3.6980002 1.8219732 0.72524381 0
3.7010002 1.817718 0.72553605 0
3.6780002 1.8461227 0.71738285 0
3.6820002 1.8425114 0.71776521 0
3.6850002 1.8383121 0.71805203 0
3.6880002 1.834102 0.71833885 0
3.6910002 1.8298812 0.71862566 0
3.6940002 1.8256496 0.71891248 0
3.6980002 1.8219732 0.71929491 0
3.7010002 1.817718 0.71958166 0
3.6780002 1.8461227 0.71146995 0
3.6820002 1.8425114 0.71184516 0
3.6850002 1.8383121 0.71212649 0
3.6880002 1.834102 0.71240795 0
3.6910002 1.8298812 0.71268928 0
3.6940002 1.8256496 0.71297073 0
3.6980002 1.8219732 0.71334589 0
3.7010002 1.817718 0.71362734 0
3.6780002 1.8461227 0.70555711 0
3.6820002 1.8425114 0.70592505 0
3.6850002 1.8383121 0.70620102 0
3.6880002 1.834102 0.70647699 0
3.6910002 1.8298812 0.70675302 0
3.6940002 1.8256496 0.70702899 0
3.6980002 1.8219732 0.70739692 0
3.7010002 1.817718 0.70767295 0
3.6780002 1.8461227 0.69964421 0
3.6820002 1.8425114 0.70000494 0
3.6850002 1.8383121 0.70027554 0
3.6880002 1.834102 0.70054609 0
3.6910002 1.8298812 0.70081663 0
3.6940002 1.8256496 0.70108724 0
3.6980002 1.8219732 0.70144796 0
3.7010002 1.817718 0.70171857 0
3.6780002 1.8461227 0.69373131 0
3.6820002 1.8425114 0.69408488 0
3.6850002 1.8383121 0.69435 0
3.6880002 1.834102 0.69461513 0
3.6910002 1.8298812 0.69488031 0
3.6940002 1.8256496 0.69514549 0
3.6980002 1.8219732 0.69549906 0
3.7010002 1.817718 0.69576418 0
3.6780002 1.8461227 0.68781841 0
3.6820002 1.8425114 0.68816471 0
3.6850002 1.8383121 0.68842447 0
3.6880002 1.834102 0.68868423 0
3.6910002 1.8298812 0.68894398 0
3.6950002 1.8262177 0.68929029 0
3.6980002 1.8219732 0.68955004 0
3.7010002 1.817718 0.6898098 0
3.6780002 1.8461227 0.68190551 0
3.6820002 1.8425114 0.68224466 0
3.6850002 1.8383121 0.68249899 0
3.6880002 1.834102 0.68275332 0
3.6910002 1.8298812 0.68300766 0
3.6950002 1.8262177 0.68334675 0
3.6980002 1.8219732 0.68360114 0
3.7010002 1.817718 0.68385541 0
3.6780002 1.8461227 0.67599267 0
3.6820002 1.8425114 0.67632455 0
3.6850002 1.8383121 0.67657346 0
3.6880002 1.834102 0.67682242 0
3.6910002 1.8298812 0.67707133 0
3.6950002 1.8262177 0.67740321 0
3.6980002 1.8219732 0.67765212 0
3.7010002 1.817718 0.67790109 0
3.6780002 1.8461227 0.67007977 0
3.6820002 1.8425114 0.67040443 0
3.6850002 1.8383121 0.67064798 0
3.6880002 1.834102 0.67089152 0
3.6910002 1.8298812 0.67113495 0
3.6950002 1.8262177 0.67145967 0
3.6980002 1.8219732 0.67170322 0
3.7010002 1.817718 0.6719467 0
3.6780002 1.8461227 0.66416693 0
3.6820002 1.8425114 0.66448438 0
3.6850002 1.8383121 0.66472244 0
3.6880002 1.834102 0.6649605 0
3.6910002 1.8298812 0.66519868 0
3.6950002 1.8262177 0.66551614 0
3.6980002 1.8219732 0.6657542 0
3.7010002 1.817718 0.66599232 0
3.6780002 1.8461227 0.65825403 0
3.6820002 1.8425114 0.65856427 0
3.6850002 1.8383121 0.65879691 0
3.6880002 1.834102 0.6590296 0
3.6910002 1.8298812 0.6592623 0
3.6950002 1.8262177 0.6595726 0
3.6980002 1.8219732 0.6598053 0
3.7010002 1.817718 0.66003799 0
3.6780002 1.8461227 0.65234113 0
3.6820002 1.8425114 0.65264416 0
3.6850002 1.8383121 0.65287143 0
3.6880002 1.834102 0.6530987 0
3.6910002 1.8298812 0.65332597 0
3.6950002 1.8262177 0.653629 0
3.6980002 1.8219732 0.65385634 0
3.7010002 1.817718 0.65408361 0
3.6780002 1.8461227 0.64642823 0
3.6820002 1.8425114 0.64672405 0
3.6850002 1.8383121 0.64694589 0
3.6880002 1.834102 0.6471678 0
3.6910002 1.8298812 0.64738965 0
3.6950002 1.8262177 0.64768547 0
3.6980002 1.8219732 0.64790738 0
3.7010002 1.817718 0.64812922 0
3.6780002 1.8461227 0.64051533 0
3.6820002 1.8425114 0.64080393 0
3.6850002 1.8383121 0.64102042 0
3.6880002 1.834102 0.6412369 0
3.6910002 1.8298812 0.64145333 0
3.6950002 1.8262177 0.64174193 0
3.6980002 1.8219732 0.64195836 0
3.7010002 1.817718 0.64217484 0
3.6780002 1.8461227 0.63460243 0
3.6820002 1.8425114 0.63488388 0
3.6850002 1.8383121 0.63509488 0
3.6880002 1.834102 0.63530594 0
3.6910002 1.8298812 0.635517 0
3.6950002 1.8262177 0.63579839 0
3.6980002 1.8219732 0.63600945 0
3.7010002 1.817718 0.63622046 0
3.6780002 1.8461227 0.62868959 0
3.6820002 1.8425114 0.62896377 0
3.6850002 1.8383121 0.6291694 0
3.6880002 1.834102 0.62937504 0
3.6910002 1.8298812 0.62958068 0
3.6950002 1.8262177 0.62985486 0
3.6980002 1.8219732 0.63006049 0
3.7010002 1.817718 0.63026607 0
3.6780002 1.8461227 0.62277669 0
3.6820002 1.8425114 0.62304366 0
3.6850002 1.8383121 0.62324387 0
3.6880002 1.834102 0.62344408 0
3.6910002 1.8298812 0.62364435 0
3.6950002 1.8262177 0.62391126 0
3.6980002 1.8219732 0.62411153 0
3.7010002 1.817718 0.62431175 0
3.6780002 1.8461227 0.61686385 0
3.6820002 1.8425114 0.61712354 0
3.6850002 1.8383121 0.61731839 0
3.6880002 1.834102 0.61751318 0
3.6910002 1.8298812 0.61770797 0
3.6950002 1.8262177 0.61796772 0
3.6980002 1.8219732 0.61816257 0
3.7010002 1.817718 0.61835736 0
3.6780002 1.8461227 0.61095095 0
3.6820002 1.8425114 0.61120343 0
3.6850002 1.8383121 0.61139286 0
3.6880002 1.834102 0.61158228 0
3.6910002 1.8298812 0.61177164 0
3.6950002 1.8262177 0.61202419 0
3.6980002 1.8219732 0.61221361 0
3.7010002 1.817718 0.61240298 0
3.6780002 1.8461227 0.60503805 0
3.6820002 1.8425114 0.60528338 0
3.6850002 1.8383121 0.60546732 0
3.6880002 1.834102 0.60565138 0
3.6910002 1.8298812 0.60583532 0
3.6950002 1.8262177 0.60608065 0
3.6980002 1.8219732 0.60626465 0
3.7010002 1.817718 0.60644865 0
3.6780002 1.8461227 0.59912515 0
3.6820002 1.8425114 0.59936327 0
3.6850002 1.8383121 0.59954184 0
3.6880002 1.834102 0.59972042 0
3.6910002 1.8298812 0.59989899 0
3.6950002 1.8262177 0.60013711 0
3.6980002 1.8219732 0.60031569 0
3.7010002 1.817718 0.60049427 0
3.6780002 1.8461227 0.59321225 0
3.6820002 1.8425114 0.59344316 0
3.6850002 1.8383121 0.59361637 0
3.6880002 1.834102 0.59378952 0
3.6910002 1.8298812 0.59396267 0
3.6950002 1.8262177 0.59419358 0
3.6980002 1.8219732 0.59436673 0
3.7010002 1.817718 0.59453988 0
3.6780002 1.8461227 0.58729941 0
3.6820002 1.8425114 0.5875231 0
3.6850002 1.8383121 0.58769083 0
3.6880002 1.834102 0.58785856 0
3.6910002 1.8298812 0.58802634 0
3.6950002 1.8262177 0.58825004 0
3.6980002 1.8219732 0.58841777 0
3.7010002 1.817718 0.5885855 0
3.6780002 1.8461227 0.58138651 0
3.6820002 1.8425114 0.58160293 0
3.6850002 1.8383121 0.58176529 0
3.6880002 1.834102 0.58192766 0
3.6910002 1.8298812 0.58209002 0
3.6950002 1.8262177 0.58230644 0
3.6980002 1.8219732 0.58246881 0
3.7010002 1.817718 0.58263111 0
3.6780002 1.8461227 0.57547367 0
3.6820002 1.8425114 0.57568288 0
3.6850002 1.8383121 0.57583982 0
3.6880002 1.834102 0.57599676 0
3.6910002 1.8298812 0.57615364 0
3.6950002 1.8262177 0.57636291 0
3.6980002 1.8219732 0.57651985 0
3.7010002 1.817718 0.57667679 0
3.6780002 1.8461227 0.56956077 0
3.6820002 1.8425114 0.56976277 0
3.6850002 1.8383121 0.56991428 0
3.6880002 1.834102 0.5700658 0
3.6910002 1.8298812 0.57021731 0
3.6950002 1.8262177 0.57041937 0
3.6980002 1.8219732 0.57057089 0
3.7010002 1.817718 0.5707224 0
3.6780002 1.8461227 0.56364787 0
3.6820002 1.8425114 0.56384265 0
3.6850002 1.8383121 0.5639888 0
3.6880002 1.834102 0.5641349 0
3.6910002 1.8298812 0.56428099 0
3.6950002 1.8262177 0.56447583 0
3.6980002 1.8219732 0.56462193 0
3.7010002 1.817718 0.56476802 0
3.6780002 1.8461227 0.55773497 0
3.6820002 1.8425114 0.5579226 0
3.6850002 1.8383121 0.55806327 0
3.6880002 1.834102 0.558204 0
3.6910002 1.8298812 0.55834466 0
3.6950002 1.8262177 0.55853224 0
3.6980002 1.8219732 0.55867296 0
3.7010002 1.817718 0.55881369 0
3.6780002 1.8461227 0.55182207 0
3.6820002 1.8425114 0.55200249 0
3.6850002 1.8383121 0.55213773 0
3.6880002 1.834102 0.55227304 0
3.6910002 1.8298812 0.55240834 0
3.6950002 1.8262177 0.5525887 0
3.6980002 1.8219732 0.552724 0
3.7010002 1.817718 0.55285931 0
3.6780002 1.8461227 0.54590923 0
3.6820002 1.8425114 0.54608238 0
3.6850002 1.8383121 0.54621226 0
3.6880002 1.834102 0.54634213 0
3.6910002 1.8298812 0.54647201 0
3.6950002 1.8262177 0.54664516 0
3.6980002 1.8219732 0.54677504 0
3.7010002 1.817718 0.54690492 0
3.6780002 1.8461227 0.53999633 0
3.6820002 1.8425114 0.54016227 0
3.6850002 1.8383121 0.54028672 0
3.6880002 1.834102 0.54041123 0
3.6910002 1.8298812 0.54053569 0
3.6950002 1.8262177 0.54070163 0
3.6980002 1.8219732 0.54082608 0
3.7010002 1.817718 0.54095054 0
3.6780002 1.8461227 0.53408349 0
3.6820002 1.8425114 0.53424215 0
3.6850002 1.8383121 0.53436124 0
3.6880002 1.834102 0.53448027 0
3.6910002 1.8298812 0.5345993 0
3.6950002 1.8262177 0.53475809 0
3.6980002 1.8219732 0.53487712 0
3.7010002 1.817718 0.53499615 0
3.6780002 1.8461227 0.52817059 0
3.6820002 1.8425114 0.5283221 0
3.6850002 1.8383121 0.52843571 0
3.6880002 1.834102 0.52854937 0
3.6910002 1.8298812 0.52866298 0
3.6950002 1.8262177 0.52881449 0
3.6980002 1.8219732 0.52892816 0
3.7010002 1.817718 0.52904177 0
3.6780002 1.8461227 0.52225769 0
3.6820002 1.8425114 0.52240199 0
3.6850002 1.8383121 0.52251023 0
3.6880002 1.834102 0.52261841 0
3.6910002 1.8298812 0.52272666 0
3.6950002 1.8262177 0.52287096 0
3.6980002 1.8219732 0.5229792 0
3.7010002 1.817718 0.52308744 0
3.6780002 1.8461227 0.51634479 0
3.6820002 1.8425114 0.51648188 0
3.6850002 1.8383121 0.51658469 0
3.6880002 1.834102 0.51668751 0
3.6910002 1.8298812 0.51679033 0
3.6950002 1.8262177 0.51692742 0
3.6980002 1.8219732 0.51703024 0
3.7010002 1.817718 0.51713306 0
3.6780002 1.8461227 0.51043189 0
3.6820002 1.8425114 0.51056176 0
3.6850002 1.8383121 0.51065922 0
3.6880002 1.834102 0.51075661 0
3.6910002 1.8298812 0.51085401 0
3.6950002 1.8262177 0.51098388 0
3.6980002 1.8219732 0.51108128 0
3.7010002 1.817718 0.51117867 0
3.6780002 1.8461227 0.50451905 0
3.6820002 1.8425114 0.50464171 0
3.6850002 1.8383121 0.50473368 0
3.6880002 1.834102 0.50482571 0
3.6910002 1.8298812 0.50491768 0
3.6950002 1.8262177 0.50504035 0
3.6980002 1.8219732 0.50513232 0
3.7010002 1.817718 0.50522435 0
3.6780002 1.8461227 0.49860615 0
3.6820002 1.8425114 0.4987216 0
3.6850002 1.8383121 0.49880818 0
3.6880002 1.834102 0.49889475 0
3.6910002 1.8298812 0.49898136 0
3.6950002 1.8262177 0.49909678 0
3.6980002 1.8219732 0.49918336 0
3.7010002 1.817718 0.49926996 0
3.6780002 1.8461227 0.49269328 0
3.6820002 1.8425114 0.49280149 0
3.6850002 1.8383121 0.49288267 0
3.6880002 1.834102 0.49296382 0
3.6910002 1.8298812 0.493045 0
3.6950002 1.8262177 0.49315324 0
3.6980002 1.8219732 0.4932344 0
3.7010002 1.817718 0.49331558 0
3.6780002 1.8461227 0.48678038 0
3.6820002 1.8425114 0.48688141 0
3.6850002 1.8383121 0.48695716 0
3.6880002 1.834102 0.48703292 0
3.6910002 1.8298812 0.48710868 0
3.6950002 1.8262177 0.48720968 0
3.6980002 1.8219732 0.48728544 0
3.7010002 1.817718 0.48736119 0
3.6780002 1.8461227 0.48086751 0
3.6820002 1.8425114 0.48096129 0
3.6850002 1.8383121 0.48103166 0
3.6880002 1.834102 0.48110199 0
3.6910002 1.8298812 0.48117232 0
3.6950002 1.8262177 0.48126614 0
3.6980002 1.8219732 0.48133647 0
3.7010002 1.817718 0.48140684 0
3.6780002 1.8461227 0.47495461 0
3.6820002 1.8425114 0.47504121 0
3.6850002 1.8383121 0.47510612 0
3.6880002 1.834102 0.47517109 0
3.6910002 1.8298812 0.475236 0
3.6950002 1.8262177 0.4753226 0
3.6980002 1.8219732 0.47538751 0
