# .PCD v0.7 - Point Cloud Data file format
VERSION 0.7
FIELDS x y z intensity
SIZE 4 4 4 4
TYPE F F F F
COUNT 1 1 1 1
WIDTH 1343
HEIGHT 1
VIEWPOINT 0 0 0 1 0 0 0
POINTS 1343
DATA ascii
3.1600003 -0.44428086 0.10528937 0
3.1600003 -0.44925937 0.10528937 0
3.1600003 -0.45423791 0.10528937 0
3.1620002 -0.45951581 0.10507292 0
3.1640003 -0.46480098 0.10485646 0
3.1690001 -0.47055331 0.10431534 0
2.8880002 -0.43195724 0.13472751 0
2.8770003 -0.43471891 0.13591802 0
2.8720002 -0.43839324 0.13645917 0
2.8680003 -0.44221008 0.13689208 0
2.8650002 -0.44617486 0.13721678 0
2.8630002 -0.45029294 0.13743326 0
2.8610003 -0.45440385 0.13764966 0
2.8600001 -0.45867524 0.13775793 0
2.8600001 -0.46311262 0.13775793 0
2.8610003 -0.46772134 0.13764966 0
2.8620002 -0.4723337 0.13754147 0
2.8650002 -0.47729957 0.13721678 0
2.8680003 -0.48227629 0.13689208 0
2.8760002 -0.48815668 0.13602629 0
2.8820002 0.061449248 0.13089985 0
2.8710003 0.056515839 0.13211018 0
2.8640003 0.051780839 0.13288042 0
2.8590002 0.047146853 0.13343057 0
2.8550003 0.042566981 0.13387072 0
2.8530002 0.038070094 0.13409078 0
2.8500001 0.033547942 0.1344209 0
2.8490002 0.029097948 0.1345309 0
2.8470001 0.024622697 0.13475099 0
2.8470001 0.02020878 0.13475099 0
2.8460002 0.015769612 0.13486099 0
2.8460002 0.011357494 0.13486099 0
2.8470001 0.006967023 0.13475099 0
2.8470001 0.0025531016 0.13475099 0
2.8490002 -0.0018247366 0.1345309 0
2.8500001 -0.0062260292 0.1344209 0
2.8530002 -0.010602068 0.13409078 0
2.8550003 -0.015001554 0.13387072 0
2.8590002 -0.019386614 0.13343057 0
2.8630002 -0.023786101 0.13299048 0
2.8690002 -0.028185589 0.13233027 0
2.8780003 -0.03259049 0.13133997 0
3.1700003 -0.12094824 0.099210531 0
3.1600003 -0.12565617 0.10031083 0
3.1550002 -0.13048136 0.10086101 0
3.1520002 -0.13535345 0.1011911 0
3.1490002 -0.14021471 0.10152122 0
2.8660002 -0.13496381 0.13266036 0
2.8590002 -0.13914685 0.13343057 0
2.8550003 -0.14342368 0.13387072 0
2.8520002 -0.14772756 0.13420081 0
2.8500001 -0.15206392 0.1344209 0
2.8490002 -0.15643816 0.1345309 0
2.8480003 -0.16080879 0.13464093 0
2.8480003 -0.16522452 0.13464093 0
2.8490002 -0.16969074 0.1345309 0
2.8510003 -0.1742129 0.13431081 0
2.8530002 -0.17874226 0.13409078 0
2.8570001 -0.18339066 0.13365066 0
2.8640003 -0.18822668 0.13288042 0
3.1780002 -0.42182344 0.098330289 0
3.1720002 -0.42601189 0.09899047 0
3.1670003 -0.43031761 0.099540621 0
3.1640003 -0.43488663 0.099870741 0
3.1620002 -0.43958735 0.1000908 0
3.1600003 -0.44428086 0.10031083 0
3.1600003 -0.44925937 0.10031083 0
3.1600003 -0.45423791 0.10031083 0
3.1620002 -0.45951581 0.1000908 0
3.1640003 -0.46480098 0.099870741 0
3.1690001 -0.47055331 0.09932059 0
2.8880002 -0.43195724 0.13023964 0
2.8770003 -0.43471891 0.13145 0
2.8720002 -0.43839324 0.13200015 0
2.8680003 -0.44221008 0.1324403 0
2.8650002 -0.44617486 0.13277039 0
2.8630002 -0.45029294 0.13299048 0
2.8610003 -0.45440385 0.13321051 0
2.8600001 -0.45867524 0.13332057 0
2.8600001 -0.46311262 0.13332057 0
2.8610003 -0.46772134 0.13321051 0
2.8620002 -0.4723337 0.13310048 0
2.8650002 -0.47729957 0.13277039 0
2.8690002 -0.48245305 0.13233027 0
2.8760002 -0.48815668 0.13156003 0
2.8820002 0.061449248 0.12642279 0
2.8710003 0.056515839 0.12765297 0
2.8640003 0.051780839 0.12843582 0
2.8590002 0.047146853 0.12899503 0
2.8550003 0.042566981 0.12944236 0
2.8530002 0.038070094 0.12966606 0
2.8500001 0.033547942 0.13000154 0
2.8490002 0.029097948 0.13011336 0
2.8470001 0.024622697 0.13033706 0
2.8470001 0.02020878 0.13033706 0
2.8460002 0.015769612 0.13044888 0
2.8460002 0.011357494 0.13044888 0
2.8470001 0.006967023 0.13033706 0
2.8470001 0.0025531016 0.13033706 0
2.8490002 -0.0018247366 0.13011336 0
2.8500001 -0.0062260292 0.13000154 0
2.8530002 -0.010602068 0.12966606 0
2.8550003 -0.015001554 0.12944236 0
2.8590002 -0.019386614 0.12899503 0
2.8630002 -0.023786101 0.12854767 0
2.8690002 -0.028185589 0.12787667 0
2.8780003 -0.03259049 0.12687013 0
3.1700003 -0.12094824 0.094213963 0
3.1600003 -0.12565617 0.095332354 0
3.1550002 -0.13048136 0.095891535 0
3.1520002 -0.13535345 0.09622705 0
3.1490002 -0.14021471 0.096562564 0
2.8660002 -0.13496381 0.12821218 0
2.8590002 -0.13914685 0.12899503 0
2.8550003 -0.14342368 0.12944236 0
2.8520002 -0.14772756 0.12977788 0
2.8500001 -0.15206392 0.13000154 0
2.8490002 -0.15643816 0.13011336 0
2.8480003 -0.16080879 0.13022521 0
2.8480003 -0.16522452 0.13022521 0
2.8490002 -0.16969074 0.13011336 0
2.8510003 -0.1742129 0.1298897 0
2.8530002 -0.17874226 0.12966606 0
2.8570001 -0.18339066 0.1292187 0
2.8640003 -0.18822668 0.12843582 0
3.1780002 -0.42182344 0.093319297 0
3.1720002 -0.42601189 0.093990326 0
3.1670003 -0.43031761 0.094549477 0
3.1640003 -0.43488663 0.094884992 0
3.1620002 -0.43958735 0.095108688 0
3.1600003 -0.44428086 0.095332354 0
3.1600003 -0.44925937 0.095332354 0
3.1600003 -0.45423791 0.095332354 0
3.1620002 -0.45951581 0.095108688 0
3.1640003 -0.46480098 0.094884992 0
3.1690001 -0.47055331 0.094325811 0
2.8880002 -0.43195724 0.12575176 0
2.8770003 -0.43471891 0.12698194 0
2.8720002 -0.43839324 0.12754115 0
2.8680003 -0.44221008 0.12798849 0
2.8650002 -0.44617486 0.12832397 0
2.8630002 -0.45029294 0.12854767 0
2.8610003 -0.45440385 0.12877133 0
2.8600001 -0.45867524 0.12888318 0
2.8600001 -0.46311262 0.12888318 0
2.8610003 -0.46772134 0.12877133 0
2.8620002 -0.4723337 0.12865949 0
2.8650002 -0.47729957 0.12832397 0
2.8690002 -0.48245305 0.12787667 0
2.8760002 -0.48815668 0.12709379 0
2.8820002 0.061449248 0.12194574 0
2.8710003 0.056515839 0.12319577 0
2.8640003 0.051780839 0.12399125 0
2.8590002 0.047146853 0.12455946 0
2.8550003 0.042566981 0.12501401 0
2.8530002 0.038070094 0.12524131 0
2.8500001 0.033547942 0.12558222 0
2.8490002 0.029097948 0.12569585 0
2.8470001 0.024622697 0.12592316 0
2.8470001 0.02020878 0.12592316 0
2.8460002 0.015769612 0.12603676 0
2.8460002 0.011357494 0.12603676 0
2.8470001 0.006967023 0.12592316 0
2.8470001 0.0025531016 0.12592316 0
2.8490002 -0.0018247366 0.12569585 0
2.8500001 -0.0062260292 0.12558222 0
2.8530002 -0.010602068 0.12524131 0
2.8550003 -0.015001554 0.12501401 0
2.8590002 -0.019386614 0.12455946 0
2.8630002 -0.023786101 0.12410489 0
2.8690002 -0.028185589 0.12342304 0
2.8780003 -0.03259049 0.12240028 0
3.1700003 -0.12094824 0.089217424 0
3.1600003 -0.12565617 0.090353817 0
3.1550002 -0.13048136 0.090922058 0
3.1520002 -0.13535345 0.091262966 0
3.1490002 -0.14021471 0.091603875 0
2.8660002 -0.13496381 0.12376398 0
2.8590002 -0.13914685 0.12455946 0
2.8550003 -0.14342368 0.12501401 0
2.8520002 -0.14772756 0.12535492 0
2.8500001 -0.15206392 0.12558222 0
2.8490002 -0.15643816 0.12569585 0
2.8480003 -0.16080879 0.12580949 0
2.8480003 -0.16522452 0.12580949 0
2.8490002 -0.16969074 0.12569585 0
2.8510003 -0.1742129 0.12546858 0
2.8530002 -0.17874226 0.12524131 0
2.8570001 -0.18339066 0.12478673 0
2.8640003 -0.18822668 0.12399125 0
3.1780002 -0.42182344 0.088308334 0
3.1720002 -0.42601189 0.088990182 0
3.1670003 -0.43031761 0.089558363 0
3.1640003 -0.43488663 0.089899302 0
3.1620002 -0.43958735 0.090126544 0
3.1600003 -0.44428086 0.090353817 0
3.1600003 -0.44925937 0.090353817 0
3.1600003 -0.45423791 0.090353817 0
3.1620002 -0.45951581 0.090126544 0
3.1640003 -0.46480098 0.089899302 0
3.1690001 -0.47055331 0.08933109 0
2.8880002 -0.43195724 0.12126389 0
2.8770003 -0.43471891 0.12251392 0
2.8720002 -0.43839324 0.12308213 0
2.8680003 -0.44221008 0.12353671 0
2.8650002 -0.44617486 0.12387761 0
2.8630002 -0.45029294 0.12410489 0
2.8610003 -0.45440385 0.12433216 0
2.8600001 -0.45867524 0.12444583 0
2.8600001 -0.46311262 0.12444583 0
2.8610003 -0.46772134 0.12433216 0
2.8620002 -0.4723337 0.12421855 0
2.8650002 -0.47729957 0.12387761 0
2.8690002 -0.48245305 0.12342304 0
2.8760002 -0.48815668 0.12262759 0
2.8820002 0.061449248 0.11746868 0
2.8710003 0.056515839 0.11873856 0
2.8640003 0.051780839 0.11954665 0
2.8590002 0.047146853 0.12012389 0
2.8550003 0.042566981 0.12058565 0
2.8530002 0.038070094 0.12081656 0
2.8500001 0.033547942 0.12116289 0
2.8490002 0.029097948 0.12127832 0
2.8470001 0.024622697 0.12150922 0
2.8470001 0.02020878 0.12150922 0
2.8460002 0.015769612 0.12162465 0
2.8460002 0.011357494 0.12162465 0
2.8470001 0.006967023 0.12150922 0
2.8470001 0.0025531016 0.12150922 0
2.8490002 -0.0018247366 0.12127832 0
2.8500001 -0.0062260292 0.12116289 0
2.8530002 -0.010602068 0.12081656 0
2.8550003 -0.015001554 0.12058565 0
2.8590002 -0.019386614 0.12012389 0
2.8630002 -0.023786101 0.11966214 0
2.8690002 -0.028185589 0.11896944 0
2.8780003 -0.03259049 0.11793044 0
3.1700003 -0.12094824 0.084220886 0
3.1600003 -0.12565617 0.085375309 0
3.1550002 -0.13048136 0.08595255 0
3.1520002 -0.13535345 0.086298883 0
3.1490002 -0.14021471 0.086645216 0
2.8660002 -0.13496381 0.11931577 0
2.8590002 -0.13914685 0.12012389 0
2.8550003 -0.14342368 0.12058565 0
2.8520002 -0.14772756 0.12093198 0
2.8500001 -0.15206392 0.12116289 0
2.8490002 -0.15643816 0.12127832 0
2.8480003 -0.16080879 0.12139377 0
2.8480003 -0.16522452 0.12139377 0
2.8490002 -0.16969074 0.12127832 0
2.8510003 -0.1742129 0.12104744 0
2.8530002 -0.17874226 0.12081656 0
2.8570001 -0.18339066 0.1203548 0
2.8640003 -0.18822668 0.11954665 0
3.1780002 -0.42182344 0.083297342 0
3.1720002 -0.42601189 0.083990008 0
3.1670003 -0.43031761 0.084567219 0
3.1640003 -0.43488663 0.084913552 0
3.1620002 -0.43958735 0.08514446 0
3.1600003 -0.44428086 0.085375309 0
3.1600003 -0.44925937 0.085375309 0
3.1600003 -0.45423791 0.085375309 0
3.1620002 -0.45951581 0.08514446 0
3.1640003 -0.46480098 0.084913552 0
3.1690001 -0.47055331 0.08433634 0
2.8880002 -0.43195724 0.11677602 0
2.8770003 -0.43471891 0.1180459 0
2.8720002 -0.43839324 0.11862311 0
2.8680003 -0.44221008 0.11908489 0
2.8650002 -0.44617486 0.11943123 0
2.8630002 -0.45029294 0.11966214 0
2.8610003 -0.45440385 0.11989298 0
2.8600001 -0.45867524 0.12000847 0
2.8600001 -0.46311262 0.12000847 0
2.8610003 -0.46772134 0.11989298 0
2.8620002 -0.4723337 0.11977756 0
2.8650002 -0.47729957 0.11943123 0
2.8690002 -0.48245305 0.11896944 0
2.8760002 -0.48815668 0.11816135 0
2.8820002 0.061449248 0.11299163 0
2.8710003 0.056515839 0.11428136 0
2.8640003 0.051780839 0.11510205 0
2.8590002 0.047146853 0.11568832 0
2.8550003 0.042566981 0.11615729 0
2.8530002 0.038070094 0.11639181 0
2.8500001 0.033547942 0.11674356 0
2.8490002 0.029097948 0.11686078 0
2.8470001 0.024622697 0.11709529 0
2.8470001 0.02020878 0.11709529 0
2.8460002 0.015769612 0.11721253 0
2.8460002 0.011357494 0.11721253 0
2.8470001 0.006967023 0.11709529 0
2.8470001 0.0025531016 0.11709529 0
2.8490002 -0.0018247366 0.11686078 0
2.8500001 -0.0062260292 0.11674356 0
2.8530002 -0.010602068 0.11639181 0
2.8550003 -0.015001554 0.11615729 0
2.8590002 -0.019386614 0.11568832 0
2.8630002 -0.023786101 0.11521935 0
2.8690002 -0.028185589 0.11451587 0
2.8780003 -0.03259049 0.11346063 0
3.1700003 -0.12094824 0.079224318 0
3.1600003 -0.12565617 0.080396801 0
3.1550002 -0.13048136 0.080983043 0
3.1520002 -0.13535345 0.0813348 0
3.1490002 -0.14021471 0.081686556 0
2.8660002 -0.13496381 0.1148676 0
2.8590002 -0.13914685 0.11568832 0
2.8550003 -0.14342368 0.11615729 0
2.8520002 -0.14772756 0.11650905 0
2.8500001 -0.15206392 0.11674356 0
2.8490002 -0.15643816 0.11686078 0
2.8480003 -0.16080879 0.11697805 0
2.8480003 -0.16522452 0.11697805 0
2.8490002 -0.16969074 0.11686078 0
2.8510003 -0.1742129 0.11662629 0
2.8530002 -0.17874226 0.11639181 0
2.8570001 -0.18339066 0.11592284 0
2.8640003 -0.18822668 0.11510205 0
3.1780002 -0.42182344 0.07828635 0
3.1720002 -0.42601189 0.078989834 0
3.1670003 -0.43031761 0.079576075 0
3.1640003 -0.43488663 0.079927802 0
3.1620002 -0.43958735 0.080162346 0
3.1600003 -0.44428086 0.080396801 0
3.1600003 -0.44925937 0.080396801 0
3.1600003 -0.45423791 0.080396801 0
3.1620002 -0.45951581 0.080162346 0
3.1640003 -0.46480098 0.079927802 0
3.1690001 -0.47055331 0.07934159 0
2.8880002 -0.43195724 0.11228812 0
2.8770003 -0.43471891 0.11357784 0
2.8720002 -0.43839324 0.11416411 0
2.8680003 -0.44221008 0.11463308 0
2.8650002 -0.44617486 0.11498484 0
2.8630002 -0.45029294 0.11521935 0
2.8610003 -0.45440385 0.11545381 0
2.8600001 -0.45867524 0.11557108 0
2.8600001 -0.46311262 0.11557108 0
2.8610003 -0.46772134 0.11545381 0
2.8620002 -0.4723337 0.11533657 0
2.8650002 -0.47729957 0.11498484 0
2.8690002 -0.48245305 0.11451587 0
2.8760002 -0.48815668 0.11369511 0
2.8820002 0.061449248 0.10851458 0
2.8710003 0.056515839 0.10982412 0
2.8640003 0.051780839 0.11065751 0
2.8590002 0.047146853 0.11125275 0
2.8550003 0.042566981 0.11172897 0
2.8530002 0.038070094 0.11196706 0
2.8500001 0.033547942 0.11232424 0
2.8490002 0.029097948 0.11244327 0
2.8470001 0.024622697 0.11268139 0
2.8470001 0.02020878 0.11268139 0
2.8460002 0.015769612 0.11280042 0
2.8460002 0.011357494 0.11280042 0
2.8470001 0.006967023 0.11268139 0
2.8470001 0.0025531016 0.11268139 0
2.8490002 -0.0018247366 0.11244327 0
2.8500001 -0.0062260292 0.11232424 0
2.8530002 -0.010602068 0.11196706 0
2.8550003 -0.015001554 0.11172897 0
2.8590002 -0.019386614 0.11125275 0
2.8630002 -0.023786101 0.11077657 0
2.8690002 -0.028185589 0.11006224 0
2.8780003 -0.03259049 0.10899079 0
3.1700003 -0.12094824 0.07422781 0
3.1600003 -0.12565617 0.075418293 0
3.1550002 -0.13048136 0.076013565 0
3.1520002 -0.13535345 0.076370716 0
3.1490002 -0.14021471 0.076727867 0
2.8660002 -0.13496381 0.11041939 0
2.8590002 -0.13914685 0.11125275 0
2.8550003 -0.14342368 0.11172897 0
2.8520002 -0.14772756 0.11208612 0
2.8500001 -0.15206392 0.11232424 0
2.8490002 -0.15643816 0.11244327 0
2.8480003 -0.16080879 0.11256233 0
2.8480003 -0.16522452 0.11256233 0
2.8490002 -0.16969074 0.11244327 0
2.8510003 -0.1742129 0.11220515 0
2.8530002 -0.17874226 0.11196706 0
2.8570001 -0.18339066 0.11149088 0
2.8640003 -0.18822668 0.11065751 0
3.1780002 -0.42182344 0.073275387 0
3.1720002 -0.42601189 0.073989689 0
3.1670003 -0.43031761 0.074584931 0
3.1640003 -0.43488663 0.074942082 0
3.1620002 -0.43958735 0.075180203 0
3.1600003 -0.44428086 0.075418293 0
3.1600003 -0.44925937 0.075418293 0
3.1600003 -0.45423791 0.075418293 0
3.1620002 -0.45951581 0.075180203 0
3.1640003 -0.46480098 0.074942082 0
3.1690001 -0.47055331 0.07434687 0
2.8880002 -0.43195724 0.10780028 0
2.8770003 -0.43471891 0.10910982 0
2.8720002 -0.43839324 0.10970509 0
2.8680003 -0.44221008 0.11018127 0
2.8650002 -0.44617486 0.11053845 0
2.8630002 -0.45029294 0.11077657 0
2.8610003 -0.45440385 0.11101466 0
2.8600001 -0.45867524 0.11113372 0
2.8600001 -0.46311262 0.11113372 0
2.8610003 -0.46772134 0.11101466 0
2.8620002 -0.4723337 0.1108956 0
2.8650002 -0.47729957 0.11053845 0
2.8690002 -0.48245305 0.11006224 0
2.8760002 -0.48815668 0.10922891 0
2.8820002 0.061449248 0.10403752 0
2.8710003 0.056515839 0.10536695 0
2.8640003 0.051780839 0.10621291 0
2.8590002 0.047146853 0.10681719 0
2.8550003 0.042566981 0.10730061 0
2.8530002 0.038070094 0.10754234 0
2.8500001 0.033547942 0.10790488 0
2.8490002 0.029097948 0.10802576 0
2.8470001 0.024622697 0.10826746 0
2.8470001 0.02020878 0.10826746 0
2.8460002 0.015769612 0.10838833 0
2.8460002 0.011357494 0.10838833 0
2.8470001 0.006967023 0.10826746 0
2.8470001 0.0025531016 0.10826746 0
2.8490002 -0.0018247366 0.10802576 0
2.8500001 -0.0062260292 0.10790488 0
2.8530002 -0.010602068 0.10754234 0
2.8550003 -0.015001554 0.10730061 0
2.8590002 -0.019386614 0.10681719 0
2.8630002 -0.023786101 0.10633376 0
2.8690002 -0.028185589 0.10560864 0
2.8780003 -0.03259049 0.10452095 0
3.1700003 -0.12094824 0.069231242 0
3.1600003 -0.12565617 0.070439786 0
3.1550002 -0.13048136 0.071044087 0
3.1520002 -0.13535345 0.071406662 0
3.1490002 -0.14021471 0.071769208 0
2.8660002 -0.13496381 0.10597122 0
2.8590002 -0.13914685 0.10681719 0
2.8550003 -0.14342368 0.10730061 0
2.8520002 -0.14772756 0.10766318 0
2.8500001 -0.15206392 0.10790488 0
2.8490002 -0.15643816 0.10802576 0
2.8480003 -0.16080879 0.10814661 0
2.8480003 -0.16522452 0.10814661 0
2.8490002 -0.16969074 0.10802576 0
2.8510003 -0.1742129 0.10778403 0
2.8530002 -0.17874226 0.10754234 0
2.8570001 -0.18339066 0.10705891 0
2.8640003 -0.18822668 0.10621291 0
3.1780002 -0.42182344 0.068264395 0
3.1720002 -0.42601189 0.068989545 0
3.1670003 -0.43031761 0.069593817 0
3.1640003 -0.43488663 0.069956362 0
3.1620002 -0.43958735 0.070198089 0
3.1600003 -0.44428086 0.070439786 0
3.1600003 -0.44925937 0.070439786 0
3.1600003 -0.45423791 0.070439786 0
3.1620002 -0.45951581 0.070198089 0
3.1640003 -0.46480098 0.069956362 0
3.1690001 -0.47055331 0.06935209 0
2.8880002 -0.43195724 0.10331237 0
2.8770003 -0.43471891 0.1046418 0
2.8720002 -0.43839324 0.10524607 0
2.8680003 -0.44221008 0.10572949 0
2.8650002 -0.44617486 0.10609207 0
2.8630002 -0.45029294 0.10633376 0
2.8610003 -0.45440385 0.10657549 0
2.8600001 -0.45867524 0.10669634 0
2.8600001 -0.46311262 0.10669634 0
2.8610003 -0.46772134 0.10657549 0
2.8620002 -0.4723337 0.10645464 0
2.8650002 -0.47729957 0.10609207 0
2.8690002 -0.48245305 0.10560864 0
2.8760002 -0.48815668 0.10476267 0
3.0990002 0.14873913 0.072943479 0
3.0990002 0.14387065 0.072943479 0
3.0990002 0.13900217 0.072943479 0
3.0990002 0.1341337 0.072943479 0
3.0990002 0.12926522 0.072943479 0
3.0990002 0.12439674 0.072943479 0
3.0990002 0.11952826 0.072943479 0
3.0990002 0.11465979 0.072943479 0
3.0990002 0.10979131 0.072943479 0
3.0990002 0.10492283 0.072943479 0
3.0990002 0.10005434 0.072943479 0
3.0990002 0.095185876 0.072943479 0
2.8820002 0.061449248 0.099560499 0
2.8710003 0.056515839 0.10090971 0
2.8640003 0.051780839 0.10176831 0
2.8590002 0.047146853 0.10238165 0
2.8550003 0.042566981 0.10287225 0
2.8530002 0.038070094 0.10311759 0
2.8500001 0.033547942 0.10348555 0
2.8490002 0.029097948 0.10360822 0
2.8470001 0.024622697 0.10385355 0
2.8470001 0.02020878 0.10385355 0
2.8460002 0.015769612 0.10397622 0
2.8460002 0.011357494 0.10397622 0
2.8470001 0.006967023 0.10385355 0
2.8470001 0.0025531016 0.10385355 0
2.8490002 -0.0018247366 0.10360822 0
2.8500001 -0.0062260292 0.10348555 0
2.8530002 -0.010602068 0.10311759 0
2.8550003 -0.015001554 0.10287225 0
2.8590002 -0.019386614 0.10238165 0
2.8630002 -0.023786101 0.10189098 0
2.8690002 -0.028185589 0.10115504 0
2.8780003 -0.03259049 0.10005111 0
3.1700003 -0.12094824 0.064234674 0
3.1600003 -0.12565617 0.065461248 0
3.1550002 -0.13048136 0.06607458 0
3.1520002 -0.13535345 0.066442579 0
3.1490002 -0.14021471 0.066810548 0
2.8660002 -0.13496381 0.10152304 0
2.8590002 -0.13914685 0.10238165 0
2.8550003 -0.14342368 0.10287225 0
2.8520002 -0.14772756 0.10324025 0
2.8500001 -0.15206392 0.10348555 0
2.8490002 -0.15643816 0.10360822 0
2.8480003 -0.16080879 0.10373086 0
2.8480003 -0.16522452 0.10373086 0
2.8490002 -0.16969074 0.10360822 0
2.8510003 -0.1742129 0.10336289 0
2.8530002 -0.17874226 0.10311759 0
2.8570001 -0.18339066 0.10262695 0
2.8640003 -0.18822668 0.10176831 0
3.1780002 -0.42182344 0.063253433 0
3.1720002 -0.42601189 0.063989401 0
3.1670003 -0.43031761 0.064602673 0
3.1640003 -0.43488663 0.064970642 0
3.1620002 -0.43958735 0.065215975 0
3.1600003 -0.44428086 0.065461248 0
3.1600003 -0.44925937 0.065461248 0
3.1600003 -0.45423791 0.065461248 0
3.1620002 -0.45951581 0.065215975 0
3.1640003 -0.46480098 0.064970642 0
3.1690001 -0.47055331 0.06435737 0
2.8880002 -0.43195724 0.098824531 0
2.8770003 -0.43471891 0.10017374 0
2.8720002 -0.43839324 0.10078707 0
2.8680003 -0.44221008 0.10127771 0
2.8650002 -0.44617486 0.10164568 0
2.8630002 -0.45029294 0.10189098 0
2.8610003 -0.45440385 0.10213631 0
2.8600001 -0.45867524 0.10225898 0
2.8600001 -0.46311262 0.10225898 0
2.8610003 -0.46772134 0.10213631 0
2.8620002 -0.4723337 0.10201365 0
2.8650002 -0.47729957 0.10164568 0
2.8690002 -0.48245305 0.10115504 0
2.8760002 -0.48815668 0.10029644 0
3.0910003 0.15301597 0.069070697 0
3.0910003 0.14816192 0.069070697 0
3.0910003 0.14330786 0.069070697 0
3.0910003 0.13845383 0.069070697 0
3.0910003 0.13359977 0.069070697 0
3.0920002 0.12881066 0.068946242 0
3.0920002 0.12395482 0.068946242 0
3.0920002 0.11909896 0.068946242 0
3.0920002 0.11424311 0.068946242 0
3.0920002 0.10938725 0.068946242 0
3.0930002 0.10458732 0.068821788 0
3.0930002 0.099729657 0.068821788 0
3.0930002 0.094871998 0.068821788 0
3.0930002 0.090014338 0.068821788 0
2.8820002 0.061449248 0.095083416 0
2.8710003 0.056515839 0.096452504 0
2.8640003 0.051780839 0.097323716 0
2.8590002 0.047146853 0.097946078 0
2.8550003 0.042566981 0.098443925 0
2.8530002 0.038070094 0.098692864 0
2.8500001 0.033547942 0.099066228 0
2.8490002 0.029097948 0.099190712 0
2.8470001 0.024622697 0.099439621 0
2.8470001 0.02020878 0.099439621 0
2.8460002 0.015769612 0.099564105 0
2.8460002 0.011357494 0.099564105 0
2.8470001 0.006967023 0.099439621 0
2.8470001 0.0025531016 0.099439621 0
2.8490002 -0.0018247366 0.099190712 0
2.8500001 -0.0062260292 0.099066228 0
2.8530002 -0.010602068 0.098692864 0
2.8550003 -0.015001554 0.098443925 0
2.8590002 -0.019386614 0.097946078 0
2.8630002 -0.023786101 0.09744823 0
2.8690002 -0.028185589 0.096701443 0
2.8780003 -0.03259049 0.095581263 0
3.1700003 -0.12094824 0.059238136 0
3.1600003 -0.12565617 0.06048277 0
3.1550002 -0.13048136 0.061105102 0
3.1520002 -0.13535345 0.061478496 0
3.1490002 -0.14021471 0.061851889 0
2.8660002 -0.13496381 0.097074836 0
2.8590002 -0.13914685 0.097946078 0
2.8550003 -0.14342368 0.098443925 0
2.8520002 -0.14772756 0.098817319 0
2.8500001 -0.15206392 0.099066228 0
2.8490002 -0.15643816 0.099190712 0
2.8480003 -0.16080879 0.099315137 0
2.8480003 -0.16522452 0.099315137 0
2.8490002 -0.16969074 0.099190712 0
2.8510003 -0.1742129 0.098941743 0
2.8530002 -0.17874226 0.098692864 0
2.8570001 -0.18339066 0.098194987 0
2.8640003 -0.18822668 0.097323716 0
3.1780002 -0.42182344 0.05824244 0
3.1720002 -0.42601189 0.058989227 0
3.1670003 -0.43031761 0.059611529 0
3.1640003 -0.43488663 0.059984893 0
3.1620002 -0.43958735 0.060233861 0
3.1600003 -0.44428086 0.06048277 0
3.1600003 -0.44925937 0.06048277 0
3.1600003 -0.45423791 0.06048277 0
3.1620002 -0.45951581 0.060233861 0
3.1640003 -0.46480098 0.059984893 0
3.1690001 -0.47055331 0.05936262 0
2.8880002 -0.43195724 0.094336629 0
2.8770003 -0.43471891 0.095705748 0
2.8720002 -0.43839324 0.09632805 0
2.8680003 -0.44221008 0.096825898 0
2.8650002 -0.44617486 0.097199291 0
2.8630002 -0.45029294 0.09744823 0
2.8610003 -0.45440385 0.097697109 0
2.8600001 -0.45867524 0.097821623 0
2.8600001 -0.46311262 0.097821623 0
2.8610003 -0.46772134 0.097697109 0
2.8620002 -0.4723337 0.097572684 0
2.8650002 -0.47729957 0.097199291 0
2.8690002 -0.48245305 0.096701443 0
2.8760002 -0.48815668 0.095830202 0
3.0910003 0.15301597 0.064216644 0
3.0910003 0.14816192 0.064216644 0
3.0910003 0.14330786 0.064216644 0
3.0910003 0.13845383 0.064216644 0
3.0910003 0.13359977 0.064216644 0
3.0920002 0.12881066 0.064090371 0
3.0920002 0.12395482 0.064090371 0
3.0920002 0.11909896 0.064090371 0
3.0920002 0.11424311 0.064090371 0
3.0920002 0.10938725 0.064090371 0
3.0930002 0.10458732 0.063964128 0
3.0930002 0.099729657 0.063964128 0
3.0930002 0.094871998 0.063964128 0
3.0930002 0.090014338 0.063964128 0
2.8820002 0.061449248 0.090606391 0
2.8710003 0.056515839 0.091995299 0
2.8640003 0.051780839 0.092879176 0
2.8590002 0.047146853 0.093510509 0
2.8550003 0.042566981 0.094015568 0
2.8530002 0.038070094 0.094268113 0
2.8500001 0.033547942 0.094646931 0
2.8490002 0.029097948 0.094773173 0
2.8470001 0.024622697 0.095025688 0
2.8470001 0.02020878 0.095025688 0
2.8460002 0.015769612 0.095151991 0
2.8460002 0.011357494 0.095151991 0
2.8470001 0.006967023 0.095025688 0
2.8470001 0.0025531016 0.095025688 0
2.8490002 -0.0018247366 0.094773173 0
2.8500001 -0.0062260292 0.094646931 0
2.8530002 -0.010602068 0.094268113 0
2.8550003 -0.015001554 0.094015568 0
2.8590002 -0.019386614 0.093510509 0
2.8630002 -0.023786101 0.093005449 0
2.8690002 -0.028185589 0.092247844 0
2.8780003 -0.03259049 0.091111451 0
3.1700003 -0.12094824 0.054241598 0
3.1600003 -0.12565617 0.055504262 0
3.1550002 -0.13048136 0.056135595 0
3.1520002 -0.13535345 0.056514412 0
3.1490002 -0.14021471 0.0568932 0
2.8660002 -0.13496381 0.092626631 0
2.8590002 -0.13914685 0.093510509 0
2.8550003 -0.14342368 0.094015568 0
2.8520002 -0.14772756 0.094394356 0
2.8500001 -0.15206392 0.094646931 0
2.8490002 -0.15643816 0.094773173 0
2.8480003 -0.16080879 0.094899416 0
2.8480003 -0.16522452 0.094899416 0
2.8490002 -0.16969074 0.094773173 0
2.8510003 -0.1742129 0.094520628 0
2.8530002 -0.17874226 0.094268113 0
2.8570001 -0.18339066 0.093763053 0
2.8640003 -0.18822668 0.092879176 0
3.1780002 -0.42182344 0.053231478 0
3.1720002 -0.42601189 0.053989053 0
3.1670003 -0.43031761 0.054620385 0
3.1640003 -0.43488663 0.054999202 0
3.1620002 -0.43958735 0.055251718 0
3.1600003 -0.44428086 0.055504262 0
3.1600003 -0.44925937 0.055504262 0
3.1600003 -0.45423791 0.055504262 0
3.1620002 -0.45951581 0.055251718 0
3.1640003 -0.46480098 0.054999202 0
3.1690001 -0.47055331 0.05436787 0
2.8880002 -0.43195724 0.089848787 0
2.8770003 -0.43471891 0.091237694 0
2.8720002 -0.43839324 0.091869026 0
2.8680003 -0.44221008 0.092374086 0
2.8650002 -0.44617486 0.092752874 0
2.8630002 -0.45029294 0.093005449 0
2.8610003 -0.45440385 0.093257964 0
2.8600001 -0.45867524 0.093384266 0
2.8600001 -0.46311262 0.093384266 0
2.8610003 -0.46772134 0.093257964 0
2.8620002 -0.4723337 0.093131691 0
2.8650002 -0.47729957 0.092752874 0
2.8690002 -0.48245305 0.092247844 0
2.8760002 -0.48815668 0.091363966 0
3.0910003 0.15301597 0.05936259 0
3.0910003 0.14816192 0.05936259 0
3.0910003 0.14330786 0.05936259 0
3.0910003 0.13845383 0.05936259 0
3.0910003 0.13359977 0.05936259 0
3.0920002 0.12881066 0.05923456 0
3.0920002 0.12395482 0.05923456 0
3.0920002 0.11909896 0.05923456 0
3.0920002 0.11424311 0.05923456 0
3.0920002 0.10938725 0.05923456 0
3.0930002 0.10458732 0.059106469 0
3.0930002 0.099729657 0.059106469 0
3.0930002 0.094871998 0.059106469 0
3.0930002 0.090014338 0.059106469 0
2.8820002 0.061449248 0.086129308 0
2.8710003 0.056515839 0.087538093 0
2.8640003 0.051780839 0.088434577 0
2.8590002 0.047146853 0.089074939 0
2.8550003 0.042566981 0.089587212 0
2.8530002 0.038070094 0.089843363 0
2.8500001 0.033547942 0.090227604 0
2.8490002 0.029097948 0.090355635 0
2.8470001 0.024622697 0.090611786 0
2.8470001 0.02020878 0.090611786 0
2.8460002 0.015769612 0.090739876 0
2.8460002 0.011357494 0.090739876 0
2.8470001 0.006967023 0.090611786 0
2.8470001 0.0025531016 0.090611786 0
2.8490002 -0.0018247366 0.090355635 0
2.8500001 -0.0062260292 0.090227604 0
2.8530002 -0.010602068 0.089843363 0
2.8550003 -0.015001554 0.089587212 0
2.8590002 -0.019386614 0.089074939 0
2.8630002 -0.023786101 0.088562667 0
2.8690002 -0.028185589 0.087794244 0
2.8780003 -0.03259049 0.08664158 0
3.1600003 -0.12565617 0.050525725 0
3.1550002 -0.13048136 0.051166087 0
3.1520002 -0.13535345 0.051550299 0
3.1490002 -0.14021471 0.05193454 0
2.8660002 -0.13496381 0.088178456 0
2.8590002 -0.13914685 0.089074939 0
2.8550003 -0.14342368 0.089587212 0
2.8520002 -0.14772756 0.089971423 0
2.8500001 -0.15206392 0.090227604 0
2.8490002 -0.15643816 0.090355635 0
2.8480003 -0.16080879 0.090483695 0
2.8480003 -0.16522452 0.090483695 0
2.8490002 -0.16969074 0.090355635 0
2.8510003 -0.1742129 0.090099484 0
2.8530002 -0.17874226 0.089843363 0
2.8570001 -0.18339066 0.08933109 0
2.8640003 -0.18822668 0.088434577 0
3.1640003 -0.43488663 0.050013453 0
3.1620002 -0.43958735 0.050269634 0
3.1600003 -0.44428086 0.050525725 0
3.1600003 -0.44925937 0.050525725 0
3.1600003 -0.45423791 0.050525725 0
3.1620002 -0.45951581 0.050269634 0
3.1640003 -0.46480098 0.050013453 0
2.8880002 -0.43195724 0.085360885 0
2.8770003 -0.43471891 0.08676964 0
2.8720002 -0.43839324 0.087410033 0
2.8680003 -0.44221008 0.087922305 0
2.8650002 -0.44617486 0.088306516 0
2.8630002 -0.45029294 0.088562667 0
2.8610003 -0.45440385 0.088818789 0
2.8600001 -0.45867524 0.088946879 0
2.8600001 -0.46311262 0.088946879 0
2.8610003 -0.46772134 0.088818789 0
2.8620002 -0.4723337 0.088690728 0
2.8650002 -0.47729957 0.088306516 0
2.8690002 -0.48245305 0.087794244 0
2.8760002 -0.48815668 0.086897761 0
3.0910003 0.14816192 0.054508567 0
3.0910003 0.14330786 0.054508567 0
3.0910003 0.13845383 0.054508567 0
3.0910003 0.13359977 0.054508567 0
3.0920002 0.12881066 0.054378688 0
3.0920002 0.12395482 0.054378688 0
3.0920002 0.11909896 0.054378688 0
3.0920002 0.11424311 0.054378688 0
3.0920002 0.10938725 0.054378688 0
3.0930002 0.10458732 0.05424881 0
3.0930002 0.099729657 0.05424881 0
3.0930002 0.094871998 0.05424881 0
2.8820002 0.061449248 0.081652254 0
2.8710003 0.056515839 0.083080858 0
2.8640003 0.051780839 0.083989978 0
2.8590002 0.047146853 0.08463937 0
2.8550003 0.042566981 0.085158855 0
2.8530002 0.038070094 0.085418642 0
2.8500001 0.033547942 0.085808247 0
2.8490002 0.029097948 0.085938126 0
2.8470001 0.024622697 0.086197883 0
2.8470001 0.02020878 0.086197883 0
2.8460002 0.015769612 0.086327761 0
2.8460002 0.011357494 0.086327761 0
2.8470001 0.006967023 0.086197883 0
2.8470001 0.0025531016 0.086197883 0
2.8490002 -0.0018247366 0.085938126 0
2.8500001 -0.0062260292 0.085808247 0
2.8530002 -0.010602068 0.085418642 0
2.8550003 -0.015001554 0.085158855 0
2.8590002 -0.019386614 0.08463937 0
2.8630002 -0.023786101 0.084119886 0
2.8690002 -0.028185589 0.083340645 0
2.8780003 -0.03259049 0.082171738 0
2.8660002 -0.13496381 0.08373028 0
2.8590002 -0.13914685 0.08463937 0
2.8550003 -0.14342368 0.085158855 0
2.8520002 -0.14772756 0.08554849 0
2.8500001 -0.15206392 0.085808247 0
2.8490002 -0.15643816 0.085938126 0
2.8480003 -0.16080879 0.086067975 0
2.8480003 -0.16522452 0.086067975 0
2.8490002 -0.16969074 0.085938126 0
2.8510003 -0.1742129 0.085678369 0
2.8530002 -0.17874226 0.085418642 0
2.8570001 -0.18339066 0.084899127 0
2.8640003 -0.18822668 0.083989978 0
2.8880002 -0.43195724 0.080873013 0
2.8770003 -0.43471891 0.082301617 0
2.8720002 -0.43839324 0.082951009 0
2.8680003 -0.44221008 0.083470494 0
2.8650002 -0.44617486 0.083860129 0
2.8630002 -0.45029294 0.084119886 0
2.8610003 -0.45440385 0.084379613 0
2.8600001 -0.45867524 0.084509522 0
2.8600001 -0.46311262 0.084509522 0
2.8610003 -0.46772134 0.084379613 0
2.8620002 -0.4723337 0.084249765 0
2.8650002 -0.47729957 0.083860129 0
2.8690002 -0.48245305 0.083340645 0
2.8760002 -0.48815668 0.082431525 0
2.8820002 0.061449248 0.07717523 0
2.8710003 0.056515839 0.078623682 0
2.8640003 0.051780839 0.079545408 0
2.8590002 0.047146853 0.080203831 0
2.8550003 0.042566981 0.080730528 0
2.8530002 0.038070094 0.080993891 0
2.8500001 0.033547942 0.081388921 0
2.8490002 0.029097948 0.081520587 0
2.8470001 0.024622697 0.08178398 0
2.8470001 0.02020878 0.08178398 0
2.8460002 0.015769612 0.081915617 0
2.8460002 0.011357494 0.081915617 0
2.8470001 0.006967023 0.08178398 0
2.8470001 0.0025531016 0.08178398 0
2.8490002 -0.0018247366 0.081520587 0
2.8500001 -0.0062260292 0.081388921 0
2.8530002 -0.010602068 0.080993891 0
2.8550003 -0.015001554 0.080730528 0
2.8590002 -0.019386614 0.080203831 0
2.8630002 -0.023786101 0.079677105 0
2.8690002 -0.028185589 0.078887016 0
2.8780003 -0.03259049 0.077701926 0
2.8660002 -0.13496381 0.079282075 0
2.8590002 -0.13914685 0.080203831 0
2.8550003 -0.14342368 0.080730528 0
2.8520002 -0.14772756 0.081125528 0
2.8500001 -0.15206392 0.081388921 0
2.8490002 -0.15643816 0.081520587 0
2.8480003 -0.16080879 0.081652254 0
2.8480003 -0.16522452 0.081652254 0
2.8490002 -0.16969074 0.081520587 0
2.8510003 -0.1742129 0.081257224 0
2.8530002 -0.17874226 0.080993891 0
2.8570001 -0.18339066 0.080467165 0
2.8640003 -0.18822668 0.079545408 0
2.8880002 -0.43195724 0.07638514 0
2.8770003 -0.43471891 0.077833593 0
2.8720002 -0.43839324 0.078491986 0
2.8680003 -0.44221008 0.079018682 0
2.8650002 -0.44617486 0.079413742 0
2.8630002 -0.45029294 0.079677105 0
2.8610003 -0.45440385 0.079940438 0
2.8600001 -0.45867524 0.080072135 0
2.8600001 -0.46311262 0.080072135 0
2.8610003 -0.46772134 0.079940438 0
2.8620002 -0.4723337 0.079808772 0
2.8650002 -0.47729957 0.079413742 0
2.8690002 -0.48245305 0.078887016 0
2.8760002 -0.48815668 0.077965289 0
2.8830001 0.065971389 0.072564691 0
2.8820002 0.061449248 0.072698146 0
2.8710003 0.056515839 0.074166447 0
2.8640003 0.051780839 0.075100839 0
2.8590002 0.047146853 0.075768262 0
2.8550003 0.042566981 0.076302171 0
2.8530002 0.038070094 0.07656914 0
2.8500001 0.033547942 0.076969594 0
2.8490002 0.029097948 0.077103049 0
2.8470001 0.024622697 0.077370048 0
2.8470001 0.02020878 0.077370048 0
2.8460002 0.015769612 0.077503502 0
2.8460002 0.011357494 0.077503502 0
2.8470001 0.006967023 0.077370048 0
2.8470001 0.0025531016 0.077370048 0
2.8490002 -0.0018247366 0.077103049 0
2.8500001 -0.0062260292 0.076969594 0
2.8530002 -0.010602068 0.07656914 0
2.8550003 -0.015001554 0.076302171 0
2.8590002 -0.019386614 0.075768262 0
2.8630002 -0.023786101 0.075234324 0
2.8690002 -0.028185589 0.074433416 0
2.8780003 -0.03259049 0.073232085 0
2.8660002 -0.13496381 0.07483387 0
2.8590002 -0.13914685 0.075768262 0
2.8550003 -0.14342368 0.076302171 0
2.8520002 -0.14772756 0.076702595 0
2.8500001 -0.15206392 0.076969594 0
2.8490002 -0.15643816 0.077103049 0
2.8480003 -0.16080879 0.077236533 0
2.8480003 -0.16522452 0.077236533 0
2.8490002 -0.16969074 0.077103049 0
2.8510003 -0.1742129 0.076836079 0
2.8530002 -0.17874226 0.07656914 0
2.8570001 -0.18339066 0.076035202 0
2.8640003 -0.18822668 0.075100839 0
2.8880002 -0.43195724 0.071897268 0
2.8770003 -0.43471891 0.073365539 0
2.8720002 -0.43839324 0.074032992 0
2.8680003 -0.44221008 0.074566901 0
2.8650002 -0.44617486 0.074967355 0
2.8630002 -0.45029294 0.075234324 0
2.8610003 -0.45440385 0.075501263 0
2.8600001 -0.45867524 0.075634778 0
2.8600001 -0.46311262 0.075634778 0
2.8610003 -0.46772134 0.075501263 0
2.8620002 -0.4723337 0.075367808 0
2.8650002 -0.47729957 0.074967355 0
2.8690002 -0.48245305 0.074433416 0
2.8760002 -0.48815668 0.073499084 0
2.8500001 0.1617085 0.072550267 0
2.8500001 0.15728918 0.072550267 0
2.8500001 0.15286985 0.072550267 0
2.8500001 0.14845052 0.072550267 0
2.8500001 0.14403118 0.072550267 0
2.8500001 0.13961186 0.072550267 0
2.8500001 0.13519253 0.072550267 0
2.8500001 0.1307732 0.072550267 0
2.8500001 0.12635387 0.072550267 0
2.8500001 0.12193453 0.072550267 0
2.8500001 0.11751521 0.072550267 0
2.8500001 0.11309588 0.072550267 0
2.8500001 0.10867654 0.072550267 0
2.8500001 0.10425723 0.072550267 0
2.8500001 0.099837884 0.072550267 0
2.8500001 0.095418558 0.072550267 0
2.8500001 0.090999231 0.072550267 0
2.8500001 0.086579889 0.072550267 0
2.8500001 0.082160577 0.072550267 0
2.8500001 0.077741235 0.072550267 0
2.8500001 0.073321909 0.072550267 0
2.8500001 0.068902582 0.072550267 0
2.8500001 0.064483255 0.072550267 0
2.8500001 0.060063925 0.072550267 0
2.8500001 0.05564459 0.072550267 0
2.8500001 0.051225264 0.072550267 0
2.8500001 0.046805929 0.072550267 0
2.8500001 0.042386603 0.072550267 0
2.8500001 0.037967268 0.072550267 0
2.8500001 0.033547942 0.072550267 0
2.8490002 0.029097948 0.07268554 0
2.8470001 0.024622697 0.072956115 0
2.8470001 0.02020878 0.072956115 0
2.8460002 0.015769612 0.073091388 0
2.8460002 0.011357494 0.073091388 0
2.8470001 0.006967023 0.072956115 0
2.8470001 0.0025531016 0.072956115 0
2.8490002 -0.0018247366 0.07268554 0
2.8500001 -0.0062260292 0.072550267 0
2.8500001 -0.01064536 0.072550267 0
2.8500001 -0.01506469 0.072550267 0
2.8500001 -0.019484019 0.072550267 0
2.8500001 -0.023903349 0.072550267 0
2.8500001 -0.02832268 0.072550267 0
2.8500001 -0.032742009 0.072550267 0
2.8500001 -0.037161339 0.072550267 0
2.8660002 -0.13496381 0.070385665 0
2.8590002 -0.13914685 0.071332693 0
2.8550003 -0.14342368 0.071873814 0
2.8520002 -0.14772756 0.072279692 0
2.8500001 -0.15206392 0.072550267 0
2.8490002 -0.15643816 0.07268554 0
2.8480003 -0.16080879 0.072820812 0
2.8480003 -0.16522452 0.072820812 0
2.8490002 -0.16969074 0.07268554 0
2.8510003 -0.1742129 0.072414964 0
2.8530002 -0.17874226 0.072144389 0
2.8570001 -0.18339066 0.071603268 0
2.8640003 -0.18822668 0.07065624 0
2.8880002 -0.43195724 0.067409396 0
2.8770003 -0.43471891 0.068897516 0
2.8720002 -0.43839324 0.069573969 0
2.8680003 -0.44221008 0.070115119 0
2.8650002 -0.44617486 0.070520967 0
2.8630002 -0.45029294 0.070791543 0
2.8610003 -0.45440385 0.071062118 0
2.8600001 -0.45867524 0.07119742 0
2.8600001 -0.46311262 0.07119742 0
2.8610003 -0.46772134 0.071062118 0
2.8620002 -0.4723337 0.070926815 0
2.8650002 -0.47729957 0.070520967 0
2.8690002 -0.48245305 0.069979846 0
2.8760002 -0.48815668 0.069032818 0
2.8400002 0.16086072 0.069501817 0
2.8400002 0.15645944 0.069501817 0
2.8400002 0.15205814 0.069501817 0
2.8410003 0.14773622 0.069364697 0
2.8410003 0.14333314 0.069364697 0
2.8410003 0.13893004 0.069364697 0
2.8410003 0.13452694 0.069364697 0
2.8410003 0.13012384 0.069364697 0
2.8410003 0.12572074 0.069364697 0
2.8420002 0.12138619 0.069227636 0
2.8420002 0.11698128 0.069227636 0
2.8420002 0.11257638 0.069227636 0
2.8420002 0.10817149 0.069227636 0
2.8420002 0.10376659 0.069227636 0
2.8430002 0.099421218 0.069090575 0
2.8430002 0.095014513 0.069090575 0
2.8430002 0.090607807 0.069090575 0
2.8430002 0.086201102 0.069090575 0
2.8430002 0.081794396 0.069090575 0
2.8430002 0.077387691 0.069090575 0
2.8440001 0.073029697 0.068953454 0
2.8440001 0.068621188 0.068953454 0
2.8440001 0.06421268 0.068953454 0
2.8440001 0.059804168 0.068953454 0
2.8440001 0.055395667 0.068953454 0
2.8450003 0.051026847 0.068816364 0
2.8450003 0.046616536 0.068816364 0
2.8450003 0.042206224 0.068816364 0
2.8450003 0.037795912 0.068816364 0
2.8450003 0.033385601 0.068816364 0
2.8450003 0.028975289 0.068816364 0
2.8460002 0.024593841 0.068679273 0
2.8460002 0.020181727 0.068679273 0
2.8460002 0.015769612 0.068679273 0
2.8460002 0.011357494 0.068679273 0
2.8460002 0.0069453791 0.068679273 0
2.8460002 0.0025332645 0.068679273 0
2.8470001 -0.0018608123 0.068542212 0
2.8470001 -0.0062747337 0.068542212 0
2.8470001 -0.010688651 0.068542212 0
2.8470001 -0.015102571 0.068542212 0
2.8470001 -0.019516489 0.068542212 0
2.8480003 -0.023921387 0.068405092 0
2.8480003 -0.02833711 0.068405092 0
2.8480003 -0.032752831 0.068405092 0
2.8480003 -0.037168555 0.068405092 0
2.8660002 -0.13496381 0.065937519 0
2.8590002 -0.13914685 0.066897124 0
2.8550003 -0.14342368 0.067445457 0
2.8520002 -0.14772756 0.067856759 0
2.8500001 -0.15206392 0.06813094 0
2.8490002 -0.15643816 0.068268001 0
2.8480003 -0.16080879 0.068405092 0
2.8480003 -0.16522452 0.068405092 0
2.8490002 -0.16969074 0.068268001 0
2.8510003 -0.1742129 0.06799382 0
2.8530002 -0.17874226 0.067719638 0
2.8570001 -0.18339066 0.067171335 0
2.8640003 -0.18822668 0.066211641 0
2.8880002 -0.43195724 0.062921524 0
2.8770003 -0.43471891 0.064429492 0
2.8720002 -0.43839324 0.065114945 0
2.8680003 -0.44221008 0.065663308 0
2.8650002 -0.44617486 0.06607458 0
2.8630002 -0.45029294 0.066348761 0
2.8610003 -0.45440385 0.066622943 0
2.8600001 -0.45867524 0.066760033 0
2.8600001 -0.46311262 0.066760033 0
2.8610003 -0.46772134 0.066622943 0
2.8620002 -0.4723337 0.066485852 0
2.8650002 -0.47729957 0.06607458 0
2.8690002 -0.48245305 0.065526217 0
2.8760002 -0.48815668 0.064566582 0
2.8400002 0.16086072 0.065100521 0
2.8400002 0.15645944 0.065100521 0
2.8400002 0.15205814 0.065100521 0
2.8410003 0.14773622 0.064961612 0
2.8410003 0.14333314 0.064961612 0
2.8410003 0.13893004 0.064961612 0
2.8410003 0.13452694 0.064961612 0
2.8410003 0.13012384 0.064961612 0
2.8410003 0.12572074 0.064961612 0
2.8420002 0.12138619 0.064822733 0
2.8420002 0.11698128 0.064822733 0
2.8420002 0.11257638 0.064822733 0
2.8420002 0.10817149 0.064822733 0
2.8420002 0.10376659 0.064822733 0
2.8430002 0.099421218 0.064683855 0
2.8430002 0.095014513 0.064683855 0
2.8430002 0.090607807 0.064683855 0
2.8430002 0.086201102 0.064683855 0
2.8430002 0.081794396 0.064683855 0
2.8430002 0.077387691 0.064683855 0
2.8440001 0.073029697 0.064544946 0
2.8440001 0.068621188 0.064544946 0
2.8440001 0.06421268 0.064544946 0
2.8440001 0.059804168 0.064544946 0
2.8440001 0.055395667 0.064544946 0
2.8450003 0.051026847 0.064406037 0
2.8450003 0.046616536 0.064406037 0
2.8450003 0.042206224 0.064406037 0
2.8450003 0.037795912 0.064406037 0
2.8450003 0.033385601 0.064406037 0
2.8450003 0.028975289 0.064406037 0
2.8460002 0.024593841 0.064267159 0
2.8460002 0.020181727 0.064267159 0
2.8460002 0.015769612 0.064267159 0
2.8460002 0.011357494 0.064267159 0
2.8460002 0.0069453791 0.064267159 0
2.8460002 0.0025332645 0.064267159 0
2.8470001 -0.0018608123 0.06412828 0
2.8470001 -0.0062747337 0.06412828 0
2.8470001 -0.010688651 0.06412828 0
2.8470001 -0.015102571 0.06412828 0
2.8470001 -0.019516489 0.06412828 0
2.8480003 -0.023921387 0.063989371 0
2.8480003 -0.02833711 0.063989371 0
2.8480003 -0.032752831 0.063989371 0
2.8480003 -0.037168555 0.063989371 0
2.8660002 -0.13496381 0.061489314 0
2.8590002 -0.13914685 0.062461555 0
2.8550003 -0.14342368 0.0630171 0
2.8520002 -0.14772756 0.063433796 0
2.8500001 -0.15206392 0.063711584 0
2.8490002 -0.15643816 0.063850462 0
2.8480003 -0.16080879 0.063989371 0
2.8480003 -0.16522452 0.063989371 0
2.8490002 -0.16969074 0.063850462 0
2.8510003 -0.1742129 0.063572675 0
2.8530002 -0.17874226 0.063294917 0
2.8570001 -0.18339066 0.062739372 0
2.8640003 -0.18822668 0.061767071 0
2.8880002 -0.43195724 0.058433622 0
2.8770003 -0.43471891 0.059961468 0
2.8720002 -0.43839324 0.060655951 0
2.8680003 -0.44221008 0.061211497 0
2.8650002 -0.44617486 0.061628193 0
2.8630002 -0.45029294 0.06190598 0
2.8610003 -0.45440385 0.062183768 0
2.8600001 -0.45867524 0.062322676 0
2.8600001 -0.46311262 0.062322676 0
2.8610003 -0.46772134 0.062183768 0
2.8620002 -0.4723337 0.062044889 0
2.8650002 -0.47729957 0.061628193 0
2.8690002 -0.48245305 0.061072618 0
2.8760002 -0.48815668 0.060100377 0
2.8400002 0.16086072 0.060699224 0
2.8400002 0.15645944 0.060699224 0
2.8400002 0.15205814 0.060699224 0
2.8410003 0.14773622 0.060558528 0
2.8410003 0.14333314 0.060558528 0
2.8410003 0.13893004 0.060558528 0
2.8410003 0.13452694 0.060558528 0
2.8410003 0.13012384 0.060558528 0
2.8410003 0.12572074 0.060558528 0
2.8420002 0.12138619 0.060417831 0
2.8420002 0.11698128 0.060417831 0
2.8420002 0.11257638 0.060417831 0
2.8420002 0.10817149 0.060417831 0
2.8420002 0.10376659 0.060417831 0
2.8430002 0.099421218 0.060277164 0
2.8430002 0.095014513 0.060277164 0
2.8430002 0.090607807 0.060277164 0
2.8430002 0.086201102 0.060277164 0
2.8430002 0.081794396 0.060277164 0
2.8430002 0.077387691 0.060277164 0
2.8440001 0.073029697 0.060136467 0
2.8440001 0.068621188 0.060136467 0
2.8440001 0.06421268 0.060136467 0
2.8440001 0.059804168 0.060136467 0
2.8440001 0.055395667 0.060136467 0
2.8450003 0.051026847 0.059995741 0
2.8450003 0.046616536 0.059995741 0
2.8450003 0.042206224 0.059995741 0
2.8450003 0.037795912 0.059995741 0
2.8450003 0.033385601 0.059995741 0
2.8450003 0.028975289 0.059995741 0
2.8460002 0.024593841 0.059855044 0
2.8460002 0.020181727 0.059855044 0
2.8460002 0.015769612 0.059855044 0
2.8460002 0.011357494 0.059855044 0
2.8460002 0.0069453791 0.059855044 0
2.8460002 0.0025332645 0.059855044 0
2.8470001 -0.0018608123 0.059714377 0
2.8470001 -0.0062747337 0.059714377 0
2.8470001 -0.010688651 0.059714377 0
2.8470001 -0.015102571 0.059714377 0
2.8470001 -0.019516489 0.059714377 0
2.8480003 -0.023921387 0.05957365 0
2.8480003 -0.02833711 0.05957365 0
2.8480003 -0.032752831 0.05957365 0
2.8480003 -0.037168555 0.05957365 0
2.8660002 -0.13496381 0.057041109 0
2.8590002 -0.13914685 0.058025986 0
2.8550003 -0.14342368 0.058588773 0
2.8520002 -0.14772756 0.059010863 0
2.8500001 -0.15206392 0.059292257 0
2.8490002 -0.15643816 0.059432954 0
2.8480003 -0.16080879 0.05957365 0
2.8480003 -0.16522452 0.05957365 0
2.8490002 -0.16969074 0.059432954 0
2.8510003 -0.1742129 0.05915156 0
2.8530002 -0.17874226 0.058870196 0
2.8570001 -0.18339066 0.058307409 0
2.8640003 -0.18822668 0.057322502 0
2.8880002 -0.43195724 0.05394578 0
2.8770003 -0.43471891 0.055493414 0
2.8720002 -0.43839324 0.056196928 0
2.8680003 -0.44221008 0.056759715 0
2.8650002 -0.44617486 0.057181776 0
2.8630002 -0.45029294 0.057463229 0
2.8610003 -0.45440385 0.057744563 0
2.8600001 -0.45867524 0.057885289 0
2.8600001 -0.46311262 0.057885289 0
2.8610003 -0.46772134 0.057744563 0
2.8620002 -0.4723337 0.057603896 0
2.8650002 -0.47729957 0.057181776 0
2.8690002 -0.48245305 0.056619018 0
2.8760002 -0.48815668 0.055634141 0
2.8400002 0.16086072 0.056297928 0
2.8400002 0.15645944 0.056297928 0
2.8400002 0.15205814 0.056297928 0
2.8410003 0.14773622 0.056155413 0
2.8410003 0.14333314 0.056155413 0
2.8410003 0.13893004 0.056155413 0
2.8410003 0.13452694 0.056155413 0
2.8410003 0.13012384 0.056155413 0
2.8410003 0.12572074 0.056155413 0
2.8420002 0.12138619 0.056012928 0
2.8420002 0.11698128 0.056012928 0
2.8420002 0.11257638 0.056012928 0
2.8420002 0.10817149 0.056012928 0
2.8420002 0.10376659 0.056012928 0
2.8430002 0.099421218 0.055870444 0
2.8430002 0.095014513 0.055870444 0
2.8430002 0.090607807 0.055870444 0
2.8430002 0.086201102 0.055870444 0
2.8430002 0.081794396 0.055870444 0
2.8430002 0.077387691 0.055870444 0
2.8440001 0.073029697 0.055727959 0
2.8440001 0.068621188 0.055727959 0
2.8440001 0.06421268 0.055727959 0
2.8440001 0.059804168 0.055727959 0
2.8440001 0.055395667 0.055727959 0
2.8450003 0.051026847 0.055585414 0
2.8450003 0.046616536 0.055585414 0
2.8450003 0.042206224 0.055585414 0
2.8450003 0.037795912 0.055585414 0
2.8450003 0.033385601 0.055585414 0
2.8450003 0.028975289 0.055585414 0
2.8460002 0.024593841 0.055442929 0
2.8460002 0.020181727 0.055442929 0
2.8460002 0.015769612 0.055442929 0
2.8460002 0.011357494 0.055442929 0
2.8460002 0.0069453791 0.055442929 0
2.8460002 0.0025332645 0.055442929 0
2.8470001 -0.0018608123 0.055300444 0
2.8470001 -0.0062747337 0.055300444 0
2.8470001 -0.010688651 0.055300444 0
2.8470001 -0.015102571 0.055300444 0
2.8470001 -0.019516489 0.055300444 0
2.8480003 -0.023921387 0.05515793 0
2.8480003 -0.02833711 0.05515793 0
2.8480003 -0.032752831 0.05515793 0
2.8480003 -0.037168555 0.05515793 0
2.8660002 -0.13496381 0.052592903 0
2.8590002 -0.13914685 0.053590447 0
2.8550003 -0.14342368 0.054160416 0
2.8520002 -0.14772756 0.05458793 0
2.8500001 -0.15206392 0.05487293 0
2.8490002 -0.15643816 0.055015445 0
2.8480003 -0.16080879 0.05515793 0
2.8480003 -0.16522452 0.05515793 0
2.8490002 -0.16969074 0.055015445 0
2.8510003 -0.1742129 0.054730415 0
2.8530002 -0.17874226 0.054445446 0
2.8570001 -0.18339066 0.053875446 0
2.8640003 -0.18822668 0.052877903 0
2.8770003 -0.43471891 0.051025391 0
2.8720002 -0.43839324 0.051737905 0
2.8680003 -0.44221008 0.052307904 0
2.8650002 -0.44617486 0.052735418 0
2.8630002 -0.45029294 0.053020418 0
2.8610003 -0.45440385 0.053305387 0
2.8600001 -0.45867524 0.053447932 0
2.8600001 -0.46311262 0.053447932 0
2.8610003 -0.46772134 0.053305387 0
2.8620002 -0.4723337 0.053162903 0
2.8650002 -0.47729957 0.052735418 0
2.8690002 -0.48245305 0.052165419 0
2.8760002 -0.48815668 0.051167905 0
2.8400002 0.16086072 0.051896632 0
2.8400002 0.15645944 0.051896632 0
2.8400002 0.15205814 0.051896632 0
2.8410003 0.14773622 0.051752329 0
2.8410003 0.14333314 0.051752329 0
2.8410003 0.13893004 0.051752329 0
2.8410003 0.13452694 0.051752329 0
2.8410003 0.13012384 0.051752329 0
2.8420002 0.12579109 0.051608026 0
2.8420002 0.12138619 0.051608026 0
2.8420002 0.11698128 0.051608026 0
2.8420002 0.11257638 0.051608026 0
2.8420002 0.10817149 0.051608026 0
2.8420002 0.10376659 0.051608026 0
2.8430002 0.099421218 0.051463753 0
2.8430002 0.095014513 0.051463753 0
2.8430002 0.090607807 0.051463753 0
2.8430002 0.086201102 0.051463753 0
2.8430002 0.081794396 0.051463753 0
2.8430002 0.077387691 0.051463753 0
2.8440001 0.073029697 0.05131945 0
2.8440001 0.068621188 0.05131945 0
2.8440001 0.06421268 0.05131945 0
2.8440001 0.059804168 0.05131945 0
2.8440001 0.055395667 0.05131945 0
2.8450003 0.051026847 0.051175117 0
2.8450003 0.046616536 0.051175117 0
2.8450003 0.042206224 0.051175117 0
2.8450003 0.037795912 0.051175117 0
2.8450003 0.033385601 0.051175117 0
2.8450003 0.028975289 0.051175117 0
2.8460002 0.024593841 0.051030815 0
2.8460002 0.020181727 0.051030815 0
2.8460002 0.015769612 0.051030815 0
2.8460002 0.011357494 0.051030815 0
